 1.779 -1.625 3.603
 1.806 -1.639 3.629
 1.782 -1.607 3.552
 1.798 -1.61 3.555
 1.871 -1.664 3.669
 1.81 -1.6 3.521
 1.871 -1.643 3.61
 1.872 -1.633 3.582
 1.894 -1.642 3.597
 1.807 -1.557 3.405
 1.839 -1.574 3.437
 1.856 -1.579 3.441
 1.85 -1.564 3.403
 1.842 -1.548 3.362
 1.856 -1.55 3.361
 1.825 -1.515 3.279
 1.864 -1.538 3.323
 1.868 -1.531 3.304
 1.865 -1.52 3.273
 1.868 -1.513 3.252
 1.871 -1.507 3.233
 1.829 -1.465 3.137
 1.834 -1.46 3.121
 1.825 -1.444 3.081
 1.811 -1.425 3.035
 1.904 -1.489 3.167
 1.829 -1.423 3.019
 1.804 -1.395 2.955
 1.819 -1.399 2.957
 1.824 -1.395 2.943
 1.819 -1.383 2.912
 -2.087 -1.593 3.464
 -2.133 -1.638 3.568
 -2.089 -1.613 3.521
 -2.102 -1.633 3.57
 -2.093 -1.636 3.582
 -2.067 -1.625 3.564
 -2.096 -1.657 3.642
 -2.075 -1.651 3.633
 -2.099 -1.68 3.705
 -2.036 -1.639 3.62
 -2.016 -1.633 3.613
 -1.994 -1.626 3.602
 -2.001 -1.642 3.643
 -1.972 -1.628 3.619
 -2.024 -1.681 3.743
 -1.964 -1.642 3.661
 -1.984 -1.669 3.728
 -1.94 -1.643 3.673
 -1.913 -1.63 3.651
 -1.915 -1.643 3.684
 -1.889 -1.631 3.663
 -1.902 -1.653 3.719
 -1.864 -1.631 3.674
 -1.851 -1.631 3.678
 -1.879 -1.666 3.764
 -1.862 -1.663 3.762
 -1.815 -1.632 3.697
 -1.798 -1.627 3.691
 -1.845 -1.681 3.82
 -1.836 -1.685 3.834
 -1.776 -1.642 3.739
 -1.823 -1.697 3.871
 -1.769 -1.659 3.789
 -1.68 -1.586 3.627
 -1.714 -1.63 3.733
 -1.714 -1.642 3.765
 -1.685 -1.625 3.732
 -1.671 -1.624 3.733
 -1.703 -1.667 3.837
 -1.646 -1.623 3.741
 -1.639 -1.629 3.759
 -1.617 -1.62 3.741
 -1.638 -1.653 3.823
 -1.615 -1.642 3.803
 -1.591 -1.63 3.78
 -1.608 -1.661 3.856
 -1.582 -1.647 3.826
 -1.561 -1.638 3.812
 -1.538 -1.627 3.789
 -1.548 -1.651 3.85
 -1.534 -1.649 3.85
 -1.505 -1.631 3.812
 -1.489 -1.627 3.807
 -1.505 -1.658 3.884
 -1.488 -1.654 3.877
 -1.428 -1.601 3.756
 -1.437 -1.624 3.814
 -1.427 -1.626 3.825
 -1.428 -1.642 3.866
 -1.388 -1.611 3.795
 -1.384 -1.62 3.82
 -1.357 -1.603 3.785
 -1.353 -1.613 3.811
 -1.362 -1.638 3.875
 -1.335 -1.62 3.836
 -1.345 -1.647 3.904
 -1.321 -1.633 3.874
 -1.313 -1.639 3.892
 -1.317 -1.659 3.942
 -1.254 -1.595 3.793
 -1.266 -1.626 3.871
 -1.288 -1.67 3.98
 -1.249 -1.636 3.901
 -1.228 -1.624 3.877
 -1.236 -1.652 3.946
 -1.207 -1.63 3.896
 -1.185 -1.616 3.867
 -1.167 -1.609 3.853
 -1.152 -1.605 3.845
 -1.169 -1.645 3.945
 -1.161 -1.652 3.965
 -1.111 -1.598 3.837
 -1.112 -1.617 3.887
 -1.112 -1.635 3.934
 -1.114 -1.656 3.986
 -1.094 -1.646 3.965
 -1.067 -1.623 3.913
 -1.053 -1.62 3.907
 -1.028 -1.6 3.862
 -1.038 -1.636 3.951
 -1.034 -1.648 3.985
 -1 -1.613 3.902
 -1.009 -1.649 3.992
 -0.972 -1.608 3.894
 -0.969 -1.624 3.936
 -0.96 -1.629 3.949
 -0.949 -1.631 3.957
 -0.937 -1.631 3.96
 -0.92 -1.623 3.943
 -0.913 -1.632 3.967
 -0.893 -1.619 3.937
 -0.876 -1.611 3.92
 -0.886 -1.65 4.019
 -0.856 -1.618 3.943
 -0.853 -1.637 3.99
 -0.831 -1.618 3.945
 -0.834 -1.648 4.022
 -0.814 -1.632 3.983
 -0.795 -1.619 3.953
 -0.77 -1.592 3.891
 -0.788 -1.655 4.047
 -0.742 -1.583 3.871
 -0.741 -1.607 3.932
 -0.735 -1.62 3.966
 -0.733 -1.643 4.026
 -0.72 -1.642 4.023
 -0.706 -1.639 4.017
 -0.678 -1.601 3.926
 -0.673 -1.619 3.971
 -0.672 -1.647 4.044
 -0.648 -1.618 3.974
 -0.643 -1.636 4.02
 -0.617 -1.602 3.936
 -0.613 -1.621 3.985
 -0.603 -1.629 4.005
 -0.583 -1.606 3.951
 -0.576 -1.622 3.992
 -0.572 -1.644 4.047
 -0.557 -1.636 4.03
 -0.544 -1.634 4.025
 -0.523 -1.609 3.964
 -0.507 -1.596 3.935
 -0.497 -1.603 3.952
 -0.49 -1.62 3.996
 -0.471 -1.595 3.934
 -0.458 -1.593 3.931
 -0.452 -1.616 3.988
 -0.443 -1.626 4.014
 -0.431 -1.625 4.013
 -0.416 -1.614 3.988
 -0.408 -1.634 4.038
 -0.396 -1.634 4.037
 -0.386 -1.643 4.061
 -0.368 -1.62 4.006
 -0.356 -1.619 4.005
 -0.345 -1.626 4.022
 -0.331 -1.615 3.995
 -0.313 -1.586 3.923
 -0.31 -1.633 4.042
 -0.291 -1.597 3.953
 -0.287 -1.644 4.068
 -0.268 -1.606 3.977
 -0.258 -1.618 4.005
 -0.248 -1.632 4.042
 -0.237 -1.638 4.057
 -0.222 -1.622 4.017
 -0.208 -1.607 3.981
 -0.199 -1.635 4.052
 -0.186 -1.623 4.02
 -0.173 -1.623 4.021
 -0.162 -1.625 4.028
 -0.15 -1.631 4.042
 -0.137 -1.622 4.02
 -0.128 -1.667 4.132
 -0.111 -1.605 3.977
 -0.099 -1.606 3.98
 -0.088 -1.627 4.032
 -0.076 -1.617 4.009
 -0.064 -1.625 4.028
 -0.052 -1.638 4.061
 -0.039 -1.619 4.013
 -0.027 -1.628 4.035
 -0.015 -1.642 4.071
 -0.003 -1.626 4.029
 0.009 -1.642 4.069
 0.02 -1.605 3.977
 0.033 -1.635 4.052
 0.044 -1.592 3.944
 0.057 -1.613 3.996
 0.069 -1.624 4.024
 0.081 -1.621 4.015
 0.092 -1.595 3.952
 0.107 -1.636 4.053
 0.119 -1.632 4.042
 0.129 -1.61 3.986
 0.144 -1.636 4.05
 0.154 -1.617 4.002
 0.17 -1.653 4.091
 0.18 -1.634 4.043
 0.19 -1.616 3.998
 0.204 -1.625 4.02
 0.212 -1.597 3.949
 0.227 -1.615 3.994
 0.237 -1.607 3.973
 0.251 -1.617 3.997
 0.261 -1.604 3.964
 0.276 -1.623 4.011
 0.291 -1.634 4.037
 0.302 -1.628 4.022
 0.309 -1.601 3.953
 0.326 -1.629 4.023
 0.335 -1.611 3.977
 0.357 -1.659 4.093
 0.358 -1.609 3.969
 0.377 -1.637 4.038
 0.382 -1.607 3.963
 0.395 -1.612 3.973
 0.41 -1.624 4.002
 0.421 -1.617 3.983
 0.441 -1.648 4.059
 0.448 -1.627 4.005
 0.466 -1.647 4.054
 0.471 -1.624 3.994
 0.489 -1.642 4.039
 0.494 -1.62 3.982
 0.501 -1.604 3.941
 0.519 -1.622 3.986
 0.517 -1.578 3.875
 0.537 -1.602 3.933
 0.555 -1.62 3.974
 0.563 -1.608 3.944
 0.587 -1.642 4.027
 0.597 -1.636 4.01
 0.607 -1.628 3.989
 0.62 -1.631 3.995
 0.625 -1.614 3.949
 0.639 -1.619 3.96
 0.657 -1.633 3.994
 0.659 -1.607 3.928
 0.685 -1.641 4.008
 0.693 -1.632 3.984
 0.711 -1.645 4.015
 0.719 -1.635 3.988
 0.727 -1.626 3.963
 0.726 -1.597 3.892
 0.748 -1.618 3.94
 0.762 -1.623 3.95
 0.778 -1.631 3.968
 0.791 -1.632 3.968
 0.801 -1.627 3.953
 0.822 -1.644 3.993
 0.826 -1.629 3.954
 0.843 -1.637 3.971
 0.866 -1.659 4.021
 0.869 -1.641 3.974
 0.874 -1.627 3.94
 0.89 -1.635 3.957
 0.888 -1.609 3.891
 0.909 -1.626 3.928
 0.93 -1.64 3.96
 0.913 -1.59 3.836
 0.962 -1.653 3.987
 0.955 -1.621 3.906
 0.973 -1.63 3.925
 1.002 -1.659 3.991
 0.988 -1.616 3.886
 1 -1.615 3.879
 1.016 -1.622 3.894
 1.012 -1.597 3.83
 1.034 -1.612 3.865
 1.071 -1.65 3.954
 1.069 -1.629 3.9
 1.079 -1.625 3.887
 1.128 -1.68 4.016
 1.089 -1.604 3.829
 1.122 -1.636 3.902
 1.142 -1.646 3.924
 1.146 -1.635 3.894
 1.17 -1.652 3.931
 1.166 -1.629 3.872
 1.187 -1.64 3.897
 1.184 -1.62 3.846
 1.229 -1.665 3.948
 1.218 -1.633 3.869
 1.226 -1.628 3.853
 1.241 -1.631 3.858
 1.262 -1.643 3.883
 1.236 -1.594 3.761
 1.27 -1.621 3.823
 1.288 -1.629 3.838
 1.331 -1.667 3.925
 1.334 -1.656 3.894
 1.335 -1.642 3.856
 1.363 -1.661 3.898
 1.373 -1.658 3.888
 1.381 -1.653 3.871
 1.382 -1.64 3.835
 1.389 -1.634 3.819
 1.375 -1.603 3.741
 1.417 -1.638 3.82
 1.425 -1.633 3.804
 1.427 -1.622 3.774
 1.435 -1.617 3.757
 1.465 -1.637 3.8
 1.495 -1.657 3.842
 1.523 -1.674 3.876
 1.479 -1.613 3.731
 1.479 -1.599 3.695
 1.526 -1.637 3.778
 1.531 -1.629 3.756
 1.559 -1.647 3.791
 1.559 -1.633 3.755
 1.565 -1.627 3.736
 1.594 -1.645 3.773
 1.564 -1.601 3.668
 1.607 -1.633 3.737
 1.612 -1.626 3.715
 1.636 -1.638 3.737
 1.639 -1.629 3.712
 1.653 -1.63 3.71
 1.674 -1.64 3.726
 1.674 -1.627 3.693
 1.675 -1.617 3.664
 1.7 -1.629 3.687
 1.718 -1.634 3.694
 1.74 -1.644 3.711
 1.735 -1.628 3.669
 1.75 -1.631 3.67
 1.769 -1.637 3.68
 1.804 -1.658 3.721
 1.799 -1.642 3.681
 1.809 -1.64 3.67
 1.849 -1.665 3.721
 1.817 -1.626 3.627
 1.836 -1.632 3.634
 1.806 -1.594 3.545
 1.798 -1.577 3.501
 1.858 -1.62 3.591
 1.854 -1.605 3.553
 1.854 -1.595 3.525
 1.845 -1.578 3.48
 1.913 -1.625 3.579
 1.851 -1.563 3.436
 1.841 -1.545 3.391
 1.838 -1.533 3.358
 1.875 -1.554 3.399
 1.858 -1.53 3.343
 1.822 -1.492 3.252
 1.889 -1.537 3.347
 1.862 -1.506 3.273
 1.811 -1.456 3.157
 1.831 -1.463 3.168
 1.888 -1.5 3.242
 1.863 -1.472 3.175
 1.758 -1.381 2.972
 1.85 -1.445 3.104
 1.819 -1.412 3.029
 1.823 -1.407 3.013
 1.832 -1.406 3.006
 1.849 -1.412 3.011
 1.815 -1.378 2.933
 1.782 -1.345 2.858
 -2.116 -1.603 3.517
 -2.123 -1.617 3.555
 -2.127 -1.63 3.589
 -2.114 -1.629 3.594
 -2.103 -1.631 3.604
 -2.094 -1.633 3.615
 -2.085 -1.636 3.628
 -2.074 -1.637 3.636
 -2.067 -1.642 3.653
 -2.054 -1.642 3.658
 -2.041 -1.641 3.663
 -2.023 -1.637 3.658
 -2.015 -1.641 3.674
 -2.002 -1.64 3.678
 -1.992 -1.643 3.689
 -1.973 -1.637 3.683
 -1.963 -1.639 3.693
 -1.946 -1.635 3.69
 -1.934 -1.636 3.697
 -1.92 -1.635 3.7
 -1.909 -1.636 3.708
 -1.897 -1.637 3.714
 -1.888 -1.64 3.727
 -1.877 -1.641 3.736
 -1.867 -1.643 3.745
 -1.856 -1.644 3.754
 -1.842 -1.643 3.757
 -1.828 -1.642 3.759
 -1.816 -1.642 3.765
 -1.801 -1.64 3.765
 -1.792 -1.644 3.778
 -1.775 -1.639 3.773
 -1.759 -1.636 3.77
 -1.744 -1.634 3.77
 -1.728 -1.631 3.769
 -1.714 -1.63 3.77
 -1.709 -1.636 3.79
 -1.696 -1.636 3.794
 -1.681 -1.634 3.795
 -1.67 -1.635 3.802
 -1.657 -1.634 3.804
 -1.643 -1.633 3.805
 -1.629 -1.632 3.807
 -1.619 -1.634 3.817
 -1.608 -1.635 3.825
 -1.594 -1.634 3.826
 -1.579 -1.632 3.826
 -1.568 -1.633 3.833
 -1.556 -1.633 3.837
 -1.541 -1.631 3.838
 -1.529 -1.631 3.841
 -1.517 -1.632 3.848
 -1.507 -1.635 3.858
 -1.493 -1.633 3.858
 -1.48 -1.632 3.86
 -1.469 -1.634 3.868
 -1.455 -1.633 3.869
 -1.441 -1.631 3.869
 -1.428 -1.63 3.87
 -1.414 -1.629 3.871
 -1.4 -1.626 3.869
 -1.389 -1.628 3.877
 -1.376 -1.627 3.879
 -1.365 -1.629 3.888
 -1.354 -1.63 3.895
 -1.344 -1.633 3.905
 -1.329 -1.631 3.902
 -1.314 -1.627 3.898
 -1.301 -1.627 3.9
 -1.29 -1.628 3.906
 -1.277 -1.628 3.909
 -1.264 -1.628 3.912
 -1.256 -1.632 3.927
 -1.243 -1.632 3.928
 -1.23 -1.631 3.93
 -1.215 -1.628 3.927
 -1.204 -1.629 3.933
 -1.19 -1.627 3.931
 -1.178 -1.629 3.937
 -1.162 -1.623 3.926
 -1.151 -1.625 3.934
 -1.139 -1.626 3.94
 -1.127 -1.627 3.944
 -1.112 -1.623 3.939
 -1.103 -1.627 3.952
 -1.09 -1.626 3.952
 -1.075 -1.623 3.948
 -1.062 -1.622 3.948
 -1.051 -1.624 3.956
 -1.039 -1.624 3.958
 -1.027 -1.626 3.964
 -1.016 -1.627 3.97
 -1.002 -1.625 3.968
 -0.989 -1.623 3.966
 -0.978 -1.625 3.974
 -0.964 -1.623 3.969
 -0.951 -1.623 3.973
 -0.938 -1.622 3.973
 -0.927 -1.623 3.978
 -0.914 -1.623 3.979
 -0.902 -1.623 3.981
 -0.888 -1.62 3.977
 -0.876 -1.621 3.982
 -0.864 -1.622 3.985
 -0.852 -1.622 3.988
 -0.841 -1.624 3.996
 -0.83 -1.627 4.005
 -0.818 -1.628 4.01
 -0.805 -1.627 4.008
 -0.792 -1.625 4.005
 -0.778 -1.621 3.998
 -0.765 -1.622 4.001
 -0.752 -1.62 3.999
 -0.74 -1.62 4.002
 -0.73 -1.624 4.014
 -0.718 -1.626 4.02
 -0.706 -1.626 4.02
 -0.694 -1.627 4.025
 -0.681 -1.626 4.023
 -0.667 -1.623 4.019
 -0.654 -1.62 4.013
 -0.641 -1.619 4.012
 -0.629 -1.619 4.014
 -0.617 -1.621 4.02
 -0.605 -1.621 4.022
 -0.594 -1.626 4.035
 -0.582 -1.626 4.037
 -0.571 -1.63 4.047
 -0.559 -1.629 4.047
 -0.546 -1.63 4.05
 -0.533 -1.626 4.041
 -0.52 -1.624 4.038
 -0.506 -1.619 4.027
 -0.493 -1.619 4.027
 -0.481 -1.617 4.025
 -0.469 -1.62 4.033
 -0.457 -1.62 4.034
 -0.444 -1.618 4.031
 -0.431 -1.616 4.027
 -0.42 -1.619 4.033
 -0.407 -1.618 4.032
 -0.395 -1.618 4.032
 -0.383 -1.62 4.039
 -0.371 -1.619 4.038
 -0.358 -1.619 4.037
 -0.346 -1.617 4.035
 -0.334 -1.619 4.04
 -0.322 -1.619 4.04
 -0.31 -1.623 4.05
 -0.297 -1.621 4.048
 -0.286 -1.625 4.057
 -0.274 -1.627 4.063
 -0.262 -1.629 4.069
 -0.249 -1.629 4.068
 -0.237 -1.628 4.067
 -0.225 -1.628 4.066
 -0.212 -1.626 4.063
 -0.199 -1.624 4.058
 -0.187 -1.624 4.059
 -0.175 -1.627 4.066
 -0.163 -1.625 4.062
 -0.15 -1.625 4.062
 -0.138 -1.627 4.068
 -0.126 -1.626 4.064
 -0.113 -1.624 4.06
 -0.101 -1.625 4.062
 -0.089 -1.624 4.059
 -0.076 -1.626 4.065
 -0.064 -1.627 4.067
 -0.052 -1.628 4.071
 -0.04 -1.629 4.074
 -0.027 -1.629 4.072
 -0.015 -1.627 4.068
 -0.003 -1.626 4.065
 0.009 -1.627 4.066
 0.021 -1.625 4.061
 0.033 -1.625 4.063
 0.046 -1.625 4.061
 0.058 -1.627 4.067
 0.07 -1.628 4.069
 0.083 -1.63 4.072
 0.095 -1.629 4.069
 0.107 -1.628 4.068
 0.119 -1.626 4.063
 0.131 -1.622 4.05
 0.144 -1.621 4.048
 0.156 -1.622 4.051
 0.168 -1.622 4.05
 0.18 -1.621 4.046
 0.192 -1.62 4.045
 0.205 -1.619 4.041
 0.217 -1.618 4.036
 0.228 -1.615 4.029
 0.241 -1.616 4.03
 0.253 -1.614 4.026
 0.265 -1.615 4.026
 0.278 -1.617 4.032
 0.29 -1.619 4.034
 0.303 -1.62 4.037
 0.315 -1.622 4.04
 0.328 -1.623 4.041
 0.339 -1.62 4.034
 0.352 -1.622 4.036
 0.363 -1.616 4.021
 0.375 -1.617 4.023
 0.388 -1.618 4.023
 0.4 -1.62 4.028
 0.413 -1.62 4.027
 0.426 -1.626 4.04
 0.439 -1.627 4.042
 0.451 -1.627 4.041
 0.464 -1.627 4.039
 0.476 -1.627 4.038
 0.487 -1.624 4.03
 0.499 -1.622 4.022
 0.511 -1.62 4.016
 0.522 -1.619 4.011
 0.533 -1.615 3.999
 0.545 -1.613 3.994
 0.558 -1.615 3.998
 0.57 -1.616 3.999
 0.582 -1.616 3.996
 0.596 -1.62 4.004
 0.608 -1.621 4.005
 0.622 -1.623 4.008
 0.634 -1.624 4.011
 0.647 -1.626 4.012
 0.66 -1.626 4.012
 0.674 -1.631 4.02
 0.687 -1.633 4.024
 0.7 -1.634 4.024
 0.713 -1.636 4.028
 0.724 -1.633 4.017
 0.734 -1.629 4.006
 0.744 -1.623 3.99
 0.754 -1.619 3.978
 0.765 -1.617 3.97
 0.779 -1.621 3.977
 0.792 -1.622 3.978
 0.804 -1.622 3.975
 0.817 -1.623 3.976
 0.829 -1.621 3.969
 0.841 -1.622 3.969
 0.853 -1.622 3.967
 0.867 -1.625 3.972
 0.88 -1.626 3.972
 0.894 -1.63 3.977
 0.907 -1.631 3.977
 0.919 -1.629 3.972
 0.93 -1.629 3.967
 0.943 -1.629 3.966
 0.955 -1.629 3.962
 0.967 -1.628 3.957
 0.982 -1.633 3.966
 0.994 -1.633 3.965
 1.007 -1.633 3.962
 1.018 -1.632 3.955
 1.029 -1.63 3.947
 1.041 -1.63 3.944
 1.054 -1.63 3.943
 1.067 -1.631 3.941
 1.081 -1.635 3.947
 1.093 -1.634 3.942
 1.105 -1.633 3.936
 1.116 -1.632 3.932
 1.129 -1.633 3.93
 1.14 -1.63 3.921
 1.154 -1.633 3.924
 1.167 -1.634 3.924
 1.18 -1.636 3.924
 1.193 -1.637 3.923
 1.208 -1.64 3.927
 1.221 -1.641 3.926
 1.233 -1.64 3.921
 1.245 -1.64 3.915
 1.255 -1.637 3.906
 1.267 -1.636 3.9
 1.279 -1.636 3.895
 1.294 -1.64 3.901
 1.307 -1.64 3.898
 1.321 -1.643 3.9
 1.335 -1.645 3.902
 1.349 -1.646 3.901
 1.359 -1.644 3.892
 1.372 -1.644 3.888
 1.381 -1.641 3.877
 1.392 -1.64 3.869
 1.402 -1.637 3.859
 1.412 -1.634 3.848
 1.424 -1.634 3.843
 1.437 -1.635 3.841
 1.449 -1.634 3.834
 1.463 -1.636 3.835
 1.477 -1.638 3.835
 1.49 -1.639 3.833
 1.502 -1.639 3.829
 1.513 -1.637 3.821
 1.527 -1.638 3.819
 1.541 -1.641 3.819
 1.552 -1.639 3.812
 1.563 -1.638 3.804
 1.578 -1.641 3.807
 1.585 -1.636 3.789
 1.593 -1.631 3.774
 1.605 -1.631 3.77
 1.619 -1.633 3.768
 1.63 -1.631 3.76
 1.646 -1.635 3.765
 1.659 -1.636 3.76
 1.67 -1.635 3.753
 1.681 -1.634 3.746
 1.694 -1.634 3.742
 1.705 -1.633 3.735
 1.718 -1.634 3.731
 1.729 -1.633 3.724
 1.743 -1.634 3.721
 1.752 -1.632 3.71
 1.768 -1.635 3.712
 1.781 -1.635 3.708
 1.796 -1.638 3.709
 1.811 -1.64 3.708
 1.821 -1.638 3.698
 1.825 -1.631 3.677
 1.832 -1.626 3.66
 1.834 -1.618 3.635
 1.839 -1.611 3.615
 1.846 -1.607 3.601
 1.849 -1.599 3.577
 1.854 -1.593 3.558
 1.859 -1.588 3.539
 1.862 -1.58 3.516
 1.863 -1.571 3.49
 1.863 -1.561 3.463
 1.865 -1.553 3.439
 1.862 -1.541 3.407
 1.855 -1.526 3.368
 1.854 -1.515 3.339
 1.858 -1.51 3.321
 1.853 -1.497 3.287
 1.852 -1.487 3.259
 1.85 -1.476 3.23
 1.847 -1.466 3.201
 1.839 -1.45 3.162
 1.836 -1.44 3.134
 1.835 -1.431 3.107
 1.833 -1.42 3.08
 1.828 -1.409 3.049
 1.829 -1.401 3.027
 1.827 -1.392 3.002
 1.822 -1.38 2.97
 1.801 -1.357 2.914
 1.831 -1.372 2.941
 -2.148 -1.615 3.576
 -2.118 -1.601 3.551
 -2.142 -1.629 3.619
 -2.127 -1.627 3.622
 -2.119 -1.63 3.635
 -2.108 -1.632 3.646
 -2.098 -1.634 3.655
 -2.088 -1.636 3.666
 -2.08 -1.64 3.681
 -2.064 -1.637 3.68
 -2.049 -1.635 3.682
 -2.031 -1.631 3.679
 -2.021 -1.633 3.689
 -2.01 -1.634 3.698
 -2.003 -1.639 3.715
 -1.987 -1.636 3.713
 -1.979 -1.64 3.728
 -1.964 -1.638 3.729
 -1.946 -1.633 3.724
 -1.931 -1.632 3.726
 -1.918 -1.631 3.731
 -1.902 -1.629 3.73
 -1.89 -1.629 3.736
 -1.884 -1.635 3.755
 -1.873 -1.636 3.763
 -1.864 -1.639 3.775
 -1.853 -1.64 3.783
 -1.84 -1.641 3.789
 -1.828 -1.641 3.795
 -1.816 -1.642 3.802
 -1.805 -1.643 3.811
 -1.789 -1.64 3.808
 -1.773 -1.637 3.807
 -1.759 -1.636 3.808
 -1.74 -1.63 3.799
 -1.725 -1.627 3.798
 -1.717 -1.632 3.814
 -1.703 -1.631 3.816
 -1.689 -1.629 3.817
 -1.679 -1.632 3.828
 -1.667 -1.632 3.834
 -1.653 -1.63 3.834
 -1.641 -1.631 3.84
 -1.629 -1.631 3.845
 -1.617 -1.632 3.851
 -1.603 -1.631 3.854
 -1.589 -1.629 3.853
 -1.577 -1.63 3.86
 -1.565 -1.631 3.866
 -1.551 -1.629 3.866
 -1.537 -1.628 3.868
 -1.526 -1.629 3.874
 -1.515 -1.631 3.883
 -1.502 -1.63 3.885
 -1.491 -1.632 3.894
 -1.48 -1.634 3.903
 -1.467 -1.634 3.907
 -1.453 -1.632 3.905
 -1.439 -1.63 3.907
 -1.425 -1.628 3.905
 -1.41 -1.625 3.901
 -1.399 -1.627 3.911
 -1.388 -1.629 3.918
 -1.377 -1.631 3.927
 -1.365 -1.631 3.931
 -1.355 -1.635 3.943
 -1.339 -1.63 3.936
 -1.322 -1.625 3.928
 -1.309 -1.624 3.928
 -1.297 -1.625 3.934
 -1.284 -1.625 3.936
 -1.274 -1.627 3.946
 -1.265 -1.632 3.96
 -1.251 -1.63 3.96
 -1.238 -1.63 3.963
 -1.224 -1.627 3.96
 -1.211 -1.627 3.961
 -1.196 -1.624 3.958
 -1.186 -1.626 3.966
 -1.169 -1.621 3.956
 -1.156 -1.62 3.957
 -1.144 -1.621 3.962
 -1.132 -1.622 3.968
 -1.118 -1.619 3.963
 -1.109 -1.624 3.978
 -1.097 -1.625 3.984
 -1.082 -1.622 3.978
 -1.069 -1.621 3.979
 -1.059 -1.624 3.99
 -1.045 -1.621 3.986
 -1.033 -1.623 3.992
 -1.023 -1.626 4.004
 -1.008 -1.623 3.997
 -0.993 -1.618 3.989
 -0.983 -1.622 3.999
 -0.97 -1.621 3.999
 -0.957 -1.62 4
 -0.946 -1.622 4.009
 -0.934 -1.624 4.015
 -0.921 -1.623 4.014
 -0.909 -1.623 4.018
 -0.895 -1.62 4.012
 -0.882 -1.619 4.011
 -0.871 -1.621 4.019
 -0.858 -1.621 4.022
 -0.847 -1.623 4.029
 -0.836 -1.626 4.039
 -0.824 -1.628 4.046
 -0.811 -1.626 4.041
 -0.797 -1.623 4.036
 -0.782 -1.618 4.025
 -0.77 -1.618 4.027
 -0.756 -1.616 4.024
 -0.744 -1.616 4.027
 -0.733 -1.619 4.036
 -0.721 -1.621 4.042
 -0.708 -1.619 4.039
 -0.697 -1.621 4.046
 -0.684 -1.621 4.046
 -0.671 -1.62 4.047
 -0.658 -1.618 4.043
 -0.646 -1.618 4.044
 -0.633 -1.617 4.043
 -0.621 -1.619 4.049
 -0.609 -1.62 4.054
 -0.597 -1.622 4.06
 -0.585 -1.623 4.064
 -0.574 -1.626 4.074
 -0.562 -1.627 4.076
 -0.549 -1.626 4.077
 -0.537 -1.626 4.076
 -0.523 -1.623 4.07
 -0.509 -1.618 4.06
 -0.497 -1.617 4.058
 -0.483 -1.614 4.051
 -0.471 -1.615 4.055
 -0.459 -1.616 4.058
 -0.447 -1.615 4.056
 -0.434 -1.614 4.055
 -0.423 -1.618 4.067
 -0.41 -1.617 4.066
 -0.398 -1.619 4.07
 -0.386 -1.621 4.076
 -0.373 -1.617 4.068
 -0.36 -1.616 4.065
 -0.348 -1.615 4.064
 -0.335 -1.615 4.064
 -0.323 -1.615 4.065
 -0.312 -1.619 4.076
 -0.299 -1.619 4.077
 -0.287 -1.622 4.084
 -0.275 -1.623 4.089
 -0.263 -1.625 4.093
 -0.251 -1.626 4.096
 -0.238 -1.623 4.09
 -0.226 -1.623 4.091
 -0.213 -1.623 4.089
 -0.201 -1.623 4.09
 -0.188 -1.623 4.091
 -0.176 -1.626 4.098
 -0.164 -1.623 4.092
 -0.151 -1.623 4.092
 -0.139 -1.625 4.097
 -0.126 -1.624 4.095
 -0.114 -1.622 4.089
 -0.102 -1.623 4.093
 -0.089 -1.623 4.093
 -0.077 -1.624 4.095
 -0.065 -1.624 4.095
 -0.052 -1.625 4.099
 -0.04 -1.627 4.103
 -0.027 -1.625 4.098
 -0.015 -1.623 4.093
 -0.003 -1.621 4.088
 0.009 -1.622 4.09
 0.021 -1.619 4.083
 0.034 -1.621 4.087
 0.046 -1.621 4.088
 0.058 -1.627 4.101
 0.071 -1.627 4.101
 0.083 -1.629 4.105
 0.096 -1.627 4.102
 0.108 -1.627 4.1
 0.12 -1.622 4.087
 0.132 -1.619 4.078
 0.145 -1.619 4.078
 0.157 -1.622 4.085
 0.169 -1.621 4.083
 0.182 -1.621 4.082
 0.194 -1.62 4.079
 0.206 -1.619 4.075
 0.218 -1.616 4.068
 0.23 -1.614 4.061
 0.242 -1.614 4.06
 0.255 -1.613 4.057
 0.267 -1.611 4.053
 0.279 -1.614 4.058
 0.292 -1.615 4.061
 0.305 -1.618 4.067
 0.317 -1.62 4.071
 0.33 -1.623 4.078
 0.342 -1.621 4.07
 0.355 -1.622 4.073
 0.366 -1.619 4.064
 0.379 -1.62 4.066
 0.391 -1.62 4.064
 0.404 -1.622 4.067
 0.416 -1.622 4.066
 0.429 -1.623 4.069
 0.442 -1.624 4.069
 0.454 -1.624 4.067
 0.467 -1.625 4.07
 0.479 -1.625 4.069
 0.491 -1.623 4.062
 0.502 -1.62 4.052
 0.513 -1.617 4.043
 0.525 -1.614 4.034
 0.536 -1.611 4.024
 0.548 -1.611 4.024
 0.561 -1.613 4.028
 0.574 -1.615 4.031
 0.587 -1.615 4.03
 0.6 -1.618 4.036
 0.612 -1.619 4.035
 0.625 -1.62 4.035
 0.638 -1.621 4.037
 0.65 -1.621 4.034
 0.663 -1.621 4.033
 0.677 -1.625 4.042
 0.691 -1.631 4.054
 0.705 -1.633 4.057
 0.718 -1.635 4.061
 0.73 -1.633 4.053
 0.74 -1.629 4.042
 0.749 -1.623 4.023
 0.76 -1.618 4.01
 0.772 -1.618 4.007
 0.785 -1.619 4.009
 0.799 -1.622 4.013
 0.811 -1.622 4.011
 0.824 -1.623 4.011
 0.835 -1.621 4.004
 0.848 -1.622 4.003
 0.859 -1.62 3.997
 0.873 -1.623 4
 0.885 -1.624 4
 0.899 -1.626 4.003
 0.912 -1.627 4.004
 0.924 -1.626 3.999
 0.937 -1.627 3.998
 0.949 -1.627 3.996
 0.962 -1.627 3.994
 0.974 -1.628 3.991
 0.989 -1.632 3.999
 1.001 -1.631 3.994
 1.013 -1.631 3.992
 1.024 -1.629 3.982
 1.034 -1.626 3.972
 1.047 -1.626 3.97
 1.06 -1.627 3.97
 1.073 -1.628 3.968
 1.088 -1.632 3.975
 1.1 -1.632 3.972
 1.111 -1.63 3.963
 1.123 -1.628 3.957
 1.135 -1.628 3.953
 1.145 -1.626 3.944
 1.159 -1.628 3.945
 1.173 -1.63 3.947
 1.188 -1.633 3.952
 1.202 -1.636 3.956
 1.218 -1.64 3.962
 1.231 -1.642 3.962
 1.243 -1.641 3.957
 1.253 -1.638 3.946
 1.263 -1.635 3.934
 1.275 -1.634 3.929
 1.286 -1.633 3.923
 1.302 -1.638 3.93
 1.317 -1.64 3.933
 1.333 -1.645 3.94
 1.346 -1.645 3.937
 1.359 -1.647 3.936
 1.368 -1.643 3.923
 1.38 -1.642 3.917
 1.389 -1.638 3.903
 1.401 -1.638 3.899
 1.411 -1.635 3.888
 1.423 -1.634 3.881
 1.434 -1.633 3.874
 1.447 -1.634 3.873
 1.458 -1.632 3.865
 1.474 -1.636 3.869
 1.487 -1.637 3.867
 1.5 -1.637 3.864
 1.511 -1.636 3.856
 1.521 -1.634 3.846
 1.532 -1.632 3.837
 1.545 -1.633 3.836
 1.558 -1.633 3.831
 1.571 -1.634 3.828
 1.586 -1.637 3.831
 1.595 -1.633 3.817
 1.603 -1.629 3.803
 1.616 -1.629 3.799
 1.629 -1.63 3.795
 1.639 -1.628 3.787
 1.656 -1.633 3.792
 1.67 -1.634 3.791
 1.681 -1.633 3.784
 1.693 -1.633 3.777
 1.707 -1.634 3.775
 1.717 -1.632 3.766
 1.729 -1.632 3.76
 1.742 -1.632 3.756
 1.755 -1.633 3.752
 1.765 -1.631 3.742
 1.782 -1.636 3.747
 1.795 -1.636 3.742
 1.809 -1.637 3.74
 1.821 -1.637 3.735
 1.833 -1.636 3.727
 1.838 -1.63 3.708
 1.843 -1.624 3.687
 1.844 -1.614 3.66
 1.847 -1.606 3.636
 1.85 -1.598 3.612
 1.847 -1.586 3.578
 1.853 -1.58 3.56
 1.856 -1.573 3.539
 1.858 -1.564 3.513
 1.859 -1.556 3.488
 1.862 -1.548 3.465
 1.862 -1.539 3.439
 1.861 -1.528 3.41
 1.857 -1.515 3.375
 1.857 -1.507 3.35
 1.861 -1.501 3.331
 1.854 -1.486 3.293
 1.844 -1.469 3.25
 1.84 -1.457 3.217
 1.841 -1.449 3.194
 1.835 -1.436 3.159
 1.835 -1.428 3.135
 1.832 -1.417 3.107
 1.832 -1.409 3.082
 1.827 -1.397 3.05
 1.828 -1.39 3.029
 1.827 -1.381 3.005
 1.826 -1.373 2.981
 1.827 -1.366 2.961
 1.797 -1.336 2.889
 -2.189 -1.633 3.648
 -2.189 -1.643 3.677
 -2.157 -1.628 3.651
 -2.138 -1.623 3.647
 -2.13 -1.627 3.66
 -2.121 -1.63 3.673
 -2.11 -1.631 3.683
 -2.102 -1.634 3.696
 -2.097 -1.64 3.716
 -2.08 -1.637 3.715
 -2.065 -1.635 3.716
 -2.049 -1.633 3.717
 -2.038 -1.634 3.726
 -2.026 -1.635 3.732
 -2.017 -1.638 3.745
 -1.999 -1.634 3.742
 -1.991 -1.638 3.757
 -1.978 -1.637 3.761
 -1.959 -1.632 3.755
 -1.945 -1.631 3.757
 -1.933 -1.631 3.764
 -1.917 -1.629 3.764
 -1.901 -1.626 3.762
 -1.894 -1.63 3.779
 -1.885 -1.634 3.792
 -1.876 -1.637 3.804
 -1.861 -1.635 3.806
 -1.849 -1.635 3.811
 -1.836 -1.636 3.818
 -1.82 -1.632 3.815
 -1.808 -1.633 3.822
 -1.798 -1.635 3.832
 -1.784 -1.635 3.836
 -1.771 -1.634 3.839
 -1.755 -1.631 3.837
 -1.74 -1.629 3.837
 -1.727 -1.629 3.842
 -1.716 -1.63 3.849
 -1.702 -1.629 3.851
 -1.692 -1.632 3.863
 -1.68 -1.632 3.867
 -1.666 -1.631 3.87
 -1.652 -1.63 3.872
 -1.638 -1.628 3.873
 -1.624 -1.627 3.874
 -1.611 -1.626 3.877
 -1.597 -1.625 3.88
 -1.586 -1.626 3.886
 -1.574 -1.627 3.892
 -1.561 -1.627 3.895
 -1.548 -1.627 3.9
 -1.534 -1.625 3.9
 -1.523 -1.627 3.908
 -1.512 -1.628 3.916
 -1.502 -1.631 3.927
 -1.49 -1.632 3.934
 -1.478 -1.633 3.94
 -1.466 -1.634 3.946
 -1.452 -1.633 3.947
 -1.437 -1.63 3.943
 -1.423 -1.628 3.944
 -1.412 -1.63 3.953
 -1.4 -1.63 3.957
 -1.386 -1.629 3.958
 -1.374 -1.629 3.962
 -1.363 -1.631 3.97
 -1.346 -1.626 3.962
 -1.329 -1.622 3.954
 -1.318 -1.623 3.959
 -1.305 -1.623 3.963
 -1.293 -1.623 3.968
 -1.283 -1.626 3.979
 -1.272 -1.629 3.989
 -1.258 -1.627 3.988
 -1.246 -1.628 3.993
 -1.232 -1.626 3.992
 -1.22 -1.626 3.994
 -1.206 -1.624 3.993
 -1.193 -1.624 3.996
 -1.178 -1.621 3.992
 -1.165 -1.62 3.992
 -1.152 -1.62 3.994
 -1.139 -1.619 3.996
 -1.126 -1.618 3.995
 -1.115 -1.62 4.004
 -1.102 -1.62 4.007
 -1.088 -1.617 4.003
 -1.076 -1.618 4.009
 -1.065 -1.621 4.018
 -1.052 -1.619 4.016
 -1.039 -1.619 4.017
 -1.029 -1.624 4.032
 -1.014 -1.619 4.024
 -1 -1.617 4.021
 -0.988 -1.618 4.027
 -0.976 -1.619 4.03
 -0.963 -1.618 4.031
 -0.952 -1.621 4.041
 -0.94 -1.622 4.045
 -0.928 -1.622 4.048
 -0.916 -1.623 4.052
 -0.901 -1.619 4.045
 -0.888 -1.618 4.046
 -0.877 -1.621 4.054
 -0.864 -1.62 4.054
 -0.853 -1.622 4.062
 -0.841 -1.624 4.068
 -0.83 -1.628 4.08
 -0.817 -1.625 4.076
 -0.803 -1.624 4.074
 -0.788 -1.619 4.064
 -0.777 -1.621 4.07
 -0.762 -1.616 4.06
 -0.749 -1.615 4.06
 -0.737 -1.617 4.066
 -0.726 -1.62 4.076
 -0.713 -1.618 4.072
 -0.702 -1.621 4.08
 -0.689 -1.621 4.084
 -0.676 -1.62 4.082
 -0.663 -1.617 4.076
 -0.65 -1.617 4.077
 -0.637 -1.616 4.076
 -0.626 -1.618 4.083
 -0.614 -1.621 4.091
 -0.602 -1.621 4.093
 -0.589 -1.621 4.096
 -0.577 -1.623 4.101
 -0.565 -1.623 4.104
 -0.553 -1.624 4.108
 -0.541 -1.626 4.112
 -0.528 -1.624 4.109
 -0.514 -1.622 4.104
 -0.502 -1.621 4.104
 -0.488 -1.617 4.094
 -0.475 -1.617 4.095
 -0.463 -1.616 4.095
 -0.45 -1.614 4.091
 -0.436 -1.611 4.083
 -0.425 -1.614 4.094
 -0.412 -1.613 4.09
 -0.4 -1.614 4.094
 -0.389 -1.618 4.106
 -0.375 -1.615 4.099
 -0.363 -1.615 4.1
 -0.351 -1.616 4.101
 -0.338 -1.615 4.1
 -0.325 -1.614 4.098
 -0.314 -1.618 4.109
 -0.301 -1.618 4.111
 -0.289 -1.622 4.12
 -0.277 -1.624 4.126
 -0.265 -1.624 4.128
 -0.253 -1.626 4.133
 -0.24 -1.623 4.125
 -0.227 -1.621 4.12
 -0.214 -1.621 4.12
 -0.202 -1.62 4.119
 -0.189 -1.618 4.115
 -0.177 -1.621 4.123
 -0.165 -1.621 4.122
 -0.152 -1.619 4.119
 -0.14 -1.623 4.128
 -0.127 -1.623 4.13
 -0.115 -1.623 4.127
 -0.102 -1.624 4.131
 -0.09 -1.624 4.132
 -0.077 -1.624 4.131
 -0.065 -1.624 4.131
 -0.052 -1.624 4.132
 -0.04 -1.624 4.132
 -0.027 -1.622 4.127
 -0.015 -1.62 4.121
 -0.003 -1.618 4.115
 0.009 -1.618 4.117
 0.021 -1.618 4.115
 0.034 -1.621 4.122
 0.046 -1.621 4.123
 0.059 -1.626 4.135
 0.072 -1.627 4.138
 0.084 -1.627 4.138
 0.096 -1.625 4.132
 0.109 -1.626 4.133
 0.121 -1.62 4.117
 0.133 -1.616 4.108
 0.145 -1.616 4.106
 0.158 -1.619 4.113
 0.17 -1.617 4.108
 0.183 -1.617 4.108
 0.195 -1.618 4.108
 0.208 -1.618 4.109
 0.22 -1.616 4.104
 0.232 -1.614 4.097
 0.244 -1.615 4.098
 0.256 -1.612 4.09
 0.269 -1.61 4.085
 0.281 -1.611 4.086
 0.294 -1.614 4.093
 0.307 -1.616 4.097
 0.32 -1.619 4.103
 0.332 -1.619 4.104
 0.344 -1.618 4.1
 0.357 -1.618 4.098
 0.369 -1.615 4.091
 0.381 -1.618 4.095
 0.394 -1.619 4.096
 0.407 -1.62 4.099
 0.419 -1.621 4.1
 0.432 -1.621 4.099
 0.444 -1.618 4.09
 0.456 -1.619 4.091
 0.469 -1.62 4.093
 0.482 -1.621 4.093
 0.494 -1.621 4.091
 0.506 -1.619 4.087
 0.518 -1.619 4.084
 0.53 -1.617 4.078
 0.541 -1.614 4.067
 0.554 -1.614 4.067
 0.567 -1.615 4.069
 0.578 -1.614 4.063
 0.59 -1.613 4.059
 0.603 -1.615 4.062
 0.616 -1.615 4.06
 0.629 -1.616 4.062
 0.642 -1.618 4.065
 0.654 -1.619 4.065
 0.667 -1.62 4.066
 0.681 -1.622 4.07
 0.696 -1.628 4.084
 0.709 -1.631 4.088
 0.723 -1.634 4.093
 0.735 -1.633 4.089
 0.746 -1.63 4.08
 0.755 -1.623 4.059
 0.766 -1.618 4.045
 0.777 -1.617 4.039
 0.79 -1.617 4.039
 0.803 -1.619 4.041
 0.815 -1.618 4.037
 0.829 -1.62 4.039
 0.84 -1.618 4.03
 0.851 -1.617 4.026
 0.863 -1.615 4.019
 0.877 -1.619 4.026
 0.891 -1.621 4.028
 0.905 -1.624 4.032
 0.918 -1.625 4.033
 0.931 -1.627 4.036
 0.944 -1.627 4.033
 0.956 -1.627 4.03
 0.969 -1.627 4.029
 0.981 -1.627 4.026
 0.995 -1.63 4.029
 1.008 -1.63 4.027
 1.02 -1.629 4.022
 1.032 -1.629 4.017
 1.043 -1.627 4.01
 1.055 -1.627 4.007
 1.067 -1.626 4.002
 1.08 -1.627 4.001
 1.093 -1.627 3.998
 1.106 -1.628 3.997
 1.117 -1.626 3.988
 1.128 -1.624 3.98
 1.14 -1.623 3.976
 1.151 -1.622 3.969
 1.165 -1.624 3.971
 1.179 -1.626 3.973
 1.195 -1.631 3.981
 1.21 -1.634 3.986
 1.226 -1.639 3.995
 1.24 -1.641 3.995
 1.252 -1.64 3.991
 1.263 -1.638 3.982
 1.275 -1.637 3.975
 1.286 -1.636 3.969
 1.298 -1.635 3.964
 1.313 -1.639 3.968
 1.327 -1.641 3.969
 1.341 -1.643 3.969
 1.354 -1.642 3.965
 1.366 -1.642 3.96
 1.375 -1.637 3.945
 1.387 -1.637 3.939
 1.396 -1.633 3.927
 1.41 -1.635 3.928
 1.421 -1.633 3.919
 1.434 -1.634 3.915
 1.445 -1.633 3.909
 1.459 -1.634 3.909
 1.47 -1.632 3.899
 1.485 -1.635 3.902
 1.498 -1.636 3.899
 1.511 -1.636 3.896
 1.524 -1.637 3.892
 1.533 -1.633 3.879
 1.544 -1.632 3.872
 1.558 -1.634 3.872
 1.571 -1.634 3.868
 1.583 -1.634 3.862
 1.598 -1.636 3.863
 1.608 -1.634 3.853
 1.616 -1.63 3.839
 1.629 -1.63 3.835
 1.641 -1.629 3.828
 1.653 -1.629 3.823
 1.669 -1.633 3.826
 1.684 -1.636 3.828
 1.695 -1.634 3.82
 1.707 -1.634 3.814
 1.722 -1.636 3.813
 1.731 -1.633 3.801
 1.741 -1.63 3.79
 1.753 -1.63 3.785
 1.766 -1.631 3.781
 1.775 -1.628 3.768
 1.793 -1.632 3.773
 1.804 -1.632 3.766
 1.818 -1.633 3.763
 1.828 -1.631 3.753
 1.839 -1.63 3.745
 1.842 -1.621 3.72
 1.849 -1.617 3.704
 1.85 -1.607 3.677
 1.853 -1.599 3.653
 1.853 -1.589 3.623
 1.853 -1.578 3.593
 1.857 -1.571 3.572
 1.859 -1.563 3.548
 1.863 -1.556 3.527
 1.864 -1.548 3.502
 1.868 -1.541 3.481
 1.866 -1.53 3.451
 1.864 -1.519 3.42
 1.86 -1.506 3.385
 1.86 -1.497 3.359
 1.862 -1.49 3.337
 1.857 -1.477 3.303
 1.845 -1.458 3.255
 1.834 -1.442 3.211
 1.837 -1.435 3.191
 1.835 -1.426 3.164
 1.834 -1.416 3.138
 1.831 -1.406 3.109
 1.832 -1.399 3.088
 1.826 -1.386 3.053
 1.822 -1.375 3.024
 1.824 -1.368 3.003
 1.825 -1.361 2.982
 1.857 -1.377 3.012
 1.83 -1.35 2.946
 -2.25 -1.665 3.756
 0 0 0
 -2.18 -1.632 3.694
 -2.162 -1.628 3.692
 -2.149 -1.628 3.697
 -2.139 -1.631 3.709
 -2.13 -1.634 3.722
 -2.122 -1.637 3.736
 -2.116 -1.642 3.754
 -2.1 -1.64 3.755
 -2.088 -1.641 3.764
 -2.074 -1.64 3.767
 -2.056 -1.636 3.764
 -2.043 -1.636 3.77
 -2.033 -1.638 3.779
 -2.014 -1.633 3.775
 -2.003 -1.635 3.784
 -1.993 -1.637 3.795
 -1.976 -1.634 3.793
 -1.962 -1.632 3.795
 -1.949 -1.632 3.802
 -1.934 -1.63 3.801
 -1.915 -1.625 3.796
 -1.905 -1.627 3.805
 -1.897 -1.632 3.821
 -1.885 -1.632 3.829
 -1.872 -1.632 3.834
 -1.859 -1.632 3.838
 -1.847 -1.633 3.846
 -1.83 -1.629 3.841
 -1.819 -1.63 3.85
 -1.809 -1.633 3.861
 -1.797 -1.634 3.868
 -1.784 -1.633 3.871
 -1.769 -1.631 3.873
 -1.755 -1.63 3.874
 -1.741 -1.629 3.877
 -1.731 -1.631 3.887
 -1.718 -1.631 3.892
 -1.707 -1.633 3.9
 -1.693 -1.632 3.902
 -1.677 -1.629 3.901
 -1.662 -1.627 3.899
 -1.647 -1.624 3.898
 -1.632 -1.622 3.898
 -1.62 -1.623 3.903
 -1.608 -1.624 3.91
 -1.595 -1.623 3.914
 -1.583 -1.624 3.92
 -1.572 -1.625 3.927
 -1.558 -1.625 3.93
 -1.543 -1.622 3.929
 -1.532 -1.624 3.937
 -1.521 -1.626 3.946
 -1.511 -1.629 3.958
 -1.499 -1.63 3.964
 -1.485 -1.628 3.964
 -1.474 -1.63 3.972
 -1.461 -1.63 3.976
 -1.446 -1.627 3.973
 -1.433 -1.627 3.975
 -1.424 -1.63 3.989
 -1.411 -1.63 3.992
 -1.395 -1.627 3.988
 -1.382 -1.627 3.992
 -1.37 -1.628 3.997
 -1.355 -1.625 3.994
 -1.338 -1.619 3.984
 -1.325 -1.619 3.986
 -1.312 -1.618 3.988
 -1.3 -1.619 3.994
 -1.287 -1.62 3.998
 -1.277 -1.623 4.009
 -1.264 -1.622 4.011
 -1.253 -1.625 4.021
 -1.241 -1.625 4.025
 -1.228 -1.625 4.028
 -1.215 -1.625 4.03
 -1.203 -1.624 4.033
 -1.188 -1.622 4.031
 -1.173 -1.618 4.024
 -1.161 -1.62 4.031
 -1.149 -1.62 4.034
 -1.135 -1.619 4.034
 -1.122 -1.619 4.036
 -1.11 -1.62 4.042
 -1.095 -1.616 4.035
 -1.083 -1.616 4.039
 -1.072 -1.619 4.047
 -1.058 -1.617 4.047
 -1.046 -1.618 4.05
 -1.035 -1.621 4.061
 -1.019 -1.615 4.048
 -1.006 -1.614 4.05
 -0.994 -1.616 4.056
 -0.98 -1.613 4.053
 -0.968 -1.614 4.057
 -0.959 -1.619 4.072
 -0.945 -1.618 4.071
 -0.932 -1.617 4.073
 -0.921 -1.62 4.081
 -0.908 -1.62 4.083
 -0.895 -1.618 4.08
 -0.883 -1.62 4.088
 -0.87 -1.62 4.089
 -0.859 -1.621 4.095
 -0.845 -1.62 4.093
 -0.835 -1.623 4.105
 -0.821 -1.622 4.104
 -0.808 -1.62 4.101
 -0.794 -1.617 4.095
 -0.781 -1.618 4.098
 -0.767 -1.615 4.092
 -0.754 -1.614 4.093
 -0.742 -1.615 4.098
 -0.73 -1.616 4.101
 -0.717 -1.615 4.101
 -0.705 -1.615 4.104
 -0.692 -1.616 4.105
 -0.68 -1.616 4.109
 -0.667 -1.616 4.109
 -0.654 -1.614 4.106
 -0.642 -1.615 4.11
 -0.63 -1.617 4.116
 -0.618 -1.618 4.121
 -0.605 -1.617 4.12
 -0.593 -1.62 4.128
 -0.58 -1.618 4.125
 -0.568 -1.62 4.132
 -0.556 -1.622 4.137
 -0.544 -1.623 4.141
 -0.531 -1.622 4.141
 -0.518 -1.621 4.139
 -0.505 -1.62 4.139
 -0.491 -1.615 4.126
 -0.479 -1.616 4.128
 -0.465 -1.613 4.122
 -0.453 -1.613 4.124
 -0.439 -1.609 4.114
 -0.428 -1.612 4.124
 -0.415 -1.61 4.12
 -0.403 -1.612 4.126
 -0.391 -1.615 4.134
 -0.378 -1.614 4.133
 -0.366 -1.616 4.138
 -0.353 -1.617 4.14
 -0.341 -1.615 4.136
 -0.328 -1.614 4.135
 -0.316 -1.616 4.142
 -0.303 -1.615 4.14
 -0.291 -1.616 4.143
 -0.278 -1.617 4.146
 -0.266 -1.618 4.148
 -0.254 -1.619 4.152
 -0.241 -1.617 4.146
 -0.228 -1.617 4.147
 -0.216 -1.618 4.149
 -0.203 -1.617 4.148
 -0.19 -1.614 4.141
 -0.178 -1.615 4.144
 -0.165 -1.613 4.139
 -0.153 -1.614 4.141
 -0.14 -1.617 4.15
 -0.128 -1.62 4.157
 -0.115 -1.62 4.157
 -0.103 -1.623 4.165
 -0.09 -1.622 4.163
 -0.078 -1.621 4.16
 -0.065 -1.619 4.155
 -0.053 -1.62 4.157
 -0.04 -1.621 4.159
 -0.028 -1.618 4.153
 -0.015 -1.618 4.152
 -0.002 -1.616 4.147
 0.009 -1.616 4.146
 0.022 -1.616 4.145
 0.034 -1.618 4.152
 0.047 -1.617 4.149
 0.059 -1.621 4.158
 0.072 -1.622 4.16
 0.084 -1.62 4.156
 0.097 -1.617 4.147
 0.109 -1.618 4.149
 0.121 -1.614 4.138
 0.134 -1.61 4.129
 0.146 -1.611 4.129
 0.159 -1.616 4.142
 0.171 -1.614 4.137
 0.184 -1.616 4.14
 0.197 -1.62 4.15
 0.21 -1.619 4.148
 0.222 -1.617 4.142
 0.234 -1.616 4.139
 0.247 -1.616 4.138
 0.258 -1.609 4.118
 0.27 -1.608 4.115
 0.283 -1.608 4.114
 0.296 -1.611 4.12
 0.308 -1.612 4.123
 0.322 -1.616 4.133
 0.334 -1.615 4.129
 0.346 -1.614 4.126
 0.359 -1.614 4.123
 0.371 -1.613 4.12
 0.384 -1.614 4.123
 0.397 -1.617 4.129
 0.409 -1.617 4.128
 0.422 -1.619 4.131
 0.435 -1.618 4.128
 0.446 -1.616 4.121
 0.459 -1.616 4.121
 0.472 -1.619 4.126
 0.485 -1.62 4.126
 0.498 -1.62 4.125
 0.51 -1.618 4.119
 0.522 -1.618 4.117
 0.534 -1.616 4.11
 0.545 -1.613 4.102
 0.558 -1.613 4.1
 0.571 -1.615 4.102
 0.582 -1.612 4.095
 0.594 -1.61 4.087
 0.606 -1.61 4.086
 0.619 -1.61 4.085
 0.632 -1.613 4.089
 0.646 -1.616 4.095
 0.658 -1.616 4.094
 0.671 -1.616 4.091
 0.684 -1.618 4.094
 0.699 -1.623 4.106
 0.713 -1.626 4.111
 0.727 -1.63 4.12
 0.741 -1.632 4.122
 0.752 -1.63 4.116
 0.762 -1.623 4.096
 0.771 -1.617 4.078
 0.783 -1.617 4.075
 0.796 -1.616 4.072
 0.808 -1.617 4.071
 0.82 -1.615 4.065
 0.834 -1.619 4.071
 0.846 -1.617 4.065
 0.859 -1.618 4.063
 0.871 -1.617 4.058
 0.885 -1.62 4.066
 0.898 -1.621 4.065
 0.911 -1.623 4.066
 0.923 -1.622 4.061
 0.938 -1.625 4.067
 0.95 -1.625 4.063
 0.962 -1.625 4.06
 0.974 -1.624 4.055
 0.988 -1.625 4.056
 1.001 -1.626 4.056
 1.013 -1.626 4.051
 1.025 -1.625 4.048
 1.038 -1.625 4.044
 1.049 -1.623 4.035
 1.061 -1.623 4.032
 1.075 -1.624 4.033
 1.088 -1.626 4.034
 1.101 -1.626 4.03
 1.114 -1.627 4.029
 1.125 -1.625 4.023
 1.137 -1.625 4.018
 1.149 -1.623 4.011
 1.162 -1.624 4.011
 1.177 -1.627 4.014
 1.189 -1.627 4.011
 1.204 -1.631 4.017
 1.218 -1.632 4.017
 1.232 -1.635 4.019
 1.246 -1.636 4.019
 1.259 -1.636 4.016
 1.27 -1.634 4.007
 1.283 -1.635 4.007
 1.296 -1.636 4.004
 1.309 -1.636 4
 1.323 -1.638 4.002
 1.336 -1.639 4
 1.348 -1.638 3.995
 1.361 -1.638 3.991
 1.374 -1.639 3.988
 1.383 -1.635 3.975
 1.397 -1.636 3.973
 1.408 -1.635 3.966
 1.423 -1.638 3.968
 1.434 -1.635 3.959
 1.447 -1.636 3.956
 1.459 -1.635 3.95
 1.472 -1.636 3.948
 1.481 -1.632 3.934
 1.494 -1.633 3.931
 1.507 -1.633 3.928
 1.519 -1.633 3.923
 1.531 -1.632 3.916
 1.541 -1.629 3.905
 1.551 -1.627 3.895
 1.565 -1.628 3.893
 1.579 -1.63 3.893
 1.593 -1.631 3.891
 1.607 -1.633 3.889
 1.62 -1.634 3.888
 1.631 -1.632 3.878
 1.643 -1.632 3.873
 1.655 -1.631 3.866
 1.669 -1.632 3.864
 1.682 -1.633 3.861
 1.697 -1.635 3.86
 1.709 -1.635 3.855
 1.72 -1.633 3.846
 1.734 -1.634 3.844
 1.743 -1.631 3.832
 1.752 -1.629 3.82
 1.762 -1.626 3.809
 1.776 -1.627 3.806
 1.787 -1.626 3.797
 1.804 -1.63 3.803
 1.814 -1.628 3.792
 1.828 -1.629 3.788
 1.836 -1.625 3.774
 1.846 -1.623 3.763
 1.848 -1.614 3.737
 1.858 -1.612 3.727
 1.857 -1.601 3.695
 1.859 -1.592 3.668
 1.857 -1.579 3.635
 1.858 -1.571 3.608
 1.858 -1.56 3.579
 1.858 -1.55 3.551
 1.863 -1.545 3.532
 1.864 -1.536 3.506
 1.869 -1.53 3.487
 1.868 -1.52 3.458
 1.87 -1.512 3.434
 1.866 -1.5 3.401
 1.869 -1.493 3.379
 1.862 -1.478 3.34
 1.855 -1.464 3.303
 1.836 -1.44 3.243
 1.824 -1.423 3.198
 1.831 -1.419 3.185
 1.839 -1.417 3.175
 1.84 -1.41 3.153
 1.839 -1.401 3.126
 1.84 -1.394 3.105
 1.832 -1.38 3.068
 1.824 -1.365 3.03
 1.827 -1.36 3.012
 1.825 -1.351 2.987
 1.836 -1.351 2.982
 1.851 -1.355 2.984
 -2.215 -1.627 3.703
 -2.226 -1.645 3.75
 -2.208 -1.64 3.747
 -2.185 -1.633 3.736
 -2.172 -1.633 3.742
 -2.161 -1.635 3.753
 -2.152 -1.637 3.765
 -2.14 -1.638 3.772
 -2.133 -1.642 3.789
 -2.112 -1.637 3.782
 -2.099 -1.636 3.787
 -2.086 -1.636 3.793
 -2.068 -1.632 3.79
 -2.057 -1.634 3.8
 -2.048 -1.637 3.813
 -2.029 -1.632 3.808
 -2.015 -1.631 3.811
 -2.007 -1.635 3.826
 -1.987 -1.63 3.819
 -1.972 -1.628 3.82
 -1.961 -1.629 3.829
 -1.942 -1.625 3.824
 -1.926 -1.621 3.821
 -1.916 -1.624 3.832
 -1.907 -1.627 3.846
 -1.895 -1.628 3.854
 -1.884 -1.63 3.863
 -1.872 -1.631 3.87
 -1.86 -1.631 3.876
 -1.844 -1.629 3.876
 -1.829 -1.627 3.877
 -1.819 -1.629 3.887
 -1.806 -1.629 3.892
 -1.794 -1.63 3.899
 -1.781 -1.63 3.905
 -1.769 -1.63 3.91
 -1.754 -1.628 3.91
 -1.743 -1.63 3.919
 -1.73 -1.63 3.924
 -1.714 -1.627 3.923
 -1.701 -1.627 3.927
 -1.688 -1.627 3.93
 -1.673 -1.625 3.931
 -1.657 -1.622 3.929
 -1.644 -1.622 3.932
 -1.633 -1.623 3.94
 -1.622 -1.625 3.95
 -1.609 -1.625 3.953
 -1.595 -1.624 3.955
 -1.583 -1.625 3.961
 -1.569 -1.623 3.962
 -1.553 -1.62 3.958
 -1.54 -1.619 3.961
 -1.53 -1.623 3.974
 -1.52 -1.625 3.985
 -1.508 -1.626 3.99
 -1.494 -1.625 3.993
 -1.483 -1.627 4.001
 -1.47 -1.627 4.005
 -1.455 -1.624 4.002
 -1.443 -1.625 4.007
 -1.432 -1.627 4.017
 -1.419 -1.627 4.02
 -1.402 -1.622 4.013
 -1.391 -1.624 4.02
 -1.377 -1.623 4.022
 -1.362 -1.621 4.02
 -1.347 -1.618 4.016
 -1.335 -1.619 4.022
 -1.321 -1.617 4.021
 -1.309 -1.618 4.028
 -1.298 -1.62 4.036
 -1.287 -1.622 4.043
 -1.273 -1.621 4.043
 -1.261 -1.622 4.05
 -1.248 -1.621 4.051
 -1.234 -1.62 4.051
 -1.221 -1.62 4.055
 -1.209 -1.621 4.06
 -1.197 -1.622 4.065
 -1.182 -1.619 4.062
 -1.171 -1.621 4.07
 -1.16 -1.623 4.078
 -1.148 -1.624 4.083
 -1.133 -1.622 4.08
 -1.121 -1.623 4.086
 -1.105 -1.617 4.076
 -1.091 -1.616 4.074
 -1.078 -1.615 4.075
 -1.065 -1.614 4.076
 -1.052 -1.614 4.078
 -1.041 -1.618 4.089
 -1.024 -1.611 4.075
 -1.012 -1.612 4.08
 -1.001 -1.613 4.087
 -0.987 -1.612 4.085
 -0.976 -1.614 4.094
 -0.966 -1.62 4.11
 -0.952 -1.616 4.103
 -0.939 -1.616 4.106
 -0.927 -1.618 4.112
 -0.914 -1.617 4.112
 -0.901 -1.616 4.112
 -0.89 -1.62 4.124
 -0.877 -1.619 4.125
 -0.865 -1.62 4.128
 -0.851 -1.617 4.124
 -0.839 -1.619 4.131
 -0.826 -1.619 4.132
 -0.811 -1.615 4.124
 -0.797 -1.612 4.118
 -0.785 -1.614 4.124
 -0.772 -1.612 4.123
 -0.759 -1.61 4.12
 -0.747 -1.612 4.126
 -0.735 -1.613 4.131
 -0.721 -1.612 4.13
 -0.709 -1.612 4.131
 -0.696 -1.612 4.132
 -0.684 -1.614 4.139
 -0.671 -1.614 4.14
 -0.659 -1.613 4.142
 -0.646 -1.614 4.143
 -0.634 -1.616 4.15
 -0.622 -1.617 4.154
 -0.609 -1.616 4.153
 -0.596 -1.615 4.154
 -0.583 -1.613 4.149
 -0.571 -1.615 4.156
 -0.559 -1.616 4.16
 -0.547 -1.618 4.167
 -0.534 -1.619 4.17
 -0.522 -1.619 4.172
 -0.509 -1.619 4.171
 -0.494 -1.613 4.158
 -0.481 -1.612 4.156
 -0.468 -1.608 4.147
 -0.455 -1.609 4.15
 -0.441 -1.605 4.141
 -0.429 -1.606 4.145
 -0.416 -1.604 4.141
 -0.404 -1.607 4.15
 -0.392 -1.609 4.154
 -0.38 -1.61 4.16
 -0.368 -1.613 4.167
 -0.356 -1.614 4.171
 -0.342 -1.611 4.163
 -0.33 -1.612 4.165
 -0.317 -1.612 4.168
 -0.305 -1.611 4.165
 -0.292 -1.613 4.172
 -0.28 -1.616 4.18
 -0.267 -1.615 4.177
 -0.255 -1.614 4.175
 -0.242 -1.611 4.168
 -0.229 -1.611 4.168
 -0.216 -1.61 4.165
 -0.204 -1.612 4.172
 -0.191 -1.612 4.173
 -0.179 -1.614 4.179
 -0.166 -1.611 4.171
 -0.153 -1.612 4.172
 -0.141 -1.613 4.176
 -0.128 -1.615 4.18
 -0.116 -1.614 4.18
 -0.103 -1.617 4.187
 -0.091 -1.618 4.188
 -0.078 -1.616 4.183
 -0.065 -1.615 4.181
 -0.053 -1.615 4.181
 -0.04 -1.616 4.183
 -0.028 -1.613 4.177
 -0.015 -1.613 4.176
 -0.002 -1.61 4.167
 0.009 -1.609 4.166
 0.022 -1.607 4.161
 0.034 -1.61 4.167
 0.047 -1.608 4.162
 0.06 -1.612 4.173
 0.072 -1.613 4.175
 0.085 -1.614 4.177
 0.097 -1.612 4.171
 0.11 -1.614 4.176
 0.122 -1.61 4.165
 0.135 -1.606 4.155
 0.147 -1.606 4.155
 0.16 -1.609 4.162
 0.172 -1.608 4.158
 0.185 -1.61 4.162
 0.198 -1.615 4.174
 0.211 -1.614 4.171
 0.223 -1.612 4.166
 0.236 -1.613 4.167
 0.248 -1.612 4.165
 0.26 -1.605 4.146
 0.272 -1.607 4.148
 0.285 -1.609 4.154
 0.298 -1.609 4.153
 0.311 -1.61 4.154
 0.324 -1.613 4.16
 0.336 -1.61 4.153
 0.347 -1.607 4.143
 0.36 -1.609 4.147
 0.373 -1.609 4.147
 0.386 -1.609 4.146
 0.399 -1.612 4.151
 0.411 -1.612 4.151
 0.424 -1.612 4.149
 0.436 -1.61 4.143
 0.449 -1.611 4.143
 0.461 -1.612 4.145
 0.475 -1.615 4.152
 0.488 -1.617 4.156
 0.501 -1.618 4.157
 0.513 -1.617 4.152
 0.526 -1.617 4.151
 0.538 -1.615 4.145
 0.55 -1.613 4.138
 0.562 -1.613 4.136
 0.575 -1.613 4.135
 0.586 -1.61 4.127
 0.598 -1.607 4.117
 0.61 -1.606 4.111
 0.623 -1.608 4.114
 0.636 -1.609 4.116
 0.65 -1.614 4.126
 0.663 -1.615 4.127
 0.676 -1.616 4.129
 0.689 -1.617 4.128
 0.704 -1.621 4.138
 0.717 -1.622 4.137
 0.731 -1.625 4.144
 0.744 -1.626 4.143
 0.756 -1.626 4.141
 0.767 -1.622 4.128
 0.776 -1.615 4.11
 0.789 -1.616 4.109
 0.802 -1.616 4.108
 0.814 -1.614 4.101
 0.825 -1.612 4.092
 0.84 -1.616 4.101
 0.851 -1.615 4.095
 0.864 -1.615 4.093
 0.876 -1.614 4.088
 0.891 -1.618 4.095
 0.903 -1.617 4.092
 0.917 -1.62 4.094
 0.928 -1.618 4.087
 0.942 -1.621 4.092
 0.955 -1.621 4.091
 0.969 -1.623 4.093
 0.981 -1.621 4.085
 0.994 -1.623 4.086
 1.009 -1.626 4.091
 1.02 -1.625 4.085
 1.032 -1.623 4.078
 1.045 -1.624 4.078
 1.056 -1.622 4.069
 1.068 -1.62 4.062
 1.08 -1.62 4.059
 1.094 -1.622 4.06
 1.106 -1.62 4.053
 1.12 -1.622 4.055
 1.132 -1.621 4.05
 1.145 -1.623 4.049
 1.156 -1.62 4.039
 1.17 -1.622 4.042
 1.184 -1.624 4.043
 1.196 -1.624 4.038
 1.211 -1.626 4.042
 1.226 -1.63 4.048
 1.239 -1.63 4.044
 1.252 -1.63 4.041
 1.267 -1.634 4.045
 1.278 -1.631 4.036
 1.292 -1.633 4.037
 1.305 -1.634 4.036
 1.319 -1.636 4.037
 1.332 -1.636 4.033
 1.345 -1.637 4.031
 1.357 -1.636 4.025
 1.37 -1.637 4.022
 1.383 -1.637 4.018
 1.393 -1.634 4.007
 1.405 -1.632 4
 1.416 -1.631 3.992
 1.43 -1.632 3.991
 1.44 -1.629 3.98
 1.454 -1.631 3.98
 1.467 -1.632 3.977
 1.481 -1.633 3.976
 1.491 -1.63 3.965
 1.505 -1.632 3.965
 1.517 -1.631 3.957
 1.528 -1.63 3.951
 1.54 -1.629 3.944
 1.549 -1.625 3.93
 1.56 -1.623 3.921
 1.575 -1.625 3.922
 1.589 -1.627 3.922
 1.603 -1.628 3.919
 1.617 -1.63 3.918
 1.631 -1.632 3.918
 1.643 -1.631 3.91
 1.656 -1.631 3.906
 1.666 -1.629 3.897
 1.681 -1.631 3.897
 1.694 -1.631 3.892
 1.709 -1.634 3.892
 1.722 -1.634 3.889
 1.732 -1.632 3.879
 1.747 -1.634 3.879
 1.758 -1.632 3.869
 1.766 -1.628 3.853
 1.777 -1.627 3.844
 1.792 -1.629 3.846
 1.802 -1.627 3.834
 1.814 -1.626 3.828
 1.824 -1.624 3.816
 1.834 -1.622 3.806
 1.841 -1.617 3.79
 1.848 -1.612 3.773
 1.853 -1.605 3.751
 1.861 -1.602 3.737
 1.86 -1.591 3.706
 1.861 -1.581 3.677
 1.862 -1.572 3.65
 1.865 -1.564 3.625
 1.863 -1.552 3.593
 1.863 -1.542 3.565
 1.867 -1.536 3.545
 1.863 -1.523 3.509
 1.869 -1.519 3.492
 1.871 -1.51 3.468
 1.871 -1.501 3.441
 1.865 -1.487 3.403
 1.873 -1.485 3.392
 1.864 -1.468 3.348
 1.86 -1.456 3.316
 0 0 0
 1.798 -1.392 3.156
 1.814 -1.395 3.159
 1.829 -1.399 3.161
 1.832 -1.392 3.142
 1.834 -1.387 3.123
 1.838 -1.381 3.104
 1.832 -1.369 3.072
 1.824 -1.355 3.035
 1.827 -1.35 3.017
 1.827 -1.342 2.994
 1.834 -1.34 2.983
 1.818 -1.32 2.935
 0 0 0
 -2.282 -1.673 3.85
 -2.23 -1.644 3.79
 -2.208 -1.637 3.781
 -2.195 -1.637 3.787
 -2.182 -1.637 3.794
 -2.165 -1.635 3.794
 -2.151 -1.633 3.797
 -2.139 -1.635 3.806
 -2.119 -1.629 3.8
 -2.106 -1.629 3.806
 -2.095 -1.631 3.815
 -2.081 -1.63 3.819
 -2.069 -1.63 3.827
 -2.061 -1.634 3.842
 -2.042 -1.63 3.838
 -2.028 -1.629 3.84
 -2.017 -1.631 3.851
 -1.999 -1.627 3.847
 -1.984 -1.625 3.848
 -1.973 -1.627 3.858
 -1.957 -1.624 3.857
 -1.94 -1.62 3.854
 -1.931 -1.624 3.868
 -1.92 -1.626 3.878
 -1.906 -1.625 3.882
 -1.898 -1.629 3.896
 -1.886 -1.63 3.904
 -1.871 -1.628 3.904
 -1.857 -1.627 3.908
 -1.841 -1.625 3.907
 -1.828 -1.625 3.913
 -1.814 -1.623 3.914
 -1.804 -1.626 3.926
 -1.79 -1.625 3.929
 -1.779 -1.627 3.938
 -1.764 -1.625 3.937
 -1.754 -1.628 3.951
 -1.742 -1.628 3.956
 -1.728 -1.627 3.959
 -1.716 -1.628 3.965
 -1.702 -1.628 3.969
 -1.687 -1.626 3.969
 -1.669 -1.62 3.96
 -1.654 -1.619 3.962
 -1.644 -1.621 3.971
 -1.633 -1.623 3.98
 -1.619 -1.622 3.983
 -1.607 -1.623 3.99
 -1.596 -1.625 3.998
 -1.581 -1.622 3.997
 -1.564 -1.619 3.992
 -1.552 -1.62 3.999
 -1.542 -1.623 4.011
 -1.532 -1.625 4.021
 -1.519 -1.625 4.025
 -1.507 -1.626 4.031
 -1.495 -1.628 4.039
 -1.484 -1.629 4.047
 -1.468 -1.626 4.043
 -1.455 -1.626 4.047
 -1.444 -1.628 4.055
 -1.428 -1.625 4.052
 -1.41 -1.619 4.04
 -1.399 -1.622 4.051
 -1.387 -1.622 4.055
 -1.372 -1.62 4.054
 -1.358 -1.618 4.052
 -1.346 -1.62 4.06
 -1.331 -1.617 4.057
 -1.319 -1.617 4.062
 -1.307 -1.618 4.067
 -1.295 -1.619 4.074
 -1.281 -1.619 4.075
 -1.267 -1.617 4.074
 -1.254 -1.617 4.077
 -1.24 -1.615 4.075
 -1.228 -1.616 4.08
 -1.215 -1.616 4.085
 -1.205 -1.62 4.099
 -1.19 -1.616 4.092
 -1.178 -1.619 4.1
 -1.167 -1.62 4.107
 -1.155 -1.622 4.115
 -1.14 -1.619 4.111
 -1.129 -1.621 4.119
 -1.113 -1.616 4.109
 -1.1 -1.616 4.112
 -1.085 -1.613 4.107
 -1.071 -1.612 4.106
 -1.059 -1.612 4.109
 -1.048 -1.615 4.12
 -1.032 -1.609 4.108
 -1.02 -1.612 4.116
 -1.008 -1.612 4.121
 -0.994 -1.61 4.118
 -0.982 -1.612 4.124
 -0.972 -1.616 4.137
 -0.957 -1.612 4.13
 -0.945 -1.614 4.136
 -0.934 -1.617 4.147
 -0.921 -1.617 4.149
 -0.907 -1.614 4.145
 -0.895 -1.617 4.153
 -0.882 -1.615 4.151
 -0.868 -1.614 4.15
 -0.855 -1.612 4.148
 -0.843 -1.614 4.155
 -0.831 -1.615 4.161
 -0.817 -1.613 4.156
 -0.803 -1.61 4.151
 -0.791 -1.612 4.158
 -0.778 -1.611 4.157
 -0.764 -1.609 4.153
 -0.75 -1.608 4.152
 -0.738 -1.609 4.156
 -0.725 -1.607 4.152
 -0.711 -1.604 4.149
 -0.698 -1.604 4.15
 -0.687 -1.608 4.162
 -0.674 -1.608 4.163
 -0.662 -1.609 4.167
 -0.65 -1.61 4.17
 -0.638 -1.613 4.179
 -0.626 -1.614 4.184
 -0.613 -1.614 4.185
 -0.6 -1.614 4.188
 -0.587 -1.613 4.187
 -0.575 -1.614 4.19
 -0.562 -1.613 4.19
 -0.55 -1.617 4.2
 -0.537 -1.616 4.199
 -0.525 -1.617 4.203
 -0.512 -1.617 4.205
 -0.498 -1.613 4.195
 -0.485 -1.611 4.19
 -0.471 -1.607 4.181
 -0.458 -1.606 4.18
 -0.444 -1.602 4.169
 -0.431 -1.602 4.171
 -0.418 -1.599 4.165
 -0.406 -1.603 4.175
 -0.394 -1.605 4.182
 -0.382 -1.607 4.189
 -0.37 -1.609 4.193
 -0.357 -1.61 4.197
 -0.344 -1.606 4.189
 -0.331 -1.606 4.188
 -0.318 -1.604 4.184
 -0.305 -1.603 4.183
 -0.293 -1.607 4.192
 -0.281 -1.608 4.195
 -0.268 -1.606 4.191
 -0.255 -1.607 4.194
 -0.243 -1.606 4.192
 -0.23 -1.605 4.189
 -0.217 -1.605 4.19
 -0.205 -1.608 4.197
 -0.192 -1.606 4.194
 -0.179 -1.607 4.197
 -0.166 -1.603 4.186
 -0.154 -1.603 4.186
 -0.141 -1.603 4.186
 -0.129 -1.604 4.189
 -0.116 -1.603 4.188
 -0.104 -1.608 4.201
 -0.091 -1.609 4.202
 -0.078 -1.608 4.2
 -0.066 -1.61 4.204
 -0.053 -1.61 4.205
 -0.04 -1.609 4.204
 -0.028 -1.607 4.198
 -0.015 -1.608 4.2
 -0.002 -1.604 4.19
 0.009 -1.605 4.191
 0.022 -1.603 4.187
 0.035 -1.605 4.19
 0.047 -1.603 4.185
 0.06 -1.606 4.195
 0.072 -1.605 4.19
 0.085 -1.605 4.19
 0.098 -1.605 4.19
 0.11 -1.605 4.191
 0.123 -1.603 4.183
 0.135 -1.602 4.18
 0.148 -1.603 4.184
 0.161 -1.605 4.188
 0.173 -1.604 4.183
 0.186 -1.604 4.184
 0.199 -1.609 4.195
 0.212 -1.607 4.191
 0.224 -1.606 4.186
 0.237 -1.608 4.192
 0.25 -1.609 4.193
 0.262 -1.604 4.179
 0.274 -1.604 4.178
 0.287 -1.605 4.18
 0.299 -1.605 4.179
 0.312 -1.606 4.181
 0.325 -1.607 4.182
 0.337 -1.605 4.177
 0.35 -1.605 4.175
 0.363 -1.605 4.175
 0.375 -1.606 4.175
 0.388 -1.606 4.175
 0.401 -1.608 4.177
 0.413 -1.607 4.174
 0.426 -1.608 4.177
 0.439 -1.607 4.172
 0.451 -1.607 4.172
 0.464 -1.609 4.175
 0.478 -1.611 4.18
 0.49 -1.611 4.177
 0.503 -1.611 4.176
 0.515 -1.61 4.172
 0.528 -1.61 4.17
 0.54 -1.609 4.167
 0.553 -1.609 4.165
 0.566 -1.611 4.167
 0.579 -1.611 4.168
 0.591 -1.609 4.16
 0.602 -1.607 4.153
 0.614 -1.605 4.145
 0.627 -1.605 4.145
 0.639 -1.605 4.143
 0.654 -1.611 4.155
 0.667 -1.611 4.154
 0.68 -1.613 4.157
 0.693 -1.613 4.154
 0.708 -1.618 4.167
 0.721 -1.618 4.165
 0.735 -1.621 4.171
 0.747 -1.621 4.169
 0.76 -1.621 4.166
 0.77 -1.616 4.151
 0.781 -1.612 4.138
 0.793 -1.612 4.135
