 1.847 -1.419 3.017
 1.846 -1.402 2.969
 -2.157 -1.632 3.602
 -2.14 -1.638 3.627
 -2.125 -1.647 3.659
 -2.081 -1.632 3.637
 -2.055 -1.631 3.648
 -2.01 -1.615 3.624
 -2.011 -1.636 3.682
 -1.968 -1.621 3.66
 -1.946 -1.624 3.677
 -1.926 -1.628 3.698
 -1.921 -1.646 3.749
 -1.879 -1.631 3.727
 -1.876 -1.651 3.782
 -1.83 -1.632 3.749
 -1.812 -1.639 3.776
 -1.775 -1.628 3.761
 -1.769 -1.645 3.811
 -1.746 -1.648 3.827
 -1.727 -1.653 3.85
 -1.682 -1.634 3.815
 -1.651 -1.629 3.811
 -1.635 -1.638 3.841
 -1.606 -1.633 3.84
 -1.588 -1.641 3.867
 -1.538 -1.615 3.814
 -1.532 -1.635 3.869
 -1.498 -1.625 3.854
 -1.481 -1.634 3.884
 -1.45 -1.627 3.876
 -1.443 -1.648 3.933
 -1.402 -1.63 3.897
 -1.389 -1.644 3.939
 -1.351 -1.629 3.909
 -1.32 -1.621 3.898
 -1.294 -1.62 3.903
 -1.264 -1.613 3.893
 -1.251 -1.629 3.937
 -1.214 -1.612 3.903
 -1.197 -1.623 3.936
 -1.17 -1.62 3.934
 -1.152 -1.63 3.965
 -1.126 -1.628 3.967
 -1.096 -1.621 3.955
 -1.076 -1.628 3.977
 -1.046 -1.619 3.962
 -1.028 -1.631 3.996
 -0.993 -1.614 3.961
 -0.972 -1.62 3.98
 -0.953 -1.63 4.01
 -0.927 -1.629 4.01
 -0.914 -1.65 4.068
 -0.864 -1.604 3.959
 -0.851 -1.626 4.016
 -0.82 -1.614 3.992
 -0.792 -1.606 3.975
 -0.772 -1.615 4.003
 -0.743 -1.606 3.984
 -0.72 -1.611 3.998
 -0.701 -1.624 4.034
 -0.676 -1.622 4.033
 -0.65 -1.62 4.032
 -0.621 -1.609 4.006
 -0.601 -1.621 4.039
 -0.58 -1.63 4.065
 -0.558 -1.64 4.092
 -0.53 -1.63 4.069
 -0.504 -1.628 4.067
 -0.478 -1.623 4.058
 -0.457 -1.635 4.088
 -0.428 -1.622 4.058
 -0.404 -1.624 4.066
 -0.378 -1.618 4.053
 -0.351 -1.608 4.027
 -0.331 -1.628 4.08
 -0.308 -1.637 4.103
 -0.28 -1.623 4.07
 -0.255 -1.619 4.062
 -0.231 -1.622 4.07
 -0.206 -1.623 4.074
 -0.181 -1.619 4.064
 -0.158 -1.634 4.102
 -0.132 -1.62 4.068
 -0.108 -1.624 4.078
 -0.083 -1.622 4.073
 -0.058 -1.625 4.08
 -0.033 -1.603 4.026
 -0.009 -1.624 4.078
 0.015 -1.634 4.103
 0.04 -1.634 4.102
 0.064 -1.628 4.085
 0.089 -1.621 4.068
 0.115 -1.644 4.126
 0.138 -1.62 4.063
 0.163 -1.624 4.073
 0.187 -1.62 4.062
 0.211 -1.612 4.039
 0.234 -1.607 4.026
 0.263 -1.633 4.089
 0.283 -1.609 4.028
 0.311 -1.625 4.066
 0.334 -1.617 4.045
 0.358 -1.614 4.034
 0.382 -1.614 4.031
 0.405 -1.607 4.013
 0.436 -1.63 4.068
 0.458 -1.622 4.044
 0.486 -1.634 4.071
 0.504 -1.613 4.016
 0.53 -1.619 4.027
 0.557 -1.623 4.037
 0.578 -1.614 4.011
 0.604 -1.618 4.016
 0.634 -1.634 4.052
 0.656 -1.627 4.031
 0.678 -1.621 4.012
 0.711 -1.641 4.057
 0.734 -1.636 4.041
 0.754 -1.626 4.013
 0.782 -1.633 4.025
 0.803 -1.625 4.002
 0.824 -1.617 3.978
 0.863 -1.645 4.041
 0.875 -1.622 3.981
 0.903 -1.629 3.992
 0.932 -1.636 4.004
 0.951 -1.626 3.975
 0.977 -1.628 3.974
 1.003 -1.63 3.974
 1.031 -1.636 3.982
 1.046 -1.622 3.941
 1.08 -1.635 3.968
 1.11 -1.643 3.98
 1.121 -1.624 3.928
 1.141 -1.618 3.906
 1.177 -1.634 3.938
 1.2 -1.632 3.926
 1.235 -1.645 3.95
 1.256 -1.64 3.932
 1.277 -1.635 3.913
 1.308 -1.643 3.924
 1.312 -1.618 3.857
 1.36 -1.646 3.915
 1.378 -1.638 3.89
 1.404 -1.639 3.884
 1.434 -1.646 3.89
 1.451 -1.637 3.862
 1.463 -1.623 3.82
 1.488 -1.624 3.812
 1.532 -1.645 3.853
 1.55 -1.637 3.826
 1.561 -1.624 3.785
 1.615 -1.654 3.846
 1.62 -1.633 3.789
 1.656 -1.645 3.806
 1.671 -1.636 3.775
 1.689 -1.63 3.75
 1.715 -1.63 3.742
 1.751 -1.641 3.756
 1.778 -1.643 3.751
 1.799 -1.64 3.733
 1.814 -1.631 3.702
 1.849 -1.641 3.713
 1.868 -1.636 3.689
 1.872 -1.618 3.639
 1.876 -1.601 3.588
 1.861 -1.568 3.503
 1.884 -1.568 3.491
 1.88 -1.545 3.429
 1.866 -1.515 3.35
 1.883 -1.51 3.328
 1.836 -1.455 3.195
 1.859 -1.456 3.186
 1.853 -1.435 3.128
 1.856 -1.421 3.086
 1.843 -1.395 3.018
 1.826 -1.367 2.946
 -2.196 -1.636 3.677
 -2.161 -1.63 3.674
 -2.137 -1.63 3.689
 -2.123 -1.639 3.721
 -2.091 -1.635 3.723
 -2.051 -1.623 3.708
 -2.045 -1.639 3.756
 -2.029 -1.647 3.786
 -1.986 -1.632 3.765
 -1.949 -1.623 3.754
 -1.926 -1.625 3.769
 -1.911 -1.633 3.8
 -1.877 -1.626 3.794
 -1.856 -1.63 3.814
 -1.835 -1.634 3.832
 -1.84 -1.661 3.908
 -1.795 -1.644 3.878
 -1.766 -1.641 3.881
 -1.729 -1.63 3.863
 -1.708 -1.634 3.884
 -1.677 -1.629 3.88
 -1.646 -1.624 3.877
 -1.643 -1.646 3.939
 -1.592 -1.62 3.885
 -1.577 -1.631 3.921
 -1.554 -1.633 3.934
 -1.512 -1.616 3.902
 -1.494 -1.623 3.928
 -1.467 -1.622 3.932
 -1.442 -1.622 3.94
 -1.418 -1.623 3.952
 -1.4 -1.632 3.98
 -1.36 -1.614 3.945
 -1.353 -1.637 4.006
 -1.304 -1.608 3.942
 -1.293 -1.625 3.992
 -1.268 -1.625 3.999
 -1.234 -1.614 3.978
 -1.214 -1.62 4
 -1.203 -1.64 4.056
 -1.174 -1.635 4.048
 -1.143 -1.627 4.035
 -1.115 -1.623 4.03
 -1.105 -1.646 4.093
 -1.062 -1.62 4.035
 -1.03 -1.609 4.012
 -1.01 -1.616 4.035
 -0.977 -1.603 4.008
 -0.967 -1.628 4.076
 -0.938 -1.622 4.064
 -0.908 -1.613 4.047
 -0.883 -1.614 4.053
 -0.854 -1.607 4.039
 -0.825 -1.6 4.026
 -0.815 -1.628 4.101
 -0.778 -1.605 4.047
 -0.76 -1.619 4.085
 -0.731 -1.611 4.069
 -0.707 -1.612 4.077
 -0.679 -1.604 4.06
 -0.661 -1.622 4.107
 -0.639 -1.629 4.128
 -0.611 -1.623 4.117
 -0.579 -1.604 4.07
 -0.561 -1.625 4.127
 -0.541 -1.639 4.165
 -0.508 -1.616 4.108
 -0.487 -1.628 4.141
 -0.463 -1.632 4.153
 -0.431 -1.607 4.092
 -0.412 -1.629 4.15
 -0.382 -1.613 4.11
 -0.359 -1.619 4.128
 -0.334 -1.62 4.132
 -0.309 -1.621 4.136
 -0.282 -1.607 4.102
 -0.26 -1.63 4.161
 -0.234 -1.619 4.134
 -0.209 -1.618 4.132
 -0.184 -1.626 4.153
 -0.158 -1.612 4.119
 -0.132 -1.604 4.098
 -0.108 -1.615 4.127
 -0.084 -1.618 4.134
 -0.059 -1.614 4.124
 -0.034 -1.612 4.119
 -0.009 -1.617 4.132
 0.015 -1.615 4.127
 0.04 -1.603 4.094
 0.065 -1.621 4.141
 0.091 -1.625 4.15
 0.115 -1.623 4.143
 0.14 -1.615 4.122
 0.165 -1.615 4.122
 0.19 -1.616 4.123
 0.216 -1.623 4.139
 0.24 -1.619 4.127
 0.266 -1.628 4.148
 0.289 -1.613 4.11
 0.315 -1.622 4.13
 0.341 -1.625 4.136
 0.363 -1.613 4.102
 0.388 -1.615 4.105
 0.414 -1.618 4.111
 0.441 -1.624 4.123
 0.466 -1.624 4.122
 0.488 -1.615 4.095
 0.514 -1.62 4.106
 0.541 -1.626 4.119
 0.563 -1.617 4.092
 0.588 -1.616 4.086
 0.609 -1.607 4.059
 0.641 -1.624 4.099
 0.663 -1.618 4.081
 0.686 -1.614 4.066
 0.717 -1.629 4.099
 0.744 -1.632 4.104
 0.758 -1.608 4.038
 0.788 -1.62 4.064
 0.816 -1.626 4.074
 0.839 -1.621 4.059
 0.866 -1.627 4.067
 0.886 -1.617 4.038
 0.914 -1.623 4.047
 0.945 -1.633 4.067
 0.969 -1.632 4.059
 0.992 -1.629 4.046
 1.019 -1.631 4.046
 1.044 -1.632 4.042
 1.07 -1.634 4.04
 1.089 -1.623 4.009
 1.121 -1.635 4.031
 1.144 -1.632 4.016
 1.176 -1.641 4.032
 1.191 -1.627 3.992
 1.217 -1.629 3.989
 1.248 -1.637 4.003
 1.274 -1.639 3.998
 1.294 -1.631 3.973
 1.318 -1.631 3.965
 1.355 -1.645 3.99
 1.367 -1.63 3.946
 1.4 -1.639 3.961
 1.423 -1.636 3.946
 1.443 -1.63 3.923
 1.469 -1.632 3.918
 1.491 -1.629 3.903
 1.525 -1.638 3.916
 1.555 -1.644 3.921
 1.559 -1.622 3.858
 1.602 -1.64 3.893
 1.619 -1.632 3.863
 1.647 -1.635 3.861
 1.674 -1.637 3.856
 1.702 -1.641 3.854
 1.722 -1.636 3.832
 1.754 -1.642 3.837
 1.763 -1.627 3.792
 1.799 -1.638 3.805
 1.807 -1.622 3.759
 1.835 -1.625 3.755
 1.854 -1.62 3.732
 1.863 -1.606 3.688
 1.871 -1.593 3.647
 1.87 -1.571 3.585
 1.871 -1.553 3.531
 1.885 -1.545 3.502
 1.899 -1.536 3.472
 1.866 -1.492 3.359
 1.866 -1.474 3.307
 0 0 0
 1.813 -1.399 3.116
 1.83 -1.395 3.097
 1.882 -1.419 3.138
 1.848 -1.377 3.035
 1.828 -1.347 2.956
 -2.211 -1.622 3.712
 -2.197 -1.63 3.744
 -2.193 -1.647 3.796
 -2.144 -1.63 3.768
 -2.119 -1.631 3.782
 -2.088 -1.626 3.784
 -2.047 -1.614 3.769
 -2.063 -1.648 3.859
 -2.017 -1.632 3.833
 -1.982 -1.624 3.827
 -1.967 -1.633 3.859
 -1.941 -1.633 3.87
 -1.911 -1.63 3.872
 -1.878 -1.624 3.869
 -1.859 -1.629 3.893
 -1.836 -1.632 3.911
 -1.809 -1.631 3.917
 -1.763 -1.613 3.883
 -1.758 -1.631 3.939
 -1.727 -1.627 3.937
 -1.689 -1.615 3.918
 -1.671 -1.623 3.946
 -1.662 -1.639 3.994
 -1.612 -1.615 3.946
 -1.609 -1.638 4.009
 -1.564 -1.618 3.97
 -1.554 -1.634 4.019
 -1.513 -1.619 3.989
 -1.475 -1.605 3.963
 -1.473 -1.631 4.036
 -1.442 -1.625 4.028
 -1.421 -1.631 4.05
 -1.387 -1.62 4.031
 -1.364 -1.624 4.047
 -1.338 -1.624 4.055
 -1.305 -1.615 4.039
 -1.275 -1.609 4.031
 -1.259 -1.622 4.07
 -1.222 -1.606 4.037
 -1.205 -1.617 4.072
 -1.183 -1.622 4.09
 -1.16 -1.626 4.107
 -1.123 -1.61 4.07
 -1.101 -1.614 4.087
 -1.067 -1.602 4.063
 -1.048 -1.612 4.093
 -1.021 -1.61 4.092
 -0.997 -1.611 4.1
 -0.978 -1.622 4.132
 -0.939 -1.599 4.078
 -0.918 -1.607 4.104
 -0.898 -1.617 4.134
 -0.871 -1.613 4.128
 -0.842 -1.606 4.115
 -0.828 -1.63 4.18
 -0.789 -1.603 4.114
 -0.769 -1.614 4.146
 -0.741 -1.608 4.134
 -0.715 -1.606 4.134
 -0.695 -1.619 4.17
 -0.667 -1.611 4.153
 -0.644 -1.617 4.171
 -0.613 -1.602 4.136
 -0.592 -1.614 4.17
 -0.566 -1.613 4.171
 -0.539 -1.61 4.164
 -0.518 -1.622 4.199
 -0.496 -1.633 4.228
 -0.467 -1.621 4.2
 -0.439 -1.614 4.182
 -0.414 -1.613 4.183
 -0.39 -1.621 4.204
 -0.363 -1.614 4.187
 -0.335 -1.601 4.157
 -0.315 -1.624 4.218
 -0.289 -1.623 4.215
 -0.26 -1.604 4.168
 -0.237 -1.616 4.199
 -0.208 -1.592 4.137
 -0.185 -1.607 4.178
 -0.16 -1.609 4.184
 -0.135 -1.608 4.181
 -0.11 -1.616 4.202
 -0.084 -1.612 4.191
 -0.059 -1.608 4.181
 -0.034 -1.617 4.205
 -0.009 -1.597 4.152
 0.016 -1.606 4.175
 0.041 -1.616 4.2
 0.066 -1.613 4.192
 0.091 -1.61 4.185
 0.117 -1.617 4.202
 0.142 -1.618 4.203
 0.167 -1.609 4.18
 0.191 -1.602 4.16
 0.218 -1.612 4.184
 0.243 -1.612 4.183
 0.267 -1.609 4.172
 0.292 -1.606 4.164
 0.318 -1.61 4.172
 0.345 -1.62 4.197
 0.367 -1.604 4.153
 0.395 -1.617 4.183
 0.416 -1.601 4.14
 0.441 -1.601 4.138
 0.475 -1.629 4.209
 0.494 -1.609 4.154
 0.519 -1.608 4.148
 0.549 -1.624 4.186
 0.571 -1.613 4.155
 0.598 -1.618 4.165
 0.625 -1.623 4.174
 0.651 -1.625 4.175
 0.67 -1.61 4.133
 0.701 -1.624 4.163
 0.722 -1.614 4.135
 0.751 -1.623 4.152
 0.772 -1.612 4.122
 0.8 -1.619 4.135
 0.83 -1.627 4.151
 0.846 -1.611 4.104
 0.878 -1.622 4.128
 0.901 -1.618 4.114
 0.928 -1.622 4.117
 0.955 -1.624 4.117
 0.977 -1.62 4.101
 0.998 -1.612 4.077
 1.026 -1.617 4.084
 1.059 -1.629 4.106
 1.09 -1.637 4.121
 1.109 -1.628 4.093
 1.133 -1.625 4.08
 1.157 -1.624 4.069
 1.186 -1.629 4.075
 1.212 -1.63 4.071
 1.245 -1.641 4.091
 1.262 -1.629 4.053
 1.278 -1.617 4.018
 1.312 -1.628 4.036
 1.332 -1.623 4.015
 1.369 -1.636 4.041
 1.389 -1.63 4.019
 1.423 -1.64 4.035
 1.444 -1.635 4.013
 1.469 -1.634 4.004
 1.493 -1.633 3.992
 1.51 -1.624 3.961
 1.553 -1.643 3.999
 1.567 -1.631 3.96
 1.591 -1.63 3.948
 1.629 -1.642 3.967
 1.636 -1.623 3.913
 1.677 -1.639 3.941
 1.682 -1.619 3.883
 1.707 -1.619 3.873
 1.712 -1.601 3.819
 1.775 -1.636 3.893
 1.784 -1.621 3.847
 1.82 -1.631 3.86
 1.842 -1.628 3.84
 1.879 -1.638 3.853
 1.882 -1.619 3.798
 1.858 -1.577 3.688
 1.87 -1.567 3.652
 1.882 -1.557 3.618
 1.851 -1.512 3.501
 1.883 -1.519 3.506
 1.881 -1.499 3.449
 1.894 -1.491 3.418
 0 0 0
 0 0 0
 1.848 -1.404 3.185
 1.859 -1.395 3.154
 1.848 -1.371 3.088
 1.874 -1.375 3.084
 1.828 -1.326 2.964
 -2.242 -1.618 3.774
 -2.212 -1.616 3.781
 -2.194 -1.622 3.808
 -2.133 -1.596 3.759
 -2.133 -1.615 3.816
 -2.118 -1.624 3.849
 -2.095 -1.626 3.868
 -2.082 -1.637 3.904
 -2.048 -1.631 3.901
 -2.019 -1.629 3.909
 -1.977 -1.616 3.888
 -1.97 -1.631 3.938
 -1.931 -1.621 3.923
 -1.899 -1.616 3.923
 -1.885 -1.627 3.959
 -1.856 -1.624 3.963
 -1.825 -1.619 3.962
 -1.809 -1.629 3.995
 -1.788 -1.634 4.017
 -1.749 -1.622 3.997
 -1.725 -1.623 4.011
 -1.684 -1.61 3.986
 -1.674 -1.625 4.033
 -1.636 -1.613 4.013
 -1.621 -1.624 4.05
 -1.591 -1.621 4.05
 -1.56 -1.615 4.045
 -1.534 -1.615 4.053
 -1.506 -1.613 4.056
 -1.495 -1.629 4.104
 -1.465 -1.625 4.102
 -1.427 -1.611 4.075
 -1.385 -1.593 4.036
 -1.372 -1.608 4.082
 -1.349 -1.612 4.098
 -1.318 -1.605 4.089
 -1.301 -1.616 4.123
 -1.27 -1.61 4.114
 -1.244 -1.609 4.118
 -1.215 -1.606 4.116
 -1.198 -1.618 4.153
 -1.172 -1.617 4.156
 -1.147 -1.619 4.167
 -1.121 -1.619 4.174
 -1.09 -1.611 4.158
 -1.06 -1.604 4.147
 -1.033 -1.602 4.147
 -1.011 -1.609 4.17
 -0.989 -1.614 4.189
 -0.952 -1.597 4.147
 -0.939 -1.617 4.205
 -0.91 -1.612 4.198
 -0.88 -1.605 4.183
 -0.845 -1.588 4.141
 -0.83 -1.607 4.196
 -0.804 -1.607 4.201
 -0.778 -1.606 4.201
 -0.753 -1.607 4.208
 -0.727 -1.608 4.214
 -0.701 -1.607 4.214
 -0.676 -1.607 4.219
 -0.65 -1.608 4.222
 -0.622 -1.603 4.213
 -0.599 -1.608 4.229
 -0.574 -1.611 4.24
 -0.547 -1.606 4.228
 -0.518 -1.597 4.208
 -0.493 -1.598 4.212
 -0.472 -1.613 4.253
 -0.44 -1.591 4.198
 -0.417 -1.602 4.228
 -0.393 -1.608 4.247
 -0.367 -1.603 4.236
 -0.34 -1.598 4.223
 -0.314 -1.597 4.223
 -0.29 -1.603 4.239
 -0.264 -1.6 4.231
 -0.24 -1.613 4.269
 -0.214 -1.609 4.259
 -0.186 -1.591 4.21
 -0.162 -1.601 4.237
 -0.137 -1.606 4.253
 -0.11 -1.594 4.22
 -0.085 -1.603 4.244
 -0.059 -1.596 4.226
 -0.034 -1.603 4.243
 -0.009 -1.61 4.263
 0.016 -1.594 4.22
 0.041 -1.595 4.221
 0.066 -1.591 4.21
 0.093 -1.603 4.242
 0.119 -1.617 4.278
 0.143 -1.597 4.224
 0.17 -1.61 4.258
 0.196 -1.614 4.265
 0.218 -1.591 4.203
 0.244 -1.595 4.214
 0.27 -1.596 4.215
 0.297 -1.604 4.232
 0.322 -1.604 4.231
 0.347 -1.602 4.224
 0.373 -1.601 4.221
 0.398 -1.6 4.215
 0.425 -1.608 4.234
 0.45 -1.606 4.225
 0.474 -1.599 4.204
 0.502 -1.61 4.232
 0.526 -1.606 4.216
 0.548 -1.593 4.181
 0.578 -1.606 4.211
 0.607 -1.616 4.235
 0.629 -1.607 4.205
 0.654 -1.606 4.201
 0.679 -1.604 4.192
 0.702 -1.599 4.173
 0.731 -1.608 4.194
 0.759 -1.612 4.199
 0.783 -1.61 4.191
 0.809 -1.611 4.188
 0.838 -1.618 4.202
 0.866 -1.622 4.208
 0.883 -1.607 4.163
 0.913 -1.614 4.177
 0.943 -1.622 4.193
 0.963 -1.612 4.161
 0.984 -1.605 4.137
 1.023 -1.627 4.187
 1.048 -1.625 4.178
 1.074 -1.626 4.175
 1.101 -1.627 4.171
 1.115 -1.611 4.123
 1.144 -1.616 4.13
 1.165 -1.609 4.106
 1.196 -1.617 4.119
 1.226 -1.622 4.125
 1.237 -1.604 4.071
 1.272 -1.617 4.097
 1.303 -1.623 4.106
 1.337 -1.633 4.124
 1.36 -1.63 4.107
 1.382 -1.626 4.089
 1.414 -1.633 4.099
 1.429 -1.62 4.058
 1.455 -1.621 4.051
 1.491 -1.633 4.072
 1.524 -1.64 4.082
 1.534 -1.624 4.033
 1.567 -1.631 4.041
 1.584 -1.623 4.012
 1.63 -1.643 4.053
 1.648 -1.635 4.023
 1.666 -1.628 3.996
 1.698 -1.634 4
 1.703 -1.614 3.943
 1.73 -1.616 3.936
 1.767 -1.626 3.95
 1.785 -1.62 3.924
 1.819 -1.627 3.931
 1.846 -1.628 3.924
 1.871 -1.628 3.911
 1.865 -1.6 3.834
 1.882 -1.594 3.806
 1.897 -1.585 3.774
 1.864 -1.537 3.65
 1.881 -1.531 3.624
 1.874 -1.507 3.555
 1.901 -1.509 3.548
 0 0 0
 0 0 0
 0 0 0
 0 0 0
 1.823 -1.363 3.149
 1.839 -1.359 3.129
 1.861 -1.359 3.118
 1.85 -1.336 3.053
 1.861 -1.329 3.026
 -2.283 -1.622 3.854
 -2.25 -1.617 3.855
 -2.213 -1.609 3.85
 -2.222 -1.636 3.927
 -2.177 -1.622 3.906
 -2.169 -1.636 3.952
 -2.103 -1.606 3.892
 -2.107 -1.63 3.961
 -2.059 -1.614 3.934
 -2.043 -1.621 3.964
 -2.013 -1.619 3.97
 -2.001 -1.631 4.011
 -1.982 -1.637 4.038
 -1.944 -1.627 4.024
 -1.909 -1.62 4.018
 -1.886 -1.624 4.036
 -1.876 -1.638 4.083
 -1.836 -1.626 4.064
 -1.797 -1.615 4.046
 -1.793 -1.636 4.107
 -1.737 -1.609 4.049
 -1.718 -1.616 4.077
 -1.689 -1.613 4.079
 -1.66 -1.611 4.083
 -1.642 -1.619 4.113
 -1.61 -1.613 4.107
 -1.58 -1.61 4.106
 -1.555 -1.611 4.119
 -1.536 -1.618 4.145
 -1.506 -1.615 4.144
 -1.478 -1.613 4.147
 -1.452 -1.614 4.157
 -1.413 -1.599 4.128
 -1.407 -1.623 4.195
 -1.364 -1.603 4.152
 -1.342 -1.608 4.172
 -1.314 -1.606 4.174
 -1.292 -1.611 4.193
 -1.261 -1.606 4.186
 -1.24 -1.613 4.211
 -1.204 -1.599 4.182
 -1.18 -1.602 4.195
 -1.167 -1.621 4.25
 -1.141 -1.621 4.257
 -1.1 -1.599 4.205
 -1.069 -1.593 4.194
 -1.056 -1.612 4.248
 -1.029 -1.612 4.254
 -1 -1.606 4.244
 -0.971 -1.602 4.237
 -0.951 -1.612 4.268
 -0.919 -1.602 4.247
 -0.896 -1.608 4.269
 -0.862 -1.594 4.235
 -0.837 -1.596 4.244
 -0.808 -1.589 4.229
 -0.785 -1.595 4.25
 -0.76 -1.597 4.257
 -0.732 -1.594 4.253
 -0.706 -1.593 4.253
 -0.679 -1.589 4.247
 -0.653 -1.591 4.254
 -0.626 -1.586 4.243
 -0.603 -1.594 4.27
 -0.572 -1.58 4.234
 -0.552 -1.597 4.282
 -0.525 -1.592 4.272
 -0.5 -1.595 4.282
 -0.469 -1.579 4.24
 -0.443 -1.578 4.24
 -0.42 -1.587 4.265
 -0.392 -1.577 4.242
 -0.37 -1.594 4.287
 -0.342 -1.584 4.262
 -0.315 -1.576 4.243
 -0.291 -1.585 4.266
 -0.265 -1.585 4.268
 -0.239 -1.579 4.254
 -0.213 -1.581 4.258
 -0.186 -1.571 4.232
 -0.162 -1.577 4.25
 -0.137 -1.586 4.275
 -0.11 -1.575 4.245
 -0.085 -1.575 4.246
 -0.059 -1.578 4.253
 -0.034 -1.577 4.252
 -0.008 -1.577 4.25
 0.016 -1.57 4.232
 0.042 -1.574 4.241
 0.067 -1.577 4.248
 0.092 -1.574 4.241
 0.118 -1.572 4.233
 0.143 -1.573 4.237
 0.169 -1.579 4.25
 0.196 -1.589 4.277
 0.22 -1.577 4.244
 0.245 -1.575 4.237
 0.271 -1.577 4.24
 0.297 -1.577 4.237
 0.322 -1.577 4.236
 0.348 -1.579 4.239
 0.372 -1.574 4.225
 0.397 -1.571 4.213
 0.424 -1.578 4.229
 0.45 -1.58 4.234
 0.475 -1.578 4.225
 0.5 -1.577 4.218
 0.527 -1.58 4.225
 0.55 -1.574 4.205
 0.581 -1.589 4.241
 0.607 -1.59 4.242
 0.633 -1.59 4.238
 0.657 -1.586 4.225
 0.685 -1.592 4.236
 0.705 -1.58 4.2
 0.736 -1.592 4.227
 0.767 -1.602 4.251
 0.78 -1.579 4.183
 0.818 -1.602 4.24
 0.837 -1.59 4.204
 0.866 -1.596 4.216
 0.894 -1.599 4.22
 0.919 -1.599 4.214
 0.947 -1.602 4.217
 0.973 -1.602 4.211
 0.991 -1.591 4.176
 1.015 -1.587 4.161
 1.054 -1.608 4.208
 1.075 -1.601 4.186
 1.1 -1.6 4.177
 1.136 -1.615 4.21
 1.165 -1.619 4.213
 1.189 -1.616 4.199
 1.21 -1.61 4.175
 1.248 -1.625 4.209
 1.268 -1.618 4.183
 1.288 -1.61 4.156
 1.32 -1.618 4.168
 1.356 -1.63 4.192
 1.375 -1.621 4.16
 1.397 -1.617 4.141
 1.423 -1.617 4.133
 1.451 -1.619 4.132
 1.479 -1.621 4.127
 1.504 -1.621 4.118
 1.521 -1.611 4.084
 1.554 -1.618 4.094
 1.59 -1.629 4.111
 1.609 -1.622 4.084
 1.641 -1.628 4.089
 1.669 -1.63 4.084
 1.691 -1.625 4.063
 1.715 -1.623 4.049
 1.748 -1.63 4.055
 1.76 -1.617 4.013
 1.786 -1.617 4.003
 1.82 -1.624 4.009
 1.831 -1.612 3.967
 1.866 -1.619 3.974
 1.875 -1.605 3.929
 1.885 -1.592 3.885
 1.88 -1.567 3.812
 1.867 -1.535 3.723
 1.906 -1.547 3.74
 1.913 -1.533 3.695
 1.931 -1.528 3.671
 1.899 -1.484 3.554
 0 0 0
 0 0 0
 0 0 0
 0 0 0
 0 0 0
 1.847 -1.343 3.149
 1.886 -1.355 3.167
 1.85 -1.315 3.062
 1.853 -1.302 3.021
 -2.322 -1.622 3.93
 -2.278 -1.611 3.915
 -2.249 -1.61 3.924
 -2.208 -1.599 3.912
 -2.179 -1.597 3.92
 -2.169 -1.609 3.962
 -2.138 -1.607 3.968
 -2.133 -1.623 4.02
 -2.091 -1.612 4.004
 -2.075 -1.62 4.037
 -2.033 -1.609 4.02
 -2.004 -1.607 4.027
 -1.966 -1.597 4.014
 -1.936 -1.595 4.018
 -1.94 -1.62 4.095
 -1.901 -1.61 4.078
 -1.876 -1.611 4.092
 -1.858 -1.619 4.123
 -1.792 -1.585 4.046
 -1.798 -1.614 4.13
 -1.77 -1.613 4.137
 -1.752 -1.621 4.167
 -1.713 -1.61 4.148
 -1.674 -1.597 4.125
 -1.656 -1.606 4.157
 -1.632 -1.609 4.173
 -1.592 -1.596 4.147
 -1.579 -1.609 4.191
 -1.559 -1.616 4.217
 -1.522 -1.606 4.198
 -1.493 -1.603 4.2
 -1.463 -1.599 4.198
 -1.429 -1.591 4.184
 -1.409 -1.599 4.212
 -1.385 -1.602 4.226
 -1.349 -1.59 4.203
 -1.322 -1.59 4.209
 -1.305 -1.601 4.246
 -1.271 -1.593 4.229
 -1.248 -1.596 4.246
 -1.223 -1.598 4.256
 -1.19 -1.589 4.24
 -1.169 -1.597 4.267
 -1.142 -1.596 4.268
 -1.119 -1.6 4.287
 -1.092 -1.6 4.292
 -1.057 -1.588 4.265
 -1.028 -1.584 4.259
 -1.006 -1.591 4.282
 -0.977 -1.586 4.273
 -0.956 -1.594 4.3
 -0.915 -1.569 4.238
 -0.899 -1.587 4.289
 -0.872 -1.586 4.29
 -0.845 -1.585 4.292
 -0.814 -1.575 4.269
 -0.789 -1.577 4.28
 -0.762 -1.575 4.277
 -0.729 -1.56 4.24
 -0.708 -1.57 4.272
 -0.68 -1.568 4.267
 -0.654 -1.567 4.267
 -0.63 -1.57 4.279
 -0.603 -1.568 4.278
 -0.574 -1.56 4.256
 -0.548 -1.56 4.261
 -0.523 -1.562 4.267
 -0.497 -1.561 4.268
 -0.472 -1.564 4.277
 -0.444 -1.554 4.252
 -0.418 -1.554 4.253
 -0.395 -1.565 4.285
 -0.368 -1.559 4.272
 -0.34 -1.55 4.247
 -0.315 -1.553 4.257
 -0.289 -1.547 4.243
 -0.263 -1.549 4.248
 -0.238 -1.552 4.258
 -0.214 -1.562 4.287
 -0.188 -1.556 4.27
 -0.161 -1.543 4.235
 -0.136 -1.551 4.258
 -0.11 -1.55 4.254
 -0.085 -1.545 4.241
 -0.059 -1.552 4.261
 -0.034 -1.544 4.238
 -0.008 -1.546 4.243
 0.016 -1.547 4.247
 0.042 -1.553 4.263
 0.067 -1.555 4.267
 0.093 -1.554 4.265
 0.118 -1.552 4.257
 0.143 -1.547 4.242
 0.17 -1.554 4.259
 0.195 -1.554 4.259
 0.221 -1.555 4.26
 0.247 -1.559 4.271
 0.271 -1.551 4.246
 0.298 -1.557 4.262
 0.322 -1.553 4.247
 0.349 -1.557 4.259
 0.376 -1.564 4.274
 0.4 -1.555 4.248
 0.423 -1.548 4.227
 0.45 -1.554 4.24
 0.472 -1.541 4.201
 0.502 -1.556 4.238
 0.524 -1.546 4.209
 0.551 -1.55 4.217
 0.578 -1.555 4.228
 0.603 -1.553 4.219
 0.628 -1.554 4.217
 0.655 -1.557 4.222
 0.683 -1.563 4.235
 0.707 -1.559 4.219
 0.733 -1.561 4.221
 0.76 -1.562 4.22
 0.789 -1.569 4.234
 0.813 -1.567 4.225
 0.838 -1.565 4.215
 0.87 -1.577 4.244
 0.895 -1.575 4.231
 0.916 -1.567 4.205
 0.944 -1.571 4.21
 0.975 -1.579 4.229
 1.001 -1.579 4.223
 1.023 -1.574 4.203
 1.049 -1.574 4.196
 1.082 -1.585 4.22
 1.109 -1.587 4.219
 1.126 -1.575 4.181
 1.168 -1.597 4.233
 1.189 -1.59 4.206
 1.211 -1.585 4.188
 1.24 -1.588 4.189
 1.279 -1.604 4.225
 1.305 -1.605 4.219
 1.324 -1.596 4.187
 1.349 -1.594 4.176
 1.38 -1.601 4.185
 1.399 -1.593 4.156
 1.436 -1.605 4.181
 1.463 -1.606 4.175
 1.493 -1.611 4.177
 1.523 -1.615 4.179
 1.546 -1.611 4.16
 1.578 -1.616 4.165
 1.606 -1.619 4.162
 1.637 -1.623 4.163
 1.652 -1.612 4.125
 1.676 -1.609 4.109
 1.71 -1.617 4.12
 1.732 -1.613 4.099
 1.753 -1.608 4.075
 1.775 -1.605 4.057
 1.814 -1.616 4.075
 1.834 -1.61 4.05
 1.845 -1.597 4.005
 1.857 -1.585 3.965
 1.885 -1.587 3.958
 1.897 -1.576 3.919
 1.907 -1.563 3.874
 1.889 -1.528 3.776
 1.909 -1.524 3.755
 1.914 -1.508 3.705
 1.871 -1.456 3.565
 0 0 0
 0 0 0
 0 0 0
 0 0 0
 0 0 0
 0 0 0
 1.885 -1.348 3.223
 1.858 -1.314 3.129
 1.864 -1.303 3.092
 1.84 -1.272 3.006
 -2.341 -1.609 3.973
 -2.305 -1.603 3.97
 -2.276 -1.602 3.981
 -2.286 -1.628 4.06
 -2.239 -1.614 4.038
 -2.222 -1.622 4.07
 -2.193 -1.62 4.08
 -2.151 -1.609 4.064
 -2.136 -1.619 4.1
 -2.116 -1.625 4.127
 -2.061 -1.604 4.085
 -2.043 -1.611 4.114
 -2.021 -1.615 4.137
 -1.991 -1.613 4.143
 -1.96 -1.61 4.147
 -1.92 -1.599 4.13
 -1.923 -1.625 4.206
 -1.882 -1.613 4.186
 -1.846 -1.606 4.178
 -1.815 -1.602 4.178
 -1.798 -1.611 4.213
 -1.756 -1.598 4.187
 -1.743 -1.61 4.229
 -1.706 -1.602 4.216
 -1.664 -1.587 4.187
 -1.651 -1.601 4.231
 -1.607 -1.584 4.196
 -1.595 -1.599 4.244
 -1.559 -1.59 4.228
 -1.532 -1.59 4.236
 -1.5 -1.584 4.229
 -1.486 -1.598 4.273
 -1.451 -1.589 4.259
 -1.42 -1.584 4.253
 -1.396 -1.588 4.268
 -1.368 -1.586 4.273
 -1.332 -1.575 4.249
 -1.312 -1.583 4.277
 -1.272 -1.567 4.242
 -1.247 -1.568 4.25
 -1.225 -1.575 4.274
 -1.189 -1.563 4.247
 -1.169 -1.57 4.273
 -1.135 -1.56 4.251
 -1.115 -1.569 4.283
 -1.085 -1.564 4.274
 -1.06 -1.565 4.282
 -1.028 -1.558 4.267
 -1 -1.555 4.263
 -0.975 -1.557 4.276
 -0.944 -1.549 4.257
 -0.92 -1.552 4.269
 -0.894 -1.553 4.277
 -0.872 -1.56 4.3
 -0.84 -1.549 4.275
 -0.817 -1.555 4.294
 -0.792 -1.557 4.304
 -0.762 -1.549 4.285
 -0.736 -1.55 4.291
 -0.705 -1.538 4.263
 -0.684 -1.55 4.299
 -0.653 -1.538 4.269
 -0.627 -1.539 4.273
 -0.597 -1.527 4.242
 -0.573 -1.533 4.262
 -0.549 -1.537 4.275
 -0.52 -1.529 4.255
 -0.495 -1.529 4.258
 -0.471 -1.534 4.275
 -0.445 -1.535 4.28
 -0.418 -1.531 4.268
 -0.394 -1.537 4.287
 -0.369 -1.537 4.29
 -0.342 -1.533 4.281
 -0.317 -1.537 4.293
 -0.291 -1.537 4.293
 -0.264 -1.527 4.265
 -0.236 -1.513 4.227
 -0.214 -1.533 4.286
 -0.188 -1.532 4.282
 -0.161 -1.526 4.266
 -0.136 -1.531 4.281
 -0.111 -1.535 4.292
 -0.085 -1.539 4.305
 -0.059 -1.53 4.279
 -0.034 -1.523 4.26
 -0.008 -1.524 4.261
 0.016 -1.525 4.263
 0.042 -1.525 4.262
 0.067 -1.522 4.254
 0.093 -1.524 4.258
 0.118 -1.525 4.26
 0.144 -1.523 4.255
 0.169 -1.521 4.247
 0.195 -1.527 4.263
 0.22 -1.52 4.242
 0.247 -1.53 4.269
 0.272 -1.527 4.258
 0.297 -1.526 4.254
 0.323 -1.528 4.258
 0.35 -1.534 4.272
 0.374 -1.528 4.254
 0.401 -1.534 4.268
 0.426 -1.532 4.26
 0.45 -1.527 4.244
 0.48 -1.541 4.281
 0.504 -1.536 4.264
 0.525 -1.525 4.228
 0.554 -1.534 4.252
 0.581 -1.538 4.258
 0.607 -1.539 4.259
 0.631 -1.533 4.238
 0.658 -1.537 4.247
 0.68 -1.53 4.222
 0.709 -1.538 4.24
 0.736 -1.541 4.245
 0.761 -1.538 4.234
 0.792 -1.55 4.262
 0.816 -1.547 4.248
 0.837 -1.538 4.22
 0.87 -1.55 4.247
 0.897 -1.552 4.248
 0.918 -1.544 4.221
 0.959 -1.569 4.284
 0.967 -1.54 4.2
 0.996 -1.546 4.212
 1.029 -1.557 4.236
 1.055 -1.558 4.232
 1.084 -1.561 4.234
 1.112 -1.564 4.237
 1.136 -1.562 4.225
 1.167 -1.569 4.238
 1.192 -1.567 4.226
 1.216 -1.564 4.211
 1.244 -1.567 4.212
 1.275 -1.574 4.222
 1.302 -1.575 4.217
 1.326 -1.572 4.203
 1.367 -1.589 4.241
 1.386 -1.581 4.212
 1.417 -1.586 4.217
 1.448 -1.591 4.222
 1.468 -1.584 4.195
 1.496 -1.586 4.192
 1.52 -1.585 4.179
 1.55 -1.588 4.179
 1.584 -1.596 4.19
 1.611 -1.596 4.181
 1.645 -1.604 4.193
 1.669 -1.602 4.177
 1.697 -1.603 4.171
 1.712 -1.592 4.132
 1.75 -1.603 4.15
 1.772 -1.598 4.128
 1.802 -1.601 4.125
 1.819 -1.594 4.094
 1.838 -1.587 4.068
 1.868 -1.59 4.064
 1.88 -1.579 4.023
 1.899 -1.573 3.997
 1.891 -1.545 3.915
 1.895 -1.527 3.858
 1.885 -1.5 3.777
 1.904 -1.495 3.754
 0 0 0
 0 0 0
 0 0 0
 0 0 0
 0 0 0
 0 0 0
 0 0 0
 0 0 0
 1.84 -1.294 3.153
 1.84 -1.28 3.106
 1.852 -1.273 3.079
 1.853 -1.26 3.036
 0 0 0
 -2.361 -1.614 4.078
 -2.323 -1.607 4.073
 -2.298 -1.609 4.092
 -2.267 -1.607 4.099
 -2.234 -1.603 4.101
 -2.222 -1.614 4.144
 -2.195 -1.615 4.158
 -2.136 -1.592 4.111
 -2.134 -1.611 4.171
 -2.097 -1.604 4.167
 -2.082 -1.614 4.204
 -2.055 -1.614 4.216
 -2.006 -1.597 4.183
 -1.989 -1.606 4.218
 -1.957 -1.602 4.219
 -1.927 -1.6 4.224
 -1.896 -1.597 4.227
 -1.869 -1.598 4.238
 -1.847 -1.603 4.262
 -1.81 -1.595 4.25
 -1.785 -1.597 4.265
 -1.752 -1.592 4.263
 -1.718 -1.586 4.255
 -1.699 -1.594 4.285
 -1.67 -1.592 4.29
 -1.642 -1.592 4.298
 -1.607 -1.584 4.284
 -1.582 -1.586 4.3
 -1.551 -1.583 4.299
 -1.515 -1.573 4.282
 -1.496 -1.581 4.311
 -1.458 -1.571 4.289
 -1.432 -1.572 4.3
 -1.395 -1.56 4.276
 -1.369 -1.561 4.286
 -1.341 -1.559 4.287
 -1.327 -1.574 4.336
 -1.294 -1.568 4.324
 -1.254 -1.551 4.283
 -1.233 -1.558 4.31
 -1.199 -1.548 4.289
 -1.178 -1.556 4.317
 -1.143 -1.545 4.291
 -1.117 -1.546 4.3
 -1.085 -1.537 4.281
 -1.06 -1.54 4.294
 -1.032 -1.538 4.293
 -1.007 -1.539 4.302
 -0.983 -1.543 4.316
 -0.949 -1.532 4.29
 -0.924 -1.533 4.299
 -0.896 -1.53 4.293
 -0.871 -1.532 4.305
 -0.844 -1.53 4.303
 -0.814 -1.523 4.286
 -0.787 -1.522 4.288
 -0.76 -1.519 4.283
 -0.738 -1.528 4.311
 -0.707 -1.517 4.283
 -0.677 -1.51 4.265
 -0.654 -1.516 4.286
 -0.625 -1.507 4.264
 -0.603 -1.516 4.294
 -0.573 -1.506 4.268
 -0.548 -1.509 4.279
 -0.528 -1.524 4.323
 -0.495 -1.505 4.271
 -0.47 -1.506 4.277
 -0.443 -1.502 4.267
 -0.419 -1.509 4.288
 -0.394 -1.512 4.298
 -0.365 -1.496 4.253
 -0.341 -1.504 4.279
 -0.315 -1.504 4.279
 -0.29 -1.505 4.284
 -0.264 -1.503 4.28
 -0.237 -1.492 4.249
 -0.213 -1.502 4.278
 -0.188 -1.508 4.295
 -0.162 -1.509 4.3
 -0.135 -1.496 4.263
 -0.11 -1.501 4.277
 -0.085 -1.501 4.276
 -0.059 -1.499 4.27
 -0.033 -1.495 4.26
 -0.008 -1.499 4.271
 0.017 -1.498 4.267
 0.042 -1.501 4.276
 0.067 -1.489 4.241
 0.092 -1.488 4.236
 0.118 -1.494 4.253
 0.144 -1.503 4.278
 0.17 -1.502 4.274
 0.194 -1.489 4.236
 0.222 -1.507 4.287
 0.245 -1.495 4.25
 0.271 -1.5 4.262
 0.296 -1.495 4.246
 0.323 -1.504 4.27
 0.347 -1.495 4.242
 0.372 -1.496 4.242
 0.401 -1.508 4.275
 0.424 -1.499 4.246
 0.451 -1.504 4.258
 0.477 -1.504 4.257
 0.504 -1.512 4.275
 0.526 -1.499 4.237
 0.552 -1.502 4.242
 0.578 -1.503 4.24
 0.606 -1.509 4.256
 0.631 -1.508 4.25
 0.655 -1.504 4.232
 0.681 -1.506 4.236
 0.716 -1.526 4.289
 0.738 -1.517 4.26
 0.762 -1.514 4.246
 0.786 -1.512 4.237
 0.815 -1.518 4.248
 0.841 -1.519 4.246
 0.865 -1.516 4.234
 0.892 -1.518 4.234
 0.922 -1.526 4.251
 0.948 -1.525 4.244
 0.972 -1.523 4.231
 0.997 -1.521 4.222
 1.03 -1.532 4.248
 1.047 -1.52 4.207
 1.079 -1.529 4.225
 1.109 -1.534 4.233
 1.137 -1.537 4.236
 1.168 -1.543 4.247
 1.193 -1.542 4.237
 1.217 -1.54 4.223
 1.244 -1.542 4.221
 1.268 -1.539 4.207
 1.295 -1.54 4.204
 1.33 -1.55 4.222
 1.363 -1.558 4.238
 1.386 -1.554 4.218
 1.416 -1.558 4.222
 1.442 -1.559 4.215
 1.466 -1.555 4.198
 1.504 -1.568 4.224
 1.528 -1.566 4.209
 1.562 -1.573 4.219
 1.583 -1.568 4.197
 1.612 -1.571 4.194
 1.646 -1.578 4.204
 1.68 -1.585 4.212
 1.703 -1.581 4.193
 1.729 -1.58 4.181
 1.755 -1.581 4.171
 1.78 -1.579 4.157
 1.815 -1.586 4.165
 1.834 -1.579 4.136
 1.865 -1.583 4.135
 1.876 -1.571 4.091
 1.858 -1.534 3.984
 1.899 -1.546 4.005
 1.873 -1.505 3.886
 1.924 -1.525 3.927
 1.902 -1.488 3.82
 0 0 0
 0 0 0
 0 0 0
 0 0 0
 0 0 0
 0 0 0
 0 0 0
 0 0 0
 0 0 0
 1.84 -1.273 3.161
 1.851 -1.266 3.132
 1.87 -1.265 3.117
 1.881 -1.258 3.089
 -2.418 -1.606 4.123
 -2.431 -1.634 4.21
 -2.35 -1.598 4.131
 -2.336 -1.607 4.169
 -2.313 -1.611 4.193
 -2.305 -1.626 4.243
 -2.226 -1.59 4.162
 -2.224 -1.608 4.223
 -2.171 -1.59 4.187
 -2.168 -1.609 4.249
 -2.124 -1.597 4.23
 -2.115 -1.611 4.28
 -2.081 -1.607 4.28
 -2.045 -1.6 4.274
 -2.03 -1.611 4.315
 -1.976 -1.591 4.27
 -1.934 -1.578 4.248
 -1.909 -1.581 4.266
 -1.885 -1.584 4.284
 -1.847 -1.575 4.271
 -1.815 -1.572 4.271
 -1.777 -1.562 4.256
 -1.77 -1.581 4.316
 -1.727 -1.567 4.286
 -1.698 -1.565 4.291
 -1.667 -1.562 4.29
 -1.638 -1.56 4.296
 -1.613 -1.563 4.312
 -1.569 -1.546 4.273
 -1.548 -1.553 4.299
 -1.52 -1.551 4.304
 -1.495 -1.553 4.318
 -1.472 -1.558 4.337
 -1.434 -1.547 4.314
 -1.401 -1.54 4.301
 -1.38 -1.546 4.327
 -1.345 -1.537 4.308
 -1.311 -1.529 4.291
 -1.286 -1.531 4.305
 -1.252 -1.523 4.288
 -1.227 -1.524 4.299
 -1.203 -1.527 4.312
 -1.168 -1.517 4.291
 -1.136 -1.509 4.273
 -1.113 -1.514 4.292
 -1.089 -1.517 4.307
 -1.058 -1.51 4.292
 -1.033 -1.512 4.303
 -0.999 -1.501 4.276
 -0.977 -1.508 4.3
 -0.947 -1.502 4.287
 -0.918 -1.498 4.28
 -0.892 -1.497 4.283
 -0.868 -1.501 4.298
 -0.843 -1.503 4.307
 -0.814 -1.497 4.294
 -0.783 -1.488 4.272
 -0.758 -1.49 4.281
 -0.732 -1.489 4.282
 -0.707 -1.491 4.292
 -0.681 -1.493 4.299
 -0.652 -1.486 4.283
 -0.628 -1.489 4.293
 -0.602 -1.488 4.294
 -0.576 -1.487 4.295
 -0.548 -1.483 4.285
 -0.525 -1.49 4.308
 -0.494 -1.476 4.27
 -0.471 -1.485 4.298
 -0.443 -1.476 4.272
 -0.42 -1.486 4.303
 -0.391 -1.475 4.272
 -0.365 -1.472 4.267
 -0.34 -1.474 4.273
 -0.316 -1.48 4.293
 -0.291 -1.484 4.303
 -0.263 -1.475 4.279
 -0.236 -1.463 4.246
 -0.212 -1.475 4.281
 -0.186 -1.473 4.275
 -0.162 -1.48 4.296
 -0.135 -1.473 4.278
 -0.11 -1.478 4.291
 -0.084 -1.47 4.269
 -0.059 -1.47 4.269
 -0.033 -1.464 4.251
 -0.008 -1.475 4.283
 0.017 -1.469 4.264
 0.042 -1.465 4.253
 0.068 -1.474 4.277
 0.094 -1.479 4.292
 0.118 -1.468 4.258
 0.144 -1.471 4.267
 0.169 -1.471 4.265
 0.195 -1.475 4.275
 0.22 -1.472 4.264
 0.245 -1.468 4.254
 0.271 -1.47 4.258
 0.297 -1.472 4.261
 0.322 -1.471 4.257
 0.348 -1.476 4.268
 0.373 -1.471 4.253
 0.398 -1.472 4.251
 0.423 -1.471 4.247
 0.449 -1.473 4.25
 0.477 -1.48 4.269
 0.501 -1.474 4.249
 0.527 -1.476 4.25
 0.554 -1.48 4.259
 0.579 -1.48 4.258
 0.603 -1.475 4.24
 0.63 -1.479 4.247
 0.655 -1.479 4.243
 0.681 -1.48 4.241
 0.711 -1.49 4.266
 0.735 -1.487 4.253
 0.761 -1.487 4.249
 0.791 -1.494 4.266
 0.815 -1.491 4.253
 0.84 -1.491 4.249
 0.866 -1.491 4.245
 0.892 -1.492 4.241
 0.919 -1.494 4.243
 0.952 -1.505 4.268
 0.976 -1.502 4.254
 0.999 -1.498 4.237
 1.026 -1.5 4.238
 1.052 -1.5 4.231
 1.083 -1.507 4.247
 1.105 -1.502 4.226
 1.134 -1.507 4.233
 1.149 -1.493 4.186
 1.185 -1.505 4.215
 1.221 -1.518 4.245
 1.248 -1.519 4.24
 1.27 -1.514 4.22
 1.304 -1.523 4.238
 1.332 -1.526 4.236
 1.357 -1.525 4.227
 1.379 -1.52 4.205
 1.42 -1.537 4.244
 1.441 -1.531 4.219
 1.476 -1.54 4.237
 1.494 -1.531 4.203
 1.524 -1.535 4.205
 1.559 -1.544 4.221
 1.593 -1.551 4.23
 1.614 -1.546 4.208
 1.647 -1.552 4.214
 1.678 -1.555 4.215
 1.699 -1.551 4.193
 1.732 -1.556 4.197
 1.761 -1.558 4.192
 1.776 -1.548 4.155
 1.814 -1.558 4.171
 1.847 -1.564 4.175
 1.861 -1.553 4.135
 1.858 -1.529 4.06
 1.888 -1.532 4.058
 1.873 -1.499 3.959
 1.903 -1.502 3.956
 1.921 -1.497 3.93
 0 0 0
 0 0 0
 0 0 0
 0 0 0
 0 0 0
 0 0 0
 0 0 0
 0 0 0
 0 0 0
 0 0 0
 1.815 -1.234 3.125
 1.895 -1.274 3.214
 1.879 -1.248 3.138
 1.851 -1.216 3.045
 -2.474 -1.614 4.229
 -2.471 -1.631 4.289
 -2.388 -1.595 4.207
 -2.387 -1.614 4.271
 -2.369 -1.621 4.304
 -2.297 -1.591 4.237
 -2.263 -1.588 4.24
 -2.247 -1.597 4.277
 -2.211 -1.591 4.274
 -2.195 -1.6 4.311
 -2.153 -1.59 4.297
 -2.122 -1.588 4.303
 -2.079 -1.578 4.286
 -2.052 -1.578 4.299
 -2.023 -1.578 4.309
 -1.975 -1.562 4.277
 -1.959 -1.571 4.314
 -1.932 -1.572 4.326
 -1.894 -1.564 4.314
 -1.852 -1.552 4.292
 -1.818 -1.547 4.288
 -1.786 -1.543 4.287
 -1.75 -1.535 4.274
 -1.726 -1.538 4.292
 -1.698 -1.538 4.3
 -1.667 -1.535 4.301
 -1.634 -1.53 4.295
 -1.607 -1.53 4.303
 -1.578 -1.528 4.308
 -1.561 -1.538 4.343
 -1.513 -1.517 4.292
 -1.49 -1.521 4.312
 -1.459 -1.518 4.309
 -1.43 -1.516 4.311
 -1.394 -1.506 4.29
 -1.363 -1.501 4.283
 -1.334 -1.498 4.283
 -1.31 -1.501 4.297
 -1.284 -1.503 4.308
 -1.247 -1.49 4.278
 -1.228 -1.498 4.309
 -1.197 -1.493 4.3
 -1.169 -1.492 4.303
 -1.144 -1.493 4.311
 -1.116 -1.491 4.311
 -1.09 -1.492 4.318
 -1.059 -1.487 4.308
 -1.027 -1.478 4.288
 -0.995 -1.47 4.269
 -0.968 -1.469 4.27
 -0.946 -1.475 4.293
 -0.924 -1.481 4.316
 -0.896 -1.478 4.31
 -0.866 -1.471 4.294
 -0.843 -1.478 4.318
 -0.813 -1.47 4.3
 -0.782 -1.461 4.276
 -0.76 -1.469 4.303
 -0.73 -1.46 4.281
 -0.703 -1.458 4.279
 -0.678 -1.46 4.287
 -0.65 -1.456 4.277
 -0.625 -1.457 4.283
 -0.603 -1.466 4.313
 -0.573 -1.456 4.285
 -0.545 -1.45 4.272
 -0.519 -1.45 4.272
 -0.494 -1.451 4.277
 -0.47 -1.455 4.293
 -0.445 -1.456 4.297
 -0.418 -1.454 4.292
 -0.391 -1.45 4.282
 -0.367 -1.455 4.297
 -0.342 -1.459 4.313
 -0.314 -1.447 4.277
 -0.289 -1.452 4.293
 -0.263 -1.447 4.28
 -0.236 -1.441 4.263
 -0.212 -1.452 4.297
 -0.186 -1.445 4.276
 -0.161 -1.45 4.291
 -0.135 -1.444 4.275
 -0.11 -1.447 4.282
 -0.084 -1.445 4.276
 -0.059 -1.446 4.281
 -0.033 -1.436 4.25
 -0.008 -1.446 4.28
 0.017 -1.444 4.272
 0.042 -1.438 4.254
 0.068 -1.448 4.283
 0.093 -1.443 4.268
 0.119 -1.446 4.277
 0.143 -1.439 4.256
 0.168 -1.431 4.229
 0.195 -1.443 4.265
 0.22 -1.443 4.262
 0.246 -1.444 4.264
 0.27 -1.441 4.253
 0.297 -1.446 4.267
 0.321 -1.44 4.247
 0.349 -1.453 4.283
 0.373 -1.444 4.256
 0.398 -1.443 4.25
 0.424 -1.447 4.259
 0.45 -1.448 4.259
 0.476 -1.449 4.26
 0.498 -1.441 4.233
 0.527 -1.452 4.262
 0.551 -1.446 4.243
 0.574 -1.441 4.224
 0.603 -1.451 4.25
 0.63 -1.453 4.253
 0.66 -1.463 4.279
 0.681 -1.454 4.248
 0.705 -1.45 4.233
 0.735 -1.46 4.258
 0.759 -1.456 4.243
 0.785 -1.457 4.24
 0.814 -1.464 4.256
 0.84 -1.463 4.251
 0.868 -1.468 4.258
 0.894 -1.469 4.256
 0.922 -1.472 4.261
 0.953 -1.48 4.28
 0.969 -1.466 4.233
 1.003 -1.478 4.263
 1.032 -1.482 4.268
 1.053 -1.476 4.245
 1.079 -1.475 4.238
 1.108 -1.48 4.244
 1.145 -1.494 4.279
 1.16 -1.481 4.235
 1.186 -1.48 4.226
 1.214 -1.483 4.229
 1.238 -1.481 4.215
 1.275 -1.494 4.245
 1.301 -1.494 4.238
 1.324 -1.49 4.22
 1.359 -1.5 4.241
 1.385 -1.5 4.233
 1.404 -1.493 4.204
 1.442 -1.505 4.23
 1.462 -1.499 4.204
 1.493 -1.504 4.209
 1.526 -1.51 4.219
 1.557 -1.515 4.223
 1.581 -1.513 4.208
 1.611 -1.516 4.209
 1.64 -1.518 4.205
 1.666 -1.518 4.193
 1.702 -1.527 4.208
 1.726 -1.524 4.191
 1.764 -1.534 4.208
 1.789 -1.533 4.194
 1.812 -1.53 4.175
 1.86 -1.547 4.213
 1.848 -1.516 4.116
 1.877 -1.518 4.11
 1.867 -1.489 4.021
 1.907 -1.5 4.04
 1.897 -1.472 3.952
 0 0 0
 0 0 0
 0 0 0
 0 0 0
 0 0 0
 0 0 0
 0 0 0
 0 0 0
 0 0 0
 0 0 0
 0 0 0
 1.85 -1.236 3.192
 1.877 -1.24 3.19
 1.889 -1.234 3.164
 1.857 -1.199 3.063
 -2.488 -1.594 4.262
 -2.445 -1.585 4.253
 -2.43 -1.595 4.292
 -2.378 -1.579 4.264
 -2.329 -1.566 4.24
 -2.326 -1.583 4.3
 -2.295 -1.582 4.31
 -2.262 -1.578 4.314
 -2.239 -1.583 4.339
 -2.194 -1.571 4.319
 -2.161 -1.568 4.322
 -2.112 -1.553 4.293
 -2.084 -1.553 4.305
 -2.059 -1.556 4.324
 -2.015 -1.543 4.3
 -1.996 -1.55 4.331
 -1.967 -1.55 4.341
 -1.924 -1.538 4.319
 -1.882 -1.527 4.297
 -1.855 -1.528 4.309
 -1.829 -1.528 4.321
 -1.792 -1.521 4.31
 -1.768 -1.524 4.329
 -1.73 -1.515 4.312
 -1.7 -1.512 4.314
 -1.675 -1.515 4.331
 -1.648 -1.516 4.341
 -1.619 -1.514 4.344
 -1.579 -1.502 4.317
 -1.54 -1.49 4.293
 -1.519 -1.496 4.318
 -1.489 -1.494 4.319
 -1.46 -1.492 4.321
 -1.429 -1.488 4.317
 -1.408 -1.493 4.34
 -1.363 -1.474 4.292
 -1.337 -1.475 4.299
 -1.314 -1.48 4.321
 -1.28 -1.471 4.303
 -1.254 -1.472 4.311
 -1.229 -1.474 4.323
 -1.192 -1.461 4.29
 -1.169 -1.466 4.31
 -1.137 -1.458 4.293
 -1.113 -1.461 4.309
 -1.079 -1.451 4.283
 -1.05 -1.448 4.28
 -1.033 -1.46 4.321
 -1.005 -1.458 4.318
 -0.976 -1.454 4.311
 -0.946 -1.449 4.301
 -0.924 -1.456 4.325
 -0.895 -1.451 4.316
 -0.865 -1.444 4.3
 -0.844 -1.452 4.328
 -0.805 -1.43 4.266
 -0.784 -1.438 4.293
 -0.756 -1.436 4.29
 -0.731 -1.436 4.294
 -0.703 -1.432 4.286
 -0.677 -1.432 4.289
 -0.658 -1.447 4.334
 -0.626 -1.433 4.297
 -0.599 -1.431 4.293
 -0.571 -1.426 4.282
 -0.547 -1.429 4.293
 -0.521 -1.428 4.29
 -0.494 -1.426 4.287
 -0.47 -1.43 4.301
 -0.442 -1.421 4.278
 -0.419 -1.43 4.306
 -0.391 -1.423 4.285
 -0.365 -1.42 4.279
 -0.339 -1.422 4.285
 -0.312 -1.414 4.261
 -0.289 -1.424 4.293
 -0.262 -1.421 4.284
 -0.236 -1.416 4.27
 -0.211 -1.419 4.28
 -0.185 -1.415 4.27
 -0.16 -1.418 4.279
 -0.135 -1.416 4.274
 -0.109 -1.418 4.281
 -0.083 -1.408 4.251
 -0.059 -1.423 4.294
 -0.033 -1.431 4.318
 -0.007 -1.419 4.281
 0.017 -1.427 4.307
 0.042 -1.417 4.276
 0.068 -1.413 4.262
 0.093 -1.422 4.288
 0.118 -1.414 4.263
 0.144 -1.421 4.283
 0.168 -1.409 4.245
 0.196 -1.424 4.29
 0.221 -1.42 4.279
 0.247 -1.424 4.287
 0.271 -1.418 4.267
 0.297 -1.422 4.279
 0.322 -1.419 4.267
 0.346 -1.412 4.243
 0.37 -1.41 4.237
 0.398 -1.42 4.265
 0.424 -1.42 4.262
 0.449 -1.42 4.26
 0.473 -1.415 4.242
 0.501 -1.423 4.264
 0.528 -1.428 4.275
 0.548 -1.414 4.23
 0.577 -1.423 4.254
 0.6 -1.418 4.234
 0.626 -1.419 4.234
 0.656 -1.429 4.262
 0.685 -1.436 4.278
 0.711 -1.436 4.275
 0.736 -1.436 4.271
 0.76 -1.432 4.256
 0.786 -1.433 4.253
 0.812 -1.434 4.251
 0.838 -1.435 4.25
 0.864 -1.435 4.245
 0.893 -1.441 4.259
 0.919 -1.441 4.255
 0.942 -1.437 4.237
 0.977 -1.451 4.274
 0.998 -1.445 4.249
 1.026 -1.447 4.25
 1.058 -1.457 4.273
 1.077 -1.446 4.237
 1.103 -1.447 4.232
 1.131 -1.45 4.236
 1.163 -1.458 4.252
 1.192 -1.461 4.255
 1.216 -1.459 4.241
 1.246 -1.463 4.248
 1.27 -1.462 4.235
 1.297 -1.463 4.233
 1.325 -1.465 4.231
 1.363 -1.478 4.26
 1.375 -1.463 4.21
 1.415 -1.477 4.243
 1.437 -1.473 4.222
 1.463 -1.473 4.215
 1.495 -1.479 4.222
 1.524 -1.482 4.222
 1.546 -1.477 4.201
 1.583 -1.488 4.22
 1.614 -1.492 4.224
 1.64 -1.491 4.212
 1.672 -1.496 4.217
 1.697 -1.495 4.204
 1.728 -1.499 4.204
 1.766 -1.508 4.221
 1.78 -1.498 4.182
 1.811 -1.501 4.18
 1.851 -1.513 4.201
 1.862 -1.5 4.155
 1.871 -1.486 4.104
 1.887 -1.478 4.072
 1.909 -1.475 4.051
 0 0 0
 0 0 0
 0 0 0
 0 0 0
 0 0 0
 0 0 0
 0 0 0
 0 0 0
 0 0 0
 0 0 0
 0 0 0
 0 0 0
 0 0 0
 1.869 -1.213 3.184
 1.848 -1.186 3.101
 1.857 -1.178 3.07
 0 0 0
 0 0 0
 0 0 0
 -2.419 -1.577 4.348
 -2.38 -1.571 4.344
 -2.344 -1.566 4.343
 -2.281 -1.544 4.294
 -2.279 -1.562 4.357
 -2.228 -1.546 4.326
 -2.204 -1.55 4.349
 -2.159 -1.538 4.328
 -2.144 -1.548 4.367
 -2.09 -1.53 4.328
 -2.049 -1.52 4.311
 -2.022 -1.521 4.325
 -1.998 -1.524 4.345
 -1.969 -1.524 4.355
 -1.938 -1.521 4.359
 -1.899 -1.513 4.345
 -1.855 -1.5 4.317
 -1.834 -1.505 4.344
 -1.791 -1.493 4.317
 -1.765 -1.494 4.329
 -1.729 -1.487 4.318
 -1.704 -1.489 4.333
 -1.662 -1.476 4.304
 -1.633 -1.474 4.308
 -1.619 -1.487 4.354
 -1.586 -1.482 4.347
 -1.542 -1.465 4.307
 -1.525 -1.475 4.344
 -1.487 -1.464 4.32
 -1.46 -1.465 4.329
 -1.43 -1.462 4.327
 -1.394 -1.452 4.305
 -1.373 -1.459 4.333
 -1.337 -1.448 4.308
 -1.311 -1.45 4.32
 -1.274 -1.437 4.288
 -1.253 -1.444 4.314
 -1.225 -1.442 4.315
 -1.193 -1.436 4.301
 -1.169 -1.439 4.317
 -1.137 -1.432 4.302
 -1.104 -1.424 4.283
 -1.082 -1.429 4.304
 -1.058 -1.433 4.32
 -1.034 -1.436 4.335
 -0.999 -1.424 4.303
 -0.969 -1.417 4.287
 -0.948 -1.425 4.315
 -0.917 -1.418 4.299
 -0.897 -1.427 4.331
 -0.861 -1.412 4.287
 -0.836 -1.414 4.297
 -0.81 -1.413 4.3
 -0.785 -1.414 4.307
 -0.757 -1.411 4.3
 -0.727 -1.404 4.283
 -0.707 -1.414 4.317
 -0.672 -1.396 4.263
 -0.651 -1.406 4.296
 -0.626 -1.408 4.305
 -0.599 -1.405 4.3
 -0.575 -1.409 4.314
 -0.548 -1.408 4.313
 -0.521 -1.403 4.301
 -0.494 -1.399 4.29
 -0.468 -1.397 4.288
 -0.444 -1.403 4.306
 -0.416 -1.398 4.292
 -0.393 -1.406 4.318
 -0.363 -1.391 4.273
 -0.337 -1.388 4.265
 -0.313 -1.395 4.29
 -0.287 -1.391 4.277
 -0.262 -1.395 4.29
 -0.237 -1.394 4.288
 -0.211 -1.392 4.283
 -0.185 -1.388 4.271
 -0.159 -1.387 4.27
 -0.134 -1.389 4.276
 -0.109 -1.394 4.292
 -0.083 -1.389 4.274
 -0.058 -1.378 4.242
 -0.033 -1.392 4.284
 -0.007 -1.394 4.292
 0.017 -1.397 4.3
 0.043 -1.395 4.294
 0.068 -1.391 4.279
 0.093 -1.388 4.271
 0.119 -1.394 4.288
 0.144 -1.387 4.265
 0.169 -1.387 4.264
 0.195 -1.392 4.277
 0.219 -1.383 4.25
 0.245 -1.391 4.272
 0.27 -1.386 4.255
 0.297 -1.394 4.276
 0.322 -1.392 4.269
 0.345 -1.382 4.238
 0.374 -1.396 4.279
 0.399 -1.396 4.277
 0.424 -1.394 4.269
 0.448 -1.392 4.257
 0.473 -1.389 4.247
 0.499 -1.391 4.25
 0.529 -1.404 4.287
 0.551 -1.396 4.258
 0.578 -1.399 4.265
 0.6 -1.39 4.235
 0.628 -1.398 4.256
 0.651 -1.391 4.231
 0.682 -1.403 4.263
 0.706 -1.401 4.253
 0.731 -1.4 4.248
 0.76 -1.407 4.264
 0.786 -1.408 4.263
 0.815 -1.414 4.276
 0.836 -1.405 4.244
 0.86 -1.403 4.235
 0.893 -1.415 4.266
 0.918 -1.415 4.259
 0.944 -1.414 4.253
 0.974 -1.42 4.266
 1 -1.421 4.263
 1.021 -1.415 4.239
 1.05 -1.419 4.247
 1.079 -1.423 4.252
 1.105 -1.424 4.248
 1.131 -1.423 4.241
 1.157 -1.424 4.236
 1.185 -1.427 4.237
 1.212 -1.428 4.236
 1.237 -1.427 4.225
 1.265 -1.429 4.225
 1.291 -1.429 4.218
 1.324 -1.438 4.235
 1.354 -1.442 4.24
 1.386 -1.448 4.249
 1.411 -1.447 4.238
 1.434 -1.443 4.22
 1.462 -1.446 4.219
 1.488 -1.445 4.21
 1.521 -1.452 4.22
 1.557 -1.461 4.239
 1.579 -1.457 4.217
 1.613 -1.464 4.227
 1.641 -1.465 4.223
 1.679 -1.476 4.243
 1.696 -1.467 4.208
 1.73 -1.473 4.217
 1.757 -1.474 4.207
 1.778 -1.469 4.185
 1.814 -1.477 4.196
 1.831 -1.469 4.163
 1.867 -1.477 4.174
 1.872 -1.46 4.116
 1.887 -1.451 4.078
 0 0 0
 0 0 0
 0 0 0
 0 0 0
 0 0 0
 0 0 0
 0 0 0
 0 0 0
 0 0 0
 0 0 0
 0 0 0
 0 0 0
 0 0 0
 0 0 0
 1.86 -1.185 3.175
 1.872 -1.179 3.148
 1.88 -1.172 3.115
 -2.519 -1.556 4.335
 -2.495 -1.559 4.36
 -2.44 -1.543 4.329
 -2.411 -1.543 4.342
 -2.392 -1.55 4.375
 -2.349 -1.541 4.362
 -2.318 -1.54 4.373
 -2.262 -1.521 4.333
 -2.24 -1.526 4.36
 -2.179 -1.504 4.309
 -2.159 -1.509 4.336
 -2.13 -1.51 4.349
 -2.102 -1.51 4.361
 -2.06 -1.5 4.344
 -2.018 -1.49 4.326
 -1.985 -1.486 4.326
 -1.959 -1.488 4.341
 -1.931 -1.487 4.351
 -1.892 -1.48 4.338
 -1.88 -1.492 4.385
 -1.833 -1.476 4.349
 -1.792 -1.466 4.327
 -1.758 -1.461 4.322
 -1.735 -1.464 4.341
 -1.7 -1.458 4.331
 -1.659 -1.446 4.305
 -1.642 -1.455 4.341
 -1.603 -1.445 4.319
 -1.576 -1.446 4.329
 -1.55 -1.446 4.339
 -1.517 -1.44 4.33
 -1.482 -1.433 4.314
 -1.458 -1.436 4.331
 -1.426 -1.431 4.324
 -1.4 -1.432 4.333
 -1.371 -1.43 4.335
 -1.33 -1.415 4.295
 -1.305 -1.416 4.306
 -1.277 -1.414 4.307
 -1.249 -1.413 4.309
 -1.227 -1.418 4.331
 -1.195 -1.412 4.318
 -1.162 -1.405 4.301
 -1.141 -1.411 4.325
 -1.104 -1.397 4.288
 -1.077 -1.397 4.292
 -1.055 -1.402 4.315
 -1.028 -1.401 4.315
 -0.999 -1.397 4.307
 -0.968 -1.391 4.294
 -0.943 -1.392 4.302
 -0.919 -1.396 4.318
 -0.888 -1.388 4.298
 -0.861 -1.386 4.296
 -0.839 -1.393 4.322
 -0.806 -1.38 4.286
 -0.778 -1.376 4.276
 -0.762 -1.395 4.338
 -0.728 -1.38 4.294
 -0.697 -1.369 4.264
 -0.674 -1.375 4.285
 -0.65 -1.379 4.299
 -0.625 -1.381 4.31
 -0.593 -1.366 4.265
 -0.567 -1.366 4.268
 -0.538 -1.356 4.238
 -0.524 -1.387 4.338
 -0.497 -1.384 4.33
 -0.469 -1.375 4.305
 -0.442 -1.374 4.303
 0 0 0
 0 0 0
 0 0 0
 0 0 0
 -0.312 -1.365 4.281
 -0.289 -1.373 4.309
 -0.261 -1.362 4.274
 -0.236 -1.365 4.286
 -0.211 -1.37 4.301
 -0.184 -1.358 4.264
 -0.16 -1.364 4.284
 -0.134 -1.365 4.287
 -0.109 -1.37 4.302
 -0.083 -1.359 4.268
 -0.058 -1.364 4.284
 -0.032 -1.361 4.273
 -0.007 -1.353 4.247
 0.018 -1.399 4.392
 0 0 0
 0.066 -1.324 4.156
 0.094 -1.372 4.306
 0 0 0
 0.145 -1.376 4.318
 0.166 -1.339 4.199
 0.192 -1.343 4.212
 0 0 0
 0.244 -1.358 4.255
 0.27 -1.362 4.265
 0.297 -1.369 4.287
 0.324 -1.376 4.307
 0.348 -1.369 4.281
 0.379 -1.39 4.348
 0.403 -1.385 4.328
 0.422 -1.363 4.258
 0.442 -1.347 4.203
 0.477 -1.375 4.289
 0.504 -1.38 4.303
 0.525 -1.367 4.26
 0.545 -1.355 4.219
 0.577 -1.371 4.265
 0.608 -1.384 4.301
 0.633 -1.381 4.291
 0.652 -1.367 4.244
 0.677 -1.368 4.242
 0.705 -1.372 4.251
 0.74 -1.391 4.304
 0.757 -1.375 4.252
 0.781 -1.373 4.241
 0.816 -1.388 4.283
 0.836 -1.38 4.253
 0.857 -1.372 4.225
 0.897 -1.396 4.293
 0.911 -1.377 4.232
 0.941 -1.384 4.248
 0.973 -1.393 4.269
 0.994 -1.387 4.245
 1.02 -1.387 4.241
 1.051 -1.394 4.257
 1.078 -1.396 4.257
 1.106 -1.398 4.256
 1.132 -1.398 4.251
 1.156 -1.396 4.239
 1.187 -1.403 4.251
 1.212 -1.402 4.242
 1.236 -1.4 4.23
 1.263 -1.401 4.225
 1.285 -1.397 4.208
 1.33 -1.417 4.26
 1.35 -1.412 4.236
 1.384 -1.419 4.251
 1.41 -1.419 4.243
 1.438 -1.421 4.239
 1.463 -1.419 4.227
 1.496 -1.426 4.238
 1.513 -1.418 4.205
 1.541 -1.419 4.201
 1.576 -1.428 4.217
 1.602 -1.427 4.207
 1.628 -1.427 4.197
 1.666 -1.437 4.216
 1.698 -1.442 4.222
 1.724 -1.442 4.211
 1.751 -1.442 4.202
 1.784 -1.448 4.207
 1.804 -1.442 4.181
 1.849 -1.456 4.212
 1.861 -1.445 4.169
 1.878 -1.438 4.136
 0 0 0
 0 0 0
 0 0 0
 0 0 0
 0 0 0
 0 0 0
 0 0 0
 0 0 0
 0 0 0
 0 0 0
 0 0 0
 0 0 0
 0 0 0
 0 0 0
 0 0 0
 1.834 -1.147 3.137
 1.863 -1.152 3.139
 1.89 -1.156 3.138
 -2.559 -1.551 4.415
 -2.516 -1.543 4.406
 -2.446 -1.518 4.349
 -2.432 -1.527 4.39
 -2.37 -1.507 4.344
 -2.355 -1.516 4.383
 -2.302 -1.5 4.352
 -2.261 -1.492 4.341
 -2.23 -1.491 4.349
 -2.194 -1.486 4.346
 -2.153 -1.477 4.334
 -2.116 -1.472 4.329
 -2.096 -1.477 4.358
 -2.057 -1.469 4.346
 -2.013 -1.458 4.324
 -1.999 -1.469 4.365
 -1.97 -1.468 4.375
 -1.922 -1.453 4.34
 -1.883 -1.444 4.324
 -1.864 -1.451 4.356
 -1.825 -1.442 4.338
 -1.783 -1.431 4.314
 -1.758 -1.433 4.329
 -1.726 -1.429 4.327
 -1.692 -1.424 4.32
 -1.668 -1.427 4.339
 -1.628 -1.416 4.313
 -1.603 -1.418 4.327
 -1.574 -1.416 4.331
 -1.543 -1.413 4.328
 -1.514 -1.411 4.33
 -1.485 -1.409 4.331
 -1.452 -1.404 4.323
 -1.418 -1.396 4.307
 -1.388 -1.393 4.304
 -1.36 -1.392 4.307
 -1.337 -1.396 4.327
 -1.307 -1.392 4.32
 -1.27 -1.381 4.293
 -1.239 -1.375 4.281
 -1.223 -1.387 4.324
 -1.189 -1.379 4.304
 -1.164 -1.381 4.317
 -1.137 -1.38 4.319
 -1.094 -1.36 4.261
 -1.072 -1.364 4.281
 -1.051 -1.37 4.304
 -1.027 -1.374 4.322
 -1.003 -1.376 4.332
 -0.963 -1.357 4.276
 -0.935 -1.355 4.274
 0 0 0
 0 0 0
 0 0 0
 0 0 0
 0 0 0
 0 0 0
 0 0 0
 0 0 0
 0 0 0
 0 0 0
 0 0 0
 0 0 0
 0 0 0
 0 0 0
 0 0 0
 0 0 0
 0 0 0
 0 0 0
 0 0 0
 0 0 0
 0 0 0
 0 0 0
 0 0 0
 0 0 0
 -0.285 -1.331 4.261
 -0.261 -1.338 4.286
 -0.236 -1.342 4.3
 -0.211 -1.343 4.305
 -0.185 -1.34 4.293
 -0.159 -1.333 4.271
 -0.134 -1.337 4.285
 -0.109 -1.339 4.293
 -0.083 -1.341 4.3
 -0.057 -1.326 4.25
 -0.032 -1.334 4.276
 -0.007 -1.327 4.253
 0 0 0
 0 0 0
 0 0 0
 0 0 0
 0 0 0
 0 0 0
 0 0 0
 0 0 0
 0 0 0
 0 0 0
 0 0 0
 0 0 0
 0 0 0
 0 0 0
 0 0 0
 0 0 0
 0 0 0
 0 0 0
 0 0 0
 0 0 0
 0 0 0
 0 0 0
 0 0 0
 0 0 0
 0 0 0
 0 0 0
 0 0 0
 0 0 0
 0 0 0
 0 0 0
 0 0 0
 0 0 0
 0 0 0
 0 0 0
 0 0 0
 0 0 0
 0 0 0
 0 0 0
 0 0 0
 1.035 -1.381 4.309
 1.049 -1.366 4.255
 1.07 -1.359 4.229
 1.103 -1.368 4.252
 1.129 -1.369 4.248
 1.15 -1.363 4.224
 1.19 -1.38 4.269
 1.214 -1.378 4.256
 1.237 -1.375 4.24
 1.277 -1.39 4.279
 1.288 -1.374 4.223
 1.32 -1.38 4.235
 1.351 -1.386 4.245
 1.383 -1.392 4.256
 1.4 -1.383 4.221
 1.437 -1.394 4.244
 1.464 -1.394 4.237
 1.487 -1.391 4.22
 1.522 -1.399 4.237
 1.546 -1.397 4.222
 1.576 -1.401 4.223
 1.605 -1.403 4.222
 1.633 -1.405 4.217
 1.662 -1.407 4.214
 1.69 -1.408 4.209
 1.722 -1.413 4.212
 1.759 -1.422 4.228
 1.777 -1.415 4.197
 1.804 -1.415 4.188
 1.836 -1.42 4.191
 1.856 -1.414 4.164
 0 0 0
 0 0 0
 0 0 0
 0 0 0
 0 0 0
 0 0 0
 0 0 0
 0 0 0
 0 0 0
 0 0 0
 0 0 0
 0 0 0
 0 0 0
 0 0 0
 0 0 0
 0 0 0
 1.815 -1.114 3.11
 1.887 -1.146 3.187
 1.873 -1.125 3.117
 -2.527 -1.502 4.368
 -2.486 -1.495 4.363
 -2.467 -1.501 4.395
 -2.398 -1.477 4.337
 -2.383 -1.486 4.377
 -2.329 -1.471 4.345
 -2.303 -1.473 4.363
 -2.248 -1.455 4.325
 -2.244 -1.471 4.385
 -2.182 -1.449 4.332
 -2.143 -1.442 4.323
 -2.11 -1.439 4.326
 -2.077 -1.436 4.327
 -2.051 -1.437 4.341
 -2.01 -1.428 4.326
 -1.987 -1.432 4.347
 -1.956 -1.43 4.352
 -1.928 -1.43 4.363
 -1.872 -1.409 4.308
 -1.868 -1.427 4.374
 -1.821 -1.412 4.338
 -1.795 -1.413 4.351
 -1.748 -1.398 4.313
 -1.72 -1.397 4.32
 -1.694 -1.399 4.334
 -1.669 -1.401 4.349
 -1.636 -1.396 4.341
 -1.598 -1.387 4.323
 -1.574 -1.39 4.339
 -1.549 -1.391 4.352
 -1.508 -1.379 4.321
 -1.471 -1.369 4.298
 -1.443 -1.368 4.304
 -1.426 -1.378 4.341
