 1.252 -1.623 4.12
 1.279 -1.625 4.117
 1.304 -1.625 4.109
 1.332 -1.627 4.107
 1.359 -1.629 4.105
 1.384 -1.628 4.095
 1.411 -1.63 4.091
 1.438 -1.631 4.085
 1.463 -1.63 4.075
 1.489 -1.631 4.068
 1.517 -1.633 4.064
 1.542 -1.632 4.054
 1.567 -1.632 4.044
 1.593 -1.631 4.033
 1.617 -1.63 4.02
 1.643 -1.63 4.01
 1.667 -1.629 3.999
 1.693 -1.629 3.988
 1.719 -1.629 3.978
 1.744 -1.629 3.968
 1.768 -1.627 3.953
 1.791 -1.625 3.937
 1.813 -1.621 3.918
 1.833 -1.617 3.896
 1.85 -1.609 3.866
 1.862 -1.598 3.829
 1.872 -1.585 3.785
 1.878 -1.569 3.737
 1.883 -1.553 3.686
 1.886 -1.536 3.635
 1.89 -1.52 3.585
 1.895 -1.505 3.538
 1.893 -1.485 3.479
 1.884 -1.46 3.409
 1.848 -1.415 3.292
 1.828 -1.383 3.206
 1.825 -1.364 3.152
 1.829 -1.351 3.111
 1.835 -1.34 3.074
 1.834 -1.324 3.027
 1.833 -1.309 2.98
 -2.295 -1.631 3.875
 -2.222 -1.597 3.808
 -2.231 -1.623 3.883
 -2.204 -1.623 3.895
 -2.176 -1.622 3.905
 -2.147 -1.619 3.912
 -2.121 -1.62 3.926
 -2.094 -1.62 3.938
 -2.066 -1.619 3.947
 -2.039 -1.618 3.957
 -2.016 -1.621 3.976
 -1.988 -1.62 3.985
 -1.961 -1.619 3.993
 -1.934 -1.62 4.005
 -1.91 -1.622 4.021
 -1.885 -1.623 4.034
 -1.86 -1.625 4.049
 -1.834 -1.625 4.061
 -1.808 -1.625 4.071
 -1.779 -1.623 4.076
 -1.749 -1.62 4.079
 -1.72 -1.618 4.081
 -1.693 -1.617 4.089
 -1.666 -1.617 4.097
 -1.64 -1.617 4.107
 -1.613 -1.617 4.115
 -1.587 -1.617 4.125
 -1.559 -1.615 4.129
 -1.532 -1.615 4.136
 -1.505 -1.613 4.141
 -1.476 -1.611 4.143
 -1.45 -1.611 4.15
 -1.423 -1.611 4.158
 -1.396 -1.61 4.161
 -1.369 -1.609 4.166
 -1.343 -1.609 4.174
 -1.316 -1.609 4.181
 -1.29 -1.608 4.186
 -1.263 -1.607 4.19
 -1.236 -1.607 4.197
 -1.209 -1.606 4.199
 -1.182 -1.605 4.204
 -1.156 -1.605 4.208
 -1.129 -1.603 4.21
 -1.102 -1.602 4.213
 -1.075 -1.601 4.216
 -1.047 -1.599 4.215
 -1.02 -1.598 4.216
 -0.994 -1.597 4.22
 -0.967 -1.596 4.222
 -0.941 -1.595 4.225
 -0.915 -1.595 4.229
 -0.888 -1.593 4.227
 -0.861 -1.591 4.227
 -0.835 -1.591 4.231
 -0.808 -1.589 4.229
 -0.782 -1.588 4.23
 -0.756 -1.589 4.236
 -0.73 -1.588 4.238
 -0.703 -1.587 4.237
 -0.677 -1.586 4.238
 -0.651 -1.585 4.238
 -0.625 -1.584 4.239
 -0.599 -1.583 4.239
 -0.573 -1.581 4.238
 -0.547 -1.583 4.245
 -0.522 -1.582 4.245
 -0.496 -1.582 4.245
 -0.47 -1.582 4.247
 -0.444 -1.582 4.25
 -0.418 -1.58 4.248
 -0.392 -1.58 4.248
 -0.367 -1.579 4.248
 -0.341 -1.578 4.247
 -0.315 -1.578 4.248
 -0.29 -1.578 4.248
 -0.264 -1.578 4.249
 -0.238 -1.576 4.247
 -0.213 -1.575 4.244
 -0.187 -1.575 4.244
 -0.161 -1.574 4.241
 -0.136 -1.574 4.242
 -0.11 -1.576 4.247
 -0.085 -1.576 4.247
 -0.059 -1.575 4.246
 -0.034 -1.576 4.248
 -0.008 -1.574 4.244
 0.016 -1.573 4.239
 0.041 -1.572 4.237
 0.067 -1.573 4.237
 0.092 -1.573 4.239
 0.118 -1.575 4.242
 0.144 -1.576 4.244
 0.169 -1.577 4.245
 0.195 -1.577 4.244
 0.22 -1.577 4.243
 0.245 -1.576 4.239
 0.271 -1.575 4.236
 0.296 -1.576 4.234
 0.322 -1.575 4.23
 0.347 -1.575 4.227
 0.373 -1.576 4.229
 0.398 -1.576 4.227
 0.424 -1.578 4.229
 0.45 -1.579 4.23
 0.475 -1.579 4.226
 0.501 -1.579 4.224
 0.527 -1.581 4.226
 0.552 -1.58 4.221
 0.577 -1.579 4.216
 0.604 -1.581 4.218
 0.629 -1.582 4.215
 0.655 -1.582 4.213
 0.681 -1.584 4.214
 0.708 -1.587 4.219
 0.734 -1.589 4.219
 0.761 -1.59 4.219
 0.787 -1.591 4.216
 0.812 -1.59 4.21
 0.838 -1.591 4.208
 0.864 -1.592 4.205
 0.89 -1.593 4.202
 0.917 -1.595 4.203
 0.944 -1.598 4.205
 0.97 -1.598 4.199
 0.996 -1.598 4.195
 1.022 -1.599 4.191
 1.048 -1.599 4.185
 1.074 -1.6 4.183
 1.102 -1.603 4.184
 1.129 -1.605 4.182
 1.156 -1.606 4.179
 1.183 -1.607 4.176
 1.209 -1.608 4.17
 1.234 -1.607 4.162
 1.261 -1.609 4.16
 1.289 -1.611 4.158
 1.316 -1.612 4.153
 1.343 -1.614 4.151
 1.371 -1.616 4.148
 1.397 -1.617 4.141
 1.424 -1.619 4.138
 1.452 -1.621 4.134
 1.479 -1.621 4.127
 1.505 -1.622 4.12
 1.533 -1.623 4.116
 1.559 -1.623 4.106
 1.584 -1.623 4.096
 1.61 -1.623 4.086
 1.636 -1.622 4.076
 1.662 -1.623 4.068
 1.688 -1.622 4.056
 1.714 -1.623 4.047
 1.74 -1.622 4.036
 1.765 -1.622 4.025
 1.789 -1.62 4.009
 1.812 -1.617 3.991
 1.83 -1.61 3.964
 1.848 -1.604 3.936
 1.862 -1.594 3.901
 1.872 -1.581 3.858
 1.879 -1.566 3.809
 1.887 -1.552 3.763
 1.892 -1.536 3.714
 1.896 -1.519 3.662
 1.902 -1.505 3.616
 1.91 -1.492 3.574
 1.916 -1.479 3.53
 0 0 0
 1.805 -1.36 3.223
 1.793 -1.335 3.153
 1.811 -1.333 3.136
 1.822 -1.325 3.108
 1.832 -1.317 3.078
 1.842 -1.309 3.047
 1.836 -1.291 2.993
 -2.349 -1.641 3.976
 -2.285 -1.615 3.925
 -2.26 -1.617 3.944
 -2.232 -1.616 3.954
 -2.205 -1.616 3.966
 -2.177 -1.616 3.978
 -2.151 -1.616 3.992
 -2.124 -1.617 4.004
 -2.097 -1.616 4.015
 -2.069 -1.615 4.025
 -2.043 -1.616 4.038
 -2.016 -1.616 4.05
 -1.987 -1.614 4.057
 -1.959 -1.614 4.067
 -1.934 -1.615 4.08
 -1.908 -1.616 4.094
 -1.881 -1.616 4.105
 -1.855 -1.617 4.117
 -1.828 -1.617 4.127
 -1.8 -1.616 4.134
 -1.77 -1.613 4.138
 -1.742 -1.611 4.142
 -1.714 -1.61 4.149
 -1.688 -1.611 4.16
 -1.661 -1.611 4.169
 -1.634 -1.611 4.178
 -1.607 -1.611 4.187
 -1.578 -1.609 4.189
 -1.548 -1.605 4.19
 -1.52 -1.603 4.192
 -1.49 -1.6 4.192
 -1.462 -1.599 4.196
 -1.436 -1.599 4.204
 -1.408 -1.598 4.209
 -1.381 -1.597 4.214
 -1.355 -1.598 4.222
 -1.328 -1.596 4.226
 -1.3 -1.595 4.229
 -1.272 -1.593 4.231
 -1.245 -1.592 4.234
 -1.217 -1.59 4.235
 -1.19 -1.59 4.241
 -1.164 -1.59 4.246
 -1.136 -1.588 4.249
 -1.11 -1.588 4.252
 -1.082 -1.586 4.254
 -1.054 -1.583 4.251
 -1.027 -1.581 4.252
 -1 -1.581 4.255
 -0.973 -1.579 4.255
 -0.946 -1.578 4.258
 -0.92 -1.578 4.26
 -0.892 -1.576 4.259
 -0.865 -1.574 4.259
 -0.839 -1.573 4.261
 -0.812 -1.571 4.259
 -0.785 -1.57 4.26
 -0.759 -1.57 4.263
 -0.733 -1.569 4.264
 -0.706 -1.567 4.261
 -0.68 -1.566 4.262
 -0.653 -1.564 4.261
 -0.627 -1.563 4.259
 -0.6 -1.562 4.259
 -0.574 -1.56 4.259
 -0.549 -1.561 4.264
 -0.523 -1.561 4.264
 -0.497 -1.56 4.264
 -0.471 -1.56 4.266
 -0.445 -1.56 4.269
 -0.419 -1.558 4.266
 -0.393 -1.558 4.266
 -0.368 -1.558 4.268
 -0.342 -1.557 4.267
 -0.316 -1.557 4.268
 -0.29 -1.557 4.269
 -0.264 -1.555 4.266
 -0.239 -1.554 4.264
 -0.213 -1.553 4.262
 -0.187 -1.552 4.26
 -0.161 -1.551 4.256
 -0.136 -1.552 4.259
 -0.11 -1.553 4.262
 -0.085 -1.553 4.263
 -0.059 -1.553 4.262
 -0.034 -1.554 4.265
 -0.008 -1.552 4.261
 0.016 -1.55 4.256
 0.042 -1.55 4.253
 0.067 -1.55 4.252
 0.093 -1.55 4.252
 0.118 -1.55 4.253
 0.144 -1.551 4.253
 0.169 -1.552 4.255
 0.195 -1.552 4.254
 0.22 -1.553 4.254
 0.246 -1.553 4.253
 0.272 -1.553 4.252
 0.297 -1.554 4.252
 0.323 -1.553 4.25
 0.348 -1.553 4.245
 0.374 -1.553 4.245
 0.399 -1.553 4.242
 0.425 -1.554 4.242
 0.451 -1.555 4.243
 0.476 -1.555 4.24
 0.502 -1.556 4.239
 0.528 -1.557 4.241
 0.553 -1.557 4.237
 0.579 -1.557 4.234
 0.605 -1.559 4.236
 0.631 -1.56 4.234
 0.657 -1.561 4.233
 0.683 -1.562 4.233
 0.71 -1.564 4.235
 0.736 -1.565 4.233
 0.762 -1.567 4.234
 0.788 -1.568 4.233
 0.814 -1.569 4.23
 0.841 -1.57 4.229
 0.867 -1.571 4.227
 0.893 -1.572 4.225
 0.92 -1.574 4.225
 0.947 -1.577 4.226
 0.973 -1.577 4.222
 1 -1.578 4.219
 1.027 -1.58 4.218
 1.053 -1.581 4.214
 1.08 -1.582 4.214
 1.108 -1.585 4.215
 1.135 -1.587 4.214
 1.162 -1.588 4.209
 1.189 -1.589 4.206
 1.215 -1.59 4.201
 1.242 -1.591 4.196
 1.269 -1.593 4.194
 1.297 -1.596 4.194
 1.325 -1.597 4.191
 1.353 -1.599 4.188
 1.38 -1.6 4.184
 1.407 -1.601 4.179
 1.434 -1.602 4.173
 1.462 -1.605 4.171
 1.489 -1.605 4.164
 1.516 -1.607 4.159
 1.544 -1.608 4.154
 1.572 -1.61 4.149
 1.598 -1.61 4.14
 1.624 -1.61 4.131
 1.651 -1.61 4.121
 1.678 -1.612 4.115
 1.703 -1.61 4.102
 1.73 -1.611 4.094
 1.756 -1.611 4.084
 1.782 -1.611 4.073
 1.805 -1.608 4.054
 1.827 -1.604 4.033
 1.844 -1.596 4.003
 1.86 -1.588 3.972
 1.872 -1.576 3.931
 1.882 -1.563 3.887
 1.889 -1.548 3.838
 1.896 -1.534 3.79
 1.901 -1.518 3.741
 1.908 -1.504 3.693
 1.912 -1.488 3.644
 1.92 -1.476 3.601
 0 0 0
 0 0 0
 0 0 0
 1.794 -1.314 3.162
 1.815 -1.314 3.151
 1.824 -1.305 3.118
 1.834 -1.297 3.087
 1.828 -1.278 3.032
 1.814 -1.254 2.964
 -2.332 -1.602 3.957
 -2.338 -1.626 4.028
 -2.294 -1.614 4.013
 -2.264 -1.612 4.021
 -2.238 -1.613 4.036
 -2.21 -1.613 4.048
 -2.182 -1.612 4.059
 -2.155 -1.613 4.073
 -2.126 -1.611 4.081
 -2.098 -1.611 4.091
 -2.07 -1.61 4.102
 -2.043 -1.611 4.115
 -2.015 -1.61 4.124
 -1.987 -1.609 4.134
 -1.96 -1.61 4.146
 -1.933 -1.61 4.157
 -1.904 -1.609 4.164
 -1.877 -1.609 4.175
 -1.85 -1.609 4.186
 -1.821 -1.607 4.192
 -1.792 -1.606 4.198
 -1.763 -1.604 4.203
 -1.733 -1.601 4.205
 -1.706 -1.601 4.215
 -1.678 -1.601 4.223
 -1.649 -1.599 4.227
 -1.622 -1.599 4.236
 -1.592 -1.596 4.236
 -1.561 -1.592 4.233
 -1.531 -1.589 4.233
 -1.502 -1.586 4.234
 -1.473 -1.584 4.236
 -1.447 -1.585 4.246
 -1.419 -1.583 4.249
 -1.392 -1.583 4.256
 -1.365 -1.583 4.262
 -1.336 -1.581 4.264
 -1.308 -1.579 4.265
 -1.28 -1.577 4.266
 -1.251 -1.574 4.266
 -1.223 -1.571 4.265
 -1.196 -1.571 4.269
 -1.168 -1.57 4.272
 -1.141 -1.569 4.276
 -1.114 -1.568 4.278
 -1.086 -1.566 4.279
 -1.058 -1.563 4.276
 -1.031 -1.561 4.277
 -1.003 -1.56 4.278
 -0.976 -1.558 4.276
 -0.949 -1.557 4.279
 -0.922 -1.556 4.282
 -0.895 -1.554 4.28
 -0.868 -1.553 4.281
 -0.842 -1.552 4.283
 -0.814 -1.55 4.28
 -0.787 -1.548 4.279
 -0.761 -1.547 4.28
 -0.734 -1.545 4.279
 -0.707 -1.543 4.274
 -0.68 -1.541 4.275
 -0.654 -1.541 4.275
 -0.627 -1.539 4.273
 -0.601 -1.537 4.272
 -0.575 -1.537 4.272
 -0.549 -1.537 4.276
 -0.523 -1.536 4.276
 -0.497 -1.535 4.275
 -0.471 -1.535 4.277
 -0.445 -1.535 4.279
 -0.419 -1.533 4.276
 -0.393 -1.533 4.276
 -0.368 -1.533 4.278
 -0.342 -1.532 4.278
 -0.316 -1.532 4.279
 -0.29 -1.532 4.28
 -0.264 -1.531 4.277
 -0.239 -1.53 4.276
 -0.213 -1.529 4.273
 -0.187 -1.528 4.27
 -0.161 -1.526 4.267
 -0.136 -1.527 4.268
 -0.11 -1.526 4.268
 -0.085 -1.526 4.268
 -0.059 -1.526 4.267
 -0.034 -1.527 4.27
 -0.008 -1.525 4.265
 0.016 -1.524 4.262
 0.042 -1.524 4.26
 0.067 -1.524 4.259
 0.093 -1.524 4.259
 0.118 -1.524 4.259
 0.144 -1.525 4.259
 0.169 -1.526 4.262
 0.195 -1.526 4.261
 0.221 -1.526 4.26
 0.246 -1.527 4.26
 0.272 -1.527 4.259
 0.297 -1.527 4.258
 0.323 -1.527 4.256
 0.348 -1.527 4.253
 0.374 -1.527 4.251
 0.399 -1.526 4.247
 0.425 -1.527 4.247
 0.45 -1.529 4.248
 0.476 -1.529 4.247
 0.502 -1.529 4.245
 0.528 -1.532 4.248
 0.553 -1.531 4.245
 0.579 -1.532 4.241
 0.605 -1.533 4.244
 0.631 -1.535 4.245
 0.657 -1.535 4.242
 0.684 -1.537 4.243
 0.71 -1.539 4.244
 0.736 -1.539 4.241
 0.762 -1.541 4.241
 0.789 -1.544 4.244
 0.815 -1.545 4.243
 0.842 -1.546 4.242
 0.868 -1.547 4.241
 0.895 -1.548 4.239
 0.921 -1.55 4.237
 0.948 -1.551 4.237
 0.974 -1.552 4.234
 1.001 -1.553 4.231
 1.028 -1.555 4.231
 1.054 -1.556 4.227
 1.082 -1.558 4.227
 1.11 -1.561 4.229
 1.137 -1.563 4.229
 1.164 -1.565 4.226
 1.191 -1.567 4.224
 1.218 -1.568 4.22
 1.245 -1.569 4.217
 1.273 -1.572 4.216
 1.302 -1.574 4.216
 1.33 -1.577 4.215
 1.358 -1.578 4.212
 1.385 -1.58 4.208
 1.413 -1.582 4.204
 1.44 -1.583 4.199
 1.468 -1.585 4.196
 1.496 -1.586 4.192
 1.524 -1.589 4.19
 1.552 -1.59 4.184
 1.58 -1.592 4.181
 1.608 -1.593 4.174
 1.634 -1.593 4.165
 1.661 -1.594 4.156
 1.69 -1.596 4.152
 1.715 -1.595 4.141
 1.743 -1.596 4.133
 1.77 -1.597 4.125
 1.796 -1.596 4.112
 1.817 -1.592 4.09
 1.838 -1.587 4.066
 1.853 -1.577 4.031
 1.866 -1.567 3.993
 1.878 -1.555 3.952
 1.887 -1.542 3.907
 1.895 -1.528 3.86
 1.903 -1.514 3.813
 1.91 -1.5 3.766
 1.921 -1.489 3.728
 1.928 -1.475 3.682
 0 0 0
 0 0 0
 0 0 0
 0 0 0
 1.799 -1.296 3.179
 1.819 -1.295 3.164
 1.827 -1.286 3.131
 1.837 -1.277 3.1
 1.838 -1.264 3.056
 1.849 -1.258 3.029
 -2.404 -1.624 4.089
 -2.346 -1.604 4.051
 -2.33 -1.611 4.085
 -2.299 -1.61 4.094
 -2.27 -1.609 4.104
 -2.24 -1.607 4.113
 -2.212 -1.607 4.126
 -2.185 -1.607 4.138
 -2.155 -1.606 4.147
 -2.126 -1.605 4.157
 -2.098 -1.605 4.168
 -2.069 -1.603 4.176
 -2.038 -1.601 4.182
 -2.009 -1.6 4.191
 -1.981 -1.6 4.201
 -1.951 -1.598 4.207
 -1.921 -1.595 4.21
 -1.893 -1.595 4.221
 -1.865 -1.595 4.23
 -1.836 -1.593 4.236
 -1.807 -1.592 4.244
 -1.778 -1.591 4.249
 -1.748 -1.588 4.252
 -1.719 -1.587 4.258
 -1.691 -1.586 4.264
 -1.66 -1.583 4.264
 -1.633 -1.583 4.273
 -1.602 -1.579 4.272
 -1.571 -1.575 4.271
 -1.54 -1.571 4.268
 -1.511 -1.569 4.269
 -1.481 -1.566 4.269
 -1.454 -1.566 4.276
 -1.425 -1.563 4.277
 -1.398 -1.563 4.283
 -1.37 -1.562 4.287
 -1.341 -1.56 4.288
 -1.313 -1.558 4.289
 -1.284 -1.555 4.289
 -1.255 -1.552 4.287
 -1.226 -1.549 4.285
 -1.198 -1.548 4.288
 -1.17 -1.546 4.289
 -1.143 -1.545 4.292
 -1.116 -1.544 4.295
 -1.089 -1.543 4.297
 -1.06 -1.54 4.295
 -1.033 -1.538 4.294
 -1.005 -1.536 4.293
 -0.977 -1.534 4.291
 -0.95 -1.532 4.292
 -0.923 -1.531 4.293
 -0.895 -1.529 4.291
 -0.868 -1.527 4.29
 -0.841 -1.525 4.289
 -0.814 -1.523 4.287
 -0.787 -1.521 4.286
 -0.76 -1.52 4.286
 -0.733 -1.519 4.285
 -0.706 -1.517 4.282
 -0.68 -1.515 4.282
 -0.653 -1.514 4.281
 -0.627 -1.513 4.28
 -0.601 -1.511 4.279
 -0.575 -1.511 4.279
 -0.549 -1.511 4.282
 -0.523 -1.51 4.283
 -0.497 -1.509 4.281
 -0.471 -1.509 4.284
 -0.445 -1.509 4.286
 -0.419 -1.507 4.283
 -0.393 -1.507 4.283
 -0.367 -1.507 4.284
 -0.341 -1.505 4.282
 -0.316 -1.505 4.283
 -0.29 -1.505 4.283
 -0.264 -1.504 4.28
 -0.238 -1.503 4.28
 -0.213 -1.502 4.277
 -0.187 -1.501 4.274
 -0.161 -1.499 4.27
 -0.136 -1.499 4.271
 -0.11 -1.498 4.269
 -0.084 -1.499 4.27
 -0.059 -1.499 4.271
 -0.033 -1.5 4.274
 -0.008 -1.5 4.272
 0.017 -1.499 4.271
 0.042 -1.498 4.267
 0.067 -1.498 4.265
 0.093 -1.498 4.265
 0.118 -1.497 4.263
 0.144 -1.498 4.262
 0.169 -1.499 4.264
 0.195 -1.499 4.263
 0.22 -1.499 4.263
 0.246 -1.5 4.263
 0.272 -1.501 4.264
 0.297 -1.501 4.264
 0.323 -1.502 4.264
 0.348 -1.502 4.262
 0.374 -1.502 4.26
 0.399 -1.501 4.256
 0.425 -1.502 4.256
 0.451 -1.503 4.255
 0.476 -1.504 4.255
 0.502 -1.504 4.252
 0.528 -1.505 4.253
 0.553 -1.505 4.25
 0.579 -1.505 4.246
 0.605 -1.507 4.248
 0.631 -1.509 4.25
 0.657 -1.509 4.248
 0.684 -1.511 4.251
 0.71 -1.513 4.253
 0.736 -1.514 4.249
 0.762 -1.515 4.249
 0.789 -1.518 4.252
 0.815 -1.519 4.25
 0.842 -1.52 4.25
 0.869 -1.522 4.249
 0.895 -1.523 4.248
 0.922 -1.524 4.246
 0.948 -1.526 4.246
 0.975 -1.527 4.243
 1.001 -1.528 4.241
 1.029 -1.531 4.242
 1.056 -1.532 4.241
 1.083 -1.534 4.24
 1.111 -1.537 4.241
 1.138 -1.539 4.24
 1.165 -1.539 4.236
 1.192 -1.541 4.233
 1.219 -1.542 4.23
 1.246 -1.544 4.228
 1.274 -1.546 4.227
 1.303 -1.549 4.228
 1.331 -1.552 4.228
 1.359 -1.554 4.225
 1.387 -1.556 4.223
 1.415 -1.558 4.22
 1.443 -1.559 4.217
 1.471 -1.561 4.214
 1.501 -1.565 4.214
 1.528 -1.566 4.209
 1.556 -1.568 4.205
 1.585 -1.57 4.201
 1.613 -1.571 4.196
 1.64 -1.572 4.189
 1.668 -1.574 4.183
 1.697 -1.576 4.179
 1.724 -1.577 4.171
 1.753 -1.579 4.166
 1.78 -1.579 4.155
 1.805 -1.578 4.143
 1.828 -1.574 4.122
 1.848 -1.569 4.097
 1.861 -1.558 4.058
 1.874 -1.547 4.019
 1.886 -1.536 3.978
 1.896 -1.523 3.932
 1.904 -1.509 3.885
 1.913 -1.497 3.842
 1.921 -1.483 3.796
 1.933 -1.473 3.759
 0 0 0
 0 0 0
 0 0 0
 0 0 0
 0 0 0
 1.801 -1.275 3.189
 1.825 -1.278 3.183
 1.832 -1.268 3.147
 1.84 -1.258 3.113
 1.831 -1.238 3.052
 1.852 -1.238 3.041
 -2.45 -1.627 4.178
 -2.377 -1.597 4.115
 -2.362 -1.606 4.151
 -2.333 -1.606 4.164
 -2.302 -1.604 4.173
 -2.272 -1.602 4.181
 -2.242 -1.601 4.191
 -2.213 -1.6 4.202
 -2.183 -1.599 4.211
 -2.152 -1.597 4.218
 -2.122 -1.595 4.226
 -2.091 -1.593 4.231
 -2.059 -1.59 4.235
 -2.029 -1.588 4.241
 -1.999 -1.587 4.249
 -1.969 -1.584 4.254
 -1.938 -1.582 4.257
 -1.91 -1.581 4.267
 -1.88 -1.58 4.273
 -1.85 -1.578 4.278
 -1.821 -1.577 4.284
 -1.79 -1.574 4.288
 -1.759 -1.571 4.287
 -1.729 -1.569 4.291
 -1.699 -1.567 4.295
 -1.668 -1.563 4.293
 -1.639 -1.562 4.299
 -1.608 -1.558 4.298
 -1.577 -1.554 4.296
 -1.546 -1.55 4.292
 -1.517 -1.548 4.295
 -1.487 -1.545 4.295
 -1.459 -1.545 4.301
 -1.43 -1.542 4.301
 -1.403 -1.542 4.307
 -1.374 -1.539 4.308
 -1.344 -1.536 4.306
 -1.315 -1.533 4.305
 -1.285 -1.53 4.303
 -1.255 -1.526 4.297
 -1.226 -1.524 4.296
 -1.198 -1.521 4.296
 -1.17 -1.519 4.296
 -1.143 -1.518 4.299
 -1.116 -1.518 4.303
 -1.088 -1.516 4.303
 -1.06 -1.513 4.301
 -1.032 -1.511 4.3
 -1.004 -1.509 4.298
 -0.976 -1.506 4.295
 -0.949 -1.505 4.296
 -0.922 -1.503 4.297
 -0.895 -1.502 4.296
 -0.867 -1.5 4.295
 -0.841 -1.499 4.295
 -0.813 -1.497 4.294
 -0.787 -1.496 4.294
 -0.76 -1.494 4.292
 -0.733 -1.492 4.291
 -0.706 -1.49 4.288
 -0.679 -1.488 4.286
 -0.653 -1.486 4.284
 -0.626 -1.485 4.283
 -0.6 -1.484 4.283
 -0.574 -1.484 4.284
 -0.548 -1.483 4.285
 -0.522 -1.482 4.285
 -0.496 -1.482 4.285
 -0.47 -1.481 4.286
 -0.444 -1.481 4.287
 -0.418 -1.48 4.287
 -0.393 -1.479 4.286
 -0.367 -1.479 4.287
 -0.341 -1.478 4.286
 -0.315 -1.478 4.285
 -0.289 -1.477 4.284
 -0.264 -1.476 4.284
 -0.238 -1.476 4.283
 -0.212 -1.475 4.28
 -0.186 -1.474 4.277
 -0.161 -1.473 4.275
 -0.135 -1.473 4.275
 -0.11 -1.471 4.272
 -0.084 -1.472 4.273
 -0.059 -1.472 4.274
 -0.033 -1.473 4.277
 -0.008 -1.472 4.275
 0.017 -1.472 4.274
 0.042 -1.472 4.272
 0.068 -1.471 4.269
 0.093 -1.471 4.268
 0.118 -1.471 4.267
 0.144 -1.472 4.269
 0.17 -1.473 4.27
 0.195 -1.473 4.27
 0.22 -1.473 4.268
 0.246 -1.473 4.267
 0.271 -1.473 4.266
 0.297 -1.473 4.264
 0.322 -1.474 4.264
 0.348 -1.474 4.263
 0.374 -1.475 4.263
 0.399 -1.474 4.259
 0.425 -1.475 4.26
 0.451 -1.476 4.261
 0.476 -1.477 4.26
 0.502 -1.477 4.257
 0.528 -1.479 4.258
 0.553 -1.479 4.256
 0.579 -1.479 4.253
 0.605 -1.481 4.256
 0.631 -1.482 4.256
 0.657 -1.483 4.256
 0.684 -1.485 4.257
 0.71 -1.486 4.257
 0.735 -1.486 4.252
 0.762 -1.488 4.252
 0.788 -1.489 4.253
 0.815 -1.491 4.252
 0.841 -1.492 4.251
 0.868 -1.494 4.251
 0.895 -1.496 4.254
 0.922 -1.498 4.254
 0.948 -1.499 4.252
 0.975 -1.501 4.251
 1.002 -1.502 4.249
 1.028 -1.503 4.247
 1.055 -1.505 4.245
 1.082 -1.507 4.245
 1.11 -1.509 4.246
 1.137 -1.511 4.244
 1.164 -1.512 4.24
 1.191 -1.513 4.237
 1.218 -1.515 4.236
 1.246 -1.517 4.235
 1.275 -1.52 4.236
 1.303 -1.523 4.237
 1.332 -1.526 4.238
 1.36 -1.528 4.236
 1.388 -1.53 4.234
 1.416 -1.532 4.231
 1.443 -1.533 4.226
 1.472 -1.535 4.223
 1.501 -1.538 4.222
 1.528 -1.539 4.217
 1.557 -1.541 4.213
 1.585 -1.543 4.21
 1.614 -1.546 4.208
 1.642 -1.547 4.203
 1.671 -1.55 4.199
 1.7 -1.552 4.195
 1.728 -1.553 4.189
 1.757 -1.555 4.184
 1.784 -1.555 4.173
 1.809 -1.554 4.159
 1.831 -1.55 4.139
 1.852 -1.546 4.117
 1.866 -1.536 4.078
 1.88 -1.526 4.04
 1.895 -1.516 4.005
 1.907 -1.505 3.964
 1.916 -1.493 3.919
 1.929 -1.483 3.883
 1.94 -1.472 3.842
 0 0 0
 0 0 0
 0 0 0
 0 0 0
 0 0 0
 0 0 0
 1.796 -1.25 3.187
 1.825 -1.256 3.191
 1.833 -1.247 3.156
 1.842 -1.238 3.123
 1.865 -1.24 3.116
 1.854 -1.218 3.051
 -2.436 -1.59 4.165
 -2.445 -1.614 4.243
 -2.39 -1.597 4.211
 -2.362 -1.597 4.225
 -2.331 -1.596 4.235
 -2.301 -1.594 4.245
 -2.271 -1.593 4.255
 -2.239 -1.591 4.261
 -2.207 -1.588 4.268
 -2.174 -1.585 4.27
 -2.141 -1.581 4.273
 -2.107 -1.577 4.273
 -2.075 -1.574 4.276
 -2.043 -1.571 4.28
 -2.012 -1.569 4.285
 -1.98 -1.566 4.288
 -1.948 -1.562 4.289
 -1.918 -1.561 4.296
 -1.888 -1.559 4.3
 -1.856 -1.556 4.303
 -1.827 -1.554 4.308
 -1.796 -1.552 4.311
 -1.764 -1.548 4.31
 -1.733 -1.545 4.311
 -1.703 -1.543 4.314
 -1.672 -1.539 4.313
 -1.642 -1.537 4.315
 -1.611 -1.533 4.313
 -1.58 -1.53 4.311
 -1.547 -1.524 4.305
 -1.518 -1.522 4.307
 -1.488 -1.519 4.307
 -1.46 -1.518 4.311
 -1.43 -1.516 4.311
 -1.403 -1.515 4.317
 -1.373 -1.512 4.315
 -1.343 -1.509 4.312
 -1.314 -1.506 4.31
 -1.284 -1.502 4.308
 -1.254 -1.498 4.302
 -1.225 -1.496 4.301
 -1.197 -1.494 4.301
 -1.169 -1.492 4.302
 -1.142 -1.491 4.303
 -1.114 -1.49 4.306
 -1.087 -1.488 4.307
 -1.059 -1.486 4.306
 -1.031 -1.484 4.304
 -1.003 -1.481 4.302
 -0.975 -1.479 4.3
 -0.948 -1.477 4.3
 -0.921 -1.476 4.299
 -0.894 -1.474 4.299
 -0.866 -1.472 4.298
 -0.839 -1.471 4.298
 -0.813 -1.469 4.298
 -0.786 -1.469 4.299
 -0.759 -1.467 4.298
 -0.733 -1.465 4.297
 -0.706 -1.464 4.295
 -0.679 -1.462 4.292
 -0.652 -1.46 4.29
 -0.626 -1.459 4.289
 -0.6 -1.458 4.29
 -0.574 -1.457 4.29
 -0.548 -1.457 4.291
 -0.521 -1.455 4.289
 -0.496 -1.455 4.289
 -0.47 -1.454 4.289
 -0.444 -1.453 4.289
 -0.418 -1.453 4.289
 -0.392 -1.453 4.29
 -0.366 -1.451 4.288
 -0.34 -1.451 4.288
 -0.315 -1.45 4.287
 -0.289 -1.449 4.286
 -0.263 -1.448 4.284
 -0.238 -1.449 4.285
 -0.212 -1.448 4.283
 -0.186 -1.446 4.28
 -0.16 -1.445 4.278
 -0.135 -1.445 4.277
 -0.109 -1.444 4.273
 -0.084 -1.444 4.275
 -0.059 -1.446 4.279
 -0.033 -1.446 4.28
 -0.008 -1.446 4.281
 0.017 -1.446 4.279
 0.042 -1.445 4.276
 0.068 -1.444 4.272
 0.093 -1.444 4.272
 0.119 -1.444 4.271
 0.144 -1.445 4.272
 0.169 -1.445 4.272
 0.195 -1.445 4.27
 0.22 -1.445 4.268
 0.246 -1.445 4.266
 0.271 -1.445 4.266
 0.297 -1.445 4.264
 0.322 -1.446 4.266
 0.348 -1.447 4.266
 0.373 -1.448 4.267
 0.399 -1.447 4.262
 0.425 -1.449 4.264
 0.45 -1.45 4.264
 0.476 -1.451 4.264
 0.501 -1.451 4.262
 0.527 -1.452 4.262
 0.553 -1.452 4.259
 0.578 -1.452 4.257
 0.604 -1.453 4.258
 0.63 -1.454 4.257
 0.656 -1.456 4.257
 0.683 -1.457 4.259
 0.709 -1.458 4.256
 0.734 -1.458 4.253
 0.76 -1.459 4.252
 0.787 -1.461 4.253
 0.814 -1.463 4.254
 0.84 -1.465 4.255
 0.867 -1.466 4.255
 0.894 -1.469 4.257
 0.921 -1.47 4.256
 0.947 -1.471 4.254
 0.974 -1.473 4.252
 1 -1.474 4.252
 1.027 -1.476 4.25
 1.055 -1.478 4.251
 1.082 -1.48 4.251
 1.109 -1.482 4.25
 1.136 -1.483 4.248
 1.163 -1.484 4.244
 1.19 -1.486 4.242
 1.218 -1.488 4.241
 1.246 -1.491 4.242
 1.275 -1.493 4.243
 1.303 -1.496 4.244
 1.331 -1.499 4.243
 1.359 -1.501 4.241
 1.387 -1.503 4.239
 1.415 -1.504 4.235
 1.443 -1.506 4.231
 1.471 -1.507 4.228
 1.5 -1.51 4.227
 1.528 -1.512 4.224
 1.557 -1.515 4.223
 1.586 -1.517 4.219
 1.615 -1.519 4.217
 1.643 -1.521 4.212
 1.671 -1.523 4.207
 1.699 -1.524 4.201
 1.728 -1.526 4.197
 1.757 -1.528 4.193
 1.785 -1.529 4.184
 1.81 -1.528 4.171
 1.834 -1.525 4.153
 1.855 -1.522 4.132
 1.871 -1.513 4.096
 1.885 -1.503 4.06
 1.902 -1.496 4.029
 1.915 -1.486 3.99
 1.924 -1.473 3.945
 1.937 -1.463 3.906
 0 0 0
 0 0 0
 0 0 0
 0 0 0
 0 0 0
 0 0 0
 0 0 0
 1.808 -1.237 3.215
 1.828 -1.236 3.203
 1.836 -1.227 3.167
 1.843 -1.218 3.133
 1.846 -1.206 3.091
 1.829 -1.181 3.017
 -2.455 -1.573 4.206
 -2.474 -1.604 4.304
 -2.415 -1.585 4.266
 -2.385 -1.584 4.277
 -2.352 -1.581 4.283
 -2.321 -1.579 4.291
 -2.288 -1.577 4.297
 -2.255 -1.574 4.302
 -2.221 -1.57 4.304
 -2.186 -1.565 4.304
 -2.153 -1.562 4.306
 -2.117 -1.556 4.303
 -2.083 -1.552 4.304
 -2.052 -1.55 4.308
 -2.021 -1.548 4.313
 -1.987 -1.544 4.313
 -1.955 -1.54 4.314
 -1.925 -1.538 4.319
 -1.893 -1.535 4.321
 -1.86 -1.531 4.32
 -1.829 -1.529 4.324
 -1.799 -1.526 4.326
 -1.766 -1.522 4.323
 -1.734 -1.518 4.321
 -1.703 -1.516 4.323
 -1.672 -1.512 4.321
 -1.641 -1.509 4.321
 -1.609 -1.505 4.319
 -1.578 -1.501 4.317
 -1.546 -1.497 4.312
 -1.517 -1.495 4.314
 -1.488 -1.492 4.315
 -1.459 -1.49 4.317
 -1.43 -1.488 4.317
 -1.401 -1.487 4.321
 -1.371 -1.483 4.317
 -1.341 -1.479 4.312
 -1.312 -1.477 4.312
 -1.283 -1.474 4.312
 -1.253 -1.471 4.307
 -1.225 -1.468 4.307
 -1.196 -1.466 4.307
 -1.168 -1.464 4.306
 -1.14 -1.462 4.306
 -1.113 -1.461 4.308
 -1.085 -1.46 4.309
 -1.057 -1.458 4.308
 -1.029 -1.455 4.306
 -1.002 -1.453 4.305
 -0.974 -1.451 4.304
 -0.947 -1.45 4.305
 -0.92 -1.449 4.305
 -0.893 -1.447 4.303
 -0.865 -1.444 4.3
 -0.838 -1.442 4.298
 -0.811 -1.441 4.298
 -0.785 -1.441 4.301
 -0.759 -1.44 4.302
 -0.732 -1.438 4.301
 -0.705 -1.438 4.301
 -0.679 -1.435 4.298
 -0.652 -1.433 4.295
 -0.625 -1.432 4.294
 -0.6 -1.432 4.297
 -0.573 -1.431 4.296
 -0.547 -1.429 4.292
 -0.521 -1.428 4.292
 -0.495 -1.428 4.293
 -0.469 -1.427 4.293
 -0.443 -1.427 4.293
 -0.418 -1.427 4.297
 -0.392 -1.426 4.296
 -0.365 -1.422 4.285
 -0.339 -1.422 4.285
 -0.314 -1.421 4.284
 -0.288 -1.42 4.282
 -0.262 -1.42 4.282
 -0.237 -1.422 4.288
 -0.211 -1.42 4.284
 -0.186 -1.419 4.281
 -0.16 -1.418 4.28
 -0.135 -1.418 4.278
 -0.109 -1.416 4.275
 -0.084 -1.417 4.278
 -0.058 -1.418 4.278
 -0.033 -1.418 4.278
 -0.007 -1.418 4.28
 0.017 -1.417 4.277
 0.042 -1.417 4.276
 0.068 -1.417 4.275
 0.093 -1.418 4.276
 0.119 -1.418 4.275
 0.144 -1.42 4.28
 0.17 -1.42 4.279
 0.195 -1.42 4.28
 0.22 -1.419 4.275
 0.246 -1.419 4.272
 0.271 -1.42 4.273
 0.296 -1.419 4.268
 0.322 -1.419 4.267
 0.347 -1.419 4.266
 0.373 -1.42 4.268
 0.398 -1.419 4.262
 0.424 -1.422 4.267
 0.45 -1.423 4.268
 0.476 -1.425 4.271
 0.501 -1.424 4.267
 0.527 -1.426 4.268
 0.553 -1.426 4.266
 0.578 -1.425 4.26
 0.604 -1.426 4.26
 0.63 -1.427 4.26
 0.656 -1.428 4.259
 0.682 -1.429 4.258
 0.708 -1.43 4.257
 0.733 -1.431 4.255
 0.76 -1.432 4.255
 0.786 -1.433 4.254
 0.812 -1.435 4.255
 0.839 -1.437 4.256
 0.865 -1.438 4.254
 0.893 -1.44 4.257
 0.919 -1.442 4.257
 0.946 -1.443 4.255
 0.972 -1.445 4.254
 0.999 -1.446 4.254
 1.026 -1.448 4.252
 1.053 -1.45 4.252
 1.08 -1.452 4.252
 1.108 -1.454 4.253
 1.135 -1.456 4.252
 1.162 -1.457 4.249
 1.19 -1.459 4.247
 1.217 -1.461 4.246
 1.245 -1.463 4.245
 1.273 -1.465 4.245
 1.301 -1.467 4.245
 1.329 -1.47 4.244
 1.357 -1.472 4.243
 1.386 -1.474 4.242
 1.414 -1.476 4.239
 1.442 -1.478 4.237
 1.47 -1.48 4.233
 1.499 -1.483 4.234
 1.528 -1.485 4.231
 1.557 -1.488 4.23
 1.585 -1.489 4.225
 1.614 -1.492 4.223
 1.642 -1.493 4.218
 1.671 -1.495 4.213
 1.698 -1.496 4.207
 1.728 -1.499 4.204
 1.757 -1.501 4.2
 1.785 -1.502 4.194
 1.811 -1.502 4.182
 1.836 -1.501 4.168
 1.86 -1.498 4.15
 1.877 -1.49 4.117
 1.892 -1.482 4.082
 1.911 -1.476 4.055
 1.925 -1.467 4.019
 1.931 -1.452 3.966
 0 0 0
 0 0 0
 0 0 0
 0 0 0
 0 0 0
 0 0 0
 0 0 0
 0 0 0
 1.808 -1.215 3.222
 1.825 -1.212 3.203
 1.832 -1.203 3.168
 1.84 -1.194 3.134
 1.847 -1.185 3.099
 1.831 -1.162 3.027
 0 0 0
 -2.493 -1.587 4.346
 -2.434 -1.568 4.308
 -2.402 -1.566 4.317
 -2.368 -1.563 4.321
 -2.334 -1.559 4.325
 -2.3 -1.556 4.329
 -2.265 -1.552 4.33
 -2.231 -1.548 4.332
 -2.195 -1.543 4.331
 -2.162 -1.54 4.334
 -2.124 -1.534 4.328
 -2.09 -1.529 4.326
 -2.056 -1.525 4.327
 -2.023 -1.522 4.328
 -1.989 -1.517 4.326
 -1.957 -1.514 4.327
 -1.925 -1.511 4.33
 -1.892 -1.507 4.329
 -1.86 -1.503 4.328
 -1.828 -1.5 4.328
 -1.797 -1.497 4.33
 -1.763 -1.492 4.325
 -1.732 -1.489 4.325
 -1.701 -1.487 4.327
 -1.67 -1.483 4.326
 -1.639 -1.48 4.325
 -1.609 -1.477 4.325
 -1.577 -1.473 4.322
 -1.545 -1.469 4.317
 -1.516 -1.466 4.318
 -1.486 -1.464 4.318
 -1.457 -1.461 4.319
 -1.428 -1.46 4.321
 -1.399 -1.458 4.323
 -1.369 -1.454 4.319
 -1.34 -1.452 4.318
 -1.311 -1.449 4.317
 -1.282 -1.447 4.317
 -1.252 -1.443 4.312
 -1.223 -1.441 4.311
 -1.195 -1.438 4.309
 -1.167 -1.436 4.309
 -1.138 -1.434 4.307
 -1.111 -1.433 4.31
 -1.084 -1.432 4.312
 -1.056 -1.43 4.312
 -1.029 -1.428 4.311
 -1.002 -1.427 4.312
 -0.974 -1.425 4.31
 -0.947 -1.424 4.312
 -0.919 -1.422 4.31
 -0.892 -1.42 4.308
 -0.864 -1.417 4.305
 -0.837 -1.415 4.303
 -0.811 -1.415 4.305
 -0.785 -1.415 4.309
 -0.759 -1.414 4.31
 -0.732 -1.413 4.309
 -0.705 -1.412 4.31
 -0.678 -1.409 4.305
 -0.651 -1.407 4.3
 -0.625 -1.406 4.299
 -0.599 -1.406 4.302
 -0.573 -1.405 4.302
 -0.546 -1.402 4.297
 -0.52 -1.401 4.296
 -0.495 -1.401 4.298
 -0.469 -1.401 4.297
 -0.443 -1.4 4.297
 -0.417 -1.401 4.303
 -0.392 -1.401 4.302
 -0.364 -1.395 4.286
 -0.339 -1.394 4.285
 -0.313 -1.393 4.282
 -0.287 -1.392 4.281
 -0.262 -1.392 4.282
 -0.237 -1.394 4.288
 -0.211 -1.392 4.284
 -0.185 -1.392 4.284
 -0.16 -1.391 4.282
 -0.134 -1.39 4.279
 -0.109 -1.389 4.277
 -0.083 -1.39 4.279
 -0.058 -1.39 4.28
 -0.033 -1.391 4.28
 -0.007 -1.392 4.284
 0.017 -1.391 4.282
 0.043 -1.392 4.283
 0.068 -1.392 4.282
 0.093 -1.392 4.283
 0.119 -1.392 4.281
 0.144 -1.394 4.285
 0.17 -1.393 4.283
 0.195 -1.394 4.283
 0.22 -1.392 4.278
 0.246 -1.392 4.275
 0.271 -1.393 4.278
 0.296 -1.392 4.273
 0.322 -1.392 4.271
 0.347 -1.393 4.272
 0.373 -1.395 4.274
 0.398 -1.393 4.267
 0.424 -1.396 4.273
 0.45 -1.397 4.275
 0.476 -1.399 4.278
 0.501 -1.398 4.273
 0.527 -1.399 4.273
 0.553 -1.4 4.271
 0.578 -1.399 4.265
 0.604 -1.4 4.265
 0.63 -1.401 4.264
 0.656 -1.402 4.265
 0.681 -1.402 4.262
 0.707 -1.403 4.261
 0.733 -1.404 4.259
 0.759 -1.405 4.258
 0.785 -1.406 4.256
 0.812 -1.408 4.258
 0.839 -1.41 4.26
 0.865 -1.411 4.259
 0.892 -1.414 4.262
 0.919 -1.416 4.263
 0.946 -1.417 4.262
 0.972 -1.418 4.261
 0.999 -1.42 4.26
 1.025 -1.421 4.256
 1.053 -1.423 4.257
 1.079 -1.424 4.254
 1.107 -1.426 4.254
 1.134 -1.428 4.253
 1.161 -1.429 4.251
 1.188 -1.431 4.25
 1.216 -1.432 4.248
 1.243 -1.434 4.246
 1.271 -1.437 4.247
 1.299 -1.439 4.246
 1.327 -1.441 4.245
 1.356 -1.444 4.245
 1.384 -1.446 4.244
 1.412 -1.447 4.24
 1.44 -1.45 4.239
 1.468 -1.452 4.237
 1.497 -1.455 4.236
 1.525 -1.456 4.232
 1.555 -1.459 4.232
 1.583 -1.46 4.227
 1.612 -1.463 4.224
 1.64 -1.464 4.22
 1.669 -1.467 4.218
 1.697 -1.468 4.21
 1.726 -1.47 4.207
 1.755 -1.472 4.204
 1.783 -1.474 4.197
 1.81 -1.474 4.187
 1.837 -1.474 4.176
 1.862 -1.473 4.164
 1.881 -1.467 4.134
 1.899 -1.46 4.105
 1.919 -1.456 4.081
 1.936 -1.449 4.05
 0 0 0
 0 0 0
 0 0 0
 0 0 0
 0 0 0
 0 0 0
 0 0 0
 0 0 0
 0 0 0
 0 0 0
 1.823 -1.189 3.207
 1.83 -1.18 3.172
 1.838 -1.171 3.137
 1.857 -1.17 3.123
 1.856 -1.157 3.076
 -2.531 -1.563 4.357
 -2.486 -1.553 4.344
 -2.445 -1.546 4.337
 -2.41 -1.543 4.341
 -2.376 -1.539 4.345
 -2.341 -1.535 4.348
 -2.306 -1.532 4.35
 -2.271 -1.527 4.35
 -2.235 -1.523 4.35
 -2.197 -1.517 4.345
 -2.163 -1.513 4.345
 -2.125 -1.506 4.338
 -2.09 -1.501 4.336
 -2.056 -1.497 4.335
 -2.023 -1.494 4.337
 -1.99 -1.49 4.336
 -1.957 -1.486 4.337
 -1.925 -1.483 4.337
 -1.891 -1.479 4.336
 -1.859 -1.475 4.334
 -1.826 -1.471 4.333
 -1.794 -1.468 4.333
 -1.76 -1.462 4.327
 -1.73 -1.461 4.33
 -1.699 -1.458 4.331
 -1.669 -1.455 4.332
 -1.638 -1.452 4.33
 -1.607 -1.449 4.331
 -1.575 -1.444 4.324
 -1.543 -1.44 4.32
 -1.513 -1.437 4.32
 -1.484 -1.435 4.32
 -1.455 -1.433 4.322
 -1.427 -1.432 4.326
 -1.399 -1.43 4.329
 -1.369 -1.428 4.327
 -1.34 -1.425 4.326
 -1.31 -1.422 4.324
 -1.281 -1.42 4.323
 -1.251 -1.415 4.316
 -1.222 -1.413 4.314
 -1.194 -1.411 4.314
 -1.166 -1.409 4.314
 -1.137 -1.407 4.312
 -1.11 -1.406 4.315
 -1.083 -1.404 4.316
 -1.056 -1.403 4.318
 -1.029 -1.402 4.319
 -1.001 -1.401 4.319
 -0.973 -1.398 4.316
 -0.947 -1.397 4.318
 -0.919 -1.395 4.315
 -0.891 -1.393 4.312
 -0.864 -1.39 4.31
 -0.837 -1.389 4.308
 -0.81 -1.388 4.311
 -0.785 -1.389 4.316
 -0.758 -1.388 4.316
 -0.731 -1.386 4.314
 -0.705 -1.386 4.315
 -0.678 -1.383 4.311
 -0.651 -1.381 4.307
 -0.625 -1.38 4.306
 -0.599 -1.38 4.309
 -0.573 -1.379 4.31
 -0.546 -1.376 4.303
 -0.52 -1.375 4.301
 -0.494 -1.375 4.303
 -0.468 -1.374 4.301
 -0.442 -1.373 4.3
 -0.417 -1.375 4.309
 -0.391 -1.375 4.309
 -0.364 -1.367 4.285
 -0.338 -1.366 4.285
 -0.312 -1.365 4.282
 -0.287 -1.365 4.282
 -0.261 -1.364 4.282
 -0.236 -1.366 4.287
 -0.21 -1.364 4.283
 -0.185 -1.364 4.284
 -0.159 -1.364 4.283
 -0.134 -1.363 4.282
 -0.109 -1.363 4.282
 -0.083 -1.364 4.284
 -0.058 -1.364 4.284
 -0.033 -1.364 4.283
 -0.007 -1.365 4.287
 0.017 -1.364 4.282
 0.043 -1.365 4.284
 0.068 -1.366 4.287
 0.093 -1.366 4.288
 0.119 -1.366 4.287
 0.145 -1.37 4.297
 0.17 -1.369 4.292
 0.195 -1.369 4.292
 0.22 -1.367 4.284
 0.246 -1.366 4.281
 0.271 -1.367 4.283
 0.296 -1.365 4.275
 0.322 -1.365 4.273
 0.347 -1.366 4.273
 0.373 -1.368 4.277
 0.398 -1.366 4.268
 0.424 -1.369 4.276
 0.45 -1.371 4.279
 0.476 -1.373 4.283
 0.501 -1.372 4.277
 0.527 -1.374 4.28
 0.553 -1.374 4.278
 0.578 -1.373 4.271
 0.604 -1.373 4.269
 0.629 -1.374 4.267
 0.655 -1.375 4.268
 0.681 -1.375 4.264
 0.706 -1.376 4.262
 0.733 -1.377 4.262
 0.759 -1.378 4.262
 0.784 -1.378 4.258
 0.812 -1.381 4.263
 0.838 -1.383 4.265
 0.864 -1.384 4.262
 0.892 -1.387 4.266
 0.919 -1.389 4.267
 0.945 -1.39 4.265
 0.972 -1.392 4.266
 0.999 -1.394 4.266
 1.025 -1.393 4.26
 1.052 -1.395 4.26
 1.078 -1.396 4.256
 1.105 -1.397 4.253
 1.132 -1.399 4.252
 1.159 -1.401 4.252
 1.187 -1.402 4.251
 1.214 -1.405 4.25
 1.242 -1.407 4.25
 1.27 -1.409 4.251
 1.298 -1.411 4.249
 1.326 -1.413 4.248
 1.354 -1.415 4.247
 1.381 -1.417 4.243
 1.409 -1.418 4.239
 1.438 -1.421 4.239
 1.466 -1.423 4.237
 1.494 -1.425 4.235
 1.523 -1.427 4.234
 1.553 -1.43 4.234
 1.581 -1.432 4.23
 1.61 -1.435 4.228
 1.639 -1.437 4.225
 1.668 -1.439 4.222
 1.695 -1.44 4.215
 1.724 -1.441 4.21
 1.752 -1.443 4.205
 1.782 -1.446 4.202
 1.81 -1.447 4.194
 1.837 -1.447 4.184
 1.864 -1.448 4.175
 1.886 -1.444 4.153
 1.905 -1.438 4.126
 1.926 -1.434 4.103
 0 0 0
 0 0 0
 0 0 0
 0 0 0
 0 0 0
 0 0 0
 0 0 0
 0 0 0
 0 0 0
 0 0 0
 0 0 0
 1.819 -1.165 3.207
 1.829 -1.157 3.176
 1.838 -1.15 3.144
 1.831 -1.133 3.086
 1.846 -1.129 3.064
 -2.544 -1.542 4.388
 -2.485 -1.524 4.352
 -2.45 -1.52 4.356
 -2.412 -1.515 4.354
 -2.376 -1.511 4.355
 -2.341 -1.507 4.358
 -2.306 -1.503 4.359
 -2.27 -1.498 4.358
 -2.234 -1.493 4.356
 -2.197 -1.488 4.352
 -2.161 -1.483 4.35
 -2.124 -1.477 4.344
 -2.088 -1.472 4.342
 -2.053 -1.467 4.339
 -2.02 -1.463 4.339
 -1.986 -1.459 4.337
 -1.953 -1.455 4.336
 -1.919 -1.451 4.334
 -1.887 -1.448 4.335
 -1.855 -1.444 4.334
 -1.823 -1.441 4.334
 -1.791 -1.438 4.334
 -1.758 -1.434 4.33
 -1.728 -1.431 4.333
 -1.697 -1.429 4.333
 -1.666 -1.426 4.333
 -1.636 -1.423 4.333
 -1.606 -1.42 4.334
 -1.573 -1.416 4.328
 -1.541 -1.411 4.323
 -1.511 -1.408 4.321
 -1.481 -1.405 4.32
 -1.452 -1.403 4.321
 -1.424 -1.402 4.324
 -1.396 -1.401 4.329
 -1.367 -1.399 4.33
 -1.338 -1.397 4.33
 -1.309 -1.395 4.329
 -1.281 -1.393 4.33
 -1.25 -1.389 4.323
 -1.222 -1.386 4.32
 -1.194 -1.384 4.321
 -1.166 -1.382 4.321
 -1.136 -1.379 4.316
 -1.109 -1.378 4.317
 -1.082 -1.377 4.32
 -1.055 -1.376 4.322
 -1.028 -1.375 4.324
 -1.001 -1.374 4.325
 -0.973 -1.372 4.323
 -0.946 -1.371 4.326
 -0.918 -1.368 4.32
 -0.89 -1.366 4.316
 -0.863 -1.363 4.313
 -0.836 -1.361 4.31
 -0.809 -1.36 4.311
 -0.783 -1.36 4.315
 -0.757 -1.36 4.318
 -0.73 -1.359 4.316
 -0.705 -1.36 4.322
 -0.678 -1.358 4.318
 -0.651 -1.356 4.316
 -0.625 -1.355 4.316
 -0.599 -1.355 4.319
 -0.573 -1.354 4.317
 -0.546 -1.35 4.307
 -0.52 -1.349 4.308
 -0.494 -1.349 4.309
 -0.468 -1.348 4.309
 -0.442 -1.347 4.307
 -0.417 -1.35 4.318
 -0.391 -1.349 4.316
 -0.362 -1.336 4.274
 -0.337 -1.336 4.278
 -0.311 -1.337 4.279
 -0.286 -1.337 4.281
 -0.261 -1.336 4.28
 -0.235 -1.338 4.285
 -0.21 -1.336 4.282
 -0.184 -1.336 4.282
 -0.159 -1.336 4.28
 -0.134 -1.336 4.281
 -0.108 -1.336 4.282
 -0.083 -1.337 4.285
 -0.058 -1.335 4.281
 -0.032 -1.335 4.28
 -0.007 -1.336 4.281
 0.017 -1.334 4.277
 0.043 -1.334 4.273
 0.068 -1.337 4.283
 0.093 -1.337 4.282
 0.119 -1.337 4.283
 0.144 -1.34 4.292
 0.17 -1.34 4.288
 0.195 -1.341 4.291
 0.22 -1.339 4.283
 0.246 -1.34 4.284
 0.272 -1.342 4.291
 0.297 -1.341 4.284
 0.322 -1.341 4.283
 0.348 -1.341 4.282
 0.373 -1.342 4.282
 0.398 -1.34 4.273
 0.424 -1.343 4.282
 0.45 -1.345 4.285
 0.477 -1.348 4.292
 0.502 -1.347 4.286
 0.528 -1.349 4.288
 0.553 -1.349 4.285
 0.578 -1.346 4.273
 0.603 -1.346 4.269
 0.628 -1.346 4.267
 0.655 -1.348 4.269
 0.68 -1.347 4.263
 0.706 -1.348 4.262
 0.732 -1.35 4.265
 0.759 -1.352 4.266
 0.784 -1.352 4.263
 0.811 -1.355 4.267
 0.838 -1.357 4.271
 0.864 -1.357 4.266
 0.891 -1.36 4.269
 0.918 -1.361 4.269
 0.945 -1.363 4.27
 0.971 -1.365 4.269
 0.998 -1.366 4.267
 1.023 -1.365 4.259
 1.05 -1.367 4.261
 1.076 -1.367 4.255
 1.103 -1.369 4.254
 1.13 -1.371 4.253
 1.158 -1.373 4.254
 1.185 -1.374 4.251
 1.213 -1.376 4.252
 1.24 -1.378 4.251
 1.268 -1.38 4.25
 1.296 -1.382 4.248
 1.323 -1.384 4.247
 1.351 -1.386 4.245
 1.379 -1.388 4.243
 1.407 -1.39 4.242
 1.437 -1.393 4.244
 1.465 -1.395 4.241
 1.493 -1.397 4.238
 1.522 -1.399 4.237
 1.55 -1.402 4.235
 1.578 -1.403 4.23
 1.608 -1.406 4.229
 1.636 -1.407 4.225
 1.665 -1.409 4.222
 1.693 -1.411 4.216
 1.721 -1.412 4.211
 1.75 -1.414 4.206
 1.78 -1.417 4.204
 1.808 -1.418 4.197
 1.835 -1.419 4.189
 1.864 -1.421 4.183
 1.89 -1.42 4.17
 1.912 -1.417 4.149
 0 0 0
 0 0 0
 0 0 0
 0 0 0
 0 0 0
 0 0 0
 0 0 0
 0 0 0
 0 0 0
 0 0 0
 0 0 0
 0 0 0
 1.818 -1.142 3.212
 1.83 -1.137 3.185
 1.84 -1.13 3.154
 1.87 -1.135 3.159
 1.853 -1.113 3.083
 -2.53 -1.504 4.374
 -2.475 -1.489 4.343
 -2.45 -1.491 4.364
 -2.412 -1.486 4.363
 -2.375 -1.481 4.363
 -2.339 -1.477 4.363
 -2.303 -1.472 4.363
 -2.267 -1.468 4.362
 -2.229 -1.462 4.357
 -2.192 -1.456 4.352
 -2.157 -1.452 4.351
 -2.12 -1.446 4.345
 -2.085 -1.442 4.344
 -2.051 -1.437 4.342
 -2.018 -1.434 4.343
 -1.983 -1.429 4.34
 -1.951 -1.426 4.34
 -1.918 -1.422 4.339
 -1.885 -1.419 4.338
 -1.854 -1.416 4.34
 -1.822 -1.413 4.341
 -1.79 -1.41 4.34
 -1.757 -1.405 4.335
 -1.726 -1.403 4.337
 -1.695 -1.399 4.335
 -1.664 -1.396 4.335
 -1.633 -1.393 4.335
 -1.604 -1.391 4.336
 -1.572 -1.387 4.332
 -1.54 -1.383 4.327
 -1.509 -1.38 4.325
 -1.479 -1.377 4.324
 -1.45 -1.375 4.323
 -1.421 -1.373 4.324
 -1.393 -1.372 4.329
 -1.365 -1.37 4.331
 -1.337 -1.369 4.333
 -1.308 -1.367 4.332
 -1.28 -1.366 4.336
 -1.249 -1.36 4.325
 -1.22 -1.358 4.322
 -1.191 -1.355 4.321
 -1.164 -1.354 4.321
 -1.134 -1.351 4.316
 -1.107 -1.349 4.318
 -1.08 -1.349 4.321
 -1.054 -1.348 4.324
 -1.027 -1.348 4.329
 -1.001 -1.348 4.332
 -0.974 -1.347 4.335
 -0.948 -1.348 4.341
 -0.92 -1.344 4.334
 -0.891 -1.34 4.326
 -0.863 -1.337 4.32
 -0.835 -1.334 4.312
 -0.808 -1.332 4.31
 -0.781 -1.332 4.313
 -0.755 -1.331 4.315
 -0.728 -1.329 4.312
 -0.704 -1.332 4.323
 -0.677 -1.33 4.321
 -0.65 -1.328 4.318
 -0.624 -1.327 4.316
 -0.599 -1.329 4.324
 -0.573 -1.328 4.324
 -0.545 -1.323 4.311
 -0.519 -1.323 4.311
 -0.494 -1.323 4.314
 -0.467 -1.321 4.311
 0 0 0
 0 0 0
 0 0 0
 -0.359 -1.299 4.243
 -0.335 -1.304 4.263
 -0.31 -1.307 4.272
 -0.285 -1.309 4.279
 -0.26 -1.309 4.28
 -0.235 -1.311 4.287
 -0.21 -1.31 4.285
 -0.184 -1.31 4.286
 -0.159 -1.309 4.282
 -0.133 -1.309 4.285
 -0.108 -1.309 4.285
 -0.083 -1.31 4.286
 -0.057 -1.308 4.28
 -0.032 -1.308 4.279
 -0.007 -1.306 4.274
 0.017 -1.304 4.268
 0.043 -1.302 4.258
 0 0 0
 0 0 0
 0 0 0
 0 0 0
 0 0 0
 0 0 0
 0 0 0
 0 0 0
 0.273 -1.321 4.31
 0.297 -1.317 4.295
 0.322 -1.313 4.282
 0.347 -1.313 4.279
 0.372 -1.313 4.277
 0.397 -1.31 4.267
 0.424 -1.316 4.283
 0.45 -1.319 4.29
 0.477 -1.323 4.3
 0.502 -1.321 4.292
 0.528 -1.322 4.291
 0.553 -1.323 4.29
 0.577 -1.318 4.271
 0.602 -1.318 4.27
 0.628 -1.32 4.27
 0.655 -1.322 4.274
 0.679 -1.32 4.264
 0.705 -1.322 4.266
 0.732 -1.324 4.27
 0.759 -1.326 4.274
 0.784 -1.326 4.268
 0.811 -1.328 4.271
 0.837 -1.33 4.272
 0.862 -1.328 4.262
 0.889 -1.331 4.266
 0.917 -1.334 4.272
 0.944 -1.337 4.275
 0.972 -1.339 4.276
 0.997 -1.339 4.272
 1.021 -1.337 4.259
 1.048 -1.339 4.259
 1.074 -1.339 4.254
 1.101 -1.34 4.252
 1.128 -1.342 4.252
 1.156 -1.345 4.253
 1.183 -1.346 4.251
 1.211 -1.348 4.252
 1.238 -1.35 4.251
 1.266 -1.352 4.249
 1.294 -1.354 4.25
 1.322 -1.356 4.25
 1.35 -1.358 4.248
 1.377 -1.36 4.245
 1.405 -1.361 4.242
 1.434 -1.364 4.242
 1.462 -1.366 4.24
 1.49 -1.368 4.237
 1.519 -1.37 4.237
 1.548 -1.373 4.235
 1.576 -1.374 4.231
 1.605 -1.377 4.23
 1.634 -1.379 4.228
 1.663 -1.381 4.224
 1.692 -1.383 4.22
 1.72 -1.384 4.214
 1.748 -1.386 4.209
 1.777 -1.388 4.205
 1.805 -1.389 4.199
 1.834 -1.391 4.192
 1.864 -1.394 4.191
 1.893 -1.395 4.184
 0 0 0
 0 0 0
 0 0 0
 0 0 0
 0 0 0
 0 0 0
 0 0 0
 0 0 0
 0 0 0
 0 0 0
 0 0 0
 0 0 0
 0 0 0
 1.818 -1.121 3.218
 1.827 -1.113 3.185
 1.835 -1.105 3.151
 1.864 -1.11 3.154
 1.865 -1.099 3.11
 -2.525 -1.471 4.374
 -2.507 -1.478 4.408
 -2.447 -1.461 4.369
 -2.41 -1.456 4.368
 -2.373 -1.451 4.367
 -2.336 -1.446 4.366
 -2.3 -1.442 4.366
 -2.264 -1.437 4.364
 -2.227 -1.432 4.36
 -2.191 -1.427 4.358
 -2.156 -1.423 4.358
 -2.118 -1.417 4.35
 -2.084 -1.413 4.35
 -2.049 -1.408 4.346
 -2.015 -1.404 4.345
 -1.981 -1.4 4.343
 -1.949 -1.397 4.345
 -1.915 -1.393 4.341
 -1.883 -1.389 4.342
 -1.851 -1.387 4.343
 -1.819 -1.383 4.342
 -1.787 -1.38 4.341
 -1.754 -1.376 4.337
 -1.724 -1.373 4.338
 -1.692 -1.369 4.335
 -1.661 -1.367 4.335
 -1.63 -1.364 4.334
 -1.601 -1.362 4.337
 -1.57 -1.359 4.334
 -1.538 -1.354 4.329
 -1.507 -1.351 4.327
 -1.477 -1.348 4.325
 -1.448 -1.346 4.324
 -1.418 -1.343 4.323
 -1.392 -1.344 4.332
 -1.364 -1.343 4.335
 -1.337 -1.343 4.342
 -1.309 -1.341 4.343
 -1.283 -1.342 4.351
 -1.25 -1.335 4.335
 -1.219 -1.331 4.328
 -1.189 -1.327 4.32
 -1.162 -1.326 4.323
 -1.132 -1.322 4.315
 -1.106 -1.321 4.319
 -1.08 -1.322 4.327
 -1.055 -1.324 4.337
 -1.029 -1.324 4.344
 0 0 0
 0 0 0
 0 0 0
 0 0 0
 0 0 0
 0 0 0
 0 0 0
 0 0 0
 0 0 0
 0 0 0
 0 0 0
 0 0 0
 0 0 0
 0 0 0
 0 0 0
 0 0 0
 0 0 0
 0 0 0
 0 0 0
 0 0 0
 0 0 0
 0 0 0
 0 0 0
 0 0 0
 -0.359 -1.276 4.258
 -0.335 -1.28 4.272
 -0.31 -1.282 4.279
 -0.285 -1.283 4.284
 -0.26 -1.283 4.284
 -0.235 -1.284 4.288
 -0.209 -1.284 4.288
 -0.184 -1.283 4.287
 -0.158 -1.282 4.284
 -0.133 -1.282 4.286
 -0.108 -1.282 4.284
 -0.082 -1.281 4.282
 -0.057 -1.28 4.277
 -0.032 -1.28 4.277
 -0.007 -1.278 4.271
 0.018 -1.278 4.27
 0.043 -1.275 4.26
 0 0 0
 0 0 0
 0 0 0
 0 0 0
 0 0 0
 0 0 0
 0 0 0
 0 0 0
 0 0 0
 0 0 0
 0 0 0
 0 0 0
 0 0 0
 0 0 0
 0 0 0
 0 0 0
 0 0 0
 0 0 0
 0 0 0
 0 0 0
 0 0 0
 0 0 0
 0 0 0
 0 0 0
 0 0 0
 0 0 0
 0 0 0
 0 0 0
 0 0 0
 0 0 0
 0 0 0
 0 0 0
 0 0 0
 0 0 0
 0 0 0
 0.97 -1.311 4.277
 0.996 -1.311 4.271
 1.02 -1.309 4.258
 1.047 -1.31 4.258
 1.073 -1.311 4.254
 1.099 -1.312 4.252
 1.126 -1.314 4.251
 1.154 -1.316 4.252
 1.181 -1.318 4.251
 1.209 -1.32 4.252
 1.237 -1.322 4.251
 1.264 -1.324 4.25
 1.293 -1.326 4.251
 1.32 -1.328 4.25
 1.348 -1.33 4.248
 1.376 -1.332 4.246
 1.404 -1.334 4.245
 1.432 -1.336 4.243
 1.459 -1.337 4.239
 1.487 -1.339 4.236
 1.516 -1.341 4.235
 1.545 -1.343 4.233
 1.573 -1.345 4.231
 1.603 -1.348 4.232
 1.632 -1.35 4.229
 1.66 -1.352 4.225
 1.689 -1.354 4.22
 1.716 -1.355 4.213
 1.744 -1.356 4.207
 1.773 -1.358 4.203
 1.801 -1.359 4.195
 1.828 -1.359 4.187
 1.858 -1.362 4.185
 1.886 -1.363 4.177
 0 0 0
 0 0 0
 0 0 0
 0 0 0
 0 0 0
 0 0 0
 0 0 0
 0 0 0
 0 0 0
 0 0 0
 0 0 0
 0 0 0
 0 0 0
 1.818 -1.099 3.225
 1.831 -1.094 3.198
 1.84 -1.087 3.166
 1.886 -1.102 3.198
 1.858 -1.073 3.104
 -2.511 -1.434 4.358
 -2.505 -1.448 4.413
 -2.445 -1.43 4.374
 -2.407 -1.425 4.372
 -2.37 -1.42 4.37
 -2.333 -1.416 4.369
 -2.297 -1.411 4.368
 -2.26 -1.406 4.366
 -2.223 -1.401 4.361
 -2.187 -1.396 4.359
 -2.152 -1.392 4.357
 -2.114 -1.386 4.35
 -2.079 -1.382 4.349
 -2.045 -1.378 4.347
 -2.011 -1.373 4.345
 -1.977 -1.369 4.342
 -1.946 -1.367 4.347
 -1.913 -1.363 4.345
 -1.881 -1.36 4.345
 -1.85 -1.358 4.348
 -1.818 -1.355 4.347
 -1.784 -1.35 4.342
 -1.752 -1.347 4.34
 -1.721 -1.344 4.34
 -1.688 -1.339 4.333
 -1.657 -1.336 4.333
 -1.626 -1.334 4.332
 -1.597 -1.332 4.335
 -1.566 -1.329 4.333
 -1.535 -1.325 4.328
 -1.504 -1.322 4.326
 -1.475 -1.32 4.326
 -1.445 -1.317 4.324
 -1.415 -1.314 4.322
 -1.389 -1.315 4.331
 -1.361 -1.314 4.335
 -1.334 -1.313 4.339
 -1.307 -1.312 4.342
 0 0 0
 0 0 0
 0 0 0
 0 0 0
 0 0 0
 0 0 0
 0 0 0
 0 0 0
 0 0 0
 0 0 0
 0 0 0
 0 0 0
 0 0 0
 0 0 0
 0 0 0
 0 0 0
 0 0 0
 0 0 0
 0 0 0
 0 0 0
 0 0 0
 0 0 0
 0 0 0
 0 0 0
 0 0 0
 0 0 0
 0 0 0
 0 0 0
 0 0 0
 0 0 0
 0 0 0
 0 0 0
 0 0 0
 0 0 0
 -0.359 -1.249 4.256
 -0.334 -1.252 4.27
 -0.31 -1.255 4.279
 -0.284 -1.255 4.282
 -0.259 -1.255 4.283
 -0.234 -1.256 4.287
 -0.209 -1.256 4.288
 -0.183 -1.256 4.286
 -0.158 -1.255 4.284
 -0.133 -1.255 4.286
 -0.107 -1.255 4.284
 -0.082 -1.254 4.282
 -0.057 -1.252 4.273
 -0.032 -1.251 4.273
 -0.006 -1.25 4.266
 0.018 -1.249 4.262
 0.043 -1.244 4.244
 0 0 0
 0 0 0
 0 0 0
 0 0 0
 0 0 0
 0 0 0
 0 0 0
 0 0 0
 0 0 0
 0 0 0
 0 0 0
 0 0 0
 0 0 0
 0 0 0
 0 0 0
 0 0 0
 0 0 0
 0 0 0
 0 0 0
 0 0 0
 0 0 0
 0 0 0
 0 0 0
 0 0 0
 0 0 0
 0 0 0
 0 0 0
 0 0 0
 0 0 0
 0 0 0
 0 0 0
 0 0 0
 0 0 0
 0 0 0
 0 0 0
 0.969 -1.283 4.276
 0.995 -1.283 4.272
 1.019 -1.282 4.26
 1.046 -1.283 4.26
 1.071 -1.283 4.255
 1.098 -1.284 4.252
 1.125 -1.286 4.251
 1.153 -1.288 4.253
 1.18 -1.29 4.252
 1.208 -1.293 4.255
 1.235 -1.294 4.253
 1.263 -1.296 4.252
 1.291 -1.298 4.252
 1.318 -1.3 4.25
 1.346 -1.302 4.248
 1.374 -1.304 4.247
 1.402 -1.306 4.247
 1.43 -1.308 4.244
 1.457 -1.309 4.24
 1.486 -1.311 4.238
 1.514 -1.313 4.236
 1.542 -1.315 4.234
 1.571 -1.317 4.232
 1.601 -1.32 4.233
 1.629 -1.322 4.229
 1.657 -1.323 4.224
 1.686 -1.325 4.219
 1.713 -1.326 4.213
 1.741 -1.327 4.207
 1.77 -1.329 4.204
 1.798 -1.33 4.197
 1.826 -1.331 4.189
 1.855 -1.333 4.185
 1.885 -1.335 4.181
 0 0 0
 0 0 0
 0 0 0
 0 0 0
 0 0 0
 0 0 0
 0 0 0
 0 0 0
 0 0 0
 0 0 0
 0 0 0
 0 0 0
 0 0 0
 1.813 -1.074 3.222
 1.825 -1.069 3.195
 1.835 -1.063 3.165
 1.838 -1.052 3.122
 1.842 -1.043 3.083
 -2.512 -1.406 4.369
 -2.46 -1.393 4.344
 -2.439 -1.398 4.372
 -2.402 -1.393 4.371
 -2.364 -1.388 4.367
 -2.328 -1.384 4.368
 -2.291 -1.379 4.366
 -2.254 -1.374 4.363
 -2.217 -1.369 4.358
 -2.181 -1.364 4.356
 -2.145 -1.36 4.353
 -2.108 -1.354 4.347
 -2.075 -1.351 4.348
 -2.042 -1.348 4.348
 -2.007 -1.343 4.344
 -1.973 -1.339 4.342
 -1.943 -1.338 4.348
 -1.91 -1.334 4.347
 -1.879 -1.331 4.348
 -1.848 -1.329 4.35
 -1.815 -1.325 4.347
 -1.781 -1.32 4.341
 -1.749 -1.317 4.339
 -1.717 -1.314 4.338
 -1.685 -1.31 4.334
 -1.654 -1.307 4.332
 -1.623 -1.304 4.331
 -1.594 -1.302 4.333
 -1.564 -1.3 4.334
 -1.532 -1.296 4.327
 -1.502 -1.293 4.325
 -1.472 -1.29 4.324
 -1.442 -1.287 4.321
 -1.411 -1.284 4.316
 -1.385 -1.284 4.324
 -1.357 -1.283 4.327
 -1.329 -1.282 4.33
 -1.3 -1.28 4.329
 0 0 0
 0 0 0
 0 0 0
 0 0 0
 0 0 0
 0 0 0
 0 0 0
 0 0 0
 0 0 0
 0 0 0
 0 0 0
 0 0 0
 0 0 0
 0 0 0
 0 0 0
 0 0 0
 0 0 0
 0 0 0
 0 0 0
 0 0 0
 0 0 0
 0 0 0
 -0.676 -1.25 4.332
 -0.65 -1.251 4.336
 -0.624 -1.25 4.337
 -0.598 -1.251 4.34
 0 0 0
 0 0 0
 0 0 0
 0 0 0
 0 0 0
 0 0 0
 0 0 0
 0 0 0
 -0.358 -1.221 4.254
 -0.334 -1.225 4.268
 -0.309 -1.228 4.281
 -0.284 -1.229 4.284
 -0.259 -1.229 4.286
 -0.234 -1.23 4.291
 -0.209 -1.23 4.292
 -0.183 -1.229 4.289
 -0.158 -1.229 4.287
 -0.133 -1.229 4.289
 -0.107 -1.228 4.286
 -0.082 -1.228 4.284
 -0.057 -1.225 4.275
 -0.031 -1.225 4.273
 -0.006 -1.222 4.265
 0.018 -1.221 4.26
 0.043 -1.217 4.245
 0 0 0
 0 0 0
 0 0 0
 0 0 0
 0 0 0
 0 0 0
 0 0 0
 0 0 0
 0 0 0
 0 0 0
 0 0 0
 0 0 0
 0 0 0
 0 0 0
 0 0 0
 0 0 0
 0 0 0
 0 0 0
 0 0 0
 0 0 0
 0 0 0
 0 0 0
 0 0 0
 0 0 0
 0 0 0
 0 0 0
 0 0 0
 0 0 0
 0 0 0
 0 0 0
 0 0 0
 0 0 0
 0 0 0
 0 0 0
 0 0 0
 0.967 -1.254 4.271
 0.992 -1.254 4.266
 1.017 -1.253 4.258
 1.044 -1.255 4.259
 1.07 -1.255 4.254
 1.096 -1.257 4.252
 1.123 -1.258 4.252
 1.151 -1.26 4.252
 1.178 -1.262 4.251
 1.206 -1.264 4.253
 1.233 -1.266 4.253
 1.261 -1.268 4.252
 1.289 -1.271 4.253
 1.316 -1.272 4.25
 1.344 -1.273 4.248
 1.372 -1.276 4.248
 1.401 -1.278 4.248
 1.428 -1.279 4.244
 1.455 -1.28 4.24
 1.484 -1.282 4.239
 1.511 -1.284 4.235
 1.539 -1.285 4.232
 1.568 -1.288 4.23
 1.598 -1.291 4.231
 1.626 -1.292 4.227
 1.654 -1.294 4.222
 1.682 -1.295 4.218
 1.711 -1.297 4.214
 1.738 -1.298 4.207
 1.766 -1.299 4.201
 1.795 -1.301 4.197
 1.822 -1.302 4.187
 1.85 -1.302 4.179
 1.878 -1.304 4.173
 0 0 0
 0 0 0
 0 0 0
 0 0 0
 0 0 0
 0 0 0
 0 0 0
 0 0 0
 0 0 0
 0 0 0
 0 0 0
 0 0 0
 0 0 0
 1.788 -1.038 3.182
 1.811 -1.039 3.175
 1.827 -1.037 3.156
 1.868 -1.048 3.18
 1.875 -1.04 3.145
 -2.528 -1.385 4.405
 -2.484 -1.377 4.395
 -2.434 -1.366 4.371
 -2.396 -1.361 4.369
 -2.358 -1.356 4.366
 -2.323 -1.352 4.367
 -2.286 -1.347 4.364
 -2.251 -1.343 4.364
 -2.213 -1.338 4.359
 -2.178 -1.334 4.359
 -2.143 -1.33 4.356
 -2.106 -1.324 4.349
 -2.073 -1.321 4.35
 -2.039 -1.318 4.351
 -2.004 -1.313 4.346
 -1.97 -1.309 4.344
 -1.941 -1.308 4.351
 -1.909 -1.306 4.352
 -1.875 -1.301 4.346
 -1.842 -1.298 4.345
 -1.808 -1.293 4.339
 -1.776 -1.29 4.337
 -1.744 -1.287 4.336
 -1.715 -1.285 4.339
 -1.683 -1.281 4.335
 -1.651 -1.278 4.333
 -1.62 -1.275 4.33
 -1.591 -1.273 4.333
 -1.561 -1.271 4.334
 -1.529 -1.267 4.327
 -1.499 -1.264 4.325
 -1.469 -1.262 4.324
 -1.439 -1.258 4.32
 -1.408 -1.255 4.315
 -1.382 -1.255 4.323
 -1.354 -1.254 4.327
 -1.327 -1.253 4.329
 -1.298 -1.251 4.329
 0 0 0
 0 0 0
 0 0 0
 0 0 0
 0 0 0
 0 0 0
 0 0 0
 0 0 0
 0 0 0
 0 0 0
 0 0 0
 0 0 0
 0 0 0
 0 0 0
 0 0 0
 0 0 0
 0 0 0
 0 0 0
 0 0 0
 0 0 0
 0 0 0
 0 0 0
 -0.676 -1.225 4.339
 -0.65 -1.225 4.343
 -0.624 -1.225 4.344
 -0.598 -1.225 4.348
 0 0 0
 0 0 0
 0 0 0
 0 0 0
 0 0 0
 0 0 0
 0 0 0
 0 0 0
 -0.358 -1.198 4.266
 -0.333 -1.199 4.273
 -0.309 -1.202 4.284
 -0.284 -1.203 4.288
 -0.259 -1.203 4.289
 -0.233 -1.204 4.293
 -0.208 -1.204 4.293
 -0.183 -1.203 4.29
 -0.157 -1.202 4.288
 -0.132 -1.202 4.289
 -0.107 -1.202 4.287
 -0.082 -1.201 4.286
 -0.056 -1.199 4.278
 -0.031 -1.199 4.276
 -0.006 -1.197 4.269
 0.018 -1.195 4.264
 0.043 -1.192 4.251
 0 0 0
 0 0 0
 0 0 0
 0 0 0
 0 0 0
 0 0 0
 0 0 0
 0 0 0
 0 0 0
 0 0 0
 0 0 0
 0 0 0
 0 0 0
 0 0 0
 0 0 0
 0 0 0
 0 0 0
 0 0 0
 0 0 0
 0 0 0
 0 0 0
 0 0 0
 0 0 0
 0 0 0
 0 0 0
 0 0 0
 0 0 0
 0 0 0
 0 0 0
 0 0 0
 0 0 0
 0 0 0
 0 0 0
 0 0 0
