 0.165 -1.615 4.121
 0.19 -1.615 4.119
 0.215 -1.616 4.12
 0.24 -1.619 4.128
 0.264 -1.616 4.119
 0.29 -1.617 4.12
 0.315 -1.618 4.12
 0.339 -1.617 4.116
 0.364 -1.616 4.112
 0.389 -1.618 4.113
 0.414 -1.617 4.108
 0.439 -1.617 4.107
 0.464 -1.619 4.109
 0.489 -1.619 4.107
 0.514 -1.619 4.103
 0.539 -1.621 4.104
 0.566 -1.624 4.11
 0.59 -1.623 4.103
 0.616 -1.624 4.103
 0.641 -1.626 4.105
 0.667 -1.628 4.105
 0.691 -1.626 4.097
 0.717 -1.628 4.098
 0.741 -1.626 4.089
 0.767 -1.627 4.087
 0.792 -1.627 4.083
 0.816 -1.626 4.075
 0.842 -1.628 4.074
 0.867 -1.628 4.071
 0.891 -1.627 4.063
 0.917 -1.628 4.06
 0.944 -1.631 4.063
 0.969 -1.631 4.058
 0.995 -1.633 4.058
 1.022 -1.637 4.06
 1.047 -1.636 4.052
 1.07 -1.633 4.039
 1.096 -1.634 4.035
 1.12 -1.634 4.027
 1.144 -1.632 4.016
 1.17 -1.632 4.012
 1.196 -1.634 4.01
 1.22 -1.634 4
 1.247 -1.636 4
 1.275 -1.639 3.999
 1.302 -1.641 3.997
 1.329 -1.644 3.996
 1.356 -1.646 3.993
 1.379 -1.644 3.98
 1.404 -1.643 3.97
 1.429 -1.643 3.963
 1.451 -1.64 3.946
 1.476 -1.64 3.937
 1.502 -1.64 3.93
 1.525 -1.639 3.917
 1.547 -1.635 3.899
 1.572 -1.635 3.89
 1.594 -1.632 3.874
 1.62 -1.633 3.866
 1.645 -1.633 3.857
 1.671 -1.635 3.85
 1.696 -1.634 3.84
 1.725 -1.639 3.84
 1.749 -1.638 3.827
 1.772 -1.636 3.811
 1.792 -1.631 3.79
 1.809 -1.624 3.762
 1.817 -1.609 3.717
 1.822 -1.592 3.667
 1.826 -1.575 3.616
 1.826 -1.554 3.558
 1.824 -1.533 3.498
 1.823 -1.513 3.44
 1.814 -1.487 3.37
 1.792 -1.45 3.276
 1.783 -1.426 3.21
 1.777 -1.404 3.149
 1.781 -1.39 3.108
 1.78 -1.373 3.059
 1.774 -1.353 3.003
 1.769 -1.333 2.948
 1.766 -1.317 2.9
 1.748 -1.289 2.827
 -2.233 -1.638 3.75
 -2.174 -1.613 3.705
 -2.152 -1.616 3.725
 -2.129 -1.619 3.742
 -2.108 -1.622 3.762
 -2.084 -1.623 3.777
 -2.059 -1.624 3.79
 -2.032 -1.623 3.801
 -2.005 -1.622 3.809
 -1.976 -1.619 3.815
 -1.951 -1.62 3.827
 -1.926 -1.621 3.841
 -1.902 -1.622 3.855
 -1.878 -1.623 3.868
 -1.854 -1.625 3.882
 -1.828 -1.625 3.893
 -1.805 -1.627 3.908
 -1.777 -1.626 3.915
 -1.75 -1.624 3.921
 -1.723 -1.623 3.928
 -1.695 -1.621 3.933
 -1.668 -1.62 3.939
 -1.642 -1.62 3.947
 -1.618 -1.621 3.96
 -1.593 -1.622 3.97
 -1.568 -1.622 3.981
 -1.539 -1.619 3.98
 -1.514 -1.62 3.991
 -1.486 -1.617 3.993
 -1.459 -1.616 3.996
 -1.432 -1.614 4.001
 -1.408 -1.615 4.011
 -1.383 -1.616 4.02
 -1.356 -1.614 4.023
 -1.33 -1.614 4.031
 -1.306 -1.615 4.04
 -1.28 -1.616 4.048
 -1.254 -1.615 4.053
 -1.229 -1.615 4.06
 -1.203 -1.615 4.065
 -1.177 -1.614 4.069
 -1.151 -1.613 4.072
 -1.125 -1.613 4.078
 -1.099 -1.612 4.081
 -1.074 -1.613 4.089
 -1.049 -1.612 4.094
 -1.024 -1.613 4.101
 -0.998 -1.612 4.104
 -0.972 -1.612 4.108
 -0.946 -1.612 4.112
 -0.92 -1.61 4.111
 -0.893 -1.607 4.109
 -0.866 -1.604 4.107
 -0.842 -1.607 4.118
 -0.819 -1.611 4.13
 -0.793 -1.611 4.134
 -0.768 -1.612 4.141
 -0.744 -1.613 4.147
 -0.717 -1.611 4.145
 -0.689 -1.604 4.132
 -0.664 -1.604 4.135
 -0.639 -1.606 4.143
 -0.614 -1.606 4.146
 -0.589 -1.607 4.152
 -0.565 -1.611 4.164
 -0.54 -1.611 4.168
 -0.515 -1.611 4.17
 -0.489 -1.611 4.17
 -0.464 -1.611 4.172
 -0.438 -1.609 4.169
 -0.413 -1.609 4.173
 -0.388 -1.609 4.175
 -0.363 -1.611 4.182
 -0.337 -1.609 4.177
 -0.312 -1.61 4.181
 -0.287 -1.611 4.184
 -0.261 -1.61 4.183
 -0.236 -1.61 4.183
 -0.211 -1.611 4.188
 -0.186 -1.611 4.188
 -0.16 -1.611 4.188
 -0.135 -1.609 4.184
 -0.11 -1.609 4.184
 -0.084 -1.609 4.185
 -0.059 -1.609 4.184
 -0.034 -1.608 4.182
 -0.009 -1.61 4.188
 0.016 -1.611 4.19
 0.041 -1.612 4.192
 0.066 -1.612 4.191
 0.091 -1.613 4.191
 0.116 -1.609 4.182
 0.142 -1.61 4.182
 0.167 -1.609 4.179
 0.192 -1.608 4.176
 0.217 -1.609 4.176
 0.243 -1.612 4.184
 0.268 -1.61 4.176
 0.293 -1.611 4.176
 0.318 -1.611 4.176
 0.343 -1.611 4.172
 0.368 -1.609 4.166
 0.394 -1.611 4.167
 0.419 -1.61 4.162
 0.444 -1.609 4.159
 0.469 -1.61 4.158
 0.495 -1.612 4.161
 0.52 -1.612 4.157
 0.545 -1.613 4.157
 0.572 -1.617 4.164
 0.597 -1.616 4.157
 0.622 -1.616 4.156
 0.649 -1.618 4.158
 0.674 -1.62 4.158
 0.699 -1.619 4.151
 0.725 -1.621 4.153
 0.75 -1.62 4.145
 0.775 -1.62 4.141
 0.801 -1.62 4.137
 0.826 -1.62 4.132
 0.852 -1.621 4.131
 0.878 -1.622 4.128
 0.903 -1.622 4.124
 0.93 -1.625 4.124
 0.956 -1.627 4.126
 0.982 -1.628 4.122
 1.008 -1.629 4.119
 1.035 -1.631 4.118
 1.059 -1.629 4.108
 1.083 -1.627 4.096
 1.109 -1.627 4.091
 1.134 -1.628 4.085
 1.159 -1.626 4.075
 1.185 -1.628 4.072
 1.212 -1.63 4.071
 1.237 -1.629 4.062
 1.264 -1.632 4.062
 1.292 -1.635 4.062
 1.319 -1.637 4.059
 1.346 -1.639 4.055
 1.373 -1.641 4.053
 1.397 -1.639 4.04
 1.422 -1.638 4.03
 1.448 -1.639 4.024
 1.472 -1.637 4.011
 1.497 -1.637 4.001
 1.523 -1.638 3.996
 1.547 -1.637 3.983
 1.57 -1.634 3.968
 1.595 -1.634 3.958
 1.619 -1.632 3.943
 1.644 -1.632 3.934
 1.67 -1.633 3.925
 1.695 -1.632 3.915
 1.721 -1.633 3.905
 1.75 -1.636 3.903
 1.772 -1.633 3.886
 1.792 -1.628 3.863
 1.808 -1.62 3.833
 1.82 -1.609 3.795
 1.825 -1.591 3.743
 1.829 -1.574 3.69
 1.834 -1.557 3.64
 1.836 -1.538 3.586
 1.834 -1.518 3.526
 1.832 -1.497 3.466
 1.825 -1.472 3.398
 1.791 -1.427 3.282
 1.777 -1.399 3.207
 1.774 -1.38 3.153
 1.78 -1.368 3.115
 1.782 -1.354 3.07
 1.777 -1.334 3.015
 1.774 -1.316 2.964
 1.766 -1.296 2.906
 1.801 -1.307 2.92
 -2.211 -1.596 3.722
 -2.196 -1.604 3.754
 -2.187 -1.617 3.796
 -2.162 -1.618 3.811
 -2.138 -1.619 3.827
 -2.113 -1.62 3.84
 -2.088 -1.621 3.854
 -2.062 -1.621 3.867
 -2.034 -1.62 3.875
 -2.006 -1.618 3.884
 -1.98 -1.618 3.894
 -1.955 -1.619 3.907
 -1.928 -1.618 3.917
 -1.903 -1.619 3.929
 -1.878 -1.62 3.942
 -1.852 -1.62 3.954
 -1.826 -1.62 3.964
 -1.801 -1.621 3.977
 -1.774 -1.62 3.984
 -1.745 -1.618 3.988
 -1.718 -1.617 3.996
 -1.692 -1.617 4.005
 -1.665 -1.616 4.011
 -1.64 -1.617 4.023
 -1.615 -1.618 4.036
 -1.589 -1.619 4.045
 -1.56 -1.615 4.045
 -1.535 -1.617 4.057
 -1.508 -1.615 4.061
 -1.481 -1.614 4.066
 -1.455 -1.614 4.073
 -1.429 -1.614 4.081
 -1.403 -1.614 4.089
 -1.375 -1.611 4.09
 -1.349 -1.611 4.097
 -1.322 -1.61 4.101
 -1.298 -1.612 4.113
 -1.271 -1.611 4.116
 -1.245 -1.61 4.121
 -1.218 -1.609 4.125
 -1.192 -1.609 4.131
 -1.164 -1.607 4.131
 -1.139 -1.607 4.137
 -1.112 -1.606 4.141
 -1.088 -1.608 4.151
 -1.062 -1.608 4.155
 -1.037 -1.61 4.166
 -1.011 -1.609 4.17
 -0.986 -1.609 4.175
 -0.959 -1.608 4.178
 -0.933 -1.607 4.178
 -0.905 -1.603 4.174
 -0.878 -1.6 4.171
 -0.853 -1.602 4.178
 -0.827 -1.602 4.184
 -0.802 -1.602 4.188
 -0.776 -1.602 4.191
 -0.75 -1.602 4.195
 -0.724 -1.601 4.195
 -0.697 -1.597 4.187
 -0.671 -1.596 4.189
 -0.646 -1.598 4.196
 -0.621 -1.598 4.201
 -0.596 -1.6 4.207
 -0.571 -1.602 4.215
 -0.545 -1.601 4.217
 -0.52 -1.602 4.221
 -0.494 -1.601 4.22
 -0.468 -1.601 4.222
 -0.442 -1.599 4.219
 -0.417 -1.6 4.223
 -0.391 -1.6 4.224
 -0.366 -1.601 4.229
 -0.34 -1.599 4.225
 -0.315 -1.6 4.23
 -0.289 -1.6 4.231
 -0.264 -1.6 4.232
 -0.238 -1.599 4.231
 -0.213 -1.6 4.234
 -0.187 -1.6 4.233
 -0.161 -1.599 4.232
 -0.136 -1.597 4.227
 -0.11 -1.596 4.225
 -0.085 -1.596 4.224
 -0.059 -1.594 4.221
 -0.034 -1.594 4.219
 -0.009 -1.596 4.226
 0.016 -1.597 4.227
 0.041 -1.597 4.228
 0.067 -1.598 4.23
 0.092 -1.598 4.228
 0.117 -1.594 4.217
 0.143 -1.596 4.22
 0.168 -1.596 4.221
 0.194 -1.596 4.218
 0.219 -1.598 4.222
 0.245 -1.601 4.23
 0.27 -1.599 4.221
 0.296 -1.599 4.22
 0.322 -1.601 4.223
 0.347 -1.6 4.219
 0.372 -1.599 4.214
 0.398 -1.6 4.215
 0.423 -1.599 4.211
 0.448 -1.598 4.204
 0.473 -1.598 4.203
 0.499 -1.6 4.203
 0.524 -1.599 4.199
 0.55 -1.6 4.199
 0.577 -1.603 4.203
 0.602 -1.603 4.198
 0.627 -1.603 4.196
 0.653 -1.604 4.196
 0.679 -1.606 4.196
 0.705 -1.606 4.193
 0.731 -1.608 4.192
 0.757 -1.608 4.189
 0.783 -1.61 4.189
 0.809 -1.61 4.186
 0.834 -1.61 4.181
 0.861 -1.612 4.182
 0.886 -1.612 4.176
 0.912 -1.613 4.175
 0.939 -1.615 4.173
 0.966 -1.617 4.173
 0.992 -1.618 4.172
 1.019 -1.62 4.169
 1.045 -1.621 4.166
 1.069 -1.619 4.156
 1.095 -1.618 4.149
 1.121 -1.619 4.144
 1.146 -1.619 4.137
 1.171 -1.618 4.128
 1.198 -1.62 4.127
 1.225 -1.622 4.125
 1.25 -1.621 4.115
 1.279 -1.625 4.117
 1.306 -1.627 4.115
 1.334 -1.629 4.114
 1.36 -1.629 4.106
 1.387 -1.632 4.105
 1.412 -1.631 4.094
 1.438 -1.631 4.086
 1.464 -1.632 4.079
 1.491 -1.633 4.073
 1.518 -1.634 4.066
 1.544 -1.635 4.06
 1.57 -1.634 4.049
 1.594 -1.632 4.035
 1.618 -1.631 4.023
 1.641 -1.628 4.006
 1.666 -1.628 3.996
 1.692 -1.628 3.986
 1.718 -1.628 3.977
 1.743 -1.627 3.964
 1.771 -1.63 3.959
 1.792 -1.626 3.94
 1.809 -1.618 3.91
 1.821 -1.606 3.869
 1.831 -1.593 3.828
 1.836 -1.575 3.774
 1.839 -1.557 3.719
 1.844 -1.541 3.669
 1.85 -1.526 3.622
 1.849 -1.506 3.563
 1.847 -1.485 3.503
 1.844 -1.464 3.441
 1.79 -1.404 3.288
 1.767 -1.369 3.197
 1.769 -1.355 3.151
 1.778 -1.345 3.118
 1.782 -1.332 3.078
 1.78 -1.315 3.027
 1.777 -1.298 2.977
 1.763 -1.273 2.909
 1.777 -1.27 2.89
 -2.278 -1.618 3.846
 -2.227 -1.601 3.817
 -2.224 -1.618 3.87
 -2.197 -1.617 3.881
 -2.171 -1.618 3.895
 -2.143 -1.617 3.905
 -2.118 -1.618 3.92
 -2.093 -1.619 3.935
 -2.066 -1.619 3.946
 -2.039 -1.619 3.958
 -2.012 -1.618 3.967
 -1.984 -1.617 3.976
 -1.955 -1.615 3.983
 -1.93 -1.616 3.995
 -1.904 -1.617 4.008
 -1.879 -1.618 4.022
 -1.853 -1.618 4.034
 -1.828 -1.62 4.048
 -1.801 -1.619 4.055
 -1.772 -1.617 4.059
 -1.744 -1.615 4.066
 -1.717 -1.615 4.074
 -1.689 -1.614 4.081
 -1.663 -1.614 4.091
 -1.638 -1.615 4.102
 -1.612 -1.615 4.112
 -1.582 -1.611 4.11
 -1.554 -1.611 4.117
 -1.526 -1.609 4.12
 -1.499 -1.607 4.124
 -1.472 -1.607 4.133
 -1.448 -1.609 4.144
 -1.421 -1.609 4.152
 -1.393 -1.607 4.155
 -1.367 -1.607 4.161
 -1.339 -1.605 4.164
 -1.314 -1.606 4.172
 -1.286 -1.604 4.175
 -1.26 -1.604 4.183
 -1.233 -1.603 4.185
 -1.207 -1.603 4.191
 -1.179 -1.6 4.191
 -1.153 -1.6 4.196
 -1.126 -1.599 4.199
 -1.1 -1.6 4.208
 -1.074 -1.599 4.211
 -1.049 -1.602 4.222
 -1.023 -1.602 4.227
 -0.996 -1.601 4.23
 -0.97 -1.6 4.232
 -0.942 -1.597 4.23
 -0.914 -1.593 4.223
 -0.886 -1.59 4.221
 -0.861 -1.592 4.229
 -0.835 -1.592 4.233
 -0.81 -1.593 4.239
 -0.783 -1.592 4.24
 -0.757 -1.591 4.242
 -0.73 -1.589 4.241
 -0.703 -1.586 4.236
 -0.677 -1.585 4.236
 -0.652 -1.586 4.242
 -0.626 -1.586 4.246
 -0.6 -1.586 4.248
 -0.575 -1.587 4.253
 -0.549 -1.586 4.253
 -0.523 -1.587 4.257
 -0.497 -1.586 4.257
 -0.471 -1.586 4.259
 -0.445 -1.585 4.259
 -0.42 -1.586 4.262
 -0.394 -1.586 4.265
 -0.368 -1.586 4.267
 -0.342 -1.584 4.263
 -0.317 -1.585 4.266
 -0.291 -1.584 4.265
 -0.265 -1.583 4.262
 -0.239 -1.582 4.262
 -0.214 -1.583 4.264
 -0.188 -1.581 4.26
 -0.162 -1.58 4.259
 -0.136 -1.579 4.255
 -0.111 -1.578 4.254
 -0.085 -1.578 4.253
 -0.06 -1.578 4.254
 -0.034 -1.578 4.254
 -0.008 -1.58 4.259
 0.016 -1.58 4.258
 0.042 -1.58 4.259
 0.067 -1.581 4.261
 0.093 -1.582 4.261
 0.118 -1.579 4.252
 0.144 -1.581 4.257
 0.17 -1.582 4.258
 0.195 -1.581 4.254
 0.221 -1.58 4.252
 0.247 -1.584 4.259
 0.272 -1.581 4.25
 0.297 -1.581 4.247
 0.323 -1.582 4.251
 0.349 -1.582 4.248
 0.374 -1.581 4.243
 0.4 -1.583 4.246
 0.425 -1.583 4.243
 0.451 -1.582 4.237
 0.477 -1.583 4.238
 0.503 -1.585 4.241
 0.528 -1.585 4.238
 0.554 -1.586 4.238
 0.581 -1.589 4.243
 0.606 -1.588 4.237
 0.632 -1.589 4.236
 0.658 -1.589 4.233
 0.684 -1.59 4.231
 0.709 -1.59 4.226
 0.735 -1.591 4.224
 0.761 -1.59 4.219
 0.788 -1.593 4.222
 0.813 -1.593 4.218
 0.839 -1.593 4.214
 0.866 -1.595 4.214
 0.892 -1.595 4.209
 0.918 -1.597 4.207
 0.945 -1.598 4.207
 0.971 -1.6 4.206
 0.999 -1.603 4.207
 1.025 -1.603 4.203
 1.051 -1.604 4.199
 1.077 -1.604 4.193
 1.103 -1.605 4.189
 1.129 -1.605 4.184
 1.156 -1.606 4.179
 1.182 -1.607 4.174
 1.209 -1.608 4.172
 1.236 -1.61 4.169
 1.262 -1.61 4.162
 1.291 -1.614 4.164
 1.318 -1.616 4.162
 1.346 -1.618 4.159
 1.372 -1.618 4.152
 1.4 -1.621 4.151
 1.426 -1.62 4.141
 1.453 -1.622 4.138
 1.48 -1.623 4.131
 1.508 -1.624 4.127
 1.534 -1.625 4.12
 1.562 -1.626 4.114
 1.587 -1.626 4.103
 1.612 -1.624 4.091
 1.637 -1.624 4.079
 1.661 -1.622 4.064
 1.688 -1.622 4.056
 1.714 -1.623 4.047
 1.74 -1.623 4.037
 1.763 -1.62 4.02
 1.788 -1.619 4.007
 1.807 -1.613 3.98
 1.82 -1.602 3.942
 1.829 -1.587 3.896
 1.838 -1.574 3.851
 1.844 -1.558 3.801
 1.849 -1.541 3.749
 1.854 -1.525 3.699
 1.862 -1.512 3.655
 1.865 -1.494 3.601
 1.859 -1.471 3.534
 0 0 0
 1.767 -1.364 3.254
 1.757 -1.34 3.187
 1.77 -1.334 3.161
 1.777 -1.323 3.124
 1.784 -1.312 3.088
 1.782 -1.296 3.038
 1.778 -1.278 2.986
 1.762 -1.252 2.915
 1.775 -1.247 2.892
 -2.329 -1.628 3.942
 -2.305 -1.63 3.96
 -2.256 -1.614 3.936
 -2.23 -1.615 3.95
 -2.203 -1.615 3.963
 -2.174 -1.614 3.973
 -2.148 -1.614 3.986
 -2.12 -1.614 3.997
 -2.092 -1.613 4.006
 -2.067 -1.614 4.021
 -2.039 -1.613 4.031
 -2.012 -1.613 4.043
 -1.986 -1.614 4.056
 -1.96 -1.614 4.067
 -1.934 -1.615 4.081
 -1.908 -1.616 4.093
 -1.881 -1.615 4.103
 -1.854 -1.616 4.114
 -1.827 -1.615 4.123
 -1.798 -1.614 4.129
 -1.77 -1.612 4.135
 -1.742 -1.611 4.143
 -1.713 -1.61 4.148
 -1.686 -1.609 4.156
 -1.659 -1.609 4.164
 -1.631 -1.608 4.171
 -1.602 -1.606 4.175
 -1.576 -1.606 4.183
 -1.547 -1.604 4.186
 -1.519 -1.603 4.19
 -1.492 -1.603 4.198
 -1.466 -1.603 4.207
 -1.439 -1.602 4.213
 -1.411 -1.601 4.217
 -1.385 -1.601 4.225
 -1.357 -1.6 4.228
 -1.33 -1.6 4.235
 -1.301 -1.597 4.233
 -1.274 -1.596 4.239
 -1.246 -1.594 4.239
 -1.22 -1.594 4.246
 -1.191 -1.592 4.246
 -1.166 -1.593 4.254
 -1.138 -1.591 4.255
 -1.112 -1.591 4.262
 -1.084 -1.589 4.263
 -1.059 -1.59 4.27
 -1.032 -1.589 4.273
 -1.005 -1.588 4.275
 -0.977 -1.586 4.275
 -0.949 -1.583 4.271
 -0.921 -1.579 4.265
 -0.893 -1.576 4.261
 -0.867 -1.577 4.266
 -0.841 -1.576 4.27
 -0.815 -1.576 4.274
 -0.788 -1.576 4.275
 -0.762 -1.576 4.28
 -0.735 -1.574 4.278
 -0.708 -1.571 4.274
 -0.682 -1.57 4.274
 -0.656 -1.571 4.279
 -0.63 -1.57 4.28
 -0.603 -1.569 4.281
 -0.578 -1.57 4.285
 -0.552 -1.569 4.286
 -0.525 -1.569 4.286
 -0.499 -1.568 4.287
 -0.473 -1.568 4.288
 -0.447 -1.566 4.286
 -0.421 -1.566 4.286
 -0.395 -1.565 4.287
 -0.369 -1.565 4.288
 -0.343 -1.564 4.286
 -0.317 -1.563 4.285
 -0.291 -1.563 4.286
 -0.266 -1.562 4.284
 -0.24 -1.562 4.285
 -0.214 -1.561 4.284
 -0.188 -1.56 4.281
 -0.162 -1.559 4.279
 -0.136 -1.557 4.275
 -0.111 -1.557 4.273
 -0.085 -1.556 4.272
 -0.06 -1.557 4.274
 -0.034 -1.558 4.276
 -0.008 -1.559 4.281
 0.016 -1.559 4.279
 0.042 -1.56 4.282
 0.068 -1.56 4.281
 0.093 -1.56 4.28
 0.119 -1.558 4.274
 0.144 -1.559 4.274
 0.17 -1.559 4.273
 0.196 -1.558 4.271
 0.221 -1.558 4.268
 0.247 -1.56 4.273
 0.273 -1.559 4.269
 0.298 -1.559 4.267
 0.324 -1.561 4.27
 0.35 -1.562 4.271
 0.376 -1.562 4.268
 0.402 -1.563 4.269
 0.427 -1.562 4.265
 0.452 -1.561 4.26
 0.478 -1.562 4.259
 0.504 -1.564 4.261
 0.53 -1.564 4.259
 0.556 -1.565 4.259
 0.583 -1.568 4.263
 0.608 -1.568 4.26
 0.634 -1.569 4.258
 0.66 -1.568 4.252
 0.686 -1.569 4.251
 0.712 -1.569 4.247
 0.737 -1.568 4.24
 0.763 -1.569 4.239
 0.79 -1.571 4.242
 0.816 -1.573 4.24
 0.843 -1.574 4.239
 0.87 -1.577 4.242
 0.895 -1.576 4.235
 0.922 -1.577 4.232
 0.948 -1.578 4.231
 0.975 -1.579 4.228
 1.002 -1.581 4.228
 1.029 -1.583 4.227
 1.056 -1.584 4.225
 1.083 -1.586 4.224
 1.11 -1.588 4.223
 1.137 -1.59 4.221
 1.164 -1.591 4.216
 1.191 -1.593 4.215
 1.217 -1.592 4.207
 1.244 -1.593 4.203
 1.27 -1.593 4.196
 1.299 -1.597 4.199
 1.326 -1.599 4.196
 1.355 -1.602 4.196
 1.381 -1.602 4.189
 1.41 -1.605 4.187
 1.435 -1.604 4.178
 1.463 -1.606 4.174
 1.49 -1.607 4.168
 1.519 -1.61 4.166
 1.546 -1.611 4.16
 1.574 -1.613 4.156
 1.601 -1.613 4.149
 1.628 -1.614 4.141
 1.654 -1.613 4.129
 1.679 -1.613 4.117
 1.706 -1.614 4.11
 1.732 -1.613 4.099
 1.758 -1.613 4.089
 1.781 -1.61 4.069
 1.804 -1.607 4.051
 1.819 -1.597 4.017
 1.832 -1.586 3.978
 1.837 -1.568 3.922
 1.847 -1.555 3.878
 1.853 -1.539 3.827
 1.862 -1.526 3.782
 1.865 -1.509 3.729
 1.88 -1.501 3.698
 1.881 -1.483 3.641
 0 0 0
 0 0 0
 0 0 0
 1.748 -1.311 3.177
 1.767 -1.309 3.162
 1.773 -1.298 3.124
 1.78 -1.289 3.09
 1.781 -1.274 3.045
 1.779 -1.258 2.995
 1.78 -1.245 2.952
 1.772 -1.225 2.895
 -2.377 -1.633 4.033
 -2.304 -1.602 3.969
 -2.291 -1.612 4.006
 -2.261 -1.61 4.016
 -2.233 -1.61 4.028
 -2.206 -1.61 4.04
 -2.179 -1.61 4.054
 -2.153 -1.611 4.068
 -2.124 -1.61 4.077
 -2.099 -1.611 4.093
 -2.07 -1.61 4.102
 -2.042 -1.61 4.112
 -2.014 -1.609 4.122
 -1.985 -1.608 4.131
 -1.957 -1.607 4.139
 -1.929 -1.607 4.149
 -1.902 -1.607 4.16
 -1.876 -1.607 4.172
 -1.849 -1.608 4.184
 -1.821 -1.607 4.192
 -1.793 -1.607 4.2
 -1.765 -1.606 4.207
 -1.736 -1.604 4.212
 -1.708 -1.603 4.22
 -1.68 -1.603 4.228
 -1.652 -1.602 4.234
 -1.623 -1.6 4.238
 -1.595 -1.599 4.245
 -1.566 -1.597 4.247
 -1.538 -1.595 4.251
 -1.51 -1.595 4.257
 -1.481 -1.593 4.26
 -1.454 -1.592 4.267
 -1.425 -1.59 4.269
 -1.398 -1.59 4.275
 -1.37 -1.589 4.278
 -1.343 -1.588 4.285
 -1.313 -1.585 4.281
 -1.286 -1.584 4.286
 -1.257 -1.581 4.286
 -1.23 -1.581 4.29
 -1.202 -1.579 4.291
 -1.175 -1.579 4.298
 -1.148 -1.577 4.3
 -1.121 -1.577 4.304
 -1.093 -1.575 4.304
 -1.065 -1.574 4.306
 -1.038 -1.572 4.307
 -1.01 -1.571 4.308
 -0.983 -1.569 4.308
 -0.954 -1.565 4.302
 -0.926 -1.563 4.301
 -0.899 -1.561 4.298
 -0.872 -1.559 4.299
 -0.845 -1.558 4.298
 -0.819 -1.558 4.303
 -0.791 -1.556 4.3
 -0.765 -1.556 4.305
 -0.738 -1.554 4.304
 -0.711 -1.553 4.303
 -0.685 -1.552 4.303
 -0.659 -1.552 4.306
 -0.632 -1.55 4.303
 -0.605 -1.549 4.303
 -0.579 -1.548 4.305
 -0.552 -1.546 4.302
 -0.526 -1.545 4.302
 -0.5 -1.544 4.301
 -0.474 -1.544 4.303
 -0.448 -1.543 4.301
 -0.422 -1.543 4.303
 -0.396 -1.542 4.301
 -0.369 -1.541 4.3
 -0.343 -1.539 4.297
 -0.317 -1.539 4.297
 -0.291 -1.538 4.296
 -0.266 -1.538 4.298
 -0.24 -1.538 4.299
 -0.214 -1.538 4.299
 -0.188 -1.537 4.297
 -0.162 -1.535 4.293
 -0.136 -1.533 4.288
 -0.111 -1.533 4.287
 -0.085 -1.532 4.284
 -0.059 -1.532 4.284
 -0.034 -1.532 4.284
 -0.008 -1.533 4.286
 0.016 -1.532 4.284
 0.042 -1.533 4.285
 0.068 -1.533 4.286
 0.094 -1.535 4.289
 0.119 -1.534 4.285
 0.145 -1.534 4.286
 0.171 -1.535 4.287
 0.196 -1.535 4.285
 0.222 -1.533 4.279
 0.248 -1.536 4.285
 0.273 -1.535 4.282
 0.299 -1.535 4.278
 0.325 -1.536 4.281
 0.35 -1.537 4.282
 0.376 -1.536 4.275
 0.401 -1.536 4.272
 0.427 -1.536 4.271
 0.453 -1.536 4.268
 0.478 -1.536 4.267
 0.505 -1.538 4.269
 0.531 -1.54 4.27
 0.556 -1.54 4.268
 0.583 -1.541 4.269
 0.609 -1.542 4.268
 0.635 -1.543 4.268
 0.66 -1.543 4.263
 0.687 -1.544 4.262
 0.713 -1.545 4.261
 0.738 -1.545 4.256
 0.765 -1.547 4.257
 0.792 -1.549 4.259
 0.819 -1.551 4.259
 0.844 -1.551 4.255
 0.871 -1.553 4.255
 0.897 -1.552 4.25
 0.923 -1.553 4.246
 0.95 -1.554 4.245
 0.977 -1.556 4.244
 1.004 -1.558 4.244
 1.03 -1.558 4.239
 1.056 -1.559 4.236
 1.084 -1.561 4.236
 1.112 -1.565 4.238
 1.139 -1.567 4.237
 1.167 -1.569 4.236
 1.196 -1.572 4.238
 1.222 -1.572 4.231
 1.249 -1.573 4.229
 1.275 -1.574 4.223
 1.304 -1.577 4.224
 1.332 -1.579 4.222
 1.361 -1.582 4.223
 1.387 -1.582 4.213
 1.415 -1.584 4.212
 1.442 -1.585 4.205
 1.469 -1.586 4.201
 1.497 -1.588 4.195
 1.527 -1.591 4.196
 1.554 -1.592 4.189
 1.583 -1.595 4.188
 1.611 -1.597 4.183
 1.639 -1.598 4.177
 1.666 -1.598 4.168
 1.693 -1.599 4.159
 1.72 -1.599 4.151
 1.746 -1.599 4.139
 1.771 -1.598 4.128
 1.792 -1.593 4.103
 1.812 -1.588 4.08
 1.828 -1.578 4.044
 1.84 -1.566 4.003
 1.845 -1.549 3.948
 1.856 -1.537 3.905
 1.863 -1.522 3.856
 1.873 -1.51 3.815
 1.877 -1.494 3.761
 1.897 -1.49 3.74
 0 0 0
 0 0 0
 0 0 0
 0 0 0
 1.742 -1.286 3.175
 1.763 -1.285 3.163
 1.771 -1.275 3.128
 1.778 -1.266 3.094
 1.783 -1.254 3.055
 1.781 -1.239 3.006
 1.748 -1.202 2.906
 1.771 -1.204 2.9
 -2.385 -1.611 4.056
 -2.332 -1.594 4.027
 -1.852 -1.282 3.246
 -1.827 -1.279 3.25
 -1.803 -1.278 3.257
 -1.78 -1.277 3.265
 -1.849 -1.343 3.445
 -1.915 -1.409 3.625
 -1.977 -1.473 3.804
 -1.953 -1.475 3.818
 -2.011 -1.538 3.994
 -1.983 -1.537 4.003
 -1.956 -1.536 4.012
 -1.927 -1.535 4.018
 -1.899 -1.533 4.026
 -1.872 -1.533 4.036
 -1.845 -1.532 4.044
 -1.82 -1.534 4.057
 -1.795 -1.535 4.07
 -1.842 -1.598 4.25
 -1.814 -1.599 4.26
 -1.786 -1.598 4.268
 -1.754 -1.594 4.267
 -1.726 -1.593 4.273
 -1.698 -1.592 4.281
 -1.668 -1.59 4.284
 -1.638 -1.588 4.287
 -1.61 -1.587 4.293
 -1.581 -1.585 4.297
 -1.552 -1.583 4.3
 -1.523 -1.581 4.304
 -1.494 -1.579 4.306
 -1.466 -1.578 4.31
 -1.436 -1.575 4.309
 -1.407 -1.574 4.312
 -1.378 -1.571 4.314
 -1.351 -1.571 4.319
 -1.321 -1.567 4.316
 -1.293 -1.566 4.32
 -1.264 -1.563 4.317
 -1.236 -1.562 4.322
 -1.208 -1.56 4.323
 -1.181 -1.56 4.328
 -1.153 -1.558 4.328
 -1.125 -1.557 4.33
 -1.096 -1.554 4.328
 -1.068 -1.552 4.327
 -1.041 -1.551 4.329
 -1.013 -1.548 4.327
 -0.985 -1.546 4.326
 -0.956 -1.542 4.32
 -0.929 -1.541 4.32
 -0.901 -1.539 4.318
 -0.874 -1.537 4.318
 -0.846 -1.535 4.316
 -0.82 -1.535 4.321
 -0.792 -1.532 4.317
 -0.765 -1.531 4.316
 -0.739 -1.53 4.317
 -0.712 -1.528 4.315
 -0.685 -1.527 4.314
 -0.659 -1.526 4.315
 -0.632 -1.524 4.313
 -0.605 -1.522 4.308
 -0.579 -1.521 4.309
 -0.552 -1.519 4.306
 -0.526 -1.519 4.308
 -0.5 -1.518 4.307
 -0.474 -1.518 4.311
 -0.448 -1.519 4.316
 -0.422 -1.519 4.317
 -0.396 -1.517 4.312
 -0.369 -1.515 4.309
 -0.343 -1.514 4.306
 -0.317 -1.511 4.298
 -0.291 -1.51 4.297
 -0.265 -1.51 4.299
 -0.24 -1.511 4.301
 -0.214 -1.51 4.301
 -0.188 -1.51 4.3
 -0.162 -1.509 4.297
 -0.136 -1.507 4.294
 -0.111 -1.506 4.291
 -0.085 -1.506 4.29
 -0.059 -1.506 4.292
 -0.034 -1.506 4.291
 -0.008 -1.508 4.295
 0.017 -1.508 4.295
 0.042 -1.508 4.295
 0.068 -1.509 4.297
 0.094 -1.509 4.297
 0.119 -1.508 4.293
 0.145 -1.508 4.293
 0.171 -1.508 4.292
 0.196 -1.508 4.289
 0.222 -1.507 4.286
 0.247 -1.508 4.288
 0.273 -1.508 4.285
 0.298 -1.507 4.282
 0.324 -1.509 4.283
 0.35 -1.509 4.282
 0.375 -1.508 4.277
 0.401 -1.509 4.277
 0.427 -1.509 4.276
 0.453 -1.509 4.274
 0.478 -1.51 4.274
 0.505 -1.512 4.275
 0.531 -1.513 4.275
 0.556 -1.513 4.272
 0.582 -1.514 4.271
 0.608 -1.515 4.272
 0.635 -1.517 4.274
 0.661 -1.517 4.271
 0.687 -1.519 4.272
 0.714 -1.521 4.274
 0.739 -1.52 4.268
 0.765 -1.521 4.266
 0.792 -1.523 4.267
 0.819 -1.525 4.268
 0.845 -1.525 4.264
 0.872 -1.527 4.264
 0.897 -1.526 4.257
 0.923 -1.527 4.253
 0.949 -1.527 4.248
 0.976 -1.528 4.247
 1.003 -1.53 4.246
 1.03 -1.532 4.246
 1.056 -1.533 4.243
 1.085 -1.537 4.248
 1.113 -1.54 4.25
 1.141 -1.543 4.251
 1.168 -1.544 4.249
 1.197 -1.547 4.25
 1.223 -1.547 4.244
 1.25 -1.549 4.241
 1.277 -1.549 4.236
 1.306 -1.553 4.238
 1.334 -1.555 4.237
 1.363 -1.558 4.238
 1.39 -1.558 4.23
 1.418 -1.561 4.228
 1.446 -1.562 4.224
 1.473 -1.564 4.22
 1.501 -1.565 4.215
 1.531 -1.569 4.216
 1.559 -1.57 4.211
 1.588 -1.573 4.209
 1.617 -1.576 4.208
 1.645 -1.577 4.201
 1.672 -1.578 4.193
 1.7 -1.578 4.186
 1.727 -1.579 4.178
 1.753 -1.579 4.167
 1.779 -1.578 4.155
 1.798 -1.572 4.126
 1.818 -1.566 4.102
 1.833 -1.556 4.065
 1.846 -1.545 4.025
 1.853 -1.529 3.973
 1.866 -1.519 3.935
 1.875 -1.506 3.889
 1.881 -1.491 3.839
 1.883 -1.473 3.781
 0 0 0
 0 0 0
 0 0 0
 0 0 0
 0 0 0
 1.734 -1.258 3.165
 1.754 -1.257 3.154
 1.763 -1.249 3.122
 1.773 -1.241 3.092
 1.782 -1.233 3.06
 1.779 -1.217 3.01
 1.777 -1.202 2.962
 1.774 -1.186 2.912
 -2.422 -1.608 4.131
 -2.385 -1.602 4.129
 -1.41 -0.959 2.474
 -1.39 -0.957 2.475
 -1.371 -0.956 2.48
 -1.354 -0.956 2.488
 -1.426 -1.019 2.661
 -1.497 -1.083 2.838
 -1.565 -1.147 3.016
 -1.545 -1.146 3.023
 -1.608 -1.209 3.199
 -1.67 -1.272 3.376
 -1.647 -1.272 3.384
 -1.703 -1.333 3.559
 -1.76 -1.397 3.738
 -1.734 -1.395 3.744
 -1.709 -1.395 3.753
 -1.762 -1.459 3.936
 -1.735 -1.458 3.943
 -1.783 -1.521 4.123
 -1.83 -1.584 4.306
 -1.8 -1.583 4.311
 -1.768 -1.579 4.31
 -1.739 -1.578 4.316
 -1.709 -1.576 4.32
 -1.68 -1.574 4.324
 -1.649 -1.571 4.324
 -1.618 -1.568 4.325
 -1.59 -1.566 4.33
 -1.56 -1.564 4.332
 -1.53 -1.561 4.332
 -1.5 -1.559 4.334
 -1.472 -1.558 4.339
 -1.441 -1.554 4.336
 -1.413 -1.553 4.338
 -1.383 -1.55 4.338
 -1.355 -1.549 4.341
 -1.325 -1.545 4.337
 -1.297 -1.544 4.341
 -1.267 -1.541 4.338
 -1.24 -1.54 4.343
 -1.211 -1.538 4.342
 -1.183 -1.537 4.345
 -1.155 -1.534 4.345
 -1.126 -1.532 4.343
 -1.098 -1.529 4.341
 -1.069 -1.526 4.339
 -1.041 -1.525 4.34
 -1.013 -1.522 4.337
 -0.984 -1.519 4.333
 -0.955 -1.515 4.326
 -0.928 -1.514 4.326
 -0.901 -1.512 4.325
 -0.873 -1.509 4.322
 -0.846 -1.509 4.325
 -0.82 -1.509 4.328
 -0.793 -1.507 4.326
 -0.766 -1.505 4.326
 -0.739 -1.505 4.328
 -0.712 -1.503 4.325
 -0.685 -1.501 4.322
 -0.659 -1.5 4.323
 -0.631 -1.497 4.318
 -0.604 -1.495 4.313
 -0.578 -1.493 4.312
 -0.551 -1.492 4.31
 -0.525 -1.49 4.307
 -0.499 -1.49 4.308
 -0.473 -1.49 4.312
 -0.448 -1.492 4.318
 -0.422 -1.492 4.32
 -0.395 -1.49 4.316
 -0.369 -1.489 4.316
 -0.343 -1.487 4.311
 -0.316 -1.484 4.304
 -0.29 -1.482 4.3
 -0.265 -1.482 4.3
 -0.239 -1.482 4.3
 -0.213 -1.482 4.303
 -0.188 -1.482 4.302
 -0.162 -1.482 4.302
 -0.136 -1.481 4.3
 -0.11 -1.48 4.299
 -0.085 -1.479 4.296
 -0.059 -1.481 4.3
 -0.033 -1.48 4.299
 -0.008 -1.481 4.3
 0.017 -1.48 4.298
 0.042 -1.481 4.299
 0.068 -1.481 4.298
 0.094 -1.481 4.299
 0.119 -1.481 4.298
 0.145 -1.482 4.298
 0.17 -1.481 4.294
 0.196 -1.481 4.292
 0.222 -1.48 4.288
 0.247 -1.48 4.288
 0.273 -1.48 4.286
 0.298 -1.481 4.287
 0.324 -1.482 4.287
 0.35 -1.482 4.287
 0.375 -1.482 4.283
 0.401 -1.483 4.284
 0.427 -1.483 4.282
 0.453 -1.483 4.28
 0.478 -1.484 4.279
 0.504 -1.485 4.279
 0.53 -1.486 4.279
 0.556 -1.486 4.276
 0.582 -1.486 4.274
 0.608 -1.488 4.277
 0.635 -1.49 4.28
 0.661 -1.491 4.278
 0.687 -1.492 4.276
 0.713 -1.494 4.277
 0.738 -1.493 4.27
 0.764 -1.493 4.266
 0.791 -1.494 4.266
 0.818 -1.496 4.268
 0.844 -1.497 4.266
 0.871 -1.5 4.268
 0.897 -1.5 4.265
 0.923 -1.5 4.259
 0.949 -1.501 4.256
 0.976 -1.502 4.254
 1.003 -1.504 4.254
 1.03 -1.505 4.253
 1.057 -1.508 4.254
 1.086 -1.511 4.257
 1.113 -1.513 4.257
 1.14 -1.515 4.256
 1.168 -1.517 4.254
 1.195 -1.519 4.253
 1.222 -1.52 4.25
 1.25 -1.522 4.249
 1.278 -1.525 4.248
 1.307 -1.527 4.249
 1.335 -1.53 4.248
 1.363 -1.532 4.246
 1.39 -1.533 4.24
 1.418 -1.534 4.238
 1.446 -1.536 4.233
 1.474 -1.537 4.23
 1.502 -1.539 4.226
 1.531 -1.542 4.225
 1.558 -1.542 4.217
 1.588 -1.546 4.217
 1.617 -1.549 4.216
 1.645 -1.55 4.21
 1.674 -1.552 4.206
 1.704 -1.555 4.205
 1.732 -1.557 4.198
 1.758 -1.556 4.186
 1.783 -1.555 4.173
 1.802 -1.548 4.144
 1.821 -1.542 4.117
 1.836 -1.532 4.08
 1.851 -1.523 4.044
 1.859 -1.509 3.996
 1.874 -1.5 3.961
 1.889 -1.491 3.927
 1.897 -1.478 3.881
 0 0 0
 0 0 0
 0 0 0
 0 0 0
 0 0 0
 0 0 0
 1.731 -1.235 3.168
 1.753 -1.235 3.16
 1.767 -1.23 3.135
 1.776 -1.222 3.104
 1.783 -1.212 3.069
 1.78 -1.197 3.019
 1.802 -1.198 3.011
 1.759 -1.156 2.894
 -0.038 -0.026 0.052
 -0.05 -0.035 0.075
 -0.959 -0.642 1.682
 -0.945 -0.64 1.683
 -0.936 -0.641 1.692
 -0.924 -0.641 1.698
 -1.002 -0.704 1.871
 -1.076 -0.765 2.042
 -1.148 -0.827 2.213
 -1.13 -0.824 2.213
 -1.199 -0.886 2.387
 -1.265 -0.947 2.56
 -1.247 -0.947 2.566
 -1.309 -1.007 2.738
 -1.451 -1.131 3.086
 -1.507 -1.192 3.261
 -1.564 -1.255 3.442
 -1.695 -1.38 3.795
 -1.746 -1.442 3.977
 -1.795 -1.504 4.159
 -1.841 -1.567 4.342
 -1.811 -1.564 4.346
 -1.779 -1.561 4.347
 -1.749 -1.559 4.35
 -1.718 -1.556 4.351
 -1.688 -1.554 4.354
 -1.656 -1.55 4.353
 -1.626 -1.548 4.354
 -1.597 -1.546 4.358
 -1.565 -1.542 4.356
 -1.534 -1.538 4.353
 -1.503 -1.535 4.35
 -1.474 -1.533 4.353
 -1.442 -1.528 4.347
 -1.414 -1.528 4.353
 -1.386 -1.526 4.356
 -1.357 -1.524 4.357
 -1.327 -1.52 4.353
 -1.298 -1.518 4.353
 -1.267 -1.514 4.347
 -1.238 -1.511 4.346
 -1.21 -1.51 4.347
 -1.182 -1.508 4.349
 -1.154 -1.506 4.348
 -1.125 -1.503 4.346
 -1.096 -1.501 4.345
 -1.067 -1.497 4.34
 -1.04 -1.496 4.341
 -1.012 -1.494 4.34
 -0.983 -1.491 4.337
 -0.955 -1.488 4.332
 -0.928 -1.488 4.335
 -0.9 -1.486 4.333
 -0.872 -1.482 4.328
 -0.846 -1.483 4.332
 -0.82 -1.482 4.335
 -0.793 -1.481 4.334
 -0.765 -1.479 4.332
 -0.739 -1.479 4.336
 -0.712 -1.477 4.334
 -0.685 -1.475 4.332
 -0.659 -1.474 4.332
 -0.632 -1.472 4.328
 -0.605 -1.47 4.324
 -0.578 -1.468 4.321
 -0.551 -1.466 4.318
 -0.524 -1.463 4.312
 -0.498 -1.462 4.311
 -0.472 -1.463 4.315
 -0.447 -1.463 4.317
 -0.421 -1.463 4.319
 -0.394 -1.461 4.316
 -0.369 -1.461 4.318
 -0.342 -1.46 4.315
 -0.316 -1.457 4.307
 -0.29 -1.455 4.303
 -0.264 -1.456 4.305
 -0.238 -1.454 4.302
 -0.213 -1.454 4.303
 -0.187 -1.454 4.303
 -0.161 -1.454 4.304
 -0.136 -1.454 4.303
 -0.11 -1.453 4.301
 -0.084 -1.452 4.298
 -0.059 -1.453 4.301
 -0.033 -1.452 4.298
 -0.008 -1.452 4.297
 0.017 -1.452 4.296
 0.043 -1.453 4.299
 0.068 -1.453 4.299
 0.094 -1.453 4.298
 0.119 -1.453 4.298
 0.145 -1.454 4.3
 0.17 -1.453 4.294
 0.196 -1.452 4.292
 0.221 -1.452 4.29
 0.247 -1.452 4.289
 0.272 -1.452 4.287
 0.298 -1.453 4.287
 0.324 -1.454 4.288
 0.35 -1.454 4.287
 0.375 -1.454 4.285
 0.401 -1.454 4.283
 0.426 -1.455 4.283
 0.452 -1.456 4.283
 0.478 -1.456 4.282
 0.504 -1.458 4.283
 0.53 -1.459 4.282
 0.556 -1.459 4.28
 0.581 -1.459 4.279
 0.608 -1.462 4.282
 0.634 -1.463 4.283
 0.66 -1.464 4.282
 0.686 -1.464 4.279
 0.713 -1.466 4.28
 0.738 -1.465 4.272
 0.763 -1.464 4.267
 0.789 -1.466 4.266
 0.817 -1.468 4.27
 0.843 -1.469 4.268
 0.87 -1.472 4.271
 0.897 -1.474 4.271
 0.924 -1.475 4.27
 0.949 -1.475 4.264
 0.976 -1.477 4.264
 1.003 -1.478 4.264
 1.031 -1.481 4.264
 1.057 -1.481 4.261
 1.085 -1.484 4.263
 1.112 -1.486 4.261
 1.139 -1.487 4.257
 1.166 -1.488 4.256
 1.194 -1.491 4.257
 1.222 -1.492 4.254
 1.249 -1.495 4.253
 1.278 -1.497 4.254
 1.305 -1.499 4.252
 1.334 -1.501 4.25
 1.362 -1.504 4.25
 1.389 -1.505 4.245
 1.418 -1.507 4.244
 1.445 -1.508 4.239
 1.474 -1.511 4.237
 1.502 -1.513 4.234
 1.532 -1.516 4.235
 1.558 -1.516 4.225
 1.588 -1.519 4.226
 1.618 -1.522 4.225
 1.646 -1.524 4.22
 1.674 -1.525 4.215
 1.705 -1.529 4.214
 1.733 -1.53 4.209
 1.759 -1.53 4.197
 1.784 -1.529 4.184
 1.805 -1.524 4.16
 1.827 -1.52 4.138
 1.845 -1.513 4.109
 1.861 -1.505 4.075
 1.873 -1.493 4.033
 1.888 -1.485 3.999
 1.903 -1.476 3.964
 0 0 0
 0 0 0
 0 0 0
 0 0 0
 0 0 0
 0 0 0
 0 0 0
 1.727 -1.21 3.167
 1.749 -1.211 3.158
 1.764 -1.207 3.138
 1.774 -1.2 3.108
 1.782 -1.191 3.075
 1.781 -1.177 3.027
 1.772 -1.158 2.967
 1.749 -1.13 2.884
 -0.043 -0.029 0.062
 -0.076 -0.05 0.119
 -0.518 -0.341 0.905
 -0.509 -0.339 0.902
 -0.504 -0.34 0.907
 -0.496 -0.339 0.908
 -0.578 -0.399 1.076
 -0.654 -0.457 1.238
 -0.731 -0.517 1.407
 -0.715 -0.513 1.398
 -0.789 -0.573 1.569
 -0.858 -0.632 1.737
 -0.845 -0.63 1.738
 -0.91 -0.688 1.904
 -1.138 -0.872 2.423
 -1.278 -0.993 2.769
 -1.416 -1.116 3.121
 -1.626 -1.3 3.648
 -1.753 -1.422 4.002
 -1.8 -1.482 4.181
 -1.846 -1.543 4.363
 -1.816 -1.541 4.367
 -1.784 -1.537 4.367
 -1.753 -1.535 4.369
 -1.721 -1.532 4.369
 -1.69 -1.528 4.369
 -1.658 -1.524 4.366
 -1.627 -1.521 4.366
 -1.598 -1.52 4.37
 -1.566 -1.516 4.368
 -1.535 -1.512 4.365
 -1.504 -1.509 4.363
 -1.474 -1.506 4.363
 -1.442 -1.502 4.357
 -1.414 -1.5 4.358
 -1.384 -1.497 4.358
 -1.354 -1.494 4.357
 -1.324 -1.491 4.354
 -1.295 -1.489 4.354
 -1.266 -1.486 4.351
 -1.236 -1.482 4.348
 -1.209 -1.481 4.351
 -1.18 -1.479 4.35
 -1.152 -1.478 4.351
 -1.123 -1.475 4.349
 -1.095 -1.472 4.347
 -1.065 -1.468 4.34
 -1.038 -1.467 4.342
 -1.009 -1.465 4.339
 -0.981 -1.462 4.336
 -0.953 -1.459 4.332
 -0.927 -1.46 4.338
 -0.9 -1.458 4.338
 -0.872 -1.455 4.334
 -0.846 -1.456 4.339
 -0.82 -1.456 4.343
 -0.792 -1.454 4.34
 -0.765 -1.452 4.338
 -0.739 -1.452 4.34
 -0.711 -1.449 4.336
 -0.684 -1.447 4.333
 -0.657 -1.446 4.333
 -0.63 -1.444 4.329
 -0.604 -1.442 4.326
 -0.577 -1.44 4.323
 -0.55 -1.438 4.319
 -0.523 -1.435 4.314
 -0.497 -1.435 4.314
 -0.471 -1.434 4.315
 -0.446 -1.435 4.319
 -0.42 -1.436 4.322
 -0.394 -1.435 4.32
 -0.368 -1.434 4.321
 -0.342 -1.433 4.319
 -0.316 -1.43 4.311
 -0.29 -1.429 4.308
 -0.264 -1.429 4.308
 -0.238 -1.427 4.303
 -0.212 -1.427 4.304
 -0.187 -1.427 4.307
 -0.161 -1.427 4.307
 -0.136 -1.427 4.307
 -0.11 -1.427 4.306
 -0.084 -1.426 4.304
 -0.059 -1.425 4.3
 -0.033 -1.424 4.299
 -0.007 -1.423 4.293
 0.017 -1.423 4.295
 0.043 -1.423 4.295
 0.068 -1.425 4.298
 0.094 -1.425 4.297
 0.119 -1.427 4.303
 0.145 -1.428 4.305
 0.171 -1.427 4.301
 0.196 -1.427 4.299
 0.222 -1.427 4.298
 0.247 -1.425 4.292
 0.272 -1.424 4.287
 0.298 -1.424 4.286
 0.323 -1.425 4.287
 0.349 -1.425 4.283
 0.374 -1.424 4.279
 0.4 -1.426 4.283
 0.426 -1.428 4.285
 0.452 -1.428 4.285
 0.478 -1.429 4.284
 0.504 -1.431 4.288
 0.529 -1.43 4.282
 0.554 -1.43 4.277
 0.58 -1.429 4.272
 0.606 -1.432 4.277
 0.633 -1.434 4.28
 0.659 -1.435 4.28
 0.685 -1.436 4.279
 0.712 -1.438 4.282
 0.738 -1.438 4.278
 0.762 -1.437 4.269
 0.788 -1.438 4.268
 0.816 -1.441 4.272
 0.842 -1.441 4.269
 0.869 -1.443 4.27
 0.896 -1.446 4.273
 0.923 -1.447 4.272
 0.948 -1.447 4.266
 0.975 -1.449 4.267
 1.003 -1.451 4.268
 1.03 -1.453 4.268
 1.056 -1.453 4.263
 1.084 -1.457 4.267
 1.111 -1.457 4.263
 1.137 -1.458 4.259
 1.165 -1.46 4.258
 1.193 -1.463 4.259
 1.22 -1.464 4.256
 1.248 -1.466 4.255
 1.276 -1.469 4.256
 1.303 -1.47 4.252
 1.331 -1.472 4.251
 1.36 -1.475 4.25
 1.387 -1.476 4.247
 1.415 -1.477 4.242
 1.443 -1.479 4.24
 1.472 -1.482 4.24
 1.5 -1.484 4.237
 1.53 -1.488 4.238
 1.557 -1.488 4.232
 1.587 -1.491 4.232
 1.616 -1.494 4.228
 1.644 -1.495 4.224
 1.674 -1.498 4.221
 1.704 -1.501 4.221
 1.732 -1.502 4.214
 1.759 -1.503 4.206
 1.785 -1.502 4.192
 1.806 -1.498 4.17
 1.829 -1.494 4.15
 1.848 -1.489 4.124
 1.865 -1.481 4.091
 1.883 -1.475 4.062
 1.9 -1.468 4.032
 0 0 0
 0 0 0
 0 0 0
 0 0 0
 0 0 0
 0 0 0
 0 0 0
 0 0 0
 1.732 -1.192 3.184
 1.751 -1.191 3.17
 1.768 -1.188 3.151
 1.776 -1.18 3.118
 1.785 -1.172 3.086
 1.783 -1.157 3.037
 1.75 -1.123 2.937
 1.755 -1.113 2.9
 -0.085 -0.055 0.133
 -0.008 -0.006 0.001
 -0.071 -0.047 0.113
 -0.064 -0.043 0.103
 -0.063 -0.043 0.103
 -0.058 -0.04 0.095
 -0.143 -0.098 0.256
 -0.222 -0.154 0.413
 -0.303 -0.212 0.578
 -0.29 -0.205 0.561
 -0.37 -0.265 0.731
 -0.528 -0.382 1.065
 -0.602 -0.441 1.236
 -0.754 -0.56 1.577
 -1.065 -0.801 2.271
 -1.285 -0.981 2.79
 -1.423 -1.101 3.143
 -1.633 -1.282 3.671
 -1.758 -1.4 4.02
 -1.803 -1.458 4.197
 -1.848 -1.517 4.377
 -1.816 -1.514 4.377
 -1.783 -1.509 4.373
 -1.751 -1.506 4.374
 -1.72 -1.503 4.374
 -1.689 -1.5 4.374
 -1.657 -1.496 4.372
 -1.626 -1.493 4.371
 -1.596 -1.49 4.373
 -1.565 -1.488 4.374
 -1.534 -1.484 4.37
 -1.503 -1.481 4.368
 -1.473 -1.478 4.368
 -1.443 -1.475 4.365
 -1.412 -1.471 4.362
 -1.382 -1.468 4.361
 -1.352 -1.465 4.358
 -1.323 -1.462 4.356
 -1.294 -1.46 4.356
 -1.265 -1.457 4.355
 -1.236 -1.455 4.355
 -1.208 -1.454 4.357
 -1.179 -1.452 4.357
 -1.151 -1.45 4.357
 -1.122 -1.447 4.354
 -1.093 -1.444 4.35
 -1.065 -1.442 4.347
 -1.037 -1.44 4.347
 -1.008 -1.436 4.341
 -0.98 -1.433 4.336
 -0.952 -1.431 4.335
 -0.925 -1.43 4.335
 -0.898 -1.429 4.336
 -0.87 -1.427 4.333
 -0.844 -1.427 4.339
 -0.818 -1.428 4.344
 -0.791 -1.426 4.344
 -0.764 -1.424 4.34
 -0.738 -1.424 4.344
 -0.71 -1.422 4.34
 -0.683 -1.419 4.333
 -0.657 -1.419 4.336
 -0.63 -1.417 4.334
 -0.603 -1.415 4.331
 -0.577 -1.414 4.33
 -0.55 -1.412 4.327
 -0.523 -1.409 4.32
 -0.497 -1.409 4.32
 -0.471 -1.408 4.319
 -0.445 -1.408 4.323
 -0.42 -1.409 4.326
 -0.393 -1.407 4.321
 -0.367 -1.406 4.321
 -0.342 -1.406 4.323
 -0.315 -1.403 4.315
 -0.289 -1.402 4.312
 -0.264 -1.402 4.313
 -0.238 -1.4 4.307
 -0.212 -1.398 4.302
 -0.186 -1.398 4.303
 -0.161 -1.398 4.303
 -0.135 -1.399 4.306
 -0.11 -1.398 4.305
 -0.084 -1.399 4.306
 -0.058 -1.398 4.304
 -0.033 -1.398 4.305
 -0.007 -1.396 4.296
 0.017 -1.397 4.299
 0.043 -1.397 4.299
 0.068 -1.398 4.303
 0.094 -1.398 4.3
 0.12 -1.401 4.31
 0.145 -1.402 4.312
 0.171 -1.401 4.307
 0.196 -1.401 4.305
 0.222 -1.401 4.303
 0.247 -1.398 4.294
 0.272 -1.397 4.289
 0.297 -1.397 4.287
 0.323 -1.397 4.287
 0.348 -1.397 4.283
 0.374 -1.397 4.281
 0.4 -1.4 4.288
 0.426 -1.402 4.291
 0.452 -1.402 4.29
 0.477 -1.403 4.289
 0.504 -1.405 4.294
 0.529 -1.404 4.286
 0.554 -1.403 4.281
 0.58 -1.403 4.278
 0.606 -1.405 4.281
 0.633 -1.407 4.283
 0.658 -1.408 4.282
 0.685 -1.409 4.282
 0.711 -1.411 4.285
 0.737 -1.412 4.283
 0.762 -1.41 4.274
 0.788 -1.411 4.272
 0.816 -1.414 4.278
 0.842 -1.415 4.277
 0.869 -1.417 4.278
 0.896 -1.42 4.28
 0.923 -1.422 4.282
 0.949 -1.422 4.276
 0.975 -1.423 4.273
 1.003 -1.425 4.274
 1.03 -1.427 4.274
 1.056 -1.427 4.27
 1.084 -1.429 4.271
 1.11 -1.43 4.267
 1.136 -1.431 4.262
 1.163 -1.432 4.26
 1.19 -1.433 4.257
 1.218 -1.435 4.255
 1.245 -1.436 4.253
 1.273 -1.439 4.253
 1.301 -1.44 4.25
 1.329 -1.443 4.25
 1.358 -1.446 4.251
 1.386 -1.448 4.249
 1.413 -1.449 4.246
 1.442 -1.451 4.244
 1.471 -1.455 4.245
 1.5 -1.457 4.242
 1.53 -1.46 4.244
 1.558 -1.462 4.24
 1.587 -1.464 4.239
 1.615 -1.466 4.235
 1.644 -1.468 4.23
 1.672 -1.469 4.225
 1.701 -1.472 4.221
 1.729 -1.473 4.216
 1.758 -1.474 4.209
 1.783 -1.474 4.196
 1.807 -1.471 4.179
 1.832 -1.47 4.165
 1.853 -1.466 4.142
 1.871 -1.459 4.113
 1.892 -1.455 4.089
 0 0 0
 0 0 0
 0 0 0
 0 0 0
 0 0 0
 0 0 0
 0 0 0
 0 0 0
 0 0 0
 1.406 -0.951 2.588
 1.749 -1.168 3.173
 1.766 -1.166 3.155
 1.776 -1.158 3.124
 1.784 -1.15 3.092
 1.784 -1.137 3.046
 1.762 -1.111 2.963
 1.771 -1.104 2.934
 -0.124 -0.078 0.201
 -0.117 -0.074 0.191
 -0.085 -0.055 0.138
 -0.079 -0.052 0.13
 -0.076 -0.051 0.126
 -0.071 -0.048 0.119
 -0.064 -0.044 0.109
 -0.054 -0.038 0.091
 -0.047 -0.033 0.078
 -0.036 -0.027 0.059
 -0.032 -0.024 0.052
 -0.278 -0.198 0.556
 -0.355 -0.256 0.725
 -0.592 -0.432 1.24
 -0.986 -0.729 2.107
 -1.287 -0.964 2.801
 -1.425 -1.082 3.154
 -1.711 -1.319 3.855
 -1.835 -1.435 4.206
 -1.803 -1.431 4.204
 -1.846 -1.487 4.381
 -1.813 -1.483 4.378
 -1.781 -1.48 4.378
 -1.748 -1.476 4.375
 -1.717 -1.472 4.375
 -1.686 -1.47 4.376
 -1.655 -1.467 4.376
 -1.623 -1.463 4.373
 -1.593 -1.461 4.375
 -1.564 -1.459 4.377
 -1.532 -1.455 4.373
 -1.501 -1.451 4.37
 -1.47 -1.448 4.368
 -1.44 -1.445 4.367
 -1.41 -1.442 4.365
 -1.381 -1.44 4.365
 -1.351 -1.437 4.364
 -1.321 -1.434 4.359
 -1.291 -1.431 4.356
 -1.263 -1.429 4.357
 -1.233 -1.426 4.353
 -1.205 -1.424 4.356
 -1.177 -1.423 4.356
 -1.15 -1.422 4.36
 -1.121 -1.419 4.355
 -1.092 -1.416 4.352
 -1.064 -1.414 4.35
 -1.037 -1.413 4.353
 -1.007 -1.409 4.346
 -0.979 -1.406 4.341
 -0.952 -1.405 4.342
 -0.924 -1.404 4.342
 -0.897 -1.402 4.342
 -0.87 -1.4 4.339
 -0.844 -1.401 4.345
 -0.818 -1.401 4.349
 -0.791 -1.4 4.35
 -0.764 -1.398 4.347
 -0.737 -1.397 4.349
 -0.711 -1.396 4.349
 -0.683 -1.393 4.342
 -0.657 -1.393 4.345
 -0.63 -1.391 4.342
 -0.604 -1.391 4.344
 -0.577 -1.389 4.339
 -0.55 -1.386 4.334
 -0.522 -1.382 4.322
 -0.497 -1.382 4.325
 -0.47 -1.38 4.321
 -0.444 -1.38 4.322
 -0.419 -1.38 4.325
 -0.393 -1.379 4.323
 -0.367 -1.378 4.322
 -0.341 -1.378 4.323
 -0.315 -1.376 4.317
 -0.289 -1.375 4.314
 -0.263 -1.374 4.313
 -0.237 -1.372 4.306
 -0.211 -1.37 4.302
 -0.186 -1.371 4.305
 -0.16 -1.371 4.305
 -0.135 -1.371 4.307
 -0.109 -1.371 4.307
 -0.084 -1.371 4.307
 -0.058 -1.37 4.302
 -0.033 -1.37 4.303
 -0.007 -1.368 4.295
 0.017 -1.369 4.299
 0.043 -1.37 4.301
 0.068 -1.371 4.305
 0.094 -1.37 4.302
 0.12 -1.374 4.312
 0.145 -1.375 4.315
 0.171 -1.374 4.31
 0.196 -1.375 4.312
 0.222 -1.375 4.311
 0.247 -1.373 4.303
 0.272 -1.372 4.297
 0.298 -1.372 4.295
 0.323 -1.371 4.292
 0.348 -1.371 4.288
 0.374 -1.371 4.286
 0.4 -1.374 4.293
 0.426 -1.376 4.299
 0.452 -1.376 4.296
 0.478 -1.377 4.294
 0.504 -1.379 4.298
 0.529 -1.377 4.29
 0.554 -1.376 4.284
 0.579 -1.376 4.282
 0.606 -1.378 4.285
 0.632 -1.38 4.286
 0.658 -1.38 4.284
 0.684 -1.381 4.283
 0.71 -1.383 4.284
 0.736 -1.383 4.282
 0.761 -1.383 4.276
 0.787 -1.384 4.274
 0.815 -1.387 4.28
 0.842 -1.389 4.281
 0.869 -1.391 4.284
 0.896 -1.394 4.288
 0.924 -1.396 4.29
 0.949 -1.396 4.285
 0.975 -1.396 4.28
 1.003 -1.399 4.282
 1.029 -1.4 4.28
 1.055 -1.4 4.274
 1.082 -1.401 4.272
 1.109 -1.402 4.269
 1.134 -1.402 4.261
 1.161 -1.403 4.258
 1.188 -1.404 4.257
 1.216 -1.406 4.255
 1.243 -1.408 4.253
 1.271 -1.41 4.253
 1.299 -1.412 4.251
 1.327 -1.414 4.251
 1.356 -1.417 4.253
 1.384 -1.42 4.252
 1.413 -1.422 4.251
 1.441 -1.424 4.248
 1.469 -1.426 4.247
 1.498 -1.428 4.244
 1.527 -1.431 4.245
 1.555 -1.432 4.24
 1.584 -1.435 4.238
 1.613 -1.437 4.235
 1.641 -1.438 4.23
 1.669 -1.44 4.226
 1.699 -1.443 4.223
 1.728 -1.445 4.22
 1.756 -1.446 4.214
 1.782 -1.446 4.203
 1.808 -1.445 4.19
 1.835 -1.446 4.181
 1.86 -1.445 4.167
 1.879 -1.438 4.137
 0 0 0
 0 0 0
 0 0 0
 0 0 0
 0 0 0
 0 0 0
 0 0 0
 0 0 0
 0.169 -0.118 0.316
 0 0 0
 1.118 -0.743 2.061
 1.59 -1.043 2.889
 1.664 -1.078 2.977
 1.777 -1.138 3.132
 1.785 -1.13 3.099
 1.787 -1.118 3.057
 1.805 -1.117 3.042
 1.752 -1.072 2.909
 -0.15 -0.092 0.247
 -0.135 -0.084 0.224
 -0.094 -0.06 0.155
 -0.086 -0.056 0.143
 -0.082 -0.054 0.139
 -0.075 -0.05 0.128
 -0.068 -0.046 0.116
 -0.057 -0.039 0.096
 -0.047 -0.033 0.08
 -0.037 -0.026 0.06
 -0.116 -0.081 0.221
 -0.362 -0.253 0.729
 -0.521 -0.369 1.074
 -0.757 -0.542 1.591
 -1.148 -0.832 2.461
 -1.447 -1.064 3.157
 -1.582 -1.179 3.51
 -1.788 -1.352 4.037
 -1.911 -1.466 4.39
 -1.877 -1.462 4.387
 -1.845 -1.458 4.386
 -1.811 -1.454 4.383
 -1.779 -1.451 4.383
 -1.746 -1.446 4.378
 -1.715 -1.444 4.379
 -1.684 -1.441 4.38
 -1.655 -1.439 4.383
 -1.623 -1.435 4.38
 -1.592 -1.433 4.38
 -1.563 -1.431 4.382
 -1.532 -1.428 4.381
 -1.5 -1.423 4.376
 -1.469 -1.42 4.373
 -1.44 -1.418 4.375
 -1.41 -1.415 4.371
 -1.381 -1.413 4.372
 -1.351 -1.41 4.371
 -1.321 -1.407 4.366
 -1.29 -1.403 4.36
 -1.262 -1.401 4.362
 -1.232 -1.398 4.357
 -1.205 -1.397 4.361
 -1.176 -1.395 4.361
 -1.149 -1.395 4.365
 -1.12 -1.392 4.361
 -1.091 -1.389 4.357
 -1.063 -1.386 4.355
 -1.036 -1.386 4.358
 -1.007 -1.382 4.351
 -0.978 -1.379 4.347
 -0.951 -1.378 4.348
 -0.924 -1.376 4.346
 -0.897 -1.375 4.348
 -0.869 -1.373 4.344
 -0.843 -1.373 4.346
 -0.817 -1.373 4.352
 -0.79 -1.372 4.352
 -0.763 -1.37 4.348
 -0.737 -1.371 4.354
 -0.71 -1.37 4.355
 -0.683 -1.367 4.349
 -0.657 -1.367 4.351
 -0.63 -1.365 4.348
 -0.603 -1.364 4.348
 -0.577 -1.362 4.344
 -0.55 -1.36 4.339
 -0.523 -1.357 4.332
 -0.497 -1.357 4.335
 -0.47 -1.354 4.327
 -0.444 -1.354 4.33
 -0.419 -1.355 4.333
 -0.391 -1.349 4.317
 -0.365 -1.347 4.312
 -0.34 -1.348 4.315
 -0.314 -1.347 4.312
 -0.288 -1.346 4.311
 -0.263 -1.347 4.316
 -0.237 -1.346 4.312
 -0.211 -1.344 4.307
 -0.185 -1.344 4.307
 -0.16 -1.343 4.305
 -0.134 -1.343 4.305
 -0.109 -1.343 4.304
 -0.083 -1.343 4.305
 -0.058 -1.341 4.3
 -0.032 -1.342 4.301
 -0.007 -1.34 4.294
 0.017 -1.341 4.299
 0.043 -1.342 4.301
 0.068 -1.345 4.31
 0.094 -1.345 4.307
 0.12 -1.349 4.321
 0.145 -1.35 4.323
 0.171 -1.349 4.319
 0.197 -1.35 4.321
 0.222 -1.351 4.322
 0.247 -1.348 4.312
 0.273 -1.347 4.306
 0.298 -1.345 4.297
 0.323 -1.344 4.293
 0.348 -1.342 4.286
 0.373 -1.343 4.284
 0.399 -1.345 4.29
 0.426 -1.35 4.302
 0.452 -1.349 4.299
 0.477 -1.35 4.297
 0.504 -1.352 4.303
 0.528 -1.35 4.293
 0.553 -1.348 4.284
 0.579 -1.349 4.283
 0.605 -1.351 4.287
 0.632 -1.353 4.289
 0.658 -1.354 4.288
 0.684 -1.356 4.29
 0.71 -1.357 4.29
 0.737 -1.358 4.291
 0.761 -1.357 4.282
 0.787 -1.357 4.279
 0.815 -1.361 4.286
 0.842 -1.362 4.287
 0.868 -1.363 4.284
 0.895 -1.366 4.29
 0.924 -1.37 4.297
 0.95 -1.371 4.293
 0.976 -1.371 4.287
 1.003 -1.373 4.289
 1.029 -1.373 4.285
 1.055 -1.373 4.277
 1.081 -1.373 4.274
 1.108 -1.375 4.272
 1.133 -1.374 4.264
 1.16 -1.376 4.263
 1.188 -1.378 4.262
 1.215 -1.379 4.259
 1.242 -1.381 4.257
 1.27 -1.383 4.256
 1.298 -1.384 4.255
 1.326 -1.387 4.256
 1.355 -1.39 4.257
 1.383 -1.392 4.255
 1.411 -1.393 4.252
 1.438 -1.395 4.248
 1.467 -1.397 4.247
 1.496 -1.4 4.246
 1.526 -1.403 4.247
 1.554 -1.405 4.244
 1.583 -1.407 4.242
 1.611 -1.408 4.237
 1.638 -1.409 4.231
 1.667 -1.411 4.227
 1.696 -1.413 4.223
 1.725 -1.416 4.22
 1.755 -1.419 4.219
 1.783 -1.419 4.211
 1.811 -1.42 4.204
 1.84 -1.422 4.199
 1.868 -1.424 4.192
 0 0 0
 0 0 0
 0 0 0
 0 0 0
 0 0 0
 0 0 0
 0 0 0
 0 0 0
 0 0 0
 0.169 -0.116 0.317
 0 0 0
 0.96 -0.627 1.773
 1.565 -1.008 2.85
 1.652 -1.051 2.963
 1.776 -1.116 3.137
 1.785 -1.108 3.105
 1.79 -1.099 3.068
 1.803 -1.095 3.044
 1.779 -1.068 2.96
 -0.114 -0.069 0.185
 -0.117 -0.072 0.194
 -0.106 -0.066 0.177
 -0.096 -0.061 0.161
 -0.087 -0.056 0.147
 -0.079 -0.051 0.134
 -0.069 -0.045 0.117
 -0.058 -0.039 0.098
 -0.051 -0.035 0.088
 -0.127 -0.086 0.24
 -0.204 -0.139 0.4
 -0.532 -0.364 1.082
 -0.772 -0.535 1.6
 -1.084 -0.76 2.288
 -1.39 -0.988 2.987
 -1.685 -1.214 3.685
 -1.737 -1.27 3.862
 -1.862 -1.381 4.213
 -1.907 -1.435 4.388
 -1.872 -1.43 4.382
 -1.84 -1.427 4.384
 -1.807 -1.423 4.381
 -1.776 -1.42 4.382
 -1.744 -1.417 4.38
 -1.713 -1.414 4.382
 -1.682 -1.411 4.381
 -1.652 -1.409 4.385
 -1.621 -1.406 4.383
 -1.59 -1.403 4.382
 -1.561 -1.402 4.385
 -1.529 -1.398 4.382
 -1.497 -1.393 4.375
 -1.466 -1.39 4.372
 -1.437 -1.388 4.373
 -1.406 -1.384 4.368
 -1.377 -1.383 4.37
 -1.349 -1.381 4.372
 -1.319 -1.378 4.369
 -1.289 -1.375 4.364
 -1.262 -1.375 4.37
 -1.233 -1.372 4.368
 -1.205 -1.371 4.37
 -1.176 -1.369 4.369
 -1.15 -1.369 4.376
 -1.121 -1.366 4.372
 -1.092 -1.363 4.366
 -1.064 -1.362 4.368
 -1.037 -1.361 4.369
 -1.007 -1.356 4.359
 -0.978 -1.352 4.351
 -0.951 -1.352 4.354
 -0.923 -1.349 4.349
 -0.896 -1.348 4.35
 -0.868 -1.345 4.345
 -0.841 -1.345 4.348
 -0.816 -1.346 4.355
 -0.789 -1.345 4.356
 -0.762 -1.343 4.354
 -0.736 -1.343 4.357
 -0.709 -1.342 4.355
 -0.68 -1.336 4.339
 -0.654 -1.336 4.343
 -0.627 -1.334 4.339
 -0.602 -1.336 4.346
 -0.576 -1.335 4.346
 -0.549 -1.334 4.345
 -0.523 -1.332 4.341
 -0.498 -1.334 4.35
 -0.47 -1.33 4.338
 -0.445 -1.331 4.343
 -0.419 -1.331 4.347
 -0.391 -1.324 4.323
 -0.364 -1.32 4.311
 -0.339 -1.32 4.314
 -0.313 -1.32 4.316
 -0.288 -1.32 4.315
 -0.262 -1.32 4.316
 -0.236 -1.319 4.313
 -0.211 -1.317 4.307
 -0.185 -1.316 4.307
 -0.16 -1.316 4.305
 -0.134 -1.316 4.305
 -0.109 -1.316 4.308
 -0.083 -1.317 4.309
 -0.058 -1.315 4.302
 -0.032 -1.315 4.304
 -0.007 -1.313 4.295
 0.018 -1.313 4.297
 0.043 -1.314 4.299
 0.069 -1.319 4.314
 0.094 -1.317 4.308
 0.12 -1.326 4.336
 0.146 -1.326 4.333
 0.171 -1.327 4.336
 0.197 -1.328 4.34
 0.223 -1.329 4.341
 0.248 -1.325 4.326
 0.273 -1.323 4.316
 0.298 -1.319 4.304
 0.323 -1.319 4.3
 0.348 -1.315 4.288
 0.372 -1.314 4.279
 0.4 -1.32 4.3
 0.427 -1.326 4.315
 0.452 -1.323 4.304
 0.477 -1.323 4.3
 0.503 -1.325 4.305
 0.527 -1.32 4.286
 0.551 -1.318 4.274
 0.576 -1.317 4.268
 0.602 -1.318 4.27
 0.63 -1.323 4.281
 0.655 -1.324 4.28
 0.682 -1.326 4.283
 0.71 -1.33 4.292
 0.737 -1.334 4.301
 0.761 -1.331 4.288
 0.788 -1.332 4.288
 0.816 -1.336 4.297
 0.842 -1.336 4.293
 0.867 -1.336 4.288
 0.895 -1.339 4.292
 0.922 -1.342 4.297
 0.949 -1.344 4.297
 0.974 -1.343 4.288
 1.002 -1.345 4.289
 1.028 -1.345 4.285
 1.054 -1.345 4.28
 1.08 -1.346 4.275
 1.107 -1.347 4.274
 1.132 -1.347 4.267
 1.16 -1.349 4.266
 1.186 -1.35 4.263
 1.213 -1.351 4.26
 1.241 -1.353 4.26
 1.269 -1.355 4.258
 1.296 -1.356 4.255
 1.325 -1.359 4.258
 1.353 -1.362 4.258
 1.38 -1.362 4.253
 1.408 -1.364 4.25
 1.435 -1.365 4.246
 1.463 -1.366 4.241
 1.492 -1.37 4.243
 1.522 -1.373 4.245
 1.551 -1.375 4.242
 1.58 -1.377 4.241
 1.608 -1.379 4.237
 1.635 -1.38 4.229
 1.663 -1.381 4.225
 1.693 -1.384 4.223
 1.721 -1.385 4.218
 1.751 -1.388 4.216
 1.779 -1.389 4.21
 1.806 -1.39 4.201
 1.835 -1.392 4.195
 1.865 -1.394 4.193
 0 0 0
 0 0 0
 0 0 0
 0 0 0
 0 0 0
 0 0 0
 0 0 0
 0 0 0
 0 0 0
 0.169 -0.114 0.317
 0 0 0
 0 0 0
 1.543 -0.975 2.816
 1.645 -1.026 2.956
 1.778 -1.096 3.147
 1.788 -1.089 3.117
 1.794 -1.08 3.08
 1.775 -1.057 3.003
 1.783 -1.05 2.972
 -0.141 -0.083 0.232
 -0.121 -0.073 0.2
 -0.103 -0.063 0.172
 -0.091 -0.057 0.153
 -0.082 -0.051 0.138
 -0.073 -0.047 0.124
 -0.064 -0.042 0.11
 -0.055 -0.037 0.094
 -0.047 -0.032 0.08
 -0.21 -0.138 0.407
 -0.372 -0.247 0.741
 -0.783 -0.524 1.599
 -1.019 -0.691 2.12
 -1.411 -0.97 2.989
 -1.631 -1.137 3.514
 -1.842 -1.302 4.038
 -1.813 -1.299 4.04
 -1.937 -1.409 4.392
 -1.904 -1.405 4.391
 -1.87 -1.4 4.386
 -1.838 -1.398 4.387
 -1.805 -1.393 4.383
 -1.773 -1.39 4.383
 -1.741 -1.387 4.382
 -1.711 -1.385 4.386
 -1.68 -1.382 4.384
 -1.649 -1.38 4.386
 -1.618 -1.376 4.383
 -1.586 -1.373 4.381
 -1.557 -1.372 4.384
 -1.527 -1.369 4.382
 -1.494 -1.364 4.376
 -1.464 -1.361 4.374
 -1.434 -1.359 4.373
 -1.404 -1.356 4.37
 -1.376 -1.354 4.373
 -1.348 -1.353 4.376
 -1.318 -1.351 4.374
 -1.288 -1.347 4.369
 -1.262 -1.348 4.377
 -1.233 -1.345 4.375
 -1.204 -1.344 4.376
 -1.176 -1.342 4.376
 -1.15 -1.343 4.385
 -1.12 -1.339 4.376
 -1.091 -1.336 4.372
 -1.066 -1.337 4.381
 -1.04 -1.339 4.391
 -1.009 -1.332 4.375
 -0.979 -1.328 4.367
 -0.953 -1.328 4.369
 -0.792 -1.135 3.737
 -0.768 -1.133 3.734
 -0.744 -1.131 3.729
 -0.721 -1.13 3.73
 -0.699 -1.131 3.735
 -0.788 -1.317 4.357
 0 0 0
 0 0 0
