 -1.177 -1.553 4.286
 -1.163 -1.552 4.286
 -1.149 -1.551 4.286
 -1.134 -1.549 4.283
 -1.121 -1.549 4.287
 -1.108 -1.549 4.29
 -1.094 -1.548 4.289
 -1.08 -1.547 4.288
 -1.066 -1.546 4.289
 -1.052 -1.545 4.287
 -1.038 -1.542 4.284
 -1.024 -1.542 4.285
 -1.011 -1.542 4.289
 -0.998 -1.542 4.291
 -0.984 -1.541 4.29
 -0.971 -1.54 4.291
 -0.956 -1.539 4.288
 -0.943 -1.538 4.289
 -0.929 -1.536 4.286
 -0.914 -1.534 4.282
 -0.9 -1.533 4.281
 -0.887 -1.532 4.281
 -0.873 -1.531 4.281
 -0.86 -1.53 4.278
 -0.847 -1.53 4.281
 -0.832 -1.528 4.276
 -0.819 -1.528 4.278
 -0.805 -1.526 4.274
 -0.791 -1.524 4.272
 -0.779 -1.525 4.277
 -0.766 -1.526 4.28
 -0.753 -1.525 4.279
 -0.739 -1.524 4.279
 -0.727 -1.525 4.282
 -0.712 -1.521 4.275
 -0.699 -1.52 4.272
 -0.685 -1.519 4.271
 -0.672 -1.519 4.273
 -0.659 -1.518 4.273
 -0.647 -1.519 4.277
 -0.634 -1.52 4.28
 -0.621 -1.519 4.278
 -0.607 -1.516 4.273
 -0.595 -1.518 4.28
 -0.581 -1.516 4.275
 -0.568 -1.517 4.278
 -0.555 -1.517 4.279
 -0.543 -1.519 4.286
 -0.529 -1.516 4.28
 -0.516 -1.515 4.278
 -0.502 -1.513 4.274
 -0.489 -1.513 4.273
 -0.476 -1.512 4.271
 -0.463 -1.51 4.268
 -0.451 -1.512 4.273
 -0.438 -1.513 4.278
 -0.425 -1.513 4.278
 -0.412 -1.511 4.273
 -0.399 -1.511 4.274
 -0.386 -1.509 4.271
 -0.372 -1.507 4.264
 -0.359 -1.506 4.262
 -0.346 -1.506 4.262
 -0.333 -1.504 4.259
 -0.32 -1.503 4.256
 -0.308 -1.505 4.263
 -0.295 -1.507 4.267
 -0.283 -1.508 4.273
 -0.27 -1.509 4.277
 -0.258 -1.509 4.277
 -0.244 -1.507 4.27
 -0.231 -1.506 4.268
 -0.219 -1.506 4.267
 -0.206 -1.506 4.269
 -0.193 -1.508 4.274
 -0.181 -1.508 4.275
 -0.168 -1.509 4.278
 -0.155 -1.508 4.276
 -0.142 -1.507 4.274
 -0.129 -1.506 4.271
 -0.116 -1.506 4.269
 -0.104 -1.504 4.264
 -0.091 -1.503 4.262
 -0.078 -1.501 4.258
 -0.065 -1.501 4.256
 -0.052 -1.502 4.258
 -0.04 -1.501 4.256
 -0.027 -1.502 4.258
 -0.014 -1.503 4.261
 -0.002 -1.502 4.259
 0.01 -1.5 4.254
 0.023 -1.5 4.251
 0.035 -1.499 4.249
 0.048 -1.499 4.249
 0.061 -1.498 4.246
 0.074 -1.5 4.251
 0.086 -1.501 4.253
 0.099 -1.501 4.253
 0.112 -1.501 4.252
 0.125 -1.502 4.255
 0.137 -1.5 4.249
 0.15 -1.5 4.248
 0.163 -1.501 4.251
 0.175 -1.5 4.247
 0.188 -1.502 4.253
 0.201 -1.504 4.258
 0.214 -1.505 4.26
 0.226 -1.503 4.254
 0.239 -1.504 4.255
 0.252 -1.503 4.252
 0.264 -1.502 4.249
 0.277 -1.503 4.249
 0.29 -1.504 4.251
 0.303 -1.503 4.25
 0.315 -1.502 4.245
 0.328 -1.502 4.244
 0.341 -1.503 4.246
 0.354 -1.504 4.248
 0.367 -1.505 4.25
 0.379 -1.505 4.249
 0.392 -1.506 4.25
 0.405 -1.507 4.252
 0.418 -1.506 4.247
 0.43 -1.506 4.245
 0.443 -1.506 4.245
 0.456 -1.506 4.243
 0.468 -1.506 4.241
 0.481 -1.506 4.241
 0.495 -1.508 4.245
 0.507 -1.508 4.243
 0.52 -1.509 4.244
 0.533 -1.508 4.241
 0.546 -1.509 4.241
 0.558 -1.508 4.237
 0.571 -1.508 4.237
 0.585 -1.511 4.244
 0.597 -1.51 4.238
 0.61 -1.51 4.237
 0.623 -1.51 4.236
 0.637 -1.513 4.241
 0.648 -1.511 4.233
 0.663 -1.514 4.242
 0.677 -1.517 4.247
 0.69 -1.517 4.245
 0.702 -1.516 4.24
 0.715 -1.517 4.24
 0.727 -1.515 4.234
 0.74 -1.515 4.233
 0.754 -1.518 4.237
 0.768 -1.521 4.244
 0.781 -1.521 4.242
 0.795 -1.523 4.245
 0.807 -1.522 4.241
 0.821 -1.523 4.241
 0.833 -1.522 4.237
 0.846 -1.522 4.233
 0.859 -1.522 4.233
 0.872 -1.523 4.233
 0.884 -1.521 4.223
 0.897 -1.522 4.223
 0.911 -1.523 4.226
 0.925 -1.525 4.228
 0.937 -1.525 4.224
 0.952 -1.528 4.231
 0.965 -1.529 4.23
 0.979 -1.53 4.232
 0.992 -1.53 4.227
 1.007 -1.533 4.232
 1.019 -1.532 4.227
 1.033 -1.533 4.229
 1.047 -1.535 4.231
 1.061 -1.536 4.231
 1.074 -1.537 4.229
 1.089 -1.54 4.234
 1.102 -1.54 4.232
 1.115 -1.54 4.229
 1.128 -1.54 4.227
 1.141 -1.54 4.224
 1.154 -1.54 4.22
 1.167 -1.54 4.216
 1.181 -1.541 4.216
 1.195 -1.544 4.219
 1.208 -1.543 4.215
 1.222 -1.545 4.215
 1.237 -1.547 4.218
 1.251 -1.549 4.219
 1.264 -1.548 4.214
 1.279 -1.55 4.216
 1.291 -1.549 4.21
 1.303 -1.548 4.203
 1.316 -1.548 4.2
 1.331 -1.55 4.201
 1.345 -1.552 4.202
 1.36 -1.554 4.205
 1.375 -1.557 4.207
 1.387 -1.555 4.199
 1.401 -1.555 4.196
 1.413 -1.554 4.189
 1.428 -1.557 4.192
 1.443 -1.559 4.193
 1.458 -1.561 4.196
 1.472 -1.562 4.192
 1.487 -1.564 4.196
 1.501 -1.564 4.191
 1.515 -1.566 4.191
 1.531 -1.569 4.193
 1.545 -1.569 4.191
 1.559 -1.571 4.19
 1.573 -1.571 4.187
 1.587 -1.572 4.184
 1.599 -1.571 4.177
 1.614 -1.573 4.177
 1.63 -1.575 4.179
 1.643 -1.575 4.175
 1.657 -1.576 4.171
 1.672 -1.577 4.17
 1.687 -1.58 4.172
 1.7 -1.579 4.165
 1.715 -1.581 4.164
 1.727 -1.579 4.156
 1.74 -1.579 4.15
 1.751 -1.577 4.14
 1.763 -1.576 4.132
 1.775 -1.575 4.125
 1.791 -1.578 4.126
 1.809 -1.582 4.131
 1.821 -1.581 4.122
 1.831 -1.578 4.11
 1.84 -1.575 4.096
 1.849 -1.571 4.081
 1.853 -1.563 4.055
 1.862 -1.56 4.041
 1.87 -1.555 4.024
 1.878 -1.552 4.009
 1.881 -1.544 3.982
 1.886 -1.537 3.959
 1.887 -1.528 3.929
 1.892 -1.521 3.907
 1.893 -1.512 3.878
 1.895 -1.504 3.85
 1.894 -1.493 3.817
 1.9 -1.488 3.799
 1.897 -1.476 3.762
 0 0 0
 0 0 0
 0 0 0
 0 0 0
 0 0 0
 0 0 0
 0 0 0
 0 0 0
 0 0 0
 0 0 0
 0 0 0
 0 0 0
 0 0 0
 0 0 0
 0 0 0
 0 0 0
 1.817 -1.274 3.156
 1.826 -1.272 3.146
 1.838 -1.274 3.144
 1.844 -1.27 3.129
 1.847 -1.265 3.112
 1.848 -1.258 3.089
 1.842 -1.247 3.056
 1.856 -1.25 3.057
 1.808 -1.211 2.955
 -2.437 -1.635 4.133
 -2.407 -1.624 4.112
 -2.375 -1.612 4.09
 -2.36 -1.611 4.093
 -2.347 -1.612 4.103
 -2.333 -1.612 4.11
 -2.314 -1.608 4.107
 -2.297 -1.606 4.108
 -2.281 -1.605 4.111
 -2.268 -1.605 4.119
 -2.256 -1.606 4.128
 -2.247 -1.61 4.143
 -2.238 -1.614 4.161
 -2.224 -1.614 4.166
 -2.207 -1.612 4.168
 -2.189 -1.608 4.165
 -2.173 -1.607 4.167
 -2.157 -1.606 4.17
 -2.14 -1.604 4.17
 -2.129 -1.605 4.181
 -2.122 -1.611 4.201
 -2.11 -1.612 4.21
 -2.093 -1.61 4.211
 -2.081 -1.611 4.221
 -2.064 -1.609 4.22
 -2.042 -1.603 4.209
 -2.025 -1.6 4.208
 -2.01 -1.599 4.211
 -1.992 -1.596 4.209
 -1.978 -1.596 4.213
 -1.966 -1.597 4.222
 -1.952 -1.597 4.228
 -1.937 -1.596 4.231
 -1.924 -1.597 4.238
 -1.909 -1.596 4.24
 -1.894 -1.595 4.242
 -1.882 -1.596 4.252
 -1.871 -1.599 4.264
 -1.855 -1.597 4.264
 -1.842 -1.598 4.271
 -1.828 -1.598 4.277
 -1.811 -1.595 4.274
 -1.794 -1.592 4.27
 -1.781 -1.593 4.277
 -1.764 -1.59 4.275
 -1.749 -1.588 4.275
 -1.734 -1.587 4.276
 -1.717 -1.585 4.274
 -1.701 -1.582 4.273
 -1.685 -1.58 4.27
 -1.669 -1.578 4.27
 -1.654 -1.576 4.27
 -1.64 -1.576 4.274
 -1.624 -1.574 4.272
 -1.613 -1.576 4.282
 -1.596 -1.573 4.279
 -1.583 -1.574 4.284
 -1.568 -1.572 4.285
 -1.556 -1.574 4.293
 -1.541 -1.572 4.292
 -1.527 -1.572 4.297
 -1.512 -1.57 4.295
 -1.499 -1.571 4.301
 -1.483 -1.568 4.297
 -1.468 -1.567 4.297
 -1.452 -1.565 4.295
 -1.439 -1.565 4.299
 -1.424 -1.563 4.298
 -1.411 -1.564 4.304
 -1.396 -1.562 4.303
 -1.383 -1.562 4.307
 -1.366 -1.559 4.3
 -1.353 -1.559 4.304
 -1.337 -1.556 4.301
 -1.323 -1.555 4.3
 -1.309 -1.554 4.302
 -1.295 -1.554 4.306
 -1.28 -1.552 4.302
 -1.265 -1.549 4.298
 -1.25 -1.548 4.298
 -1.235 -1.545 4.294
 -1.219 -1.543 4.289
 -1.205 -1.541 4.287
 -1.192 -1.541 4.291
 -1.177 -1.54 4.291
 -1.163 -1.538 4.289
 -1.15 -1.539 4.293
 -1.134 -1.535 4.286
 -1.12 -1.534 4.285
 -1.106 -1.534 4.287
 -1.093 -1.533 4.289
 -1.079 -1.532 4.289
 -1.066 -1.533 4.293
 -1.052 -1.532 4.293
 -1.038 -1.53 4.291
 -1.024 -1.529 4.29
 -1.01 -1.528 4.29
 -0.997 -1.528 4.293
 -0.984 -1.527 4.292
 -0.97 -1.527 4.293
 -0.956 -1.525 4.291
 -0.943 -1.525 4.292
 -0.929 -1.524 4.292
 -0.915 -1.522 4.29
 -0.901 -1.521 4.289
 -0.888 -1.52 4.288
 -0.874 -1.519 4.286
 -0.859 -1.516 4.282
 -0.846 -1.517 4.284
 -0.832 -1.515 4.281
 -0.82 -1.516 4.285
 -0.806 -1.514 4.283
 -0.792 -1.513 4.28
 -0.779 -1.513 4.283
 -0.767 -1.514 4.288
 -0.753 -1.512 4.284
 -0.74 -1.512 4.286
 -0.727 -1.512 4.288
 -0.712 -1.508 4.277
 -0.698 -1.506 4.272
 -0.685 -1.505 4.272
 -0.671 -1.504 4.271
 -0.658 -1.504 4.272
 -0.646 -1.506 4.279
 -0.634 -1.507 4.283
 -0.621 -1.506 4.284
 -0.607 -1.506 4.282
 -0.595 -1.507 4.287
 -0.581 -1.505 4.283
 -0.568 -1.504 4.282
 -0.555 -1.504 4.283
 -0.543 -1.505 4.286
 -0.529 -1.503 4.282
 -0.516 -1.502 4.281
 -0.502 -1.5 4.277
 -0.489 -1.498 4.273
 -0.476 -1.499 4.275
 -0.463 -1.498 4.273
 -0.45 -1.499 4.277
 -0.438 -1.5 4.281
 -0.425 -1.499 4.279
 -0.411 -1.495 4.269
 -0.398 -1.495 4.269
 -0.385 -1.493 4.264
 -0.371 -1.491 4.259
 -0.359 -1.491 4.259
 -0.346 -1.491 4.261
 -0.333 -1.489 4.257
 -0.32 -1.489 4.258
 -0.308 -1.491 4.264
 -0.295 -1.493 4.268
 -0.283 -1.494 4.272
 -0.27 -1.495 4.276
 -0.257 -1.495 4.275
 -0.244 -1.492 4.269
 -0.231 -1.492 4.268
 -0.218 -1.492 4.269
 -0.206 -1.493 4.273
 -0.193 -1.494 4.276
 -0.181 -1.495 4.28
 -0.168 -1.497 4.283
 -0.155 -1.494 4.277
 -0.142 -1.493 4.273
 -0.129 -1.493 4.273
 -0.116 -1.492 4.27
 -0.103 -1.489 4.263
 -0.091 -1.489 4.263
 -0.078 -1.489 4.263
 -0.065 -1.488 4.261
 -0.052 -1.489 4.263
 -0.04 -1.489 4.263
 -0.027 -1.49 4.265
 -0.014 -1.49 4.264
 -0.002 -1.49 4.264
 0.01 -1.488 4.26
 0.023 -1.487 4.256
 0.036 -1.486 4.252
 0.048 -1.487 4.254
 0.061 -1.485 4.249
 0.074 -1.487 4.253
 0.086 -1.487 4.255
 0.099 -1.488 4.256
 0.112 -1.488 4.255
 0.125 -1.488 4.257
 0.137 -1.487 4.251
 0.15 -1.486 4.25
 0.163 -1.487 4.252
 0.175 -1.486 4.247
 0.188 -1.489 4.255
 0.201 -1.489 4.256
 0.214 -1.491 4.259
 0.226 -1.489 4.254
 0.239 -1.491 4.257
 0.252 -1.49 4.255
 0.265 -1.49 4.254
 0.277 -1.49 4.254
 0.29 -1.49 4.254
 0.302 -1.488 4.246
 0.315 -1.486 4.24
 0.327 -1.487 4.242
 0.34 -1.488 4.244
 0.353 -1.49 4.247
 0.367 -1.492 4.252
 0.38 -1.493 4.255
 0.392 -1.493 4.253
 0.405 -1.493 4.253
 0.418 -1.493 4.25
 0.431 -1.494 4.251
 0.443 -1.493 4.248
 0.456 -1.493 4.246
 0.469 -1.493 4.246
 0.482 -1.494 4.247
 0.495 -1.495 4.247
 0.508 -1.495 4.248
 0.521 -1.497 4.25
 0.533 -1.496 4.247
 0.546 -1.496 4.247
 0.558 -1.494 4.239
 0.571 -1.495 4.24
 0.585 -1.498 4.246
 0.597 -1.496 4.24
 0.61 -1.497 4.239
 0.623 -1.498 4.242
 0.637 -1.499 4.244
 0.648 -1.497 4.235
 0.663 -1.501 4.245
 0.676 -1.503 4.248
 0.69 -1.504 4.248
 0.702 -1.503 4.244
 0.715 -1.504 4.246
 0.727 -1.502 4.236
 0.74 -1.502 4.237
 0.754 -1.504 4.239
 0.768 -1.507 4.245
 0.781 -1.508 4.245
 0.795 -1.509 4.247
 0.807 -1.509 4.243
 0.82 -1.509 4.243
 0.833 -1.509 4.241
 0.846 -1.509 4.236
 0.859 -1.509 4.236
 0.872 -1.51 4.235
 0.884 -1.509 4.231
 0.897 -1.51 4.229
 0.911 -1.511 4.232
 0.926 -1.514 4.236
 0.939 -1.514 4.234
 0.951 -1.514 4.231
 0.965 -1.514 4.23
 0.979 -1.516 4.232
 0.991 -1.515 4.227
 1.006 -1.518 4.232
 1.02 -1.52 4.234
 1.034 -1.521 4.236
 1.047 -1.523 4.236
 1.062 -1.525 4.238
 1.075 -1.525 4.238
 1.09 -1.528 4.241
 1.102 -1.527 4.237
 1.115 -1.527 4.234
 1.128 -1.527 4.229
 1.14 -1.526 4.223
 1.153 -1.526 4.221
 1.167 -1.528 4.222
 1.181 -1.529 4.222
 1.196 -1.531 4.224
 1.209 -1.532 4.223
 1.223 -1.532 4.221
 1.237 -1.534 4.223
 1.252 -1.536 4.224
 1.265 -1.536 4.221
 1.279 -1.537 4.22
 1.291 -1.536 4.213
 1.303 -1.535 4.206
 1.316 -1.535 4.203
 1.331 -1.538 4.207
 1.346 -1.54 4.209
 1.362 -1.543 4.213
 1.377 -1.545 4.215
 1.389 -1.544 4.21
 1.402 -1.544 4.204
 1.415 -1.544 4.201
 1.431 -1.547 4.204
 1.446 -1.548 4.205
 1.46 -1.55 4.205
 1.474 -1.551 4.204
 1.489 -1.552 4.203
 1.502 -1.553 4.199
 1.517 -1.554 4.2
 1.532 -1.556 4.2
 1.545 -1.556 4.195
 1.559 -1.558 4.195
 1.574 -1.559 4.194
 1.588 -1.56 4.191
 1.601 -1.559 4.185
 1.616 -1.561 4.185
 1.631 -1.563 4.186
 1.644 -1.563 4.181
 1.658 -1.564 4.178
 1.672 -1.565 4.177
 1.688 -1.567 4.177
 1.701 -1.567 4.172
 1.716 -1.568 4.172
 1.729 -1.568 4.165
 1.741 -1.567 4.159
 1.754 -1.566 4.151
 1.766 -1.566 4.144
 1.78 -1.566 4.139
 1.794 -1.567 4.136
 1.813 -1.572 4.145
 1.825 -1.571 4.137
 1.836 -1.569 4.126
 1.843 -1.564 4.106
 1.851 -1.559 4.09
 1.852 -1.55 4.058
 1.863 -1.547 4.047
 1.87 -1.542 4.028
 1.88 -1.54 4.018
 1.885 -1.533 3.993
 1.888 -1.526 3.968
 1.889 -1.516 3.937
 1.895 -1.511 3.917
 1.896 -1.501 3.887
 1.9 -1.494 3.863
 1.907 -1.49 3.847
 1.911 -1.484 3.825
 1.909 -1.472 3.79
 0 0 0
 0 0 0
 0 0 0
 0 0 0
 0 0 0
 0 0 0
 0 0 0
 0 0 0
 0 0 0
 0 0 0
 0 0 0
 0 0 0
 0 0 0
 0 0 0
 0 0 0
 0 0 0
 1.817 -1.263 3.158
 1.832 -1.266 3.16
 1.844 -1.267 3.157
 1.846 -1.26 3.136
 1.85 -1.256 3.12
 1.85 -1.249 3.097
 1.841 -1.236 3.059
 1.806 -1.206 2.978
 1.811 -1.203 2.965
 0 0 0
 0 0 0
 -2.402 -1.616 4.141
 -2.379 -1.61 4.132
 -2.364 -1.609 4.137
 -2.35 -1.61 4.144
 -2.324 -1.601 4.129
 -2.306 -1.598 4.128
 -2.294 -1.6 4.139
 -2.283 -1.602 4.151
 -2.27 -1.603 4.159
 -2.263 -1.608 4.179
 -2.253 -1.611 4.192
 -2.238 -1.61 4.198
 -2.222 -1.608 4.199
 -2.205 -1.606 4.201
 -2.187 -1.604 4.2
 -2.17 -1.602 4.201
 -2.153 -1.599 4.199
 -2.139 -1.599 4.207
 -2.132 -1.604 4.226
 -2.118 -1.605 4.233
 -2.103 -1.604 4.236
 -2.091 -1.605 4.245
 -2.076 -1.604 4.25
 -2.055 -1.599 4.24
 -2.037 -1.596 4.239
 -2.021 -1.594 4.239
 -2.004 -1.592 4.238
 -1.987 -1.589 4.238
 -1.975 -1.591 4.248
 -1.963 -1.592 4.256
 -1.947 -1.591 4.258
 -1.934 -1.591 4.265
 -1.919 -1.59 4.267
 -1.904 -1.589 4.27
 -1.891 -1.59 4.278
 -1.879 -1.592 4.288
 -1.863 -1.59 4.287
 -1.849 -1.59 4.291
 -1.833 -1.588 4.291
 -1.816 -1.586 4.29
 -1.799 -1.583 4.287
 -1.786 -1.583 4.294
 -1.771 -1.583 4.297
 -1.756 -1.581 4.297
 -1.74 -1.579 4.298
 -1.724 -1.577 4.297
 -1.709 -1.576 4.297
 -1.691 -1.572 4.29
 -1.676 -1.571 4.292
 -1.66 -1.569 4.291
 -1.645 -1.567 4.291
 -1.629 -1.565 4.29
 -1.616 -1.566 4.297
 -1.6 -1.563 4.292
 -1.585 -1.562 4.294
 -1.57 -1.561 4.295
 -1.555 -1.559 4.295
 -1.541 -1.558 4.297
 -1.527 -1.558 4.299
 -1.511 -1.556 4.298
 -1.498 -1.556 4.302
 -1.483 -1.555 4.302
 -1.468 -1.553 4.301
 -1.453 -1.551 4.301
 -1.438 -1.551 4.302
 -1.424 -1.549 4.302
 -1.411 -1.55 4.308
 -1.395 -1.548 4.305
 -1.381 -1.547 4.307
 -1.366 -1.545 4.304
 -1.352 -1.545 4.308
 -1.336 -1.541 4.302
 -1.323 -1.542 4.305
 -1.308 -1.54 4.305
 -1.294 -1.54 4.306
 -1.278 -1.537 4.301
 -1.262 -1.534 4.296
 -1.247 -1.531 4.292
 -1.233 -1.53 4.291
 -1.219 -1.529 4.293
 -1.206 -1.53 4.297
 -1.194 -1.532 4.306
 -1.18 -1.53 4.303
 -1.164 -1.527 4.299
 -1.149 -1.525 4.295
 -1.132 -1.52 4.284
 -1.118 -1.518 4.282
 -1.105 -1.519 4.288
 -1.093 -1.52 4.292
 -1.08 -1.52 4.295
 -1.067 -1.521 4.3
 -1.053 -1.519 4.298
 -1.038 -1.517 4.294
 -1.023 -1.515 4.291
 -1.01 -1.515 4.292
 -0.997 -1.515 4.295
 -0.983 -1.514 4.296
 -0.97 -1.513 4.297
 -0.956 -1.511 4.293
 -0.942 -1.511 4.295
 -0.928 -1.51 4.293
 -0.914 -1.508 4.29
 -0.9 -1.506 4.288
 -0.887 -1.506 4.289
 -0.873 -1.504 4.286
 -0.859 -1.502 4.282
 -0.846 -1.503 4.285
 -0.832 -1.501 4.284
 -0.819 -1.502 4.288
 -0.806 -1.501 4.286
 -0.792 -1.5 4.284
 -0.779 -1.5 4.287
 -0.766 -1.501 4.29
 -0.752 -1.498 4.286
 -0.739 -1.498 4.287
 -0.726 -1.497 4.286
 -0.712 -1.495 4.28
 -0.697 -1.492 4.274
 -0.685 -1.492 4.276
 -0.671 -1.491 4.275
 -0.658 -1.491 4.276
 -0.646 -1.492 4.279
 -0.633 -1.493 4.285
 -0.62 -1.493 4.285
 -0.607 -1.492 4.285
 -0.595 -1.494 4.29
 -0.581 -1.492 4.288
 -0.568 -1.491 4.286
 -0.555 -1.491 4.285
 -0.542 -1.492 4.29
 -0.529 -1.49 4.287
 -0.516 -1.489 4.284
 -0.502 -1.487 4.281
 -0.489 -1.486 4.276
 -0.476 -1.486 4.278
 -0.463 -1.484 4.274
 -0.45 -1.484 4.275
 -0.437 -1.485 4.278
 -0.424 -1.484 4.278
 -0.411 -1.481 4.27
 -0.398 -1.482 4.272
 -0.385 -1.481 4.27
 -0.372 -1.479 4.265
 -0.359 -1.479 4.265
 -0.346 -1.478 4.264
 -0.333 -1.477 4.261
 -0.32 -1.476 4.26
 -0.307 -1.477 4.264
 -0.295 -1.479 4.269
 -0.282 -1.48 4.274
 -0.27 -1.481 4.276
 -0.257 -1.481 4.275
 -0.244 -1.479 4.272
 -0.231 -1.478 4.269
 -0.218 -1.478 4.27
 -0.206 -1.48 4.275
 -0.193 -1.482 4.28
 -0.18 -1.482 4.28
 -0.168 -1.483 4.284
 -0.155 -1.48 4.276
 -0.142 -1.479 4.273
 -0.129 -1.479 4.273
 -0.116 -1.479 4.273
 -0.103 -1.477 4.268
 -0.091 -1.477 4.27
 -0.078 -1.476 4.265
 -0.065 -1.476 4.265
 -0.052 -1.477 4.268
 -0.04 -1.477 4.267
 -0.027 -1.477 4.269
 -0.014 -1.477 4.269
 -0.001 -1.475 4.263
 0.01 -1.474 4.26
 0.023 -1.473 4.257
 0.036 -1.473 4.255
 0.048 -1.474 4.257
 0.061 -1.473 4.255
 0.074 -1.474 4.256
 0.086 -1.474 4.258
 0.099 -1.475 4.261
 0.112 -1.476 4.261
 0.125 -1.476 4.263
 0.137 -1.476 4.26
 0.15 -1.474 4.256
 0.163 -1.474 4.254
 0.175 -1.473 4.251
 0.188 -1.476 4.258
 0.201 -1.476 4.259
 0.214 -1.478 4.263
 0.226 -1.477 4.26
 0.239 -1.478 4.262
 0.252 -1.478 4.261
 0.265 -1.478 4.26
 0.277 -1.477 4.256
 0.29 -1.477 4.256
 0.302 -1.475 4.249
 0.315 -1.473 4.242
 0.328 -1.475 4.246
 0.341 -1.477 4.252
 0.354 -1.478 4.254
 0.367 -1.48 4.259
 0.38 -1.482 4.262
 0.392 -1.48 4.256
 0.405 -1.481 4.256
 0.418 -1.48 4.254
 0.431 -1.482 4.257
 0.443 -1.48 4.251
 0.456 -1.48 4.25
 0.469 -1.48 4.249
 0.482 -1.48 4.249
 0.494 -1.48 4.245
 0.507 -1.48 4.246
 0.52 -1.482 4.247
 0.533 -1.482 4.246
 0.546 -1.483 4.247
 0.558 -1.481 4.243
 0.571 -1.482 4.243
 0.585 -1.486 4.251
 0.597 -1.484 4.245
 0.61 -1.483 4.24
 0.623 -1.485 4.244
 0.636 -1.485 4.243
 0.647 -1.481 4.228
 0.661 -1.485 4.239
 0.675 -1.487 4.243
 0.688 -1.488 4.244
 0.702 -1.49 4.247
 0.716 -1.493 4.254
 0.728 -1.491 4.247
 0.742 -1.493 4.251
 0.755 -1.494 4.252
 0.768 -1.495 4.251
 0.782 -1.496 4.252
 0.794 -1.496 4.249
 0.807 -1.495 4.245
 0.82 -1.495 4.243
 0.833 -1.496 4.243
 0.845 -1.494 4.236
 0.858 -1.495 4.237
 0.871 -1.496 4.235
 0.884 -1.495 4.232
 0.897 -1.496 4.23
 0.912 -1.499 4.237
 0.926 -1.501 4.24
 0.939 -1.501 4.238
 0.951 -1.501 4.234
 0.965 -1.502 4.236
 0.978 -1.503 4.235
 0.991 -1.503 4.232
 1.005 -1.505 4.234
 1.02 -1.507 4.237
 1.034 -1.509 4.24
 1.047 -1.509 4.239
 1.062 -1.512 4.243
 1.077 -1.515 4.248
 1.091 -1.516 4.249
 1.103 -1.515 4.244
 1.116 -1.516 4.242
 1.128 -1.514 4.233
 1.139 -1.511 4.223
 1.152 -1.512 4.221
 1.166 -1.512 4.22
 1.18 -1.514 4.221
 1.194 -1.515 4.222
 1.208 -1.516 4.22
 1.221 -1.517 4.22
 1.236 -1.519 4.222
 1.25 -1.52 4.221
 1.263 -1.52 4.218
 1.277 -1.522 4.22
 1.29 -1.521 4.214
 1.303 -1.521 4.21
 1.315 -1.521 4.205
 1.331 -1.524 4.21
 1.346 -1.526 4.212
 1.361 -1.529 4.215
 1.376 -1.531 4.217
 1.389 -1.531 4.213
 1.402 -1.531 4.21
 1.416 -1.531 4.207
 1.432 -1.534 4.211
 1.446 -1.536 4.211
 1.461 -1.538 4.212
 1.476 -1.539 4.212
 1.49 -1.541 4.211
 1.503 -1.54 4.205
 1.518 -1.542 4.206
 1.532 -1.543 4.206
 1.546 -1.543 4.201
 1.56 -1.545 4.201
 1.575 -1.547 4.202
 1.588 -1.547 4.197
 1.602 -1.547 4.193
 1.617 -1.549 4.194
 1.632 -1.55 4.192
 1.645 -1.55 4.187
 1.659 -1.551 4.185
 1.672 -1.551 4.181
 1.686 -1.552 4.178
 1.7 -1.552 4.173
 1.714 -1.553 4.17
 1.727 -1.552 4.164
 1.74 -1.553 4.16
 1.753 -1.552 4.153
 1.765 -1.551 4.145
 1.778 -1.551 4.141
 1.795 -1.555 4.144
 1.814 -1.56 4.152
 1.825 -1.558 4.141
 1.836 -1.556 4.131
 1.845 -1.552 4.114
 1.85 -1.545 4.091
 1.852 -1.536 4.062
 1.863 -1.534 4.051
 1.872 -1.531 4.037
 1.882 -1.528 4.025
 1.886 -1.521 4
 1.888 -1.513 3.972
 1.89 -1.504 3.943
 1.894 -1.497 3.92
 1.897 -1.489 3.893
 1.904 -1.485 3.877
 1.917 -1.485 3.871
 1.926 -1.483 3.859
 0 0 0
 0 0 0
 0 0 0
 0 0 0
 0 0 0
 0 0 0
 0 0 0
 0 0 0
 0 0 0
 0 0 0
 0 0 0
 0 0 0
 0 0 0
 0 0 0
 0 0 0
 0 0 0
 0 0 0
 1.805 -1.243 3.141
 1.829 -1.253 3.158
 1.837 -1.251 3.149
 1.84 -1.246 3.13
 1.846 -1.242 3.116
 1.849 -1.238 3.099
 1.841 -1.225 3.061
 1.842 -1.219 3.041
 1.835 -1.208 3.006
 -2.477 -1.633 4.211
 -2.408 -1.596 4.124
 -2.41 -1.607 4.159
 -2.391 -1.604 4.158
 -2.378 -1.605 4.166
 -2.363 -1.605 4.172
 -2.334 -1.594 4.152
 -2.317 -1.592 4.153
 -2.308 -1.596 4.169
 -2.299 -1.6 4.186
 -2.286 -1.6 4.194
 -2.279 -1.605 4.214
 -2.269 -1.608 4.227
 -2.253 -1.607 4.23
 -2.235 -1.604 4.23
 -2.22 -1.603 4.234
 -2.202 -1.601 4.233
 -2.189 -1.602 4.242
 -2.171 -1.598 4.239
 -2.159 -1.6 4.251
 -2.146 -1.601 4.258
 -2.133 -1.602 4.268
 -2.114 -1.598 4.262
 -2.101 -1.599 4.27
 -2.083 -1.596 4.269
 -2.065 -1.593 4.268
 -2.048 -1.59 4.266
 -2.033 -1.589 4.269
 -2.014 -1.586 4.265
 -1.997 -1.584 4.265
 -1.983 -1.584 4.27
 -1.968 -1.583 4.273
 -1.953 -1.582 4.275
 -1.941 -1.583 4.285
 -1.925 -1.582 4.286
 -1.911 -1.581 4.291
 -1.898 -1.582 4.298
 -1.884 -1.583 4.304
 -1.868 -1.58 4.303
 -1.854 -1.581 4.309
 -1.838 -1.579 4.309
 -1.823 -1.577 4.31
 -1.805 -1.574 4.306
 -1.79 -1.573 4.308
 -1.775 -1.572 4.309
 -1.759 -1.57 4.31
 -1.744 -1.569 4.311
 -1.73 -1.569 4.316
 -1.714 -1.567 4.314
 -1.697 -1.564 4.31
 -1.681 -1.562 4.309
 -1.663 -1.558 4.303
 -1.646 -1.554 4.298
 -1.631 -1.553 4.299
 -1.617 -1.553 4.302
 -1.6 -1.55 4.298
 -1.586 -1.549 4.3
 -1.572 -1.549 4.306
 -1.557 -1.548 4.304
 -1.542 -1.546 4.305
 -1.529 -1.547 4.31
 -1.513 -1.544 4.307
 -1.499 -1.544 4.31
 -1.484 -1.543 4.311
 -1.468 -1.54 4.306
 -1.451 -1.537 4.301
 -1.438 -1.537 4.305
 -1.422 -1.534 4.3
 -1.409 -1.534 4.306
 -1.394 -1.533 4.304
 -1.38 -1.532 4.308
 -1.364 -1.53 4.304
 -1.351 -1.53 4.308
 -1.335 -1.527 4.303
 -1.322 -1.528 4.308
 -1.308 -1.527 4.309
 -1.294 -1.526 4.311
 -1.278 -1.523 4.306
 -1.263 -1.521 4.302
 -1.247 -1.518 4.296
 -1.234 -1.518 4.3
 -1.22 -1.517 4.3
 -1.207 -1.518 4.306
 -1.195 -1.519 4.312
 -1.18 -1.517 4.309
 -1.164 -1.514 4.303
 -1.149 -1.512 4.3
 -1.132 -1.507 4.288
 -1.117 -1.504 4.285
 -1.106 -1.507 4.293
 -1.093 -1.507 4.297
 -1.08 -1.507 4.3
 -1.067 -1.508 4.305
 -1.053 -1.506 4.303
 -1.038 -1.504 4.298
 -1.023 -1.502 4.294
 -1.01 -1.501 4.296
 -0.997 -1.502 4.299
 -0.983 -1.501 4.299
 -0.969 -1.5 4.299
 -0.955 -1.498 4.295
 -0.941 -1.496 4.293
 -0.927 -1.495 4.293
 -0.914 -1.495 4.293
 -0.9 -1.493 4.291
 -0.887 -1.494 4.296
 -0.873 -1.492 4.292
 -0.859 -1.489 4.287
 -0.846 -1.489 4.289
 -0.832 -1.488 4.287
 -0.818 -1.487 4.287
 -0.805 -1.487 4.287
 -0.791 -1.486 4.285
 -0.778 -1.485 4.285
 -0.765 -1.485 4.288
 -0.751 -1.484 4.285
 -0.739 -1.484 4.288
 -0.725 -1.483 4.287
 -0.711 -1.481 4.281
 -0.697 -1.479 4.277
 -0.684 -1.479 4.279
 -0.67 -1.476 4.273
 -0.658 -1.477 4.276
 -0.645 -1.477 4.278
 -0.632 -1.478 4.282
 -0.619 -1.477 4.28
 -0.606 -1.477 4.281
 -0.594 -1.478 4.286
 -0.581 -1.478 4.287
 -0.567 -1.477 4.286
 -0.555 -1.477 4.288
 -0.542 -1.479 4.294
 -0.529 -1.478 4.293
 -0.516 -1.477 4.289
 -0.502 -1.475 4.287
 -0.489 -1.473 4.281
 -0.476 -1.474 4.284
 -0.463 -1.472 4.28
 -0.45 -1.472 4.282
 -0.437 -1.473 4.285
 -0.425 -1.473 4.286
 -0.411 -1.47 4.278
 -0.398 -1.47 4.277
 -0.385 -1.469 4.276
 -0.372 -1.466 4.269
 -0.359 -1.467 4.272
 -0.346 -1.466 4.27
 -0.333 -1.465 4.268
 -0.32 -1.464 4.265
 -0.307 -1.465 4.268
 -0.295 -1.465 4.27
 -0.282 -1.465 4.269
 -0.269 -1.465 4.272
 -0.256 -1.465 4.271
 -0.243 -1.464 4.269
 -0.23 -1.462 4.264
 -0.218 -1.463 4.267
 -0.205 -1.464 4.27
 -0.193 -1.466 4.275
 -0.18 -1.467 4.279
 -0.167 -1.468 4.282
 -0.154 -1.467 4.278
 -0.142 -1.466 4.278
 -0.129 -1.466 4.277
 -0.116 -1.465 4.274
 -0.103 -1.463 4.269
 -0.09 -1.464 4.27
 -0.078 -1.463 4.268
 -0.065 -1.463 4.268
 -0.052 -1.463 4.268
 -0.04 -1.464 4.271
 -0.027 -1.464 4.27
 -0.014 -1.462 4.265
 -0.001 -1.461 4.261
 0.01 -1.46 4.259
 0.023 -1.459 4.255
 0.036 -1.46 4.257
 0.048 -1.46 4.259
 0.061 -1.46 4.257
 0.074 -1.461 4.259
 0.086 -1.461 4.26
 0.099 -1.462 4.262
 0.112 -1.463 4.265
 0.125 -1.462 4.262
 0.137 -1.462 4.262
 0.15 -1.461 4.258
 0.163 -1.461 4.256
 0.175 -1.46 4.253
 0.188 -1.462 4.259
 0.201 -1.461 4.255
 0.214 -1.462 4.259
 0.226 -1.462 4.256
 0.239 -1.463 4.259
 0.252 -1.463 4.258
 0.265 -1.464 4.26
 0.277 -1.464 4.258
 0.29 -1.463 4.255
 0.302 -1.461 4.249
 0.315 -1.46 4.246
 0.328 -1.462 4.249
 0.341 -1.463 4.252
 0.354 -1.464 4.255
 0.367 -1.466 4.257
 0.379 -1.466 4.256
 0.392 -1.464 4.252
 0.405 -1.466 4.256
 0.418 -1.467 4.258
 0.431 -1.469 4.26
 0.444 -1.47 4.264
 0.457 -1.47 4.262
 0.469 -1.469 4.258
 0.482 -1.469 4.257
 0.494 -1.468 4.252
 0.507 -1.466 4.246
 0.52 -1.469 4.251
 0.533 -1.469 4.249
 0.546 -1.469 4.248
 0.558 -1.469 4.246
 0.572 -1.471 4.253
 0.585 -1.473 4.255
 0.598 -1.472 4.252
 0.61 -1.471 4.246
 0.623 -1.471 4.246
 0.635 -1.47 4.241
 0.647 -1.468 4.232
 0.661 -1.47 4.238
 0.674 -1.472 4.24
 0.688 -1.474 4.244
 0.701 -1.475 4.245
 0.715 -1.477 4.249
 0.727 -1.476 4.244
 0.741 -1.479 4.251
 0.754 -1.479 4.249
 0.767 -1.479 4.246
 0.78 -1.48 4.248
 0.793 -1.48 4.246
 0.806 -1.479 4.241
 0.819 -1.48 4.241
 0.833 -1.483 4.247
 0.845 -1.482 4.241
 0.858 -1.482 4.239
 0.871 -1.482 4.237
 0.883 -1.481 4.233
 0.896 -1.481 4.228
 0.911 -1.484 4.236
 0.925 -1.487 4.24
 0.939 -1.488 4.241
 0.952 -1.489 4.241
 0.966 -1.49 4.242
 0.979 -1.49 4.24
 0.992 -1.49 4.237
 1.005 -1.491 4.237
 1.019 -1.493 4.238
 1.033 -1.494 4.239
 1.046 -1.495 4.238
 1.061 -1.497 4.243
 1.076 -1.5 4.247
 1.09 -1.501 4.248
 1.103 -1.501 4.246
 1.115 -1.501 4.24
 1.126 -1.498 4.231
 1.138 -1.497 4.223
 1.151 -1.497 4.22
 1.165 -1.499 4.222
 1.18 -1.502 4.227
 1.195 -1.504 4.23
 1.209 -1.505 4.229
 1.223 -1.506 4.229
 1.236 -1.506 4.225
 1.249 -1.507 4.224
 1.263 -1.507 4.222
 1.277 -1.508 4.222
 1.289 -1.508 4.216
 1.303 -1.509 4.217
 1.317 -1.51 4.214
 1.332 -1.511 4.216
 1.345 -1.512 4.214
 1.361 -1.516 4.22
 1.375 -1.516 4.218
 1.388 -1.516 4.214
 1.403 -1.518 4.215
 1.417 -1.519 4.214
 1.431 -1.521 4.214
 1.446 -1.523 4.216
 1.462 -1.525 4.217
 1.473 -1.524 4.209
 1.488 -1.525 4.209
 1.501 -1.525 4.204
 1.516 -1.526 4.204
 1.531 -1.528 4.205
 1.545 -1.529 4.204
 1.56 -1.531 4.203
 1.575 -1.533 4.206
 1.588 -1.533 4.201
 1.601 -1.533 4.196
 1.617 -1.536 4.198
 1.631 -1.536 4.195
 1.645 -1.537 4.193
 1.66 -1.538 4.191
 1.673 -1.539 4.187
 1.687 -1.539 4.183
 1.701 -1.54 4.18
 1.713 -1.539 4.173
 1.727 -1.539 4.168
 1.741 -1.54 4.165
 1.754 -1.54 4.16
 1.767 -1.539 4.154
 1.783 -1.542 4.155
 1.799 -1.544 4.156
 1.814 -1.546 4.157
 1.826 -1.545 4.147
 1.837 -1.543 4.136
 1.845 -1.539 4.12
 1.851 -1.532 4.097
 1.856 -1.526 4.076
 1.867 -1.525 4.065
 1.878 -1.522 4.053
 1.884 -1.517 4.034
 1.89 -1.511 4.013
 1.892 -1.502 3.984
 1.894 -1.494 3.957
 1.899 -1.487 3.933
 1.901 -1.479 3.906
 1.91 -1.476 3.892
 1.928 -1.48 3.897
 0 0 0
 0 0 0
 0 0 0
 0 0 0
 0 0 0
 0 0 0
 0 0 0
 0 0 0
 0 0 0
 0 0 0
 0 0 0
 0 0 0
 0 0 0
 0 0 0
 0 0 0
 0 0 0
 0 0 0
 0 0 0
 1.791 -1.223 3.12
 1.819 -1.235 3.146
 1.83 -1.236 3.141
 1.836 -1.232 3.127
 1.842 -1.229 3.113
 1.846 -1.225 3.097
 1.84 -1.214 3.064
 1.853 -1.216 3.063
 1.816 -1.185 2.979
 -2.431 -1.588 4.137
 0 0 0
 -2.423 -1.602 4.187
 -2.407 -1.601 4.19
 -2.395 -1.602 4.201
 -2.377 -1.599 4.201
 -2.347 -1.589 4.18
 -2.329 -1.586 4.179
 -2.325 -1.593 4.205
 -2.317 -1.597 4.222
 -2.305 -1.599 4.233
 -2.297 -1.603 4.251
 -2.285 -1.605 4.262
 -2.266 -1.602 4.26
 -2.247 -1.599 4.258
 -2.232 -1.598 4.262
 -2.213 -1.594 4.259
 -2.199 -1.594 4.265
 -2.181 -1.592 4.264
 -2.171 -1.595 4.279
 -2.155 -1.594 4.282
 -2.14 -1.593 4.287
 -2.123 -1.591 4.286
 -2.11 -1.592 4.295
 -2.091 -1.588 4.291
 -2.075 -1.587 4.292
 -2.058 -1.585 4.293
 -2.041 -1.582 4.291
 -2.02 -1.577 4.282
 -2.001 -1.573 4.278
 -1.985 -1.572 4.279
 -1.972 -1.572 4.286
 -1.959 -1.573 4.293
 -1.947 -1.574 4.303
 -1.932 -1.574 4.307
 -1.92 -1.575 4.316
 -1.904 -1.574 4.318
 -1.888 -1.571 4.316
 -1.872 -1.57 4.317
 -1.857 -1.569 4.321
 -1.839 -1.566 4.316
 -1.824 -1.565 4.318
 -1.807 -1.562 4.316
 -1.791 -1.56 4.314
 -1.775 -1.559 4.316
 -1.762 -1.559 4.321
 -1.746 -1.557 4.321
 -1.732 -1.557 4.325
 -1.716 -1.555 4.324
 -1.698 -1.551 4.318
 -1.682 -1.549 4.317
 -1.665 -1.546 4.312
 -1.649 -1.544 4.31
 -1.634 -1.543 4.313
 -1.62 -1.543 4.316
 -1.602 -1.538 4.308
 -1.588 -1.538 4.311
 -1.572 -1.536 4.31
 -1.556 -1.534 4.307
 -1.54 -1.531 4.305
 -1.526 -1.531 4.308
 -1.511 -1.529 4.306
 -1.498 -1.529 4.311
 -1.484 -1.529 4.313
 -1.467 -1.526 4.309
 -1.452 -1.523 4.306
 -1.437 -1.523 4.308
 -1.421 -1.52 4.303
 -1.408 -1.52 4.308
 -1.394 -1.52 4.31
 -1.381 -1.52 4.316
 -1.366 -1.518 4.313
 -1.352 -1.518 4.315
 -1.336 -1.514 4.309
 -1.322 -1.514 4.311
 -1.307 -1.512 4.309
 -1.293 -1.512 4.312
 -1.278 -1.509 4.308
 -1.263 -1.507 4.305
 -1.248 -1.505 4.303
 -1.235 -1.506 4.306
 -1.22 -1.504 4.306
 -1.208 -1.506 4.314
 -1.195 -1.506 4.316
 -1.18 -1.504 4.314
 -1.165 -1.502 4.311
 -1.15 -1.499 4.305
 -1.133 -1.494 4.293
 -1.119 -1.493 4.293
 -1.106 -1.494 4.299
 -1.092 -1.493 4.299
 -1.08 -1.494 4.303
 -1.067 -1.494 4.308
 -1.052 -1.492 4.302
 -1.036 -1.488 4.296
 -1.022 -1.487 4.294
 -1.009 -1.487 4.298
 -0.995 -1.486 4.297
 -0.983 -1.487 4.301
 -0.969 -1.486 4.3
 -0.954 -1.484 4.297
 -0.94 -1.482 4.293
 -0.928 -1.483 4.298
 -0.914 -1.481 4.296
 -0.899 -1.479 4.293
 -0.886 -1.48 4.296
 -0.872 -1.478 4.292
 -0.858 -1.475 4.287
 -0.845 -1.475 4.289
 -0.832 -1.476 4.294
 -0.818 -1.475 4.291
 -0.805 -1.475 4.293
 -0.791 -1.473 4.29
 -0.778 -1.473 4.291
 -0.765 -1.473 4.293
 -0.752 -1.472 4.293
 -0.739 -1.472 4.293
 -0.725 -1.47 4.291
 -0.711 -1.468 4.287
 -0.697 -1.466 4.282
 -0.685 -1.467 4.285
 -0.671 -1.464 4.279
 -0.658 -1.465 4.284
 -0.645 -1.465 4.283
 -0.632 -1.465 4.286
 -0.619 -1.463 4.282
 -0.606 -1.465 4.288
 -0.594 -1.465 4.291
 -0.581 -1.466 4.293
 -0.568 -1.465 4.291
 -0.555 -1.465 4.292
 -0.542 -1.464 4.292
 -0.529 -1.464 4.292
 -0.515 -1.462 4.289
 -0.502 -1.462 4.29
 -0.489 -1.46 4.285
 -0.476 -1.461 4.287
 -0.462 -1.458 4.28
 -0.45 -1.458 4.282
 -0.437 -1.458 4.284
 -0.424 -1.458 4.285
 -0.411 -1.458 4.284
 -0.398 -1.458 4.284
 -0.385 -1.458 4.284
 -0.372 -1.455 4.278
 -0.359 -1.456 4.281
 -0.346 -1.453 4.273
 -0.333 -1.452 4.272
 -0.32 -1.451 4.27
 -0.307 -1.452 4.271
 -0.294 -1.452 4.271
 -0.282 -1.451 4.271
 -0.269 -1.452 4.272
 -0.256 -1.451 4.272
 -0.243 -1.451 4.27
 -0.23 -1.449 4.266
 -0.218 -1.45 4.268
 -0.205 -1.451 4.272
 -0.192 -1.451 4.273
 -0.18 -1.452 4.275
 -0.167 -1.452 4.277
 -0.154 -1.45 4.272
 -0.141 -1.451 4.273
 -0.129 -1.45 4.271
 -0.116 -1.45 4.27
 -0.103 -1.45 4.271
 -0.09 -1.451 4.274
 -0.078 -1.45 4.27
 -0.065 -1.45 4.272
 -0.052 -1.45 4.271
 -0.039 -1.45 4.27
 -0.027 -1.449 4.269
 -0.014 -1.447 4.263
 -0.001 -1.446 4.26
 0.01 -1.446 4.258
 0.023 -1.445 4.254
 0.036 -1.445 4.254
 0.048 -1.445 4.256
 0.061 -1.446 4.257
 0.074 -1.446 4.258
 0.086 -1.447 4.259
 0.099 -1.448 4.262
 0.112 -1.449 4.264
 0.125 -1.447 4.26
 0.137 -1.449 4.264
 0.15 -1.448 4.261
 0.162 -1.446 4.255
 0.175 -1.447 4.257
 0.188 -1.45 4.263
 0.201 -1.449 4.261
 0.214 -1.45 4.265
 0.227 -1.451 4.267
 0.239 -1.452 4.267
 0.252 -1.451 4.264
 0.265 -1.451 4.263
 0.277 -1.451 4.263
 0.29 -1.449 4.256
 0.302 -1.447 4.249
 0.315 -1.447 4.248
 0.327 -1.447 4.248
 0.34 -1.448 4.247
 0.353 -1.45 4.253
 0.366 -1.451 4.256
 0.379 -1.451 4.253
 0.391 -1.449 4.248
 0.404 -1.451 4.251
 0.417 -1.452 4.253
 0.43 -1.453 4.256
 0.444 -1.455 4.261
 0.456 -1.455 4.26
 0.469 -1.454 4.254
 0.481 -1.454 4.253
 0.494 -1.453 4.248
 0.506 -1.452 4.244
 0.519 -1.454 4.248
 0.532 -1.454 4.248
 0.545 -1.454 4.247
 0.558 -1.455 4.246
 0.571 -1.457 4.251
 0.585 -1.459 4.254
 0.597 -1.458 4.252
 0.609 -1.456 4.245
 0.623 -1.458 4.247
 0.635 -1.456 4.242
 0.647 -1.454 4.233
 0.66 -1.457 4.238
 0.674 -1.459 4.243
 0.687 -1.46 4.245
 0.701 -1.461 4.246
 0.715 -1.463 4.251
 0.727 -1.463 4.248
 0.741 -1.465 4.251
 0.754 -1.466 4.253
 0.767 -1.465 4.248
 0.78 -1.467 4.251
 0.793 -1.467 4.249
 0.806 -1.467 4.247
 0.818 -1.466 4.242
 0.832 -1.469 4.247
 0.844 -1.467 4.24
 0.857 -1.467 4.237
 0.87 -1.467 4.235
 0.883 -1.467 4.234
 0.895 -1.467 4.229
 0.911 -1.471 4.239
 0.925 -1.474 4.244
 0.938 -1.474 4.242
 0.951 -1.474 4.24
 0.965 -1.476 4.244
 0.977 -1.475 4.238
 0.99 -1.474 4.233
 1.003 -1.475 4.233
 1.018 -1.478 4.238
 1.032 -1.479 4.238
 1.045 -1.48 4.239
 1.061 -1.484 4.245
 1.075 -1.486 4.25
 1.089 -1.487 4.25
 1.102 -1.488 4.247
 1.114 -1.487 4.242
 1.126 -1.485 4.234
 1.139 -1.485 4.23
 1.152 -1.485 4.227
 1.166 -1.487 4.229
 1.181 -1.489 4.232
 1.195 -1.49 4.232
 1.208 -1.49 4.23
 1.222 -1.491 4.228
 1.234 -1.491 4.224
 1.248 -1.492 4.224
 1.263 -1.494 4.226
 1.277 -1.495 4.226
 1.291 -1.497 4.226
 1.305 -1.498 4.227
 1.319 -1.499 4.226
 1.333 -1.5 4.223
 1.346 -1.499 4.219
 1.361 -1.502 4.223
 1.374 -1.502 4.22
 1.388 -1.503 4.217
 1.403 -1.505 4.218
 1.418 -1.507 4.22
 1.432 -1.508 4.219
 1.447 -1.51 4.22
 1.461 -1.511 4.221
 1.474 -1.511 4.215
 1.488 -1.512 4.214
 1.5 -1.511 4.206
 1.515 -1.513 4.207
 1.531 -1.515 4.209
 1.546 -1.517 4.21
 1.56 -1.518 4.208
 1.577 -1.521 4.213
 1.589 -1.521 4.208
 1.602 -1.52 4.201
 1.617 -1.522 4.202
 1.631 -1.523 4.199
 1.645 -1.523 4.196
 1.66 -1.525 4.196
 1.674 -1.526 4.194
 1.688 -1.527 4.19
 1.703 -1.528 4.188
 1.715 -1.527 4.182
 1.728 -1.527 4.176
 1.743 -1.529 4.175
 1.756 -1.528 4.168
 1.769 -1.528 4.163
 1.784 -1.529 4.161
 1.799 -1.531 4.16
 1.813 -1.532 4.158
 1.826 -1.531 4.151
 1.837 -1.53 4.142
 1.847 -1.527 4.128
 1.852 -1.52 4.105
 1.859 -1.515 4.085
 1.869 -1.513 4.074
 1.879 -1.51 4.06
 1.887 -1.506 4.043
 1.895 -1.502 4.028
 1.897 -1.493 3.999
 1.9 -1.485 3.972
 1.906 -1.48 3.952
 1.908 -1.472 3.924
 1.916 -1.468 3.909
 0 0 0
 0 0 0
 0 0 0
 0 0 0
 0 0 0
 0 0 0
 0 0 0
 0 0 0
 0 0 0
 0 0 0
 0 0 0
 0 0 0
 0 0 0
 0 0 0
 0 0 0
 0 0 0
 0 0 0
 0 0 0
 0 0 0
 1.789 -1.211 3.12
 1.813 -1.22 3.138
 1.826 -1.222 3.136
 1.836 -1.221 3.13
 1.843 -1.219 3.119
 1.851 -1.218 3.109
 1.847 -1.208 3.079
 1.863 -1.212 3.082
 1.81 -1.171 2.972
 -2.447 -1.585 4.169
 0 0 0
 -2.431 -1.593 4.205
 -2.41 -1.589 4.201
 -2.4 -1.592 4.216
 -2.388 -1.593 4.226
 -2.359 -1.583 4.207
 -2.354 -1.589 4.23
 -2.356 -1.6 4.265
 -2.342 -1.601 4.273
 -2.327 -1.6 4.279
 -2.314 -1.601 4.287
 -2.297 -1.6 4.291
 -2.273 -1.593 4.278
 -2.256 -1.591 4.279
 -2.242 -1.591 4.286
 -2.222 -1.587 4.282
 -2.21 -1.588 4.292
 -2.195 -1.588 4.297
 -2.184 -1.59 4.309
 -2.165 -1.587 4.306
 -2.148 -1.585 4.306
 -2.128 -1.58 4.301
 -2.114 -1.581 4.308
 -2.096 -1.578 4.305
 -2.081 -1.577 4.309
 -2.067 -1.577 4.316
 -2.049 -1.574 4.313
 -2.028 -1.569 4.304
 -2.009 -1.565 4.299
 -1.992 -1.563 4.298
 -1.975 -1.56 4.296
 -1.961 -1.56 4.302
 -1.949 -1.562 4.313
 -1.933 -1.561 4.314
 -1.919 -1.561 4.319
 -1.905 -1.56 4.323
 -1.89 -1.56 4.327
 -1.873 -1.557 4.325
 -1.859 -1.557 4.329
 -1.841 -1.554 4.325
 -1.826 -1.553 4.328
 -1.808 -1.549 4.322
 -1.791 -1.547 4.321
 -1.776 -1.545 4.322
 -1.763 -1.546 4.329
 -1.747 -1.544 4.328
 -1.732 -1.543 4.329
 -1.716 -1.541 4.329
 -1.699 -1.539 4.326
 -1.683 -1.537 4.325
 -1.666 -1.533 4.32
 -1.651 -1.532 4.32
 -1.636 -1.531 4.323
 -1.621 -1.53 4.322
 -1.602 -1.525 4.314
 -1.59 -1.526 4.321
 -1.574 -1.524 4.319
 -1.558 -1.522 4.316
 -1.542 -1.519 4.313
 -1.527 -1.518 4.315
 -1.511 -1.515 4.31
 -1.497 -1.515 4.312
 -1.483 -1.515 4.316
 -1.466 -1.511 4.31
 -1.45 -1.509 4.307
 -1.436 -1.508 4.308
 -1.42 -1.506 4.305
 -1.407 -1.505 4.308
 -1.394 -1.506 4.314
 -1.381 -1.507 4.32
 -1.366 -1.505 4.319
 -1.352 -1.505 4.32
 -1.336 -1.501 4.313
 -1.321 -1.5 4.312
 -1.306 -1.498 4.31
 -1.292 -1.497 4.311
 -1.277 -1.495 4.31
 -1.262 -1.493 4.306
 -1.248 -1.493 4.308
 -1.234 -1.492 4.31
 -1.219 -1.49 4.306
 -1.206 -1.49 4.311
 -1.194 -1.492 4.319
 -1.179 -1.489 4.313
 -1.164 -1.488 4.312
 -1.15 -1.486 4.311
 -1.133 -1.482 4.301
 -1.118 -1.48 4.297
 -1.105 -1.48 4.3
 -1.092 -1.479 4.301
 -1.079 -1.479 4.304
 -1.066 -1.48 4.308
 -1.051 -1.478 4.304
 -1.036 -1.476 4.301
 -1.022 -1.474 4.299
 -1.009 -1.474 4.3
 -0.994 -1.471 4.296
 -0.981 -1.472 4.299
 -0.967 -1.47 4.295
 -0.952 -1.467 4.291
 -0.938 -1.466 4.288
 -0.926 -1.467 4.294
 -0.913 -1.467 4.296
 -0.899 -1.466 4.295
 -0.886 -1.466 4.297
 -0.872 -1.465 4.297
 -0.858 -1.463 4.293
 -0.844 -1.462 4.291
 -0.832 -1.462 4.295
 -0.818 -1.462 4.295
 -0.805 -1.462 4.297
 -0.791 -1.46 4.292
 -0.778 -1.459 4.293
 -0.765 -1.459 4.295
 -0.752 -1.459 4.296
 -0.739 -1.458 4.295
 -0.725 -1.457 4.293
 -0.712 -1.456 4.292
 -0.697 -1.453 4.286
 -0.684 -1.452 4.285
 -0.67 -1.45 4.278
 -0.658 -1.451 4.284
 -0.644 -1.45 4.282
 -0.632 -1.451 4.287
 -0.618 -1.45 4.284
 -0.606 -1.452 4.291
 -0.593 -1.452 4.292
 -0.581 -1.452 4.296
 -0.567 -1.45 4.291
 -0.554 -1.45 4.29
 -0.541 -1.449 4.29
 -0.528 -1.45 4.292
 -0.514 -1.447 4.286
 -0.502 -1.449 4.291
 -0.489 -1.448 4.289
 -0.476 -1.448 4.292
 -0.463 -1.446 4.287
 -0.45 -1.447 4.291
 -0.437 -1.447 4.292
 -0.424 -1.447 4.293
 -0.412 -1.447 4.293
 -0.398 -1.446 4.292
 -0.385 -1.446 4.291
 -0.372 -1.443 4.284
 -0.359 -1.444 4.287
 -0.346 -1.44 4.276
 -0.333 -1.439 4.273
 -0.319 -1.437 4.267
 -0.307 -1.437 4.269
 -0.294 -1.437 4.27
 -0.281 -1.438 4.273
 -0.269 -1.438 4.274
 -0.256 -1.439 4.278
 -0.243 -1.439 4.278
 -0.23 -1.437 4.273
 -0.218 -1.438 4.274
 -0.205 -1.439 4.279
 -0.192 -1.438 4.275
 -0.179 -1.437 4.273
 -0.167 -1.437 4.274
 -0.154 -1.435 4.268
 -0.141 -1.434 4.266
 -0.128 -1.434 4.265
 -0.115 -1.434 4.265
 -0.103 -1.434 4.266
 -0.09 -1.436 4.271
 -0.077 -1.435 4.269
 -0.065 -1.437 4.274
 -0.052 -1.438 4.276
 -0.039 -1.438 4.277
 -0.027 -1.438 4.276
 -0.014 -1.436 4.272
 -0.001 -1.436 4.271
 0.01 -1.436 4.271
 0.023 -1.434 4.265
 0.036 -1.434 4.263
 0.049 -1.434 4.264
 0.061 -1.433 4.259
 0.074 -1.431 4.255
 0.086 -1.433 4.258
 0.099 -1.434 4.261
 0.112 -1.435 4.265
 0.125 -1.434 4.263
 0.137 -1.436 4.268
 0.15 -1.434 4.261
 0.162 -1.433 4.256
 0.175 -1.433 4.257
 0.188 -1.435 4.26
 0.201 -1.435 4.26
 0.214 -1.436 4.263
 0.226 -1.437 4.267
 0.239 -1.437 4.264
 0.252 -1.437 4.263
 0.264 -1.436 4.261
 0.277 -1.438 4.264
 0.29 -1.436 4.257
 0.302 -1.434 4.253
 0.315 -1.434 4.252
 0.327 -1.434 4.251
 0.34 -1.434 4.249
 0.353 -1.436 4.255
 0.366 -1.438 4.258
 0.379 -1.438 4.257
 0.391 -1.437 4.252
 0.404 -1.439 4.257
 0.417 -1.439 4.256
 0.43 -1.438 4.253
 0.443 -1.44 4.258
 0.456 -1.442 4.263
 0.469 -1.441 4.256
 0.481 -1.441 4.257
 0.494 -1.441 4.256
 0.507 -1.441 4.255
 0.52 -1.442 4.254
 0.533 -1.442 4.255
 0.546 -1.444 4.257
 0.559 -1.444 4.256
 0.572 -1.444 4.255
 0.584 -1.445 4.255
 0.597 -1.444 4.252
 0.609 -1.441 4.242
 0.622 -1.443 4.245
 0.634 -1.442 4.24
 0.646 -1.441 4.236
 0.66 -1.443 4.24
 0.674 -1.445 4.243
 0.687 -1.447 4.246
 0.701 -1.448 4.248
 0.715 -1.451 4.255
 0.728 -1.451 4.254
 0.742 -1.454 4.259
 0.754 -1.453 4.255
 0.766 -1.451 4.247
 0.779 -1.451 4.245
 0.791 -1.451 4.243
 0.804 -1.451 4.241
 0.818 -1.452 4.242
 0.832 -1.454 4.246
 0.844 -1.453 4.241
 0.856 -1.453 4.237
 0.869 -1.453 4.234
 0.882 -1.452 4.231
 0.895 -1.453 4.23
 0.909 -1.456 4.236
 0.923 -1.458 4.24
 0.937 -1.459 4.24
 0.95 -1.459 4.238
 0.964 -1.461 4.242
 0.977 -1.462 4.24
 0.99 -1.461 4.236
 1.003 -1.462 4.234
 1.018 -1.465 4.24
 1.032 -1.467 4.243
 1.045 -1.467 4.243
 1.059 -1.469 4.244
 1.074 -1.472 4.249
 1.087 -1.472 4.247
 1.099 -1.47 4.24
 1.112 -1.47 4.235
 1.125 -1.471 4.234
 1.138 -1.47 4.229
 1.151 -1.471 4.229
 1.166 -1.474 4.233
 1.181 -1.475 4.235
 1.194 -1.476 4.234
 1.208 -1.477 4.232
 1.221 -1.478 4.231
 1.233 -1.476 4.224
 1.248 -1.478 4.225
 1.263 -1.481 4.229
 1.277 -1.482 4.229
 1.29 -1.482 4.226
 1.305 -1.485 4.23
 1.319 -1.485 4.228
 1.332 -1.486 4.225
 1.346 -1.486 4.224
 1.362 -1.49 4.229
 1.375 -1.489 4.224
 1.389 -1.491 4.224
 1.403 -1.491 4.222
 1.417 -1.493 4.223
 1.431 -1.494 4.221
 1.447 -1.497 4.226
 1.461 -1.497 4.222
 1.473 -1.497 4.217
 1.488 -1.499 4.218
 1.501 -1.499 4.213
 1.514 -1.499 4.209
 1.531 -1.502 4.214
 1.547 -1.505 4.218
 1.561 -1.506 4.215
 1.576 -1.508 4.217
 1.59 -1.508 4.213
 1.602 -1.507 4.205
 1.618 -1.509 4.207
 1.631 -1.509 4.203
 1.646 -1.511 4.202
 1.661 -1.512 4.202
 1.675 -1.514 4.2
 1.688 -1.513 4.194
 1.702 -1.513 4.19
 1.714 -1.512 4.182
 1.728 -1.513 4.179
 1.742 -1.514 4.177
 1.756 -1.514 4.173
 1.77 -1.516 4.17
 1.785 -1.517 4.17
 1.8 -1.519 4.168
 1.814 -1.519 4.165
 1.828 -1.52 4.161
 1.84 -1.519 4.152
 1.851 -1.516 4.141
 1.856 -1.51 4.117
 1.863 -1.505 4.098
 1.872 -1.502 4.085
 1.881 -1.498 4.069
 1.887 -1.493 4.049
 1.896 -1.49 4.035
 1.9 -1.483 4.01
 1.901 -1.473 3.979
 1.902 -1.464 3.949
 1.901 -1.453 3.914
 0 0 0
 0 0 0
 0 0 0
 0 0 0
 0 0 0
 0 0 0
 0 0 0
 0 0 0
 0 0 0
 0 0 0
 0 0 0
 0 0 0
 0 0 0
 0 0 0
 0 0 0
 0 0 0
 0 0 0
 0 0 0
 0 0 0
 0 0 0
 0 0 0
 1.815 -1.211 3.145
 1.83 -1.214 3.147
 1.84 -1.214 3.141
 1.848 -1.212 3.131
 1.854 -1.209 3.117
 1.851 -1.2 3.088
 1.822 -1.175 3.017
 1.839 -1.179 3.024
 -2.457 -1.577 4.192
 0 0 0
 -2.443 -1.586 4.231
 -2.436 -1.591 4.251
 -2.429 -1.596 4.27
 -2.419 -1.599 4.285
 -2.404 -1.599 4.293
 -2.391 -1.6 4.301
 -2.38 -1.603 4.315
 -2.359 -1.598 4.31
 -2.345 -1.598 4.317
 -2.323 -1.593 4.31
 -2.306 -1.592 4.312
 -2.281 -1.584 4.298
 -2.264 -1.582 4.3
 -2.249 -1.581 4.304
 -2.229 -1.578 4.3
 -2.215 -1.578 4.307
 -2.2 -1.577 4.312
 -2.187 -1.578 4.32
 -2.167 -1.574 4.316
 -2.153 -1.574 4.321
 -2.133 -1.57 4.316
 -2.117 -1.569 4.318
 -2.099 -1.566 4.316
 -2.084 -1.565 4.321
 -2.069 -1.564 4.323
 -2.051 -1.562 4.321
 -2.033 -1.558 4.318
 -2.012 -1.553 4.31
 -1.994 -1.551 4.308
 -1.977 -1.548 4.306
 -1.964 -1.549 4.313
 -1.95 -1.549 4.32
 -1.935 -1.548 4.323
 -1.92 -1.547 4.326
 -1.907 -1.548 4.333
 -1.891 -1.547 4.334
 -1.875 -1.545 4.333
 -1.86 -1.544 4.337
 -1.843 -1.542 4.335
 -1.827 -1.539 4.333
 -1.809 -1.536 4.329
 -1.793 -1.534 4.329
 -1.777 -1.533 4.33
 -1.763 -1.533 4.334
 -1.748 -1.532 4.335
 -1.734 -1.531 4.338
 -1.716 -1.528 4.333
 -1.699 -1.525 4.33
 -1.685 -1.524 4.333
 -1.667 -1.52 4.326
 -1.651 -1.518 4.325
 -1.638 -1.519 4.332
 -1.623 -1.518 4.331
 -1.604 -1.513 4.322
 -1.59 -1.512 4.325
 -1.572 -1.509 4.319
 -1.555 -1.506 4.314
 -1.539 -1.503 4.311
 -1.524 -1.502 4.311
 -1.509 -1.5 4.309
 -1.494 -1.499 4.31
 -1.481 -1.499 4.315
 -1.466 -1.497 4.313
 -1.45 -1.495 4.31
 -1.435 -1.494 4.31
 -1.421 -1.493 4.311
 -1.406 -1.491 4.311
 -1.392 -1.491 4.313
 -1.379 -1.491 4.316
 -1.365 -1.49 4.318
 -1.351 -1.49 4.32
 -1.334 -1.486 4.312
 -1.32 -1.485 4.313
 -1.305 -1.483 4.312
 -1.29 -1.482 4.309
 -1.274 -1.479 4.305
 -1.26 -1.478 4.306
 -1.247 -1.478 4.307
 -1.233 -1.477 4.309
 -1.218 -1.475 4.307
 -1.206 -1.477 4.316
 -1.194 -1.478 4.32
 -1.179 -1.476 4.317
 -1.164 -1.474 4.316
 -1.149 -1.472 4.313
 -1.133 -1.469 4.305
 -1.119 -1.467 4.303
 -1.106 -1.467 4.306
 -1.091 -1.465 4.303
 -1.078 -1.466 4.308
 -1.065 -1.466 4.31
 -1.05 -1.463 4.305
 -1.036 -1.461 4.301
 -1.022 -1.461 4.303
 -1.008 -1.46 4.301
 -0.993 -1.457 4.295
 -0.98 -1.456 4.297
 -0.966 -1.455 4.296
 -0.952 -1.453 4.292
 -0.938 -1.453 4.293
 -0.925 -1.453 4.297
 -0.912 -1.453 4.299
 -0.899 -1.452 4.298
 -0.886 -1.453 4.301
 -0.872 -1.451 4.299
 -0.858 -1.45 4.297
 -0.844 -1.449 4.295
 -0.831 -1.448 4.295
 -0.818 -1.447 4.295
 -0.804 -1.447 4.296
 -0.791 -1.446 4.295
 -0.778 -1.446 4.298
 -0.765 -1.446 4.298
 -0.752 -1.446 4.3
 -0.738 -1.444 4.297
 -0.724 -1.443 4.293
 -0.711 -1.443 4.295
 -0.698 -1.441 4.292
 -0.684 -1.439 4.286
 -0.671 -1.439 4.288
 -0.658 -1.44 4.293
 -0.645 -1.439 4.29
 -0.632 -1.439 4.291
 -0.619 -1.438 4.291
 -0.605 -1.437 4.289
 -0.592 -1.437 4.29
 -0.579 -1.436 4.288
 -0.566 -1.435 4.287
 -0.553 -1.434 4.286
 -0.54 -1.435 4.289
 -0.527 -1.435 4.291
 -0.514 -1.434 4.29
 -0.502 -1.435 4.293
 -0.489 -1.434 4.291
 -0.476 -1.434 4.292
 -0.462 -1.432 4.287
 -0.449 -1.432 4.288
 -0.437 -1.432 4.29
 -0.424 -1.433 4.293
 -0.411 -1.434 4.295
 -0.398 -1.433 4.295
 -0.386 -1.434 4.297
 -0.372 -1.432 4.293
 -0.36 -1.433 4.295
 -0.346 -1.429 4.284
 -0.333 -1.427 4.281
 -0.32 -1.425 4.274
 -0.307 -1.424 4.271
 -0.294 -1.424 4.271
 -0.281 -1.424 4.274
 -0.268 -1.424 4.274
 -0.256 -1.426 4.279
 -0.243 -1.427 4.282
 -0.23 -1.425 4.278
 -0.218 -1.425 4.278
 -0.205 -1.426 4.282
 -0.192 -1.425 4.279
 -0.179 -1.423 4.272
 -0.166 -1.424 4.275
 -0.154 -1.423 4.272
 -0.141 -1.422 4.271
 -0.128 -1.421 4.268
 -0.115 -1.422 4.271
 -0.103 -1.422 4.27
 -0.09 -1.423 4.274
 -0.077 -1.423 4.273
 -0.065 -1.424 4.277
 -0.052 -1.425 4.279
 -0.039 -1.425 4.278
 -0.027 -1.424 4.276
 -0.014 -1.422 4.269
 -0.001 -1.422 4.269
 0.011 -1.422 4.271
 0.023 -1.421 4.267
 0.036 -1.421 4.267
 0.049 -1.422 4.27
 0.061 -1.421 4.266
 0.074 -1.419 4.259
 0.086 -1.419 4.258
 0.099 -1.419 4.259
 0.112 -1.42 4.263
 0.125 -1.42 4.26
 0.137 -1.422 4.266
 0.15 -1.421 4.263
 0.163 -1.421 4.263
 0.175 -1.421 4.263
 0.188 -1.423 4.266
 0.201 -1.423 4.265
 0.214 -1.422 4.264
 0.226 -1.422 4.263
 0.239 -1.421 4.26
 0.251 -1.421 4.259
 0.264 -1.421 4.257
 0.277 -1.423 4.262
 0.289 -1.422 4.257
 0.302 -1.421 4.256
 0.315 -1.422 4.256
 0.327 -1.422 4.254
 0.34 -1.422 4.255
 0.354 -1.425 4.263
 0.366 -1.425 4.262
 0.379 -1.424 4.259
 0.391 -1.424 4.257
 0.405 -1.426 4.26
 0.417 -1.426 4.259
 0.43 -1.425 4.255
 0.443 -1.427 4.261
 0.456 -1.429 4.264
 0.468 -1.426 4.255
 0.481 -1.426 4.254
 0.494 -1.427 4.255
 0.506 -1.427 4.254
 0.519 -1.426 4.25
 0.532 -1.427 4.251
 0.545 -1.429 4.254
 0.558 -1.429 4.253
 0.571 -1.429 4.252
 0.583 -1.429 4.251
 0.597 -1.431 4.254
 0.608 -1.428 4.242
 0.621 -1.428 4.243
 0.634 -1.428 4.24
 0.647 -1.429 4.241
 0.66 -1.429 4.24
 0.673 -1.432 4.245
 0.687 -1.434 4.25
 0.701 -1.435 4.253
 0.714 -1.437 4.256
 0.727 -1.437 4.255
 0.741 -1.44 4.259
 0.754 -1.439 4.257
 0.766 -1.438 4.25
 0.778 -1.437 4.245
 0.791 -1.437 4.244
 0.804 -1.438 4.244
 0.817 -1.439 4.244
 0.831 -1.44 4.244
 0.843 -1.44 4.242
 0.856 -1.44 4.24
 0.868 -1.439 4.234
 0.881 -1.438 4.23
 0.894 -1.44 4.232
 0.909 -1.442 4.236
 0.923 -1.444 4.24
 0.937 -1.446 4.244
 0.951 -1.448 4.246
 0.965 -1.45 4.249
 0.979 -1.451 4.25
 0.991 -1.45 4.246
 1.004 -1.45 4.242
 1.018 -1.452 4.244
 1.031 -1.453 4.244
 1.045 -1.453 4.243
 1.058 -1.454 4.242
 1.073 -1.456 4.246
 1.086 -1.456 4.244
 1.098 -1.456 4.239
 1.11 -1.455 4.232
 1.124 -1.456 4.234
 1.138 -1.457 4.233
 1.151 -1.457 4.231
 1.165 -1.459 4.233
 1.18 -1.461 4.236
 1.194 -1.463 4.236
 1.207 -1.462 4.232
 1.22 -1.463 4.231
 1.232 -1.462 4.224
 1.246 -1.463 4.224
 1.26 -1.464 4.223
 1.274 -1.466 4.224
 1.288 -1.467 4.223
 1.304 -1.47 4.229
 1.318 -1.471 4.23
 1.332 -1.472 4.227
 1.345 -1.472 4.225
 1.361 -1.476 4.231
 1.374 -1.475 4.225
 1.388 -1.476 4.224
 1.403 -1.478 4.226
 1.417 -1.479 4.225
 1.43 -1.48 4.222
 1.447 -1.483 4.228
 1.46 -1.483 4.224
 1.472 -1.482 4.216
 1.487 -1.484 4.218
 1.5 -1.484 4.214
 1.514 -1.484 4.211
 1.531 -1.488 4.217
 1.547 -1.491 4.221
 1.561 -1.492 4.219
 1.575 -1.493 4.217
 1.588 -1.493 4.212
 1.6 -1.492 4.205
 1.617 -1.495 4.208
 1.63 -1.495 4.205
 1.646 -1.498 4.207
 1.662 -1.5 4.208
 1.677 -1.502 4.208
 1.689 -1.5 4.2
 1.702 -1.501 4.196
 1.713 -1.499 4.185
 1.726 -1.498 4.179
 1.74 -1.499 4.175
 1.754 -1.5 4.173
 1.768 -1.5 4.168
 1.783 -1.502 4.168
 1.799 -1.504 4.169
 1.813 -1.504 4.165
 1.827 -1.505 4.161
 1.841 -1.506 4.158
 1.854 -1.505 4.152
 1.86 -1.499 4.13
 1.867 -1.494 4.11
 1.875 -1.491 4.094
 1.884 -1.487 4.079
 1.887 -1.48 4.053
 1.895 -1.475 4.036
 1.904 -1.473 4.023
 1.907 -1.465 3.995
 0 0 0
 0 0 0
 0 0 0
 0 0 0
 0 0 0
 0 0 0
 0 0 0
 0 0 0
 0 0 0
 0 0 0
 0 0 0
 0 0 0
 0 0 0
 0 0 0
 0 0 0
 0 0 0
 0 0 0
 0 0 0
 0 0 0
 0 0 0
 0 0 0
 0 0 0
 0 0 0
 1.805 -1.193 3.131
 1.823 -1.199 3.139
 1.838 -1.202 3.141
 1.847 -1.2 3.132
 1.852 -1.197 3.117
 1.851 -1.19 3.093
 1.872 -1.196 3.105
 1.823 -1.159 3.001
 -2.518 -1.602 4.302
 0 0 0
 -2.455 -1.58 4.257
 -2.452 -1.587 4.284
 -2.445 -1.592 4.304
 -2.446 -1.602 4.339
 -2.437 -1.606 4.356
 -2.409 -1.598 4.339
 -2.394 -1.597 4.344
 -2.37 -1.591 4.335
 -2.351 -1.588 4.334
 -2.329 -1.583 4.326
 -2.313 -1.582 4.33
 -2.289 -1.575 4.318
 -2.272 -1.573 4.319
 -2.254 -1.571 4.319
 -2.233 -1.566 4.312
 -2.219 -1.566 4.319
 -2.204 -1.566 4.325
 -2.192 -1.568 4.335
 -2.173 -1.564 4.332
 -2.158 -1.563 4.335
 -2.138 -1.559 4.33
 -2.119 -1.556 4.328
 -2.1 -1.552 4.322
 -2.086 -1.553 4.329
 -2.072 -1.553 4.336
 -2.054 -1.55 4.333
 -2.036 -1.547 4.33
 -2.016 -1.543 4.324
 -1.994 -1.537 4.312
 -1.977 -1.534 4.31
 -1.964 -1.535 4.318
 -1.95 -1.535 4.324
 -1.936 -1.535 4.329
 -1.923 -1.535 4.336
 -1.907 -1.535 4.338
 -1.891 -1.532 4.337
 -1.873 -1.529 4.334
 -1.858 -1.528 4.335
 -1.842 -1.527 4.336
 -1.826 -1.525 4.337
 -1.809 -1.523 4.335
 -1.795 -1.522 4.339
 -1.781 -1.522 4.342
 -1.765 -1.52 4.342
 -1.749 -1.518 4.342
 -1.734 -1.518 4.344
 -1.716 -1.514 4.338
 -1.698 -1.51 4.331
 -1.685 -1.511 4.338
 -1.667 -1.507 4.332
 -1.651 -1.505 4.33
 -1.637 -1.505 4.334
 -1.622 -1.504 4.334
 -1.604 -1.5 4.327
 -1.59 -1.499 4.33
 -1.573 -1.496 4.324
 -1.556 -1.493 4.32
 -1.541 -1.492 4.321
 -1.525 -1.489 4.316
 -1.508 -1.486 4.311
 -1.493 -1.484 4.312
 -1.48 -1.485 4.317
 -1.465 -1.483 4.314
 -1.45 -1.481 4.314
 -1.437 -1.482 4.32
 -1.423 -1.481 4.321
 -1.407 -1.479 4.318
 -1.392 -1.478 4.317
 -1.378 -1.477 4.319
 -1.363 -1.475 4.317
 -1.35 -1.475 4.321
 -1.333 -1.471 4.313
 -1.318 -1.469 4.31
 -1.303 -1.468 4.309
 -1.289 -1.467 4.309
 -1.273 -1.464 4.304
 -1.26 -1.465 4.309
 -1.248 -1.466 4.316
 -1.234 -1.465 4.316
 -1.218 -1.462 4.311
 -1.205 -1.463 4.315
 -1.191 -1.462 4.316
 -1.176 -1.46 4.312
 -1.163 -1.459 4.314
