 1.401 -1.556 4.199
 1.415 -1.557 4.196
 1.431 -1.56 4.199
 1.443 -1.559 4.194
 1.457 -1.56 4.191
 1.473 -1.563 4.197
 1.488 -1.565 4.196
 1.501 -1.565 4.193
 1.516 -1.567 4.193
 1.531 -1.569 4.194
 1.543 -1.568 4.186
 1.556 -1.568 4.182
 1.571 -1.569 4.182
 1.586 -1.571 4.182
 1.602 -1.573 4.184
 1.616 -1.575 4.183
 1.631 -1.577 4.183
 1.645 -1.577 4.179
 1.657 -1.576 4.172
 1.671 -1.577 4.169
 1.684 -1.576 4.162
 1.7 -1.579 4.164
 1.713 -1.579 4.16
 1.726 -1.579 4.154
 1.74 -1.579 4.15
 1.754 -1.58 4.148
 1.766 -1.579 4.139
 1.78 -1.58 4.135
 1.796 -1.582 4.137
 1.809 -1.582 4.13
 1.821 -1.581 4.124
 1.833 -1.58 4.115
 1.841 -1.575 4.098
 1.85 -1.572 4.084
 1.858 -1.567 4.066
 1.865 -1.563 4.048
 1.869 -1.555 4.023
 1.877 -1.551 4.006
 1.882 -1.544 3.983
 1.885 -1.537 3.958
 1.886 -1.527 3.927
 1.892 -1.521 3.907
 1.895 -1.513 3.881
 1.893 -1.502 3.846
 1.897 -1.495 3.822
 1.902 -1.489 3.802
 1.904 -1.481 3.776
 1.907 -1.474 3.751
 0 0 0
 0 0 0
 0 0 0
 0 0 0
 0 0 0
 0 0 0
 0 0 0
 0 0 0
 0 0 0
 0 0 0
 0 0 0
 0 0 0
 0 0 0
 0 0 0
 0 0 0
 1.828 -1.281 3.173
 1.84 -1.282 3.17
 1.845 -1.278 3.156
 1.849 -1.273 3.138
 1.856 -1.271 3.126
 1.854 -1.262 3.099
 1.845 -1.249 3.061
 1.822 -1.227 3
 1.819 -1.218 2.973
 0 0 0
 -2.344 -1.581 4.005
 -2.371 -1.609 4.081
 -2.354 -1.607 4.084
 -2.337 -1.605 4.085
 -2.325 -1.606 4.094
 -2.312 -1.607 4.102
 -2.3 -1.608 4.113
 -2.281 -1.604 4.11
 -2.268 -1.605 4.119
 -2.254 -1.606 4.126
 -2.238 -1.604 4.128
 -2.223 -1.603 4.132
 -2.213 -1.606 4.146
 -2.198 -1.605 4.15
 -2.181 -1.603 4.151
 -2.169 -1.604 4.16
 -2.15 -1.6 4.156
 -2.137 -1.601 4.163
 -2.128 -1.604 4.179
 -2.113 -1.604 4.184
 -2.097 -1.603 4.186
 -2.09 -1.607 4.204
 -2.075 -1.607 4.209
 -2.06 -1.606 4.212
 -2.049 -1.609 4.225
 -2.033 -1.606 4.225
 -2.013 -1.602 4.218
 -1.999 -1.602 4.224
 -1.986 -1.602 4.231
 -1.97 -1.6 4.231
 -1.954 -1.599 4.232
 -1.94 -1.599 4.237
 -1.925 -1.598 4.241
 -1.912 -1.598 4.247
 -1.898 -1.598 4.252
 -1.887 -1.601 4.263
 -1.877 -1.604 4.278
 -1.861 -1.602 4.278
 -1.844 -1.599 4.275
 -1.832 -1.601 4.285
 -1.817 -1.6 4.286
 -1.797 -1.595 4.278
 -1.783 -1.594 4.281
 -1.765 -1.59 4.276
 -1.749 -1.589 4.277
 -1.734 -1.587 4.276
 -1.719 -1.586 4.279
 -1.704 -1.585 4.281
 -1.693 -1.587 4.291
 -1.676 -1.584 4.287
 -1.662 -1.584 4.29
 -1.647 -1.583 4.292
 -1.632 -1.581 4.292
 -1.613 -1.576 4.283
 -1.597 -1.574 4.282
 -1.583 -1.573 4.284
 -1.571 -1.575 4.292
 -1.556 -1.574 4.293
 -1.541 -1.573 4.294
 -1.527 -1.571 4.295
 -1.508 -1.566 4.285
 -1.488 -1.56 4.27
 -1.474 -1.559 4.271
 -1.462 -1.56 4.279
 -1.447 -1.558 4.278
 -1.432 -1.557 4.278
 -1.42 -1.559 4.286
 -1.405 -1.557 4.286
 -1.39 -1.555 4.284
 -1.376 -1.555 4.287
 -1.364 -1.556 4.293
 -1.35 -1.556 4.297
 -1.336 -1.555 4.298
 -1.323 -1.556 4.303
 -1.308 -1.554 4.301
 -1.294 -1.552 4.3
 -1.28 -1.551 4.301
 -1.266 -1.551 4.303
 -1.25 -1.548 4.298
 -1.236 -1.547 4.298
 -1.221 -1.545 4.295
 -1.205 -1.542 4.29
 -1.189 -1.538 4.282
 -1.175 -1.537 4.284
 -1.161 -1.536 4.284
 -1.148 -1.537 4.288
 -1.134 -1.535 4.285
 -1.12 -1.534 4.285
 -1.106 -1.533 4.284
 -1.093 -1.533 4.288
 -1.078 -1.531 4.284
 -1.066 -1.532 4.29
 -1.053 -1.533 4.295
 -1.04 -1.533 4.3
 -1.025 -1.531 4.294
 -1.013 -1.532 4.299
 -0.998 -1.529 4.295
 -0.984 -1.529 4.296
 -0.969 -1.525 4.287
 -0.956 -1.525 4.29
 -0.942 -1.523 4.287
 -0.929 -1.523 4.29
 -0.915 -1.522 4.288
 -0.901 -1.521 4.289
 -0.887 -1.519 4.285
 -0.874 -1.52 4.288
 -0.86 -1.518 4.285
 -0.847 -1.517 4.286
 -0.833 -1.516 4.284
 -0.82 -1.516 4.285
 -0.805 -1.513 4.281
 -0.792 -1.513 4.28
 -0.779 -1.512 4.281
 -0.766 -1.513 4.285
 -0.753 -1.513 4.286
 -0.74 -1.513 4.288
 -0.727 -1.513 4.289
 -0.712 -1.509 4.28
 -0.699 -1.508 4.278
 -0.687 -1.509 4.284
 -0.673 -1.508 4.282
 -0.66 -1.507 4.281
 -0.647 -1.508 4.284
 -0.634 -1.508 4.285
 -0.62 -1.505 4.279
 -0.606 -1.502 4.273
 -0.593 -1.502 4.274
 -0.581 -1.504 4.281
 -0.568 -1.504 4.281
 -0.555 -1.503 4.281
 -0.543 -1.505 4.287
 -0.53 -1.504 4.287
 -0.516 -1.502 4.281
 -0.502 -1.5 4.276
 -0.489 -1.5 4.277
 -0.476 -1.5 4.277
 -0.463 -1.499 4.276
 -0.45 -1.498 4.275
 -0.437 -1.497 4.274
 -0.424 -1.498 4.275
 -0.411 -1.496 4.272
 -0.398 -1.495 4.27
 -0.385 -1.494 4.267
 -0.372 -1.495 4.272
 -0.359 -1.492 4.264
 -0.346 -1.493 4.265
 -0.334 -1.493 4.267
 -0.321 -1.493 4.267
 -0.308 -1.492 4.266
 -0.295 -1.492 4.266
 -0.282 -1.49 4.262
 -0.269 -1.49 4.26
 -0.256 -1.49 4.261
 -0.244 -1.49 4.261
 -0.231 -1.489 4.261
 -0.218 -1.49 4.262
 -0.205 -1.491 4.266
 -0.193 -1.491 4.266
 -0.18 -1.49 4.264
 -0.167 -1.491 4.266
 -0.154 -1.489 4.263
 -0.142 -1.489 4.263
 -0.129 -1.489 4.262
 -0.116 -1.489 4.261
 -0.103 -1.489 4.262
 -0.091 -1.489 4.262
 -0.078 -1.488 4.259
 -0.065 -1.488 4.26
 -0.052 -1.488 4.26
 -0.04 -1.488 4.26
 -0.027 -1.488 4.26
 -0.014 -1.489 4.261
 -0.002 -1.489 4.262
 0.01 -1.489 4.262
 0.023 -1.489 4.26
 0.036 -1.49 4.264
 0.048 -1.491 4.266
 0.061 -1.49 4.264
 0.074 -1.49 4.262
 0.087 -1.491 4.266
 0.099 -1.49 4.264
 0.112 -1.489 4.259
 0.125 -1.49 4.263
 0.138 -1.492 4.267
 0.15 -1.49 4.261
 0.163 -1.492 4.265
 0.176 -1.491 4.262
 0.188 -1.489 4.256
 0.201 -1.488 4.254
 0.214 -1.489 4.255
 0.226 -1.489 4.252
 0.239 -1.49 4.255
 0.252 -1.491 4.257
 0.265 -1.491 4.259
 0.277 -1.491 4.257
 0.29 -1.49 4.251
 0.302 -1.489 4.249
 0.315 -1.489 4.248
 0.328 -1.491 4.252
 0.341 -1.491 4.25
 0.354 -1.492 4.254
 0.367 -1.494 4.259
 0.38 -1.494 4.257
 0.393 -1.494 4.255
 0.406 -1.495 4.257
 0.419 -1.497 4.263
 0.432 -1.497 4.259
 0.445 -1.498 4.262
 0.457 -1.495 4.253
 0.469 -1.495 4.252
 0.481 -1.493 4.243
 0.494 -1.493 4.244
 0.507 -1.493 4.24
 0.52 -1.496 4.248
 0.533 -1.496 4.247
 0.547 -1.498 4.251
 0.559 -1.497 4.248
 0.572 -1.498 4.248
 0.584 -1.497 4.243
 0.597 -1.497 4.243
 0.61 -1.498 4.243
 0.623 -1.497 4.237
 0.636 -1.498 4.238
 0.649 -1.499 4.242
 0.662 -1.499 4.24
 0.675 -1.5 4.239
 0.689 -1.502 4.243
 0.702 -1.502 4.242
 0.715 -1.503 4.241
 0.728 -1.504 4.244
 0.741 -1.504 4.24
 0.754 -1.504 4.239
 0.766 -1.503 4.235
 0.779 -1.503 4.233
 0.792 -1.505 4.234
 0.805 -1.505 4.232
 0.819 -1.506 4.234
 0.832 -1.507 4.234
 0.844 -1.506 4.23
 0.857 -1.506 4.226
 0.87 -1.507 4.228
 0.883 -1.506 4.222
 0.897 -1.509 4.228
 0.91 -1.51 4.227
 0.924 -1.512 4.23
 0.938 -1.514 4.233
 0.953 -1.516 4.237
 0.965 -1.515 4.23
 0.979 -1.517 4.236
 0.993 -1.519 4.237
 1.006 -1.519 4.235
 1.02 -1.521 4.236
 1.034 -1.522 4.238
 1.047 -1.523 4.236
 1.06 -1.522 4.231
 1.074 -1.524 4.234
 1.088 -1.525 4.234
 1.101 -1.525 4.232
 1.114 -1.526 4.229
 1.127 -1.526 4.226
 1.14 -1.525 4.222
 1.153 -1.525 4.219
 1.167 -1.527 4.221
 1.18 -1.527 4.217
 1.194 -1.529 4.219
 1.207 -1.528 4.213
 1.22 -1.529 4.213
 1.233 -1.529 4.209
 1.248 -1.531 4.212
 1.262 -1.532 4.21
 1.277 -1.535 4.214
 1.292 -1.538 4.218
 1.306 -1.538 4.216
 1.32 -1.539 4.215
 1.333 -1.539 4.211
 1.346 -1.539 4.207
 1.358 -1.538 4.201
 1.373 -1.541 4.205
 1.387 -1.541 4.201
 1.4 -1.542 4.199
 1.415 -1.543 4.199
 1.429 -1.545 4.2
 1.442 -1.544 4.194
 1.455 -1.545 4.191
 1.472 -1.548 4.197
 1.486 -1.55 4.196
 1.501 -1.551 4.195
 1.515 -1.552 4.194
 1.53 -1.555 4.196
 1.543 -1.554 4.19
 1.556 -1.554 4.186
 1.571 -1.556 4.186
 1.586 -1.557 4.186
 1.601 -1.56 4.187
 1.616 -1.561 4.187
 1.631 -1.563 4.186
 1.644 -1.563 4.182
 1.658 -1.564 4.179
 1.672 -1.565 4.176
 1.684 -1.564 4.169
 1.7 -1.565 4.168
 1.713 -1.565 4.163
 1.725 -1.565 4.157
 1.74 -1.566 4.154
 1.756 -1.568 4.156
 1.768 -1.567 4.148
 1.783 -1.569 4.147
 1.799 -1.571 4.147
 1.809 -1.569 4.137
 1.82 -1.567 4.126
 1.832 -1.566 4.117
 1.839 -1.56 4.097
 1.848 -1.557 4.084
 1.857 -1.553 4.069
 1.867 -1.55 4.055
 1.872 -1.544 4.034
 1.879 -1.539 4.014
 1.885 -1.533 3.993
 1.889 -1.527 3.971
 1.888 -1.515 3.935
 1.893 -1.509 3.914
 1.899 -1.504 3.894
 1.894 -1.49 3.853
 1.898 -1.483 3.83
 1.904 -1.478 3.81
 1.9 -1.465 3.771
 0 0 0
 0 0 0
 0 0 0
 0 0 0
 0 0 0
 0 0 0
 0 0 0
 0 0 0
 0 0 0
 0 0 0
 0 0 0
 0 0 0
 0 0 0
 0 0 0
 0 0 0
 0 0 0
 1.821 -1.265 3.165
 1.846 -1.275 3.185
 1.849 -1.27 3.166
 1.849 -1.263 3.142
 1.858 -1.262 3.134
 1.856 -1.253 3.106
 1.843 -1.237 3.061
 1.854 -1.238 3.058
 1.841 -1.222 3.014
 0 0 0
 0 0 0
 -2.398 -1.614 4.134
 -2.379 -1.61 4.131
 -2.355 -1.603 4.121
 -2.343 -1.605 4.131
 -2.325 -1.602 4.132
 -2.309 -1.601 4.134
 -2.294 -1.6 4.139
 -2.287 -1.605 4.157
 -2.273 -1.605 4.165
 -2.26 -1.606 4.174
 -2.247 -1.606 4.181
 -2.234 -1.607 4.189
 -2.218 -1.606 4.193
 -2.201 -1.603 4.192
 -2.184 -1.602 4.194
 -2.165 -1.598 4.19
 -2.151 -1.598 4.197
 -2.14 -1.6 4.207
 -2.126 -1.6 4.214
 -2.113 -1.6 4.221
 -2.105 -1.605 4.239
 -2.088 -1.603 4.24
 -2.073 -1.602 4.243
 -2.058 -1.602 4.248
 -2.04 -1.598 4.245
 -2.022 -1.595 4.243
 -2.009 -1.596 4.249
 -1.997 -1.597 4.258
 -1.981 -1.596 4.261
 -1.966 -1.595 4.263
 -1.952 -1.595 4.269
 -1.938 -1.594 4.273
 -1.922 -1.593 4.274
 -1.907 -1.592 4.278
 -1.895 -1.593 4.286
 -1.882 -1.595 4.294
 -1.865 -1.592 4.293
 -1.847 -1.588 4.286
 -1.835 -1.59 4.297
 -1.82 -1.588 4.298
 -1.803 -1.586 4.295
 -1.788 -1.585 4.298
 -1.773 -1.584 4.3
 -1.755 -1.58 4.294
 -1.74 -1.579 4.298
 -1.724 -1.577 4.296
 -1.708 -1.575 4.295
 -1.694 -1.575 4.299
 -1.679 -1.573 4.299
 -1.664 -1.572 4.3
 -1.648 -1.57 4.299
 -1.634 -1.57 4.302
 -1.616 -1.566 4.297
 -1.601 -1.565 4.297
 -1.587 -1.564 4.299
 -1.575 -1.565 4.308
 -1.558 -1.563 4.304
 -1.543 -1.561 4.305
 -1.53 -1.561 4.309
 -1.512 -1.557 4.3
 -1.493 -1.551 4.288
 -1.479 -1.55 4.29
 -1.465 -1.55 4.293
 -1.448 -1.547 4.287
 -1.433 -1.545 4.285
 -1.42 -1.545 4.291
 -1.405 -1.544 4.29
 -1.391 -1.543 4.291
 -1.378 -1.544 4.298
 -1.365 -1.544 4.301
 -1.351 -1.543 4.303
 -1.337 -1.542 4.304
 -1.324 -1.543 4.308
 -1.308 -1.54 4.304
 -1.293 -1.538 4.301
 -1.278 -1.537 4.301
 -1.266 -1.537 4.306
 -1.251 -1.535 4.304
 -1.237 -1.535 4.305
 -1.223 -1.534 4.306
 -1.208 -1.531 4.302
 -1.191 -1.528 4.295
 -1.177 -1.526 4.294
 -1.163 -1.525 4.293
 -1.15 -1.526 4.298
 -1.135 -1.524 4.295
 -1.121 -1.522 4.293
 -1.107 -1.522 4.295
 -1.094 -1.521 4.296
 -1.078 -1.518 4.289
 -1.066 -1.519 4.294
 -1.053 -1.519 4.298
 -1.039 -1.519 4.3
 -1.025 -1.517 4.296
 -1.012 -1.517 4.301
 -0.997 -1.515 4.297
 -0.983 -1.514 4.296
 -0.968 -1.511 4.288
 -0.955 -1.511 4.291
 -0.941 -1.509 4.288
 -0.929 -1.51 4.294
 -0.915 -1.51 4.295
 -0.902 -1.509 4.295
 -0.887 -1.506 4.289
 -0.874 -1.507 4.293
 -0.86 -1.504 4.287
 -0.846 -1.503 4.286
 -0.832 -1.502 4.286
 -0.819 -1.502 4.286
 -0.805 -1.501 4.285
 -0.792 -1.5 4.284
 -0.78 -1.501 4.289
 -0.766 -1.499 4.287
 -0.753 -1.499 4.287
 -0.74 -1.499 4.289
 -0.727 -1.499 4.29
 -0.712 -1.496 4.284
 -0.7 -1.497 4.287
 -0.687 -1.498 4.294
 -0.674 -1.496 4.29
 -0.66 -1.496 4.289
 -0.647 -1.494 4.286
 -0.634 -1.493 4.286
 -0.62 -1.491 4.28
 -0.606 -1.49 4.278
 -0.593 -1.49 4.279
 -0.581 -1.493 4.288
 -0.568 -1.492 4.288
 -0.555 -1.492 4.29
 -0.543 -1.492 4.292
 -0.529 -1.49 4.287
 -0.515 -1.488 4.281
 -0.502 -1.486 4.277
 -0.489 -1.486 4.278
 -0.476 -1.487 4.281
 -0.463 -1.487 4.282
 -0.451 -1.487 4.283
 -0.438 -1.487 4.284
 -0.425 -1.486 4.283
 -0.411 -1.484 4.279
 -0.399 -1.485 4.281
 -0.385 -1.483 4.275
 -0.372 -1.483 4.276
 -0.359 -1.481 4.271
 -0.346 -1.48 4.271
 -0.333 -1.479 4.268
 -0.321 -1.48 4.27
 -0.308 -1.48 4.271
 -0.295 -1.48 4.273
 -0.282 -1.48 4.272
 -0.269 -1.48 4.272
 -0.257 -1.479 4.27
 -0.244 -1.478 4.27
 -0.231 -1.477 4.266
 -0.218 -1.476 4.264
 -0.205 -1.477 4.266
 -0.193 -1.478 4.27
 -0.18 -1.477 4.266
 -0.167 -1.477 4.266
 -0.154 -1.476 4.265
 -0.141 -1.477 4.266
 -0.129 -1.475 4.262
 -0.116 -1.475 4.262
 -0.103 -1.476 4.264
 -0.091 -1.476 4.266
 -0.078 -1.475 4.261
 -0.065 -1.474 4.26
 -0.052 -1.475 4.261
 -0.04 -1.474 4.258
 -0.027 -1.472 4.255
 -0.014 -1.473 4.255
 -0.001 -1.474 4.258
 0.01 -1.473 4.257
 0.023 -1.474 4.258
 0.036 -1.476 4.265
 0.048 -1.477 4.268
 0.061 -1.477 4.267
 0.074 -1.475 4.261
 0.087 -1.476 4.264
 0.099 -1.475 4.261
 0.112 -1.475 4.26
 0.125 -1.477 4.264
 0.138 -1.48 4.273
 0.15 -1.479 4.27
 0.163 -1.482 4.276
 0.176 -1.48 4.271
 0.188 -1.478 4.265
 0.201 -1.478 4.263
 0.214 -1.478 4.263
 0.226 -1.476 4.256
 0.239 -1.475 4.254
 0.252 -1.477 4.257
 0.264 -1.476 4.254
 0.277 -1.476 4.252
 0.29 -1.475 4.25
 0.302 -1.476 4.251
 0.315 -1.476 4.252
 0.328 -1.478 4.257
 0.341 -1.479 4.257
 0.354 -1.48 4.258
 0.367 -1.482 4.264
 0.38 -1.482 4.262
 0.393 -1.482 4.261
 0.406 -1.482 4.261
 0.419 -1.483 4.263
 0.431 -1.481 4.256
 0.444 -1.482 4.256
 0.456 -1.479 4.247
 0.469 -1.48 4.247
 0.481 -1.478 4.241
 0.494 -1.48 4.245
 0.507 -1.48 4.243
 0.52 -1.482 4.25
 0.533 -1.483 4.249
 0.547 -1.485 4.254
 0.559 -1.484 4.249
 0.572 -1.484 4.248
 0.584 -1.482 4.241
 0.597 -1.483 4.243
 0.61 -1.484 4.243
 0.623 -1.484 4.24
 0.635 -1.484 4.239
 0.649 -1.486 4.243
 0.662 -1.485 4.24
 0.674 -1.486 4.239
 0.688 -1.487 4.241
 0.701 -1.488 4.241
 0.714 -1.489 4.242
 0.728 -1.49 4.243
 0.74 -1.489 4.239
 0.753 -1.49 4.24
 0.766 -1.49 4.238
 0.779 -1.49 4.236
 0.792 -1.491 4.236
 0.805 -1.492 4.236
 0.819 -1.493 4.237
 0.832 -1.493 4.236
 0.844 -1.492 4.231
 0.856 -1.492 4.228
 0.87 -1.493 4.227
 0.882 -1.492 4.223
 0.896 -1.495 4.228
 0.91 -1.496 4.229
 0.924 -1.499 4.234
 0.938 -1.501 4.237
 0.952 -1.502 4.239
 0.965 -1.502 4.235
 0.98 -1.505 4.241
 0.993 -1.505 4.239
 1.007 -1.506 4.24
 1.02 -1.508 4.241
 1.034 -1.509 4.242
 1.047 -1.51 4.24
 1.06 -1.509 4.235
 1.074 -1.511 4.237
 1.087 -1.511 4.235
 1.1 -1.512 4.233
 1.113 -1.511 4.23
 1.126 -1.511 4.226
 1.139 -1.512 4.224
 1.153 -1.512 4.222
 1.166 -1.513 4.222
 1.18 -1.514 4.221
 1.195 -1.516 4.225
 1.207 -1.516 4.219
 1.222 -1.518 4.221
 1.235 -1.517 4.217
 1.249 -1.519 4.219
 1.263 -1.521 4.219
 1.277 -1.522 4.22
 1.292 -1.524 4.222
 1.306 -1.526 4.222
 1.32 -1.526 4.219
 1.333 -1.526 4.217
 1.346 -1.527 4.214
 1.358 -1.525 4.205
 1.373 -1.528 4.209
 1.386 -1.528 4.205
 1.399 -1.527 4.2
 1.414 -1.529 4.201
 1.43 -1.532 4.205
 1.442 -1.531 4.198
 1.456 -1.533 4.198
 1.473 -1.536 4.204
 1.487 -1.537 4.202
 1.501 -1.539 4.202
 1.516 -1.54 4.2
 1.531 -1.542 4.202
 1.543 -1.541 4.195
 1.557 -1.542 4.193
 1.57 -1.542 4.188
 1.585 -1.544 4.189
 1.6 -1.545 4.187
 1.615 -1.547 4.187
 1.63 -1.549 4.189
 1.647 -1.552 4.192
 1.66 -1.552 4.187
 1.674 -1.553 4.185
 1.687 -1.553 4.18
 1.701 -1.553 4.175
 1.712 -1.551 4.165
 1.726 -1.552 4.162
 1.74 -1.553 4.16
 1.756 -1.555 4.16
 1.768 -1.554 4.152
 1.783 -1.556 4.153
 1.798 -1.557 4.151
 1.808 -1.554 4.138
 1.819 -1.552 4.127
 1.83 -1.551 4.118
 1.837 -1.545 4.097
 1.845 -1.541 4.081
 1.856 -1.539 4.07
 1.866 -1.536 4.057
 1.872 -1.531 4.037
 1.88 -1.526 4.02
 1.886 -1.522 4.001
 1.892 -1.516 3.981
 1.89 -1.504 3.944
 1.897 -1.499 3.925
 1.903 -1.494 3.907
 1.902 -1.483 3.873
 1.906 -1.477 3.849
 1.919 -1.477 3.844
 0 0 0
 0 0 0
 0 0 0
 0 0 0
 0 0 0
 0 0 0
 0 0 0
 0 0 0
 0 0 0
 0 0 0
 0 0 0
 0 0 0
 0 0 0
 0 0 0
 0 0 0
 0 0 0
 0 0 0
 1.82 -1.254 3.167
 1.842 -1.262 3.182
 1.845 -1.257 3.163
 1.844 -1.249 3.138
 1.854 -1.248 3.131
 1.852 -1.24 3.103
 1.841 -1.225 3.062
 1.882 -1.246 3.107
 1.798 -1.184 2.946
 0 0 0
 -2.447 -1.622 4.191
 -2.411 -1.608 4.161
 -2.396 -1.607 4.166
 -2.377 -1.605 4.166
 -2.362 -1.603 4.169
 -2.342 -1.6 4.167
 -2.327 -1.599 4.172
 -2.308 -1.596 4.17
 -2.301 -1.6 4.188
 -2.287 -1.601 4.195
 -2.275 -1.603 4.207
 -2.258 -1.6 4.207
 -2.247 -1.602 4.219
 -2.231 -1.601 4.222
 -2.215 -1.6 4.225
 -2.199 -1.598 4.227
 -2.182 -1.596 4.228
 -2.167 -1.596 4.233
 -2.154 -1.596 4.24
 -2.139 -1.596 4.245
 -2.126 -1.596 4.252
 -2.115 -1.599 4.264
 -2.096 -1.595 4.262
 -2.083 -1.596 4.269
 -2.068 -1.595 4.273
 -2.05 -1.592 4.27
 -2.032 -1.589 4.267
 -2.019 -1.59 4.276
 -2.006 -1.591 4.283
 -1.99 -1.589 4.285
 -1.976 -1.589 4.289
 -1.963 -1.59 4.298
 -1.947 -1.588 4.299
 -1.931 -1.586 4.298
 -1.915 -1.585 4.3
 -1.901 -1.585 4.306
 -1.886 -1.584 4.307
 -1.868 -1.581 4.304
 -1.85 -1.577 4.299
 -1.836 -1.577 4.305
 -1.821 -1.576 4.307
 -1.806 -1.575 4.309
 -1.792 -1.575 4.314
 -1.776 -1.573 4.312
 -1.759 -1.57 4.309
 -1.743 -1.568 4.308
 -1.727 -1.566 4.307
 -1.71 -1.563 4.304
 -1.695 -1.562 4.305
 -1.679 -1.56 4.303
 -1.665 -1.559 4.307
 -1.648 -1.557 4.304
 -1.635 -1.557 4.31
 -1.618 -1.554 4.306
 -1.604 -1.554 4.31
 -1.589 -1.553 4.31
 -1.576 -1.553 4.315
 -1.559 -1.55 4.31
 -1.544 -1.549 4.312
 -1.529 -1.547 4.311
 -1.511 -1.543 4.303
 -1.493 -1.538 4.292
 -1.478 -1.537 4.294
 -1.464 -1.536 4.296
 -1.45 -1.535 4.297
 -1.435 -1.533 4.295
 -1.422 -1.534 4.302
 -1.408 -1.533 4.302
 -1.394 -1.533 4.305
 -1.38 -1.532 4.307
 -1.365 -1.53 4.305
 -1.35 -1.529 4.305
 -1.335 -1.527 4.304
 -1.321 -1.526 4.303
 -1.304 -1.522 4.296
 -1.291 -1.522 4.299
 -1.277 -1.522 4.301
 -1.264 -1.522 4.305
 -1.25 -1.521 4.305
 -1.237 -1.521 4.31
 -1.223 -1.521 4.312
 -1.207 -1.518 4.305
 -1.192 -1.515 4.301
 -1.177 -1.513 4.298
 -1.163 -1.513 4.3
 -1.15 -1.513 4.302
 -1.136 -1.512 4.302
 -1.122 -1.51 4.301
 -1.109 -1.511 4.305
 -1.094 -1.509 4.302
 -1.079 -1.505 4.295
 -1.065 -1.505 4.297
 -1.052 -1.505 4.299
 -1.038 -1.504 4.299
 -1.024 -1.502 4.296
 -1.01 -1.502 4.297
 -0.997 -1.501 4.298
 -0.983 -1.5 4.297
 -0.968 -1.497 4.29
 -0.955 -1.497 4.294
 -0.941 -1.497 4.295
 -0.928 -1.497 4.298
 -0.915 -1.496 4.298
 -0.901 -1.496 4.298
 -0.887 -1.493 4.294
 -0.874 -1.493 4.296
 -0.86 -1.492 4.293
 -0.845 -1.489 4.288
 -0.832 -1.488 4.287
 -0.818 -1.487 4.285
 -0.804 -1.485 4.282
 -0.79 -1.483 4.278
 -0.779 -1.486 4.288
 -0.765 -1.485 4.286
 -0.752 -1.485 4.287
 -0.739 -1.484 4.289
 -0.726 -1.485 4.292
 -0.712 -1.482 4.285
 -0.699 -1.482 4.287
 -0.686 -1.483 4.291
 -0.673 -1.482 4.29
 -0.66 -1.482 4.29
 -0.646 -1.481 4.289
 -0.633 -1.48 4.288
 -0.619 -1.478 4.284
 -0.606 -1.478 4.285
 -0.594 -1.478 4.286
 -0.581 -1.48 4.293
 -0.568 -1.48 4.294
 -0.555 -1.479 4.293
 -0.542 -1.477 4.289
 -0.528 -1.474 4.281
 -0.514 -1.472 4.276
 -0.501 -1.472 4.276
 -0.488 -1.472 4.277
 -0.476 -1.473 4.283
 -0.464 -1.475 4.288
 -0.451 -1.475 4.29
 -0.438 -1.474 4.288
 -0.425 -1.474 4.287
 -0.412 -1.472 4.285
 -0.399 -1.472 4.284
 -0.385 -1.47 4.28
 -0.372 -1.47 4.281
 -0.359 -1.469 4.278
 -0.346 -1.468 4.277
 -0.333 -1.467 4.273
 -0.321 -1.467 4.274
 -0.308 -1.467 4.276
 -0.295 -1.468 4.279
 -0.282 -1.467 4.277
 -0.27 -1.468 4.28
 -0.257 -1.467 4.278
 -0.244 -1.468 4.279
 -0.231 -1.466 4.276
 -0.218 -1.466 4.275
 -0.205 -1.466 4.275
 -0.193 -1.466 4.276
 -0.18 -1.465 4.273
 -0.167 -1.465 4.272
 -0.154 -1.464 4.27
 -0.141 -1.464 4.272
 -0.129 -1.463 4.268
 -0.116 -1.462 4.266
 -0.103 -1.463 4.268
 -0.09 -1.463 4.269
 -0.078 -1.462 4.266
 -0.065 -1.463 4.268
 -0.052 -1.463 4.268
 -0.04 -1.462 4.265
 -0.027 -1.461 4.262
 -0.014 -1.46 4.259
 -0.001 -1.46 4.258
 0.01 -1.459 4.257
 0.023 -1.46 4.258
 0.036 -1.46 4.259
 0.048 -1.462 4.264
 0.061 -1.463 4.265
 0.074 -1.461 4.262
 0.087 -1.462 4.263
 0.099 -1.463 4.266
 0.112 -1.462 4.263
 0.125 -1.465 4.271
 0.138 -1.468 4.278
 0.15 -1.466 4.272
 0.163 -1.467 4.275
 0.176 -1.465 4.269
 0.188 -1.463 4.262
 0.201 -1.463 4.262
 0.214 -1.464 4.263
 0.226 -1.462 4.258
 0.239 -1.462 4.256
 0.252 -1.462 4.256
 0.264 -1.461 4.252
 0.277 -1.461 4.25
 0.289 -1.461 4.249
 0.302 -1.462 4.253
 0.315 -1.463 4.254
 0.328 -1.465 4.259
 0.341 -1.466 4.26
 0.354 -1.467 4.263
 0.367 -1.468 4.265
 0.38 -1.469 4.267
 0.393 -1.469 4.265
 0.406 -1.469 4.265
 0.418 -1.469 4.263
 0.431 -1.468 4.257
 0.443 -1.467 4.254
 0.455 -1.465 4.248
 0.468 -1.466 4.249
 0.481 -1.466 4.246
 0.494 -1.468 4.251
 0.507 -1.469 4.253
 0.521 -1.47 4.256
 0.533 -1.47 4.254
 0.547 -1.473 4.259
 0.559 -1.471 4.252
 0.571 -1.469 4.247
 0.583 -1.468 4.241
 0.597 -1.469 4.243
 0.609 -1.469 4.242
 0.622 -1.469 4.239
 0.635 -1.47 4.24
 0.649 -1.472 4.245
 0.661 -1.472 4.243
 0.675 -1.474 4.245
 0.688 -1.475 4.248
 0.702 -1.477 4.25
 0.715 -1.478 4.251
 0.728 -1.478 4.25
 0.741 -1.477 4.246
 0.753 -1.478 4.245
 0.766 -1.477 4.24
 0.779 -1.477 4.238
 0.792 -1.479 4.242
 0.805 -1.478 4.238
 0.819 -1.48 4.241
 0.831 -1.48 4.238
 0.844 -1.479 4.233
 0.856 -1.479 4.229
 0.87 -1.48 4.23
 0.882 -1.479 4.226
 0.897 -1.483 4.234
 0.911 -1.484 4.235
 0.924 -1.486 4.238
 0.939 -1.488 4.242
 0.952 -1.489 4.243
 0.964 -1.488 4.236
 0.979 -1.491 4.241
 0.992 -1.491 4.24
 1.006 -1.493 4.242
 1.02 -1.494 4.242
 1.034 -1.496 4.244
 1.047 -1.496 4.242
 1.06 -1.496 4.24
 1.073 -1.496 4.238
 1.087 -1.497 4.236
 1.1 -1.497 4.234
 1.113 -1.498 4.233
 1.125 -1.497 4.226
 1.139 -1.498 4.226
 1.152 -1.498 4.225
 1.166 -1.5 4.226
 1.179 -1.5 4.223
 1.195 -1.503 4.227
 1.207 -1.503 4.224
 1.221 -1.504 4.224
 1.235 -1.505 4.222
 1.249 -1.506 4.224
 1.264 -1.508 4.226
 1.277 -1.509 4.224
 1.293 -1.511 4.227
 1.306 -1.512 4.225
 1.319 -1.512 4.222
 1.332 -1.512 4.218
 1.345 -1.512 4.214
 1.357 -1.511 4.207
 1.372 -1.513 4.21
 1.385 -1.513 4.206
 1.399 -1.514 4.202
 1.414 -1.516 4.204
 1.429 -1.518 4.207
 1.441 -1.517 4.2
 1.456 -1.52 4.202
 1.472 -1.522 4.206
 1.487 -1.524 4.205
 1.502 -1.526 4.207
 1.516 -1.527 4.206
 1.53 -1.528 4.203
 1.543 -1.527 4.198
 1.558 -1.529 4.198
 1.571 -1.53 4.195
 1.585 -1.53 4.193
 1.6 -1.532 4.191
 1.614 -1.533 4.19
 1.629 -1.535 4.191
 1.644 -1.536 4.19
 1.658 -1.537 4.188
 1.673 -1.539 4.187
 1.687 -1.539 4.184
 1.7 -1.539 4.179
 1.713 -1.539 4.172
 1.727 -1.54 4.17
 1.742 -1.541 4.168
 1.756 -1.542 4.165
 1.769 -1.541 4.159
 1.784 -1.543 4.158
 1.799 -1.544 4.157
 1.81 -1.543 4.147
 1.822 -1.542 4.139
 1.834 -1.54 4.13
 1.841 -1.535 4.111
 1.849 -1.531 4.093
 1.858 -1.527 4.079
 1.867 -1.524 4.064
 1.872 -1.517 4.041
 1.88 -1.514 4.026
 1.888 -1.51 4.009
 1.895 -1.505 3.991
 1.896 -1.495 3.959
 1.904 -1.492 3.945
 1.907 -1.484 3.919
 1.909 -1.476 3.892
 1.913 -1.469 3.867
 0 0 0
 0 0 0
 0 0 0
 0 0 0
 0 0 0
 0 0 0
 0 0 0
 0 0 0
 0 0 0
 0 0 0
 0 0 0
 0 0 0
 0 0 0
 0 0 0
 0 0 0
 0 0 0
 0 0 0
 0 0 0
 1.829 -1.249 3.186
 1.846 -1.254 3.192
 1.848 -1.248 3.171
 1.848 -1.24 3.148
 1.856 -1.239 3.138
 1.854 -1.23 3.11
 1.843 -1.216 3.069
 1.791 -1.175 2.96
 1.832 -1.195 3.005
 -2.446 -1.598 4.163
 0 0 0
 -2.434 -1.609 4.205
 -2.417 -1.607 4.208
 -2.401 -1.606 4.211
 -2.381 -1.602 4.208
 -2.363 -1.6 4.208
 -2.346 -1.598 4.211
 -2.327 -1.595 4.209
 -2.314 -1.595 4.217
 -2.299 -1.595 4.223
 -2.282 -1.593 4.224
 -2.264 -1.591 4.223
 -2.253 -1.593 4.235
 -2.239 -1.593 4.243
 -2.225 -1.593 4.249
 -2.211 -1.593 4.255
 -2.197 -1.593 4.262
 -2.185 -1.595 4.272
 -2.171 -1.595 4.278
 -2.155 -1.593 4.281
 -2.145 -1.596 4.295
 -2.129 -1.596 4.299
 -2.108 -1.59 4.29
 -2.093 -1.589 4.294
 -2.077 -1.588 4.296
 -2.057 -1.583 4.289
 -2.038 -1.58 4.285
 -2.026 -1.581 4.294
 -2.012 -1.581 4.301
 -1.997 -1.581 4.305
 -1.984 -1.581 4.311
 -1.97 -1.582 4.318
 -1.953 -1.579 4.317
 -1.935 -1.576 4.314
 -1.919 -1.574 4.313
 -1.904 -1.573 4.316
 -1.888 -1.572 4.317
 -1.869 -1.568 4.311
 -1.852 -1.565 4.308
 -1.838 -1.565 4.313
 -1.821 -1.562 4.311
 -1.806 -1.561 4.312
 -1.794 -1.563 4.323
 -1.777 -1.56 4.319
 -1.759 -1.556 4.314
 -1.743 -1.555 4.314
 -1.728 -1.553 4.315
 -1.712 -1.551 4.314
 -1.697 -1.551 4.317
 -1.682 -1.549 4.317
 -1.667 -1.548 4.318
 -1.651 -1.546 4.316
 -1.635 -1.544 4.315
 -1.621 -1.543 4.317
 -1.606 -1.542 4.318
 -1.592 -1.541 4.321
 -1.577 -1.541 4.324
 -1.56 -1.537 4.318
 -1.544 -1.534 4.314
 -1.528 -1.532 4.312
 -1.51 -1.528 4.303
 -1.493 -1.525 4.298
 -1.48 -1.525 4.303
 -1.465 -1.523 4.302
 -1.451 -1.523 4.304
 -1.436 -1.522 4.305
 -1.423 -1.522 4.309
 -1.408 -1.52 4.307
 -1.395 -1.52 4.312
 -1.381 -1.52 4.314
 -1.365 -1.518 4.312
 -1.35 -1.515 4.308
 -1.336 -1.515 4.31
 -1.322 -1.514 4.313
 -1.305 -1.51 4.305
 -1.291 -1.51 4.305
 -1.278 -1.509 4.307
 -1.263 -1.508 4.307
 -1.249 -1.506 4.306
 -1.236 -1.507 4.311
 -1.222 -1.507 4.314
 -1.207 -1.504 4.308
 -1.191 -1.502 4.304
 -1.176 -1.499 4.299
 -1.162 -1.498 4.3
 -1.149 -1.498 4.302
 -1.135 -1.497 4.303
 -1.121 -1.496 4.303
 -1.108 -1.496 4.304
 -1.093 -1.494 4.302
 -1.077 -1.49 4.294
 -1.063 -1.49 4.294
 -1.051 -1.49 4.298
 -1.037 -1.489 4.298
 -1.023 -1.488 4.297
 -1.01 -1.489 4.302
 -0.997 -1.488 4.303
 -0.983 -1.487 4.302
 -0.968 -1.485 4.298
 -0.955 -1.485 4.299
 -0.941 -1.483 4.297
 -0.927 -1.482 4.297
 -0.914 -1.482 4.297
 -0.9 -1.481 4.297
 -0.886 -1.48 4.295
 -0.873 -1.479 4.297
 -0.86 -1.479 4.298
 -0.845 -1.476 4.291
 -0.832 -1.476 4.292
 -0.818 -1.475 4.291
 -0.805 -1.474 4.291
 -0.791 -1.472 4.286
 -0.779 -1.474 4.295
 -0.765 -1.472 4.289
 -0.751 -1.471 4.289
 -0.738 -1.469 4.286
 -0.725 -1.47 4.291
 -0.711 -1.468 4.285
 -0.698 -1.468 4.288
 -0.685 -1.468 4.29
 -0.673 -1.468 4.291
 -0.659 -1.468 4.291
 -0.646 -1.467 4.289
 -0.633 -1.466 4.289
 -0.619 -1.465 4.287
 -0.606 -1.464 4.285
 -0.593 -1.464 4.286
 -0.581 -1.465 4.291
 -0.568 -1.465 4.292
 -0.555 -1.464 4.292
 -0.541 -1.463 4.288
 -0.527 -1.46 4.282
 -0.514 -1.46 4.281
 -0.501 -1.458 4.278
 -0.488 -1.458 4.28
 -0.476 -1.46 4.286
 -0.464 -1.462 4.292
 -0.451 -1.462 4.293
 -0.438 -1.461 4.29
 -0.424 -1.46 4.288
 -0.411 -1.458 4.285
 -0.398 -1.458 4.286
 -0.385 -1.457 4.282
 -0.372 -1.457 4.282
 -0.359 -1.456 4.283
 -0.347 -1.457 4.284
 -0.333 -1.453 4.275
 -0.32 -1.453 4.274
 -0.308 -1.454 4.277
 -0.295 -1.454 4.279
 -0.282 -1.453 4.275
 -0.269 -1.455 4.281
 -0.257 -1.454 4.28
 -0.244 -1.455 4.282
 -0.231 -1.453 4.277
 -0.218 -1.452 4.276
 -0.205 -1.452 4.274
 -0.192 -1.451 4.274
 -0.179 -1.449 4.267
 -0.166 -1.448 4.265
 -0.154 -1.449 4.267
 -0.141 -1.449 4.268
 -0.128 -1.448 4.265
 -0.116 -1.449 4.267
 -0.103 -1.45 4.27
 -0.09 -1.449 4.269
 -0.077 -1.447 4.263
 -0.065 -1.448 4.265
 -0.052 -1.448 4.266
 -0.039 -1.448 4.266
 -0.027 -1.447 4.263
 -0.014 -1.447 4.263
 -0.001 -1.448 4.265
 0.01 -1.448 4.263
 0.023 -1.448 4.264
 0.036 -1.448 4.264
 0.049 -1.45 4.269
 0.061 -1.449 4.268
 0.074 -1.448 4.263
 0.087 -1.449 4.265
 0.099 -1.45 4.269
 0.112 -1.45 4.267
 0.125 -1.452 4.272
 0.138 -1.454 4.277
 0.15 -1.451 4.27
 0.163 -1.452 4.273
 0.176 -1.452 4.27
 0.188 -1.45 4.265
 0.201 -1.45 4.264
 0.214 -1.451 4.265
 0.226 -1.449 4.261
 0.239 -1.448 4.256
 0.252 -1.449 4.258
 0.264 -1.449 4.257
 0.277 -1.448 4.253
 0.289 -1.448 4.252
 0.302 -1.449 4.255
 0.315 -1.449 4.255
 0.328 -1.45 4.256
 0.341 -1.451 4.257
 0.354 -1.452 4.258
 0.366 -1.452 4.258
 0.379 -1.453 4.26
 0.392 -1.453 4.26
 0.405 -1.454 4.26
 0.418 -1.453 4.258
 0.43 -1.453 4.256
 0.443 -1.453 4.255
 0.455 -1.452 4.25
 0.468 -1.453 4.251
 0.481 -1.453 4.249
 0.494 -1.454 4.252
 0.507 -1.455 4.255
 0.52 -1.456 4.256
 0.533 -1.457 4.255
 0.547 -1.459 4.259
 0.559 -1.457 4.254
 0.571 -1.455 4.245
 0.583 -1.453 4.239
 0.596 -1.455 4.242
 0.609 -1.456 4.242
 0.622 -1.456 4.241
 0.635 -1.458 4.245
 0.649 -1.46 4.249
 0.662 -1.46 4.247
 0.675 -1.461 4.248
 0.688 -1.462 4.249
 0.702 -1.463 4.252
 0.715 -1.464 4.252
 0.728 -1.465 4.252
 0.741 -1.465 4.25
 0.754 -1.465 4.249
 0.765 -1.463 4.242
 0.779 -1.464 4.241
 0.792 -1.466 4.245
 0.804 -1.465 4.239
 0.819 -1.467 4.244
 0.832 -1.468 4.243
 0.844 -1.466 4.237
 0.856 -1.465 4.232
 0.87 -1.467 4.235
 0.882 -1.466 4.23
 0.896 -1.469 4.235
 0.91 -1.471 4.238
 0.925 -1.473 4.241
 0.938 -1.474 4.242
 0.952 -1.475 4.243
 0.964 -1.474 4.237
 0.978 -1.476 4.24
 0.991 -1.476 4.238
 1.004 -1.477 4.238
 1.018 -1.478 4.238
 1.033 -1.48 4.242
 1.046 -1.482 4.242
 1.06 -1.482 4.241
 1.073 -1.483 4.241
 1.086 -1.484 4.24
 1.099 -1.484 4.236
 1.112 -1.484 4.234
 1.125 -1.484 4.23
 1.139 -1.485 4.229
 1.152 -1.486 4.229
 1.166 -1.486 4.228
 1.18 -1.487 4.228
 1.193 -1.488 4.227
 1.207 -1.489 4.227
 1.221 -1.491 4.227
 1.235 -1.491 4.226
 1.248 -1.492 4.223
 1.263 -1.494 4.227
 1.277 -1.495 4.225
 1.292 -1.498 4.229
 1.305 -1.498 4.227
 1.32 -1.5 4.227
 1.331 -1.498 4.219
 1.345 -1.499 4.216
 1.356 -1.497 4.208
 1.372 -1.499 4.212
 1.385 -1.5 4.208
 1.401 -1.502 4.212
 1.414 -1.503 4.21
 1.43 -1.506 4.213
 1.442 -1.505 4.206
 1.457 -1.507 4.208
 1.472 -1.508 4.208
 1.487 -1.51 4.209
 1.502 -1.512 4.211
 1.517 -1.514 4.212
 1.531 -1.515 4.21
 1.544 -1.515 4.205
 1.558 -1.516 4.204
 1.571 -1.516 4.199
 1.585 -1.516 4.195
 1.599 -1.517 4.194
 1.614 -1.519 4.192
 1.629 -1.521 4.193
 1.644 -1.522 4.192
 1.658 -1.523 4.19
 1.671 -1.523 4.186
 1.685 -1.524 4.183
 1.698 -1.524 4.177
 1.71 -1.523 4.17
 1.725 -1.524 4.168
 1.74 -1.526 4.168
 1.754 -1.527 4.165
 1.769 -1.528 4.164
 1.786 -1.531 4.166
 1.802 -1.533 4.167
 1.812 -1.531 4.155
 1.824 -1.53 4.147
 1.834 -1.527 4.135
 1.84 -1.521 4.112
 1.848 -1.517 4.095
 1.857 -1.513 4.08
 1.865 -1.509 4.065
 1.871 -1.503 4.043
 1.881 -1.501 4.031
 1.887 -1.496 4.012
 1.897 -1.494 4
 1.897 -1.483 3.966
 1.906 -1.481 3.953
 1.91 -1.473 3.928
 0 0 0
 0 0 0
 0 0 0
 0 0 0
 0 0 0
 0 0 0
 0 0 0
 0 0 0
 0 0 0
 0 0 0
 0 0 0
 0 0 0
 0 0 0
 0 0 0
 0 0 0
 0 0 0
 0 0 0
 0 0 0
 0 0 0
 0 0 0
 1.829 -1.239 3.191
 1.849 -1.245 3.201
 1.848 -1.237 3.175
 1.848 -1.23 3.151
 1.855 -1.227 3.14
 1.854 -1.22 3.114
 1.842 -1.205 3.07
 1.842 -1.198 3.047
 1.83 -1.184 3.005
 0 0 0
 -2.402 -1.565 4.125
 -2.446 -1.603 4.232
 -2.426 -1.599 4.228
 -2.415 -1.601 4.241
 -2.393 -1.596 4.234
 -2.375 -1.593 4.234
 -2.359 -1.593 4.239
 -2.34 -1.589 4.236
 -2.33 -1.592 4.251
 -2.32 -1.595 4.266
 -2.303 -1.593 4.267
 -2.287 -1.592 4.271
 -2.274 -1.593 4.279
 -2.256 -1.591 4.279
 -2.24 -1.59 4.283
 -2.224 -1.588 4.286
 -2.207 -1.586 4.286
 -2.195 -1.588 4.296
 -2.18 -1.588 4.302
 -2.161 -1.584 4.299
 -2.149 -1.585 4.308
 -2.134 -1.585 4.313
 -2.115 -1.581 4.309
 -2.099 -1.58 4.312
 -2.085 -1.58 4.317
 -2.065 -1.576 4.311
 -2.048 -1.574 4.311
 -2.033 -1.573 4.315
 -2.017 -1.571 4.317
 -2.001 -1.569 4.317
 -1.987 -1.57 4.323
 -1.97 -1.568 4.323
 -1.953 -1.565 4.322
 -1.936 -1.563 4.321
 -1.92 -1.561 4.321
 -1.905 -1.56 4.324
 -1.889 -1.559 4.324
 -1.869 -1.554 4.316
 -1.853 -1.552 4.316
 -1.837 -1.55 4.316
 -1.82 -1.547 4.313
 -1.806 -1.547 4.317
 -1.795 -1.55 4.329
 -1.777 -1.546 4.324
 -1.761 -1.545 4.324
 -1.744 -1.542 4.321
 -1.728 -1.54 4.319
 -1.711 -1.537 4.317
 -1.696 -1.535 4.317
 -1.68 -1.534 4.316
 -1.666 -1.534 4.321
 -1.651 -1.532 4.322
 -1.637 -1.532 4.323
 -1.622 -1.531 4.325
 -1.607 -1.53 4.327
 -1.592 -1.528 4.327
 -1.577 -1.527 4.326
 -1.559 -1.523 4.32
 -1.542 -1.52 4.315
 -1.527 -1.518 4.314
 -1.51 -1.514 4.308
 -1.494 -1.512 4.304
 -1.48 -1.511 4.306
 -1.465 -1.51 4.306
 -1.45 -1.508 4.305
 -1.436 -1.507 4.307
 -1.422 -1.508 4.312
 -1.407 -1.506 4.311
 -1.395 -1.507 4.317
 -1.38 -1.506 4.317
 -1.364 -1.503 4.311
 -1.348 -1.5 4.306
 -1.335 -1.5 4.311
 -1.321 -1.5 4.313
 -1.305 -1.497 4.307
 -1.291 -1.496 4.309
 -1.277 -1.495 4.31
 -1.262 -1.493 4.308
 -1.247 -1.491 4.305
 -1.234 -1.492 4.31
 -1.22 -1.491 4.311
 -1.205 -1.489 4.308
 -1.19 -1.486 4.301
 -1.176 -1.485 4.302
 -1.162 -1.485 4.303
 -1.148 -1.484 4.305
 -1.135 -1.484 4.308
 -1.122 -1.485 4.312
 -1.107 -1.483 4.308
 -1.092 -1.48 4.304
 -1.077 -1.477 4.299
 -1.063 -1.476 4.296
 -1.049 -1.474 4.295
 -1.035 -1.473 4.294
 -1.021 -1.472 4.293
 -1.008 -1.472 4.296
 -0.995 -1.473 4.301
 -0.982 -1.473 4.302
 -0.968 -1.472 4.301
 -0.955 -1.471 4.302
 -0.941 -1.47 4.3
 -0.927 -1.469 4.3
 -0.914 -1.468 4.3
 -0.9 -1.468 4.301
 -0.887 -1.467 4.301
 -0.873 -1.466 4.301
 -0.86 -1.465 4.3
 -0.845 -1.462 4.293
 -0.831 -1.461 4.292
 -0.818 -1.46 4.29
 -0.804 -1.459 4.29
 -0.79 -1.458 4.287
 -0.778 -1.46 4.295
 -0.764 -1.458 4.29
 -0.751 -1.457 4.289
 -0.738 -1.456 4.289
 -0.725 -1.457 4.294
 -0.711 -1.455 4.291
 -0.698 -1.455 4.292
 -0.686 -1.456 4.294
 -0.672 -1.455 4.294
 -0.659 -1.454 4.293
 -0.645 -1.451 4.285
 -0.632 -1.452 4.289
 -0.618 -1.45 4.284
 -0.605 -1.449 4.282
 -0.592 -1.449 4.283
 -0.58 -1.451 4.292
 -0.567 -1.45 4.289
 -0.554 -1.45 4.291
 -0.541 -1.449 4.288
 -0.527 -1.447 4.285
 -0.514 -1.446 4.283
 -0.501 -1.444 4.279
 -0.488 -1.445 4.28
 -0.476 -1.447 4.288
 -0.463 -1.449 4.295
 -0.451 -1.449 4.297
 -0.438 -1.449 4.298
 -0.425 -1.448 4.294
 -0.411 -1.446 4.291
 -0.398 -1.444 4.286
 -0.385 -1.443 4.282
 -0.372 -1.443 4.283
 -0.359 -1.443 4.285
 -0.346 -1.443 4.285
 -0.333 -1.439 4.275
 -0.32 -1.439 4.275
 -0.307 -1.44 4.278
 -0.295 -1.441 4.28
 -0.282 -1.439 4.277
 -0.27 -1.443 4.287
 -0.257 -1.442 4.284
 -0.244 -1.441 4.284
 -0.231 -1.439 4.279
 -0.218 -1.439 4.279
 -0.205 -1.438 4.275
 -0.192 -1.437 4.274
 -0.179 -1.435 4.266
 -0.166 -1.434 4.264
 -0.154 -1.435 4.268
 -0.141 -1.436 4.272
 -0.128 -1.436 4.272
 -0.116 -1.439 4.28
 -0.103 -1.44 4.284
 -0.09 -1.44 4.282
 -0.078 -1.438 4.276
 -0.065 -1.437 4.274
 -0.052 -1.437 4.273
 -0.039 -1.437 4.273
 -0.027 -1.436 4.27
 -0.014 -1.435 4.268
 -0.001 -1.436 4.27
 0.01 -1.435 4.267
 0.023 -1.434 4.264
 0.036 -1.433 4.262
 0.049 -1.437 4.272
 0.061 -1.436 4.271
 0.074 -1.435 4.267
 0.087 -1.436 4.268
 0.099 -1.437 4.271
 0.112 -1.436 4.267
 0.125 -1.437 4.269
 0.138 -1.438 4.272
 0.15 -1.436 4.267
 0.163 -1.436 4.267
 0.176 -1.436 4.265
 0.188 -1.436 4.263
 0.201 -1.436 4.263
 0.214 -1.438 4.268
 0.226 -1.436 4.263
 0.239 -1.436 4.262
 0.252 -1.437 4.262
 0.264 -1.437 4.262
 0.276 -1.433 4.25
 0.289 -1.433 4.25
 0.302 -1.433 4.249
 0.314 -1.433 4.248
 0.327 -1.433 4.247
 0.34 -1.435 4.253
 0.353 -1.436 4.254
 0.366 -1.436 4.254
 0.379 -1.437 4.255
 0.392 -1.439 4.258
 0.405 -1.439 4.258
 0.417 -1.439 4.256
 0.43 -1.439 4.255
 0.443 -1.439 4.255
 0.455 -1.439 4.253
 0.468 -1.44 4.253
 0.481 -1.44 4.252
 0.494 -1.441 4.255
 0.507 -1.442 4.257
 0.52 -1.442 4.254
 0.533 -1.443 4.255
 0.546 -1.444 4.259
 0.558 -1.443 4.253
 0.57 -1.441 4.246
 0.583 -1.44 4.242
 0.596 -1.441 4.243
 0.609 -1.442 4.244
 0.622 -1.442 4.243
 0.635 -1.444 4.245
 0.649 -1.446 4.251
 0.662 -1.446 4.25
 0.675 -1.447 4.251
 0.688 -1.448 4.251
 0.702 -1.451 4.257
 0.715 -1.451 4.256
 0.728 -1.452 4.256
 0.74 -1.451 4.252
 0.754 -1.453 4.254
 0.765 -1.45 4.245
 0.779 -1.451 4.245
 0.792 -1.452 4.247
 0.805 -1.452 4.245
 0.818 -1.454 4.246
 0.832 -1.455 4.247
 0.844 -1.453 4.241
 0.857 -1.453 4.238
 0.87 -1.455 4.24
 0.882 -1.454 4.235
 0.897 -1.457 4.241
 0.911 -1.459 4.244
 0.925 -1.461 4.247
 0.938 -1.461 4.245
 0.952 -1.462 4.246
 0.964 -1.461 4.242
 0.978 -1.462 4.242
 0.99 -1.462 4.239
 1.004 -1.464 4.24
 1.018 -1.465 4.242
 1.032 -1.466 4.242
 1.045 -1.467 4.24
 1.057 -1.466 4.236
 1.07 -1.466 4.233
 1.083 -1.467 4.231
 1.096 -1.467 4.229
 1.11 -1.468 4.229
 1.124 -1.47 4.231
 1.139 -1.471 4.233
 1.153 -1.473 4.234
 1.165 -1.472 4.229
 1.18 -1.475 4.233
 1.194 -1.475 4.231
 1.208 -1.477 4.232
 1.222 -1.479 4.235
 1.236 -1.48 4.235
 1.249 -1.48 4.231
 1.264 -1.482 4.232
 1.276 -1.481 4.227
 1.29 -1.482 4.226
 1.304 -1.483 4.226
 1.318 -1.485 4.226
 1.331 -1.484 4.221
 1.345 -1.485 4.22
 1.357 -1.485 4.215
 1.373 -1.487 4.219
 1.386 -1.487 4.214
 1.4 -1.489 4.215
 1.414 -1.49 4.214
 1.429 -1.492 4.215
 1.441 -1.491 4.209
 1.456 -1.493 4.21
 1.471 -1.494 4.21
 1.486 -1.496 4.21
 1.501 -1.498 4.213
 1.516 -1.5 4.213
 1.53 -1.501 4.213
 1.545 -1.503 4.213
 1.56 -1.504 4.212
 1.574 -1.505 4.21
 1.587 -1.506 4.206
 1.602 -1.507 4.204
 1.614 -1.506 4.199
 1.629 -1.508 4.199
 1.642 -1.507 4.193
 1.656 -1.508 4.191
 1.67 -1.508 4.186
 1.685 -1.51 4.186
 1.697 -1.51 4.179
 1.711 -1.51 4.175
 1.726 -1.511 4.175
 1.741 -1.513 4.174
 1.754 -1.513 4.169
 1.769 -1.514 4.167
 1.784 -1.516 4.166
 1.799 -1.517 4.164
 1.808 -1.514 4.151
 1.821 -1.514 4.144
 1.832 -1.512 4.133
 1.838 -1.506 4.113
 1.847 -1.503 4.098
 1.857 -1.5 4.085
 1.867 -1.498 4.074
 1.874 -1.493 4.055
 1.886 -1.492 4.046
 1.895 -1.488 4.031
 1.907 -1.488 4.023
 1.906 -1.477 3.989
 1.916 -1.475 3.978
 0 0 0
 0 0 0
 0 0 0
 0 0 0
 0 0 0
 0 0 0
 0 0 0
 0 0 0
 0 0 0
 0 0 0
 0 0 0
 0 0 0
 0 0 0
 0 0 0
 0 0 0
 0 0 0
 0 0 0
 0 0 0
 0 0 0
 0 0 0
 0 0 0
 1.818 -1.22 3.174
 1.844 -1.23 3.195
 1.845 -1.224 3.173
 1.846 -1.217 3.15
 1.852 -1.214 3.137
 1.852 -1.208 3.114
 1.84 -1.193 3.071
 1.859 -1.198 3.079
 1.82 -1.167 2.992
 -2.465 -1.582 4.206
 0 0 0
 -2.447 -1.589 4.239
 -2.428 -1.586 4.238
 -2.425 -1.594 4.264
 -2.412 -1.595 4.274
 -2.393 -1.592 4.273
 -2.383 -1.594 4.287
 -2.368 -1.594 4.293
 -2.355 -1.595 4.303
 -2.335 -1.592 4.299
 -2.316 -1.588 4.297
 -2.3 -1.587 4.3
 -2.285 -1.586 4.305
 -2.262 -1.581 4.296
 -2.248 -1.581 4.302
 -2.233 -1.58 4.308
 -2.215 -1.578 4.306
 -2.2 -1.577 4.311
 -2.189 -1.579 4.324
 -2.172 -1.577 4.324
 -2.158 -1.578 4.332
 -2.142 -1.577 4.335
 -2.124 -1.574 4.332
 -2.107 -1.572 4.332
 -2.089 -1.569 4.332
 -2.07 -1.566 4.327
 -2.053 -1.564 4.327
 -2.036 -1.561 4.326
 -2.019 -1.559 4.326
 -2.003 -1.558 4.327
 -1.989 -1.557 4.332
 -1.971 -1.554 4.329
 -1.956 -1.553 4.332
 -1.937 -1.55 4.327
 -1.921 -1.548 4.328
 -1.904 -1.546 4.326
 -1.887 -1.543 4.325
 -1.868 -1.539 4.318
 -1.854 -1.539 4.323
 -1.836 -1.536 4.318
 -1.821 -1.535 4.32
 -1.805 -1.533 4.32
 -1.792 -1.534 4.327
 -1.775 -1.531 4.323
 -1.76 -1.53 4.326
 -1.742 -1.526 4.319
 -1.728 -1.526 4.324
 -1.711 -1.523 4.321
 -1.695 -1.521 4.318
 -1.678 -1.519 4.317
 -1.665 -1.519 4.321
 -1.648 -1.516 4.318
 -1.634 -1.515 4.32
 -1.619 -1.515 4.323
 -1.605 -1.514 4.325
 -1.59 -1.513 4.326
 -1.575 -1.512 4.327
 -1.558 -1.509 4.322
 -1.543 -1.506 4.32
 -1.528 -1.505 4.32
 -1.512 -1.503 4.318
 -1.495 -1.5 4.313
 -1.481 -1.499 4.315
 -1.465 -1.497 4.312
 -1.451 -1.496 4.314
 -1.436 -1.495 4.313
 -1.423 -1.495 4.319
 -1.408 -1.494 4.318
 -1.395 -1.494 4.322
 -1.38 -1.492 4.319
 -1.364 -1.49 4.317
 -1.348 -1.487 4.311
 -1.335 -1.487 4.316
 -1.321 -1.486 4.316
 -1.304 -1.482 4.309
 -1.29 -1.481 4.308
 -1.275 -1.48 4.308
 -1.26 -1.477 4.304
 -1.246 -1.477 4.305
 -1.233 -1.477 4.309
 -1.219 -1.476 4.31
 -1.204 -1.474 4.307
 -1.189 -1.472 4.303
 -1.174 -1.47 4.3
 -1.16 -1.469 4.3
 -1.147 -1.469 4.304
 -1.135 -1.47 4.31
 -1.121 -1.47 4.311
 -1.108 -1.47 4.313
 -1.093 -1.468 4.311
 -1.077 -1.464 4.303
 -1.063 -1.462 4.3
 -1.049 -1.461 4.298
 -1.034 -1.46 4.296
 -1.021 -1.459 4.298
 -1.008 -1.459 4.299
 -0.995 -1.459 4.302
 -0.982 -1.459 4.305
 -0.968 -1.458 4.303
 -0.953 -1.456 4.3
 -0.94 -1.455 4.3
 -0.926 -1.454 4.298
 -0.913 -1.454 4.301
 -0.9 -1.454 4.303
 -0.886 -1.453 4.303
 -0.873 -1.453 4.305
 -0.86 -1.453 4.305
 -0.845 -1.45 4.298
 -0.831 -1.448 4.296
 -0.817 -1.447 4.293
 -0.804 -1.446 4.292
 -0.79 -1.444 4.289
 -0.778 -1.447 4.298
 -0.764 -1.444 4.291
 -0.75 -1.443 4.292
 -0.737 -1.442 4.29
 -0.724 -1.443 4.293
 -0.71 -1.44 4.288
 -0.697 -1.441 4.291
 -0.685 -1.441 4.293
 -0.671 -1.441 4.293
 -0.658 -1.439 4.291
 -0.644 -1.437 4.284
 -0.631 -1.438 4.289
 -0.618 -1.436 4.285
 -0.605 -1.436 4.285
 -0.592 -1.436 4.288
 -0.58 -1.437 4.293
 -0.566 -1.436 4.289
 -0.553 -1.436 4.291
 -0.54 -1.435 4.289
 -0.527 -1.433 4.285
 -0.514 -1.432 4.284
 -0.5 -1.431 4.28
 -0.487 -1.431 4.281
 -0.475 -1.432 4.286
 -0.463 -1.434 4.293
 -0.451 -1.436 4.3
 -0.438 -1.437 4.303
 -0.424 -1.435 4.298
 -0.411 -1.433 4.294
 -0.398 -1.431 4.287
 -0.384 -1.429 4.282
 -0.371 -1.428 4.281
 -0.359 -1.429 4.284
 -0.346 -1.428 4.283
 -0.332 -1.426 4.276
 -0.32 -1.425 4.275
 -0.307 -1.427 4.279
 -0.295 -1.427 4.283
 -0.282 -1.427 4.282
 -0.269 -1.43 4.29
 -0.257 -1.43 4.291
 -0.244 -1.428 4.286
 -0.23 -1.426 4.28
 -0.217 -1.424 4.276
 -0.205 -1.423 4.272
 -0.192 -1.422 4.268
 -0.179 -1.42 4.264
 -0.166 -1.419 4.262
 -0.154 -1.422 4.271
 -0.141 -1.424 4.275
 -0.128 -1.424 4.276
 -0.116 -1.426 4.282
 -0.103 -1.427 4.286
 -0.09 -1.426 4.283
 -0.077 -1.424 4.278
 -0.065 -1.425 4.279
 -0.052 -1.424 4.278
 -0.039 -1.424 4.278
 -0.027 -1.423 4.273
 -0.014 -1.423 4.272
 -0.001 -1.422 4.271
 0.011 -1.421 4.266
 0.023 -1.42 4.264
 0.036 -1.419 4.261
 0.049 -1.421 4.267
 0.061 -1.42 4.264
 0.074 -1.42 4.264
 0.087 -1.421 4.266
 0.099 -1.423 4.27
 0.112 -1.421 4.266
 0.125 -1.422 4.268
 0.137 -1.422 4.268
 0.15 -1.422 4.267
 0.163 -1.422 4.265
 0.176 -1.422 4.266
 0.188 -1.423 4.266
 0.201 -1.423 4.266
 0.214 -1.424 4.269
 0.226 -1.423 4.265
 0.239 -1.423 4.265
 0.252 -1.424 4.265
 0.265 -1.424 4.267
 0.277 -1.421 4.256
 0.29 -1.422 4.259
 0.302 -1.421 4.254
 0.315 -1.421 4.252
 0.327 -1.42 4.25
 0.34 -1.422 4.253
 0.353 -1.422 4.253
 0.366 -1.423 4.254
 0.379 -1.424 4.257
 0.392 -1.426 4.263
 0.405 -1.427 4.262
 0.417 -1.425 4.255
 0.43 -1.425 4.256
 0.442 -1.425 4.255
 0.455 -1.425 4.252
 0.468 -1.426 4.254
 0.481 -1.428 4.258
 0.495 -1.43 4.263
 0.508 -1.43 4.262
 0.52 -1.429 4.258
 0.533 -1.429 4.256
 0.546 -1.431 4.26
 0.558 -1.428 4.251
 0.57 -1.427 4.247
 0.583 -1.427 4.245
 0.595 -1.428 4.244
 0.609 -1.429 4.246
 0.622 -1.429 4.246
 0.635 -1.431 4.248
 0.649 -1.433 4.252
 0.662 -1.434 4.253
 0.674 -1.433 4.251
 0.687 -1.433 4.249
 0.7 -1.434 4.25
 0.713 -1.435 4.25
 0.726 -1.436 4.25
 0.739 -1.436 4.248
 0.752 -1.437 4.249
 0.764 -1.435 4.242
 0.777 -1.436 4.242
 0.791 -1.437 4.244
 0.804 -1.438 4.243
 0.818 -1.44 4.248
 0.831 -1.441 4.248
 0.844 -1.44 4.243
 0.856 -1.44 4.241
 0.87 -1.441 4.243
 0.882 -1.44 4.236
 0.896 -1.442 4.241
 0.91 -1.444 4.244
 0.924 -1.446 4.245
 0.937 -1.446 4.243
 0.951 -1.448 4.247
 0.964 -1.448 4.244
 0.978 -1.449 4.245
 0.99 -1.449 4.243
 1.004 -1.45 4.242
 1.017 -1.451 4.243
 1.031 -1.452 4.242
 1.043 -1.451 4.238
 1.056 -1.451 4.234
 1.069 -1.451 4.231
 1.082 -1.452 4.229
 1.096 -1.453 4.23
 1.11 -1.454 4.231
 1.124 -1.456 4.232
 1.138 -1.458 4.235
 1.152 -1.459 4.235
 1.164 -1.458 4.23
 1.18 -1.461 4.235
 1.193 -1.461 4.232
 1.207 -1.462 4.232
 1.22 -1.463 4.23
 1.235 -1.465 4.232
 1.247 -1.464 4.226
 1.262 -1.466 4.229
 1.274 -1.466 4.225
 1.29 -1.469 4.23
 1.304 -1.47 4.23
 1.319 -1.473 4.233
 1.332 -1.472 4.228
 1.346 -1.473 4.228
 1.358 -1.472 4.221
 1.373 -1.474 4.222
 1.386 -1.474 4.219
 1.401 -1.476 4.221
 1.414 -1.476 4.217
 1.429 -1.478 4.217
 1.441 -1.477 4.211
 1.455 -1.478 4.211
 1.47 -1.48 4.21
 1.486 -1.483 4.214
 1.501 -1.485 4.216
 1.515 -1.486 4.215
 1.53 -1.487 4.214
 1.544 -1.489 4.214
 1.558 -1.49 4.212
 1.573 -1.491 4.211
 1.587 -1.492 4.21
 1.602 -1.493 4.208
 1.614 -1.492 4.201
 1.629 -1.494 4.203
 1.642 -1.494 4.196
 1.655 -1.494 4.192
 1.669 -1.494 4.187
 1.685 -1.497 4.191
 1.697 -1.496 4.183
 1.712 -1.497 4.181
 1.726 -1.499 4.18
 1.742 -1.501 4.181
 1.755 -1.5 4.174
 1.77 -1.501 4.173
 1.784 -1.503 4.171
 1.799 -1.504 4.17
 1.81 -1.502 4.159
 1.824 -1.503 4.155
 1.834 -1.5 4.143
 1.841 -1.495 4.123
 1.85 -1.492 4.109
 1.86 -1.489 4.095
 1.869 -1.486 4.081
 1.876 -1.481 4.063
 1.889 -1.481 4.056
 1.897 -1.477 4.041
 1.91 -1.477 4.036
 1.909 -1.466 3.999
 0 0 0
 0 0 0
 0 0 0
 0 0 0
 0 0 0
 0 0 0
 0 0 0
 0 0 0
 0 0 0
 0 0 0
 0 0 0
 0 0 0
 0 0 0
 0 0 0
 0 0 0
 0 0 0
 0 0 0
 0 0 0
 0 0 0
 0 0 0
 0 0 0
 0 0 0
 0 0 0
 1.836 -1.214 3.185
 1.84 -1.21 3.169
 1.845 -1.206 3.152
 1.852 -1.204 3.141
 1.855 -1.199 3.123
 1.847 -1.187 3.086
 1.859 -1.188 3.082
 1.828 -1.162 3.009
 -2.546 -1.619 4.349
 0 0 0
 -2.461 -1.584 4.267
 -2.441 -1.58 4.264
 -2.435 -1.586 4.287
 -2.424 -1.588 4.299
 -2.41 -1.589 4.308
 -2.398 -1.59 4.318
 -2.384 -1.59 4.327
 -2.37 -1.591 4.334
 -2.345 -1.583 4.321
 -2.321 -1.577 4.311
 -2.303 -1.575 4.31
 -2.288 -1.574 4.316
 -2.266 -1.569 4.308
 -2.254 -1.571 4.318
 -2.24 -1.571 4.327
 -2.221 -1.568 4.324
 -2.205 -1.567 4.326
 -2.196 -1.571 4.343
 -2.176 -1.567 4.338
 -2.16 -1.565 4.341
 -2.144 -1.564 4.343
 -2.126 -1.561 4.342
 -2.107 -1.558 4.338
 -2.093 -1.558 4.344
 -2.074 -1.554 4.34
 -2.057 -1.552 4.338
 -2.038 -1.549 4.335
 -2.021 -1.546 4.334
 -2.003 -1.543 4.33
 -1.988 -1.543 4.336
 -1.971 -1.54 4.333
 -1.955 -1.539 4.336
 -1.938 -1.536 4.333
 -1.922 -1.535 4.335
 -1.906 -1.533 4.335
 -1.889 -1.531 4.334
 -1.87 -1.527 4.328
 -1.856 -1.527 4.332
 -1.836 -1.522 4.323
 -1.821 -1.521 4.324
 -1.806 -1.52 4.326
 -1.792 -1.52 4.331
 -1.774 -1.516 4.326
 -1.76 -1.516 4.331
 -1.741 -1.511 4.321
 -1.726 -1.51 4.323
 -1.71 -1.508 4.322
 -1.693 -1.506 4.319
 -1.677 -1.503 4.317
 -1.663 -1.504 4.322
 -1.648 -1.503 4.323
 -1.634 -1.502 4.325
 -1.62 -1.502 4.329
 -1.605 -1.5 4.329
 -1.59 -1.499 4.331
 -1.574 -1.497 4.329
 -1.558 -1.495 4.325
 -1.541 -1.492 4.321
 -1.527 -1.491 4.321
 -1.511 -1.488 4.318
 -1.494 -1.486 4.315
 -1.479 -1.484 4.313
 -1.464 -1.482 4.311
 -1.45 -1.482 4.316
 -1.436 -1.482 4.318
 -1.424 -1.482 4.324
 -1.408 -1.481 4.322
 -1.395 -1.481 4.326
 -1.378 -1.477 4.319
 -1.363 -1.475 4.317
 -1.347 -1.472 4.312
 -1.335 -1.473 4.319
 -1.321 -1.473 4.321
 -1.304 -1.469 4.314
 -1.29 -1.469 4.315
 -1.276 -1.467 4.313
 -1.26 -1.464 4.307
 -1.245 -1.462 4.305
 -1.232 -1.463 4.31
 -1.217 -1.461 4.308
 -1.202 -1.458 4.303
 -1.187 -1.457 4.301
 -1.172 -1.455 4.298
 -1.159 -1.454 4.299
 -1.144 -1.453 4.298
 -1.133 -1.455 4.307
 -1.119 -1.454 4.307
 -1.106 -1.454 4.31
 -1.091 -1.452 4.307
 -1.077 -1.452 4.308
 -1.062 -1.449 4.302
 -1.048 -1.448 4.301
 -1.034 -1.446 4.3
 -1.021 -1.446 4.302
 -1.007 -1.445 4.301
 -0.995 -1.446 4.307
 -0.982 -1.447 4.31
 -0.968 -1.445 4.309
 -0.953 -1.443 4.305
 -0.94 -1.443 4.306
 -0.926 -1.441 4.303
 -0.912 -1.44 4.302
 -0.899 -1.44 4.303
 -0.886 -1.44 4.306
 -0.872 -1.439 4.304
 -0.859 -1.439 4.306
 -0.845 -1.437 4.303
 -0.832 -1.436 4.303
 -0.818 -1.435 4.299
 -0.804 -1.434 4.298
 -0.79 -1.432 4.295
 -0.778 -1.433 4.301
 -0.764 -1.431 4.296
 -0.751 -1.432 4.299
 -0.737 -1.43 4.296
 -0.724 -1.43 4.298
 -0.71 -1.427 4.29
 -0.697 -1.427 4.291
 -0.684 -1.426 4.291
 -0.671 -1.426 4.293
 -0.658 -1.426 4.292
 -0.644 -1.424 4.289
 -0.631 -1.425 4.292
 -0.617 -1.422 4.284
 -0.604 -1.421 4.284
 -0.591 -1.421 4.286
 -0.579 -1.422 4.289
 -0.565 -1.42 4.284
 -0.553 -1.421 4.289
 -0.54 -1.421 4.289
 -0.527 -1.421 4.29
 -0.513 -1.419 4.287
 -0.5 -1.419 4.286
 -0.487 -1.418 4.286
 -0.475 -1.419 4.288
 -0.462 -1.419 4.289
 -0.449 -1.42 4.293
 -0.437 -1.42 4.294
 -0.423 -1.417 4.288
 -0.41 -1.416 4.286
 -0.397 -1.414 4.28
 -0.384 -1.413 4.278
 -0.371 -1.414 4.28
 -0.358 -1.415 4.283
 -0.345 -1.414 4.282
 -0.332 -1.412 4.276
 -0.319 -1.411 4.275
 -0.307 -1.412 4.278
 -0.294 -1.412 4.279
 -0.281 -1.411 4.276
 -0.269 -1.413 4.282
 -0.256 -1.413 4.284
 -0.243 -1.412 4.279
 -0.23 -1.411 4.277
 -0.217 -1.411 4.278
 -0.204 -1.41 4.276
 -0.192 -1.409 4.272
 -0.179 -1.409 4.272
 -0.166 -1.408 4.271
 -0.154 -1.41 4.276
 -0.141 -1.411 4.281
 -0.128 -1.412 4.283
 -0.116 -1.414 4.287
 -0.103 -1.414 4.288
 -0.09 -1.412 4.284
 -0.077 -1.412 4.281
 -0.065 -1.412 4.282
 -0.052 -1.411 4.28
 -0.039 -1.413 4.284
 -0.027 -1.412 4.283
 -0.014 -1.411 4.279
 -0.001 -1.409 4.274
 0.011 -1.408 4.27
 0.023 -1.406 4.263
 0.036 -1.406 4.262
 0.049 -1.407 4.267
 0.061 -1.407 4.267
 0.074 -1.408 4.268
 0.087 -1.41 4.273
 0.1 -1.41 4.275
 0.112 -1.408 4.267
 0.125 -1.408 4.267
 0.137 -1.408 4.266
 0.15 -1.408 4.265
 0.162 -1.406 4.259
 0.175 -1.407 4.263
 0.188 -1.408 4.265
 0.201 -1.408 4.263
 0.213 -1.409 4.264
 0.226 -1.409 4.266
 0.239 -1.41 4.268
 0.252 -1.411 4.268
 0.265 -1.412 4.272
 0.277 -1.409 4.262
 0.29 -1.409 4.261
 0.302 -1.408 4.257
 0.315 -1.409 4.258
 0.327 -1.408 4.253
 0.34 -1.409 4.258
 0.353 -1.409 4.256
 0.366 -1.409 4.256
 0.379 -1.41 4.258
 0.392 -1.412 4.263
 0.404 -1.413 4.262
 0.417 -1.412 4.26
 0.43 -1.413 4.262
 0.442 -1.412 4.256
 0.455 -1.412 4.255
 0.468 -1.412 4.254
 0.481 -1.412 4.254
 0.494 -1.414 4.256
 0.507 -1.415 4.26
 0.519 -1.413 4.252
 0.532 -1.413 4.252
 0.545 -1.416 4.259
 0.557 -1.414 4.25
 0.57 -1.414 4.25
 0.583 -1.416 4.252
 0.596 -1.416 4.251
 0.609 -1.417 4.254
 0.622 -1.418 4.253
 0.635 -1.418 4.252
 0.648 -1.419 4.254
 0.662 -1.421 4.257
 0.674 -1.42 4.253
 0.687 -1.421 4.254
 0.7 -1.421 4.253
 0.713 -1.421 4.25
 0.726 -1.421 4.248
 0.739 -1.422 4.249
 0.752 -1.423 4.25
 0.764 -1.422 4.244
 0.778 -1.423 4.247
 0.791 -1.425 4.249
 0.804 -1.425 4.247
 0.818 -1.426 4.248
 0.831 -1.427 4.248
 0.843 -1.425 4.242
 0.856 -1.426 4.242
 0.869 -1.427 4.242
 0.881 -1.425 4.235
 0.896 -1.43 4.245
 0.91 -1.431 4.248
 0.923 -1.431 4.243
 0.936 -1.431 4.242
 0.95 -1.433 4.246
 0.962 -1.432 4.239
 0.976 -1.434 4.243
 0.99 -1.435 4.244
 1.003 -1.436 4.243
 1.018 -1.439 4.249
 1.032 -1.44 4.25
 1.043 -1.438 4.24
 1.055 -1.437 4.235
 1.068 -1.437 4.232
 1.081 -1.437 4.228
 1.095 -1.438 4.229
 1.109 -1.44 4.231
 1.123 -1.442 4.234
 1.139 -1.445 4.24
 1.152 -1.446 4.238
 1.164 -1.445 4.232
 1.179 -1.447 4.237
 1.191 -1.447 4.231
 1.204 -1.446 4.226
 1.218 -1.447 4.226
 1.233 -1.449 4.229
 1.246 -1.45 4.227
 1.262 -1.453 4.232
 1.276 -1.454 4.233
 1.29 -1.456 4.235
 1.305 -1.457 4.235
 1.319 -1.459 4.237
 1.331 -1.458 4.23
 1.345 -1.459 4.23
 1.358 -1.459 4.224
 1.372 -1.461 4.225
 1.386 -1.461 4.221
 1.401 -1.463 4.226
 1.414 -1.463 4.22
 1.428 -1.464 4.22
 1.441 -1.464 4.215
 1.454 -1.464 4.212
