 0.426 -1.584 4.247
 0.451 -1.584 4.244
 0.477 -1.585 4.243
 0.503 -1.585 4.242
 0.528 -1.585 4.237
 0.554 -1.585 4.235
 0.58 -1.587 4.237
 0.606 -1.587 4.234
 0.632 -1.588 4.233
 0.658 -1.589 4.232
 0.683 -1.589 4.228
 0.709 -1.588 4.222
 0.735 -1.59 4.223
 0.761 -1.592 4.223
 0.787 -1.593 4.221
 0.813 -1.593 4.218
 0.84 -1.595 4.217
 0.866 -1.596 4.216
 0.892 -1.597 4.212
 0.918 -1.597 4.209
 0.944 -1.597 4.203
 0.971 -1.599 4.203
 0.998 -1.601 4.203
 1.023 -1.601 4.197
 1.05 -1.602 4.194
 1.078 -1.606 4.197
 1.105 -1.607 4.195
 1.132 -1.609 4.194
 1.159 -1.611 4.192
 1.186 -1.612 4.188
 1.212 -1.613 4.183
 1.238 -1.613 4.177
 1.264 -1.613 4.169
 1.291 -1.614 4.166
 1.317 -1.614 4.158
 1.343 -1.614 4.15
 1.369 -1.615 4.144
 1.396 -1.616 4.138
 1.422 -1.616 4.131
 1.45 -1.618 4.128
 1.476 -1.618 4.119
 1.503 -1.619 4.114
 1.529 -1.62 4.106
 1.557 -1.621 4.101
 1.583 -1.621 4.092
 1.612 -1.624 4.09
 1.639 -1.625 4.084
 1.664 -1.625 4.072
 1.691 -1.626 4.064
 1.717 -1.625 4.054
 1.739 -1.622 4.035
 1.763 -1.62 4.019
 1.784 -1.616 3.999
 1.801 -1.608 3.968
 1.816 -1.598 3.933
 1.828 -1.586 3.893
 1.836 -1.572 3.846
 1.842 -1.555 3.795
 1.851 -1.542 3.752
 1.855 -1.525 3.699
 1.859 -1.509 3.648
 1.86 -1.49 3.592
 1.879 -1.487 3.572
 1.876 -1.466 3.51
 1.745 -1.347 3.215
 1.742 -1.329 3.16
 1.758 -1.324 3.138
 1.771 -1.318 3.113
 1.778 -1.308 3.079
 1.781 -1.295 3.037
 1.777 -1.277 2.984
 1.766 -1.255 2.921
 1.77 -1.244 2.884
 -2.323 -1.623 3.931
 -2.28 -1.612 3.917
 -2.262 -1.618 3.946
 -2.234 -1.618 3.958
 -2.203 -1.615 3.963
 -2.174 -1.614 3.973
 -2.147 -1.614 3.985
 -2.12 -1.613 3.997
 -2.091 -1.612 4.004
 -2.068 -1.615 4.024
 -2.042 -1.615 4.036
 -2.012 -1.613 4.043
 -1.987 -1.615 4.058
 -1.965 -1.618 4.078
 -1.934 -1.615 4.081
 -1.907 -1.615 4.092
 -1.882 -1.617 4.106
 -1.855 -1.617 4.116
 -1.823 -1.612 4.115
 -1.798 -1.613 4.129
 -1.769 -1.612 4.134
 -1.741 -1.611 4.142
 -1.712 -1.609 4.145
 -1.687 -1.61 4.158
 -1.66 -1.61 4.167
 -1.634 -1.611 4.179
 -1.606 -1.609 4.182
 -1.578 -1.609 4.19
 -1.55 -1.607 4.194
 -1.521 -1.605 4.197
 -1.494 -1.604 4.203
 -1.468 -1.605 4.211
 -1.44 -1.604 4.217
 -1.414 -1.604 4.225
 -1.387 -1.604 4.233
 -1.359 -1.603 4.236
 -1.331 -1.601 4.237
 -1.304 -1.599 4.241
 -1.275 -1.597 4.242
 -1.247 -1.595 4.243
 -1.22 -1.594 4.247
 -1.193 -1.594 4.252
 -1.166 -1.593 4.256
 -1.139 -1.592 4.258
 -1.112 -1.591 4.262
 -1.084 -1.588 4.259
 -1.057 -1.587 4.261
 -1.029 -1.586 4.263
 -1.003 -1.585 4.265
 -0.976 -1.584 4.268
 -0.95 -1.584 4.274
 -0.923 -1.584 4.278
 -0.896 -1.582 4.276
 -0.87 -1.582 4.28
 -0.842 -1.579 4.278
 -0.815 -1.577 4.275
 -0.788 -1.575 4.273
 -0.762 -1.576 4.279
 -0.735 -1.574 4.277
 -0.709 -1.573 4.278
 -0.683 -1.573 4.281
 -0.656 -1.572 4.283
 -0.63 -1.57 4.28
 -0.604 -1.571 4.285
 -0.578 -1.571 4.287
 -0.552 -1.57 4.287
 -0.526 -1.57 4.289
 -0.5 -1.57 4.292
 -0.474 -1.569 4.291
 -0.448 -1.569 4.293
 -0.422 -1.569 4.294
 -0.396 -1.568 4.294
 -0.37 -1.567 4.293
 -0.343 -1.565 4.289
 -0.317 -1.564 4.287
 -0.291 -1.562 4.283
 -0.266 -1.563 4.286
 -0.24 -1.562 4.286
 -0.214 -1.562 4.286
 -0.188 -1.562 4.286
 -0.163 -1.564 4.292
 -0.137 -1.562 4.288
 -0.111 -1.562 4.288
 -0.085 -1.562 4.287
 -0.06 -1.561 4.286
 -0.034 -1.56 4.282
 -0.008 -1.56 4.282
 0.016 -1.56 4.281
 0.042 -1.561 4.283
 0.068 -1.559 4.279
 0.093 -1.56 4.279
 0.119 -1.559 4.277
 0.144 -1.558 4.273
 0.17 -1.557 4.27
 0.196 -1.558 4.271
 0.221 -1.557 4.267
 0.247 -1.558 4.267
 0.273 -1.559 4.268
 0.298 -1.559 4.266
 0.324 -1.559 4.266
 0.35 -1.56 4.266
 0.375 -1.56 4.264
 0.401 -1.563 4.268
 0.428 -1.564 4.27
 0.453 -1.563 4.264
 0.479 -1.563 4.263
 0.504 -1.564 4.261
 0.53 -1.564 4.258
 0.556 -1.564 4.255
 0.582 -1.565 4.256
 0.607 -1.565 4.253
 0.633 -1.565 4.249
 0.659 -1.566 4.246
 0.685 -1.567 4.246
 0.711 -1.567 4.241
 0.737 -1.569 4.244
 0.764 -1.572 4.247
 0.791 -1.574 4.247
 0.817 -1.573 4.243
 0.844 -1.576 4.245
 0.87 -1.577 4.241
 0.896 -1.577 4.238
 0.922 -1.578 4.234
 0.948 -1.578 4.23
 0.976 -1.581 4.232
 1.003 -1.584 4.235
 1.029 -1.584 4.229
 1.056 -1.585 4.226
 1.084 -1.587 4.227
 1.11 -1.588 4.222
 1.137 -1.59 4.221
 1.164 -1.591 4.217
 1.191 -1.592 4.214
 1.218 -1.594 4.211
 1.246 -1.596 4.209
 1.271 -1.595 4.201
 1.3 -1.598 4.201
 1.326 -1.599 4.196
 1.353 -1.6 4.191
 1.38 -1.601 4.184
 1.407 -1.602 4.18
 1.434 -1.603 4.175
 1.463 -1.606 4.173
 1.489 -1.606 4.165
 1.516 -1.606 4.158
 1.543 -1.607 4.151
 1.57 -1.608 4.144
 1.596 -1.608 4.134
 1.625 -1.611 4.134
 1.654 -1.614 4.131
 1.681 -1.614 4.121
 1.708 -1.615 4.114
 1.735 -1.616 4.106
 1.758 -1.613 4.087
 1.779 -1.608 4.064
 1.799 -1.602 4.04
 1.812 -1.591 4
 1.823 -1.578 3.958
 1.834 -1.565 3.914
 1.843 -1.552 3.869
 1.85 -1.537 3.821
 1.863 -1.527 3.785
 1.866 -1.51 3.731
 1.873 -1.496 3.685
 1.873 -1.477 3.627
 1.901 -1.479 3.622
 0 0 0
 0 0 0
 1.739 -1.305 3.161
 1.759 -1.304 3.149
 1.775 -1.3 3.128
 1.783 -1.29 3.094
 1.785 -1.277 3.051
 1.782 -1.26 3
 1.773 -1.24 2.94
 1.742 -1.205 2.846
 -2.337 -1.606 3.966
 -2.324 -1.616 4.004
 -2.198 -1.547 3.844
 -2.172 -1.547 3.858
 -2.235 -1.611 4.03
 -2.206 -1.61 4.04
 -2.179 -1.61 4.054
 -2.152 -1.611 4.067
 -2.123 -1.609 4.075
 -2.097 -1.61 4.091
 -2.07 -1.61 4.102
 -2.039 -1.608 4.107
 -2.014 -1.609 4.122
 -1.99 -1.612 4.14
 -1.958 -1.608 4.142
 -1.931 -1.608 4.152
 -1.906 -1.61 4.168
 -1.878 -1.609 4.177
 -1.845 -1.604 4.174
 -1.821 -1.607 4.192
 -1.792 -1.606 4.198
 -1.764 -1.605 4.206
 -1.733 -1.602 4.206
 -1.709 -1.604 4.221
 -1.68 -1.603 4.228
 -1.654 -1.604 4.24
 -1.625 -1.602 4.243
 -1.598 -1.601 4.251
 -1.568 -1.599 4.252
 -1.539 -1.596 4.254
 -1.511 -1.596 4.26
 -1.484 -1.595 4.267
 -1.455 -1.594 4.271
 -1.429 -1.595 4.28
 -1.402 -1.594 4.287
 -1.373 -1.591 4.286
 -1.343 -1.588 4.285
 -1.315 -1.587 4.289
 -1.286 -1.584 4.286
 -1.256 -1.581 4.284
 -1.228 -1.579 4.285
 -1.201 -1.578 4.288
 -1.173 -1.576 4.289
 -1.145 -1.574 4.289
 -1.118 -1.573 4.294
 -1.09 -1.571 4.294
 -1.063 -1.57 4.296
 -1.036 -1.569 4.299
 -1.009 -1.569 4.301
 -0.982 -1.567 4.302
 -0.955 -1.567 4.307
 -0.929 -1.567 4.311
 -0.9 -1.564 4.307
 -0.874 -1.564 4.312
 -0.846 -1.561 4.307
 -0.819 -1.558 4.303
 -0.791 -1.555 4.299
 -0.765 -1.556 4.305
 -0.737 -1.552 4.298
 -0.711 -1.552 4.301
 -0.685 -1.551 4.302
 -0.658 -1.551 4.303
 -0.631 -1.548 4.297
 -0.605 -1.549 4.304
 -0.579 -1.549 4.306
 -0.553 -1.547 4.303
 -0.527 -1.546 4.304
 -0.501 -1.547 4.31
 -0.474 -1.546 4.307
 -0.448 -1.546 4.309
 -0.423 -1.546 4.312
 -0.397 -1.546 4.312
 -0.37 -1.544 4.31
 -0.344 -1.542 4.306
 -0.318 -1.541 4.305
 -0.292 -1.54 4.302
 -0.266 -1.539 4.299
 -0.24 -1.538 4.297
 -0.214 -1.537 4.297
 -0.188 -1.537 4.296
 -0.163 -1.538 4.301
 -0.137 -1.537 4.297
 -0.111 -1.537 4.298
 -0.085 -1.538 4.3
 -0.06 -1.537 4.298
 -0.034 -1.535 4.292
 -0.008 -1.535 4.293
 0.017 -1.535 4.291
 0.042 -1.535 4.291
 0.068 -1.533 4.285
 0.093 -1.533 4.285
 0.119 -1.533 4.284
 0.145 -1.533 4.282
 0.17 -1.532 4.278
 0.196 -1.534 4.282
 0.222 -1.533 4.28
 0.247 -1.534 4.28
 0.273 -1.535 4.28
 0.299 -1.535 4.279
 0.324 -1.536 4.279
 0.35 -1.537 4.28
 0.376 -1.537 4.279
 0.402 -1.538 4.279
 0.428 -1.539 4.28
 0.453 -1.538 4.274
 0.479 -1.539 4.274
 0.505 -1.54 4.273
 0.531 -1.541 4.273
 0.556 -1.54 4.268
 0.583 -1.541 4.269
 0.608 -1.541 4.265
 0.634 -1.541 4.261
 0.66 -1.542 4.259
 0.687 -1.544 4.262
 0.713 -1.545 4.259
 0.739 -1.547 4.261
 0.766 -1.549 4.264
 0.793 -1.551 4.264
 0.819 -1.551 4.261
 0.846 -1.553 4.26
 0.872 -1.554 4.258
 0.898 -1.555 4.256
 0.924 -1.555 4.251
 0.951 -1.556 4.249
 0.978 -1.558 4.248
 1.005 -1.56 4.25
 1.032 -1.561 4.246
 1.059 -1.563 4.245
 1.086 -1.565 4.244
 1.113 -1.566 4.242
 1.14 -1.568 4.241
 1.167 -1.569 4.236
 1.194 -1.57 4.233
 1.221 -1.571 4.23
 1.248 -1.573 4.226
 1.275 -1.573 4.221
 1.303 -1.576 4.222
 1.331 -1.578 4.219
 1.359 -1.58 4.217
 1.387 -1.582 4.214
 1.414 -1.583 4.209
 1.442 -1.585 4.205
 1.47 -1.586 4.201
 1.496 -1.587 4.193
 1.524 -1.588 4.188
 1.551 -1.589 4.183
 1.579 -1.591 4.178
 1.607 -1.593 4.173
 1.637 -1.596 4.173
 1.666 -1.598 4.168
 1.693 -1.599 4.16
 1.721 -1.6 4.154
 1.747 -1.6 4.143
 1.77 -1.596 4.123
 1.791 -1.592 4.101
 1.809 -1.585 4.072
 1.82 -1.572 4.028
 1.831 -1.559 3.984
 1.842 -1.547 3.942
 1.852 -1.534 3.898
 1.865 -1.523 3.86
 1.879 -1.514 3.826
 1.884 -1.499 3.776
 1.892 -1.486 3.731
 0 0 0
 0 0 0
 0 0 0
 0 0 0
 1.736 -1.281 3.162
 1.759 -1.282 3.156
 1.774 -1.278 3.133
 1.782 -1.269 3.1
 1.788 -1.258 3.063
 1.785 -1.242 3.012
 1.763 -1.212 2.93
 1.77 -1.204 2.9
 -2.34 -1.581 3.98
 -2.361 -1.614 4.077
 -1.942 -1.344 3.403
 -2.013 -1.41 3.583
 -1.988 -1.409 3.592
 -1.872 -1.343 3.434
 -1.849 -1.343 3.446
 -1.915 -1.409 3.625
 -1.802 -1.343 3.465
 -1.866 -1.409 3.647
 -1.927 -1.474 3.827
 -1.984 -1.538 4.005
 -1.959 -1.539 4.019
 -2.018 -1.607 4.208
 -1.985 -1.603 4.209
 -1.958 -1.603 4.22
 -1.93 -1.603 4.232
 -1.9 -1.601 4.237
 -1.866 -1.596 4.232
 -1.841 -1.598 4.248
 -1.811 -1.595 4.252
 -1.782 -1.594 4.259
 -1.751 -1.591 4.259
 -1.725 -1.592 4.272
 -1.697 -1.592 4.279
 -1.67 -1.592 4.289
 -1.641 -1.59 4.293
 -1.612 -1.589 4.299
 -1.581 -1.585 4.298
 -1.551 -1.583 4.299
 -1.523 -1.581 4.302
 -1.494 -1.58 4.306
 -1.466 -1.579 4.312
 -1.44 -1.58 4.321
 -1.411 -1.577 4.323
 -1.381 -1.574 4.322
 -1.351 -1.571 4.32
 -1.322 -1.569 4.32
 -1.292 -1.565 4.316
 -1.263 -1.562 4.315
 -1.235 -1.56 4.316
 -1.206 -1.558 4.315
 -1.178 -1.556 4.317
 -1.15 -1.554 4.316
 -1.122 -1.553 4.32
 -1.095 -1.552 4.321
 -1.068 -1.551 4.324
 -1.04 -1.549 4.325
 -1.012 -1.547 4.324
 -0.984 -1.545 4.324
 -0.957 -1.545 4.326
 -0.93 -1.543 4.326
 -0.902 -1.54 4.322
 -0.875 -1.54 4.327
 -0.847 -1.537 4.322
 -0.82 -1.534 4.319
 -0.792 -1.532 4.316
 -0.766 -1.532 4.32
 -0.739 -1.53 4.317
 -0.713 -1.53 4.319
 -0.686 -1.528 4.317
 -0.659 -1.527 4.317
 -0.632 -1.524 4.311
 -0.606 -1.524 4.315
 -0.579 -1.523 4.314
 -0.553 -1.521 4.313
 -0.527 -1.521 4.314
 -0.501 -1.522 4.319
 -0.474 -1.519 4.313
 -0.448 -1.519 4.315
 -0.422 -1.519 4.316
 -0.396 -1.518 4.316
 -0.37 -1.516 4.31
 -0.344 -1.515 4.311
 -0.317 -1.514 4.308
 -0.292 -1.513 4.307
 -0.266 -1.512 4.305
 -0.24 -1.512 4.304
 -0.214 -1.511 4.303
 -0.188 -1.511 4.303
 -0.162 -1.512 4.306
 -0.137 -1.51 4.302
 -0.111 -1.511 4.304
 -0.085 -1.511 4.306
 -0.059 -1.511 4.304
 -0.034 -1.509 4.299
 -0.008 -1.509 4.298
 0.017 -1.508 4.296
 0.042 -1.508 4.294
 0.068 -1.506 4.289
 0.094 -1.507 4.29
 0.119 -1.506 4.288
 0.145 -1.506 4.287
 0.17 -1.506 4.286
 0.196 -1.508 4.29
 0.222 -1.508 4.289
 0.248 -1.509 4.291
 0.273 -1.509 4.288
 0.299 -1.509 4.286
 0.325 -1.51 4.287
 0.35 -1.51 4.286
 0.376 -1.51 4.283
 0.402 -1.512 4.285
 0.428 -1.512 4.285
 0.453 -1.511 4.279
 0.479 -1.513 4.281
 0.505 -1.514 4.281
 0.531 -1.514 4.279
 0.556 -1.514 4.275
 0.583 -1.515 4.275
 0.608 -1.515 4.272
 0.634 -1.515 4.269
 0.66 -1.517 4.27
 0.687 -1.52 4.274
 0.714 -1.521 4.274
 0.74 -1.522 4.274
 0.767 -1.525 4.276
 0.793 -1.525 4.274
 0.819 -1.526 4.271
 0.846 -1.527 4.268
 0.872 -1.528 4.266
 0.898 -1.529 4.264
 0.925 -1.529 4.261
 0.951 -1.531 4.259
 0.978 -1.532 4.258
 1.005 -1.534 4.258
 1.032 -1.535 4.255
 1.059 -1.536 4.252
 1.086 -1.538 4.252
 1.114 -1.54 4.252
 1.141 -1.542 4.25
 1.167 -1.543 4.245
 1.195 -1.545 4.244
 1.222 -1.546 4.24
 1.249 -1.547 4.238
 1.277 -1.549 4.235
 1.305 -1.552 4.235
 1.333 -1.554 4.234
 1.362 -1.557 4.234
 1.39 -1.559 4.233
 1.418 -1.561 4.228
 1.447 -1.563 4.227
 1.475 -1.565 4.224
 1.502 -1.566 4.218
 1.53 -1.568 4.213
 1.558 -1.569 4.209
 1.586 -1.571 4.204
 1.615 -1.573 4.2
 1.643 -1.575 4.196
 1.672 -1.577 4.192
 1.7 -1.578 4.185
 1.728 -1.58 4.179
 1.755 -1.58 4.17
 1.779 -1.578 4.153
 1.798 -1.571 4.126
 1.816 -1.564 4.096
 1.828 -1.552 4.053
 1.837 -1.538 4.006
 1.85 -1.527 3.966
 1.863 -1.517 3.929
 1.878 -1.508 3.896
 1.894 -1.501 3.866
 1.914 -1.497 3.844
 0 0 0
 0 0 0
 0 0 0
 0 0 0
 0 0 0
 1.736 -1.259 3.169
 1.757 -1.259 3.159
 1.773 -1.256 3.14
 1.782 -1.247 3.108
 1.788 -1.237 3.071
 1.785 -1.221 3.02
 1.76 -1.19 2.932
 1.779 -1.19 2.921
 -2.419 -1.606 4.125
 -0.017 -0.013 0.016
 -1.503 -1.023 2.638
 -1.579 -1.087 2.814
 -1.649 -1.149 2.985
 -1.535 -1.083 2.82
 -1.517 -1.083 2.831
 -1.586 -1.148 3.009
 -1.566 -1.147 3.017
 -1.545 -1.147 3.024
 -1.609 -1.21 3.201
 -1.67 -1.272 3.377
 -1.731 -1.337 3.558
 -1.791 -1.402 3.742
 -1.846 -1.465 3.921
 -1.9 -1.529 4.104
 -1.95 -1.592 4.285
 -1.92 -1.59 4.29
 -1.886 -1.585 4.286
 -1.858 -1.585 4.296
 -1.826 -1.581 4.298
 -1.798 -1.581 4.305
 -1.766 -1.577 4.305
 -1.739 -1.578 4.317
 -1.71 -1.577 4.322
 -1.682 -1.576 4.33
 -1.652 -1.574 4.333
 -1.622 -1.572 4.336
 -1.591 -1.568 4.333
 -1.561 -1.565 4.334
 -1.531 -1.563 4.336
 -1.501 -1.56 4.336
 -1.472 -1.558 4.339
 -1.444 -1.557 4.344
 -1.414 -1.554 4.342
 -1.384 -1.551 4.339
 -1.354 -1.548 4.338
 -1.325 -1.545 4.337
 -1.295 -1.541 4.334
 -1.265 -1.539 4.332
 -1.237 -1.537 4.334
 -1.209 -1.535 4.334
 -1.181 -1.533 4.335
 -1.152 -1.531 4.335
 -1.125 -1.53 4.337
 -1.096 -1.527 4.335
 -1.068 -1.525 4.336
 -1.041 -1.524 4.336
 -1.012 -1.521 4.334
 -0.984 -1.519 4.332
 -0.957 -1.518 4.333
 -0.93 -1.516 4.333
 -0.902 -1.514 4.331
 -0.875 -1.513 4.334
 -0.847 -1.511 4.331
 -0.82 -1.509 4.329
 -0.793 -1.507 4.327
 -0.767 -1.507 4.331
 -0.739 -1.505 4.328
 -0.713 -1.504 4.328
 -0.686 -1.502 4.326
 -0.659 -1.501 4.325
 -0.631 -1.497 4.318
 -0.605 -1.497 4.32
 -0.579 -1.496 4.319
 -0.552 -1.494 4.318
 -0.526 -1.494 4.319
 -0.5 -1.494 4.321
 -0.474 -1.492 4.318
 -0.448 -1.492 4.319
 -0.422 -1.491 4.319
 -0.395 -1.491 4.318
 -0.369 -1.489 4.314
 -0.343 -1.488 4.314
 -0.317 -1.487 4.312
 -0.291 -1.486 4.311
 -0.265 -1.485 4.309
 -0.239 -1.485 4.31
 -0.214 -1.484 4.309
 -0.188 -1.485 4.31
 -0.162 -1.485 4.312
 -0.136 -1.485 4.31
 -0.111 -1.484 4.31
 -0.085 -1.484 4.309
 -0.059 -1.484 4.308
 -0.033 -1.481 4.301
 -0.008 -1.48 4.298
 0.017 -1.479 4.294
 0.042 -1.479 4.295
 0.068 -1.478 4.289
 0.094 -1.479 4.292
 0.119 -1.479 4.292
 0.145 -1.48 4.293
 0.17 -1.48 4.292
 0.196 -1.482 4.296
 0.222 -1.482 4.294
 0.248 -1.482 4.295
 0.273 -1.482 4.291
 0.299 -1.482 4.291
 0.325 -1.483 4.292
 0.35 -1.484 4.29
 0.376 -1.483 4.286
 0.402 -1.484 4.288
 0.427 -1.484 4.285
 0.452 -1.482 4.278
 0.479 -1.485 4.282
 0.505 -1.486 4.282
 0.53 -1.486 4.281
 0.556 -1.487 4.279
 0.582 -1.488 4.28
 0.608 -1.488 4.276
 0.634 -1.489 4.274
 0.66 -1.49 4.274
 0.687 -1.492 4.278
 0.714 -1.494 4.279
 0.74 -1.495 4.277
 0.766 -1.497 4.278
 0.793 -1.498 4.278
 0.819 -1.499 4.275
 0.845 -1.499 4.272
 0.872 -1.501 4.271
 0.898 -1.502 4.271
 0.924 -1.503 4.267
 0.951 -1.503 4.263
 0.977 -1.505 4.262
 1.004 -1.506 4.261
 1.031 -1.507 4.258
 1.058 -1.509 4.258
 1.086 -1.512 4.261
 1.113 -1.514 4.258
 1.141 -1.516 4.258
 1.168 -1.517 4.254
 1.195 -1.518 4.25
 1.221 -1.518 4.244
 1.249 -1.521 4.246
 1.277 -1.523 4.245
 1.306 -1.526 4.245
 1.334 -1.528 4.244
 1.363 -1.531 4.245
 1.391 -1.533 4.242
 1.418 -1.535 4.238
 1.447 -1.537 4.237
 1.476 -1.54 4.236
 1.504 -1.541 4.231
 1.532 -1.543 4.227
 1.559 -1.544 4.22
 1.587 -1.545 4.214
 1.615 -1.547 4.211
 1.645 -1.549 4.208
 1.673 -1.551 4.203
 1.702 -1.553 4.199
 1.73 -1.555 4.193
 1.756 -1.555 4.182
 1.78 -1.552 4.164
 1.8 -1.546 4.139
 1.818 -1.539 4.11
 1.833 -1.53 4.073
 1.845 -1.518 4.031
 1.859 -1.508 3.994
 1.876 -1.502 3.965
 1.892 -1.494 3.933
 1.91 -1.488 3.906
 0 0 0
 0 0 0
 0 0 0
 0 0 0
 0 0 0
 0 0 0
 1.745 -1.244 3.194
 1.764 -1.243 3.179
 1.78 -1.239 3.16
 1.788 -1.23 3.125
 1.793 -1.219 3.087
 1.79 -1.204 3.036
 1.798 -1.195 3.003
 1.762 -1.158 2.9
 -0.014 -0.011 0.012
 -2.384 -1.574 4.137
 -1.06 -0.709 1.86
 -1.139 -0.771 2.031
 -1.214 -0.831 2.199
 -1.104 -0.766 2.03
 -1.091 -0.766 2.037
 -1.165 -0.829 2.212
 -1.151 -0.829 2.219
 -1.134 -0.827 2.22
 -1.203 -0.889 2.394
 -1.267 -0.949 2.564
 -1.332 -1.011 2.74
 -1.479 -1.138 3.095
 -1.62 -1.264 3.449
 -1.757 -1.389 3.803
 -1.809 -1.451 3.983
 -1.858 -1.512 4.16
 -1.825 -1.507 4.157
 -1.795 -1.505 4.16
 -1.764 -1.501 4.159
 -1.808 -1.562 4.339
 -1.776 -1.558 4.339
 -1.747 -1.557 4.345
 -1.717 -1.555 4.349
 -1.688 -1.554 4.354
 -1.657 -1.551 4.355
 -1.627 -1.549 4.357
 -1.596 -1.545 4.355
 -1.565 -1.542 4.355
 -1.536 -1.54 4.358
 -1.506 -1.538 4.359
 -1.476 -1.535 4.359
 -1.446 -1.532 4.359
 -1.416 -1.529 4.357
 -1.385 -1.525 4.352
 -1.355 -1.522 4.35
 -1.325 -1.519 4.348
 -1.295 -1.515 4.344
 -1.266 -1.513 4.343
 -1.238 -1.511 4.344
 -1.209 -1.509 4.344
 -1.181 -1.507 4.344
 -1.153 -1.505 4.346
 -1.125 -1.504 4.347
 -1.097 -1.501 4.346
 -1.068 -1.499 4.344
 -1.04 -1.497 4.342
 -1.011 -1.494 4.339
 -0.983 -1.491 4.334
 -0.956 -1.489 4.335
 -0.928 -1.487 4.334
 -0.901 -1.486 4.335
 -0.875 -1.486 4.339
 -0.847 -1.484 4.336
 -0.82 -1.482 4.335
 -0.792 -1.48 4.333
 -0.766 -1.479 4.334
 -0.738 -1.477 4.33
 -0.711 -1.476 4.33
 -0.684 -1.474 4.327
 -0.658 -1.472 4.326
 -0.63 -1.469 4.319
 -0.604 -1.469 4.321
 -0.578 -1.468 4.32
 -0.552 -1.467 4.321
 -0.525 -1.466 4.32
 -0.499 -1.466 4.323
 -0.473 -1.464 4.319
 -0.447 -1.464 4.321
 -0.421 -1.464 4.322
 -0.395 -1.463 4.321
 -0.369 -1.461 4.318
 -0.343 -1.462 4.32
 -0.317 -1.459 4.314
 -0.291 -1.458 4.311
 -0.265 -1.457 4.31
 -0.239 -1.457 4.31
 -0.213 -1.455 4.306
 -0.187 -1.456 4.308
 -0.162 -1.457 4.312
 -0.136 -1.457 4.312
 -0.11 -1.457 4.313
 -0.085 -1.456 4.31
 -0.059 -1.456 4.31
 -0.033 -1.453 4.3
 -0.008 -1.452 4.297
 0.017 -1.45 4.291
 0.042 -1.451 4.293
 0.068 -1.449 4.287
 0.094 -1.451 4.293
 0.119 -1.452 4.294
 0.145 -1.453 4.296
 0.17 -1.453 4.296
 0.196 -1.455 4.301
 0.222 -1.455 4.298
 0.248 -1.456 4.3
 0.273 -1.455 4.296
 0.298 -1.455 4.292
 0.324 -1.456 4.294
 0.35 -1.456 4.293
 0.375 -1.454 4.285
 0.401 -1.456 4.287
 0.427 -1.456 4.286
 0.452 -1.455 4.28
 0.478 -1.457 4.283
 0.504 -1.457 4.282
 0.53 -1.458 4.281
 0.556 -1.459 4.281
 0.582 -1.46 4.282
 0.607 -1.46 4.277
 0.633 -1.461 4.277
 0.66 -1.462 4.277
 0.686 -1.464 4.278
 0.713 -1.466 4.28
 0.739 -1.467 4.28
 0.766 -1.469 4.281
 0.792 -1.471 4.281
 0.818 -1.471 4.278
 0.844 -1.471 4.274
 0.871 -1.473 4.274
 0.897 -1.474 4.271
 0.923 -1.475 4.269
 0.95 -1.475 4.266
 0.976 -1.477 4.264
 1.003 -1.478 4.261
 1.03 -1.48 4.262
 1.057 -1.481 4.261
 1.085 -1.484 4.262
 1.112 -1.485 4.26
 1.139 -1.487 4.259
 1.166 -1.488 4.255
 1.193 -1.489 4.252
 1.22 -1.49 4.248
 1.248 -1.493 4.25
 1.276 -1.495 4.248
 1.305 -1.498 4.25
 1.333 -1.501 4.25
 1.362 -1.504 4.251
 1.391 -1.506 4.249
 1.418 -1.508 4.245
 1.446 -1.509 4.242
 1.475 -1.512 4.24
 1.503 -1.513 4.236
 1.532 -1.516 4.234
 1.56 -1.517 4.229
 1.588 -1.519 4.226
 1.617 -1.522 4.224
 1.647 -1.524 4.222
 1.675 -1.526 4.217
 1.703 -1.528 4.211
 1.732 -1.529 4.205
 1.758 -1.529 4.194
 1.781 -1.526 4.177
 1.802 -1.521 4.152
 1.822 -1.515 4.126
 1.837 -1.507 4.091
 1.852 -1.497 4.054
 1.867 -1.489 4.02
 1.883 -1.481 3.989
 1.901 -1.475 3.96
 0 0 0
 0 0 0
 0 0 0
 0 0 0
 0 0 0
 0 0 0
 0 0 0
 1.742 -1.221 3.195
 1.763 -1.221 3.185
 1.778 -1.216 3.163
 1.786 -1.207 3.128
 1.792 -1.198 3.092
 1.79 -1.182 3.042
 1.773 -1.158 2.967
 1.764 -1.14 2.91
 -0.061 -0.041 0.092
 -0.091 -0.061 0.147
 -0.614 -0.404 1.074
 -0.696 -0.463 1.238
 -0.777 -0.523 1.406
 -0.673 -0.459 1.235
 -0.664 -0.459 1.238
 -0.743 -0.52 1.409
 -0.732 -0.518 1.409
 -0.718 -0.515 1.405
 -0.792 -0.575 1.575
 -0.861 -0.633 1.741
 -0.929 -0.693 1.911
 -1.08 -0.816 2.26
 -1.308 -1.002 2.787
 -1.527 -1.186 3.311
 -1.66 -1.308 3.661
 -1.788 -1.43 4.013
 -1.834 -1.488 4.187
 -1.803 -1.484 4.187
 -1.771 -1.481 4.186
 -1.814 -1.54 4.364
 -1.782 -1.536 4.363
 -1.751 -1.533 4.364
 -1.721 -1.531 4.368
 -1.69 -1.528 4.368
 -1.659 -1.525 4.368
 -1.627 -1.522 4.367
 -1.596 -1.518 4.366
 -1.565 -1.514 4.363
 -1.535 -1.513 4.366
 -1.506 -1.51 4.367
 -1.476 -1.508 4.366
 -1.445 -1.505 4.365
 -1.416 -1.502 4.365
 -1.384 -1.498 4.359
 -1.355 -1.495 4.358
 -1.324 -1.491 4.354
 -1.294 -1.487 4.348
 -1.264 -1.484 4.346
 -1.236 -1.482 4.346
 -1.207 -1.48 4.346
 -1.179 -1.478 4.348
 -1.152 -1.478 4.352
 -1.124 -1.476 4.353
 -1.096 -1.475 4.353
 -1.068 -1.472 4.352
 -1.04 -1.47 4.349
 -1.011 -1.467 4.346
 -0.983 -1.464 4.342
 -0.955 -1.463 4.342
 -0.927 -1.46 4.339
 -0.9 -1.458 4.338
 -0.873 -1.458 4.34
 -0.846 -1.456 4.338
 -0.819 -1.454 4.337
 -0.792 -1.453 4.337
 -0.765 -1.452 4.339
 -0.737 -1.45 4.334
 -0.711 -1.449 4.335
 -0.684 -1.447 4.332
 -0.657 -1.446 4.332
 -0.63 -1.443 4.328
 -0.604 -1.443 4.329
 -0.577 -1.44 4.323
 -0.551 -1.441 4.327
 -0.525 -1.439 4.326
 -0.499 -1.439 4.328
 -0.472 -1.438 4.324
 -0.447 -1.439 4.33
 -0.421 -1.438 4.329
 -0.395 -1.437 4.329
 -0.368 -1.435 4.324
 -0.343 -1.436 4.326
 -0.316 -1.433 4.32
 -0.29 -1.431 4.314
 -0.264 -1.429 4.311
 -0.238 -1.429 4.311
 -0.212 -1.428 4.307
 -0.187 -1.428 4.308
 -0.161 -1.429 4.312
 -0.136 -1.429 4.311
 -0.11 -1.429 4.312
 -0.084 -1.429 4.312
 -0.059 -1.428 4.311
 -0.033 -1.425 4.302
 -0.007 -1.424 4.297
 0.017 -1.423 4.295
 0.043 -1.424 4.298
 0.068 -1.422 4.291
 0.094 -1.424 4.296
 0.119 -1.426 4.299
 0.145 -1.425 4.297
 0.17 -1.425 4.294
 0.196 -1.427 4.299
 0.221 -1.426 4.296
 0.247 -1.426 4.295
 0.273 -1.426 4.293
 0.298 -1.426 4.289
 0.324 -1.427 4.291
 0.349 -1.427 4.289
 0.375 -1.426 4.285
 0.4 -1.427 4.286
 0.426 -1.428 4.287
 0.452 -1.428 4.284
 0.478 -1.43 4.288
 0.504 -1.432 4.29
 0.53 -1.432 4.288
 0.556 -1.434 4.289
 0.582 -1.435 4.29
 0.608 -1.435 4.288
 0.634 -1.436 4.286
 0.66 -1.437 4.286
 0.686 -1.439 4.287
 0.712 -1.439 4.283
 0.738 -1.439 4.28
 0.764 -1.44 4.28
 0.79 -1.441 4.278
 0.816 -1.441 4.272
 0.842 -1.442 4.272
 0.869 -1.445 4.274
 0.896 -1.445 4.271
 0.922 -1.446 4.269
 0.949 -1.448 4.268
 0.975 -1.449 4.266
 1.001 -1.449 4.262
 1.029 -1.452 4.265
 1.056 -1.454 4.265
 1.084 -1.457 4.267
 1.112 -1.458 4.266
 1.139 -1.46 4.265
 1.166 -1.462 4.262
 1.193 -1.463 4.259
 1.219 -1.463 4.252
 1.247 -1.465 4.253
 1.275 -1.468 4.252
 1.304 -1.47 4.253
 1.332 -1.472 4.252
 1.361 -1.476 4.254
 1.389 -1.478 4.252
 1.416 -1.479 4.248
 1.444 -1.481 4.244
 1.474 -1.484 4.245
 1.502 -1.486 4.242
 1.531 -1.488 4.241
 1.559 -1.49 4.237
 1.588 -1.493 4.234
 1.618 -1.495 4.233
 1.647 -1.498 4.23
 1.675 -1.499 4.225
 1.704 -1.501 4.22
 1.731 -1.502 4.213
 1.757 -1.501 4.199
 1.779 -1.497 4.179
 1.801 -1.494 4.159
 1.822 -1.489 4.135
 1.841 -1.483 4.107
 1.859 -1.477 4.079
 1.879 -1.472 4.055
 1.897 -1.465 4.025
 0 0 0
 0 0 0
 0 0 0
 0 0 0
 0 0 0
 0 0 0
 0 0 0
 0 0 0
 1.272 -0.877 2.336
 1.613 -1.097 2.918
 1.675 -1.126 2.985
 1.786 -1.186 3.136
 1.794 -1.178 3.103
 1.791 -1.162 3.05
 1.796 -1.152 3.013
 1.77 -1.123 2.926
 -0.062 -0.041 0.095
 -0.063 -0.042 0.097
 -0.261 -0.169 0.45
 -0.347 -0.227 0.612
 -0.337 -0.224 0.605
 -0.235 -0.159 0.425
 -0.228 -0.155 0.417
 -0.312 -0.215 0.586
 -0.303 -0.211 0.577
 -0.294 -0.208 0.57
 -0.373 -0.267 0.737
 -0.447 -0.323 0.899
 -0.518 -0.38 1.062
 -0.673 -0.5 1.408
 -0.989 -0.744 2.108
 -1.292 -0.986 2.805
 -1.506 -1.166 3.328
 -1.714 -1.346 3.854
 -1.839 -1.465 4.208
 -1.806 -1.46 4.203
 -1.774 -1.456 4.201
 -1.817 -1.514 4.378
 -1.784 -1.51 4.377
 -1.751 -1.506 4.374
 -1.72 -1.503 4.375
 -1.689 -1.5 4.375
 -1.658 -1.497 4.376
 -1.627 -1.494 4.374
 -1.595 -1.49 4.371
 -1.563 -1.486 4.367
 -1.533 -1.483 4.367
 -1.502 -1.48 4.366
 -1.472 -1.476 4.363
 -1.441 -1.473 4.36
 -1.411 -1.47 4.36
 -1.38 -1.466 4.353
 -1.351 -1.463 4.353
 -1.321 -1.461 4.353
 -1.292 -1.458 4.351
 -1.264 -1.457 4.353
 -1.236 -1.455 4.355
 -1.208 -1.454 4.356
 -1.18 -1.452 4.357
 -1.152 -1.452 4.361
 -1.123 -1.449 4.358
 -1.095 -1.447 4.357
 -1.066 -1.444 4.353
 -1.038 -1.441 4.349
 -1.009 -1.437 4.343
 -0.98 -1.434 4.339
 -0.952 -1.432 4.337
 -0.925 -1.43 4.336
 -0.898 -1.429 4.338
 -0.871 -1.428 4.338
 -0.844 -1.427 4.337
 -0.817 -1.426 4.338
 -0.79 -1.424 4.338
 -0.763 -1.422 4.334
 -0.736 -1.421 4.335
 -0.71 -1.421 4.339
 -0.683 -1.419 4.335
 -0.657 -1.419 4.337
 -0.63 -1.418 4.337
 -0.604 -1.417 4.335
 -0.577 -1.414 4.329
 -0.551 -1.415 4.334
 -0.525 -1.413 4.332
 -0.499 -1.413 4.334
 -0.472 -1.412 4.331
 -0.447 -1.413 4.336
 -0.42 -1.411 4.334
 -0.394 -1.409 4.329
 -0.367 -1.406 4.321
 -0.342 -1.407 4.324
 -0.315 -1.404 4.316
 -0.289 -1.402 4.311
 -0.264 -1.401 4.311
 -0.238 -1.402 4.313
 -0.212 -1.401 4.31
 -0.187 -1.401 4.311
 -0.161 -1.402 4.316
 -0.135 -1.401 4.314
 -0.11 -1.401 4.312
 -0.084 -1.4 4.31
 -0.058 -1.4 4.31
 -0.033 -1.397 4.3
 -0.007 -1.396 4.296
 0.017 -1.396 4.298
 0.043 -1.398 4.302
 0.068 -1.396 4.296
 0.094 -1.398 4.302
 0.119 -1.4 4.307
 0.145 -1.399 4.302
 0.17 -1.399 4.301
 0.196 -1.401 4.305
 0.222 -1.4 4.3
 0.247 -1.4 4.299
 0.272 -1.399 4.296
 0.298 -1.398 4.291
 0.323 -1.399 4.29
 0.349 -1.399 4.289
 0.374 -1.398 4.285
 0.4 -1.401 4.29
 0.426 -1.402 4.29
 0.452 -1.403 4.291
 0.478 -1.405 4.296
 0.504 -1.406 4.298
 0.53 -1.406 4.293
 0.556 -1.408 4.297
 0.582 -1.409 4.297
 0.608 -1.409 4.292
 0.634 -1.41 4.291
 0.66 -1.411 4.291
 0.686 -1.412 4.291
 0.711 -1.411 4.283
 0.737 -1.412 4.282
 0.763 -1.412 4.28
 0.79 -1.414 4.28
 0.815 -1.413 4.273
 0.842 -1.415 4.277
 0.869 -1.418 4.279
 0.895 -1.418 4.275
 0.922 -1.419 4.274
 0.948 -1.42 4.271
 0.974 -1.42 4.267
 1 -1.42 4.261
 1.027 -1.423 4.263
 1.054 -1.424 4.261
 1.082 -1.427 4.264
 1.109 -1.429 4.264
 1.137 -1.431 4.265
 1.164 -1.433 4.264
 1.192 -1.435 4.261
 1.218 -1.436 4.257
 1.246 -1.438 4.258
 1.274 -1.44 4.257
 1.302 -1.442 4.256
 1.33 -1.444 4.254
 1.359 -1.447 4.254
 1.386 -1.448 4.251
 1.414 -1.45 4.248
 1.442 -1.452 4.246
 1.472 -1.456 4.248
 1.501 -1.458 4.246
 1.53 -1.461 4.246
 1.559 -1.463 4.242
 1.588 -1.465 4.241
 1.616 -1.466 4.235
 1.645 -1.469 4.234
 1.674 -1.471 4.231
 1.703 -1.473 4.225
 1.731 -1.474 4.219
 1.757 -1.474 4.209
 1.78 -1.471 4.189
 1.803 -1.468 4.171
 1.826 -1.465 4.151
 1.844 -1.459 4.123
 1.863 -1.453 4.095
 1.884 -1.449 4.074
 0 0 0
 0 0 0
 0 0 0
 0 0 0
 0 0 0
 0 0 0
 0 0 0
 0 0 0
 0 0 0
 1.198 -0.811 2.204
 1.602 -1.071 2.906
 1.673 -1.104 2.988
 1.79 -1.168 3.149
 1.797 -1.158 3.114
 1.794 -1.144 3.063
 1.781 -1.122 2.994
 1.762 -1.098 2.918
 -0.123 -0.077 0.199
 -0.058 -0.038 0.089
 -0.093 -0.06 0.153
 -0.086 -0.056 0.142
 -0.168 -0.11 0.296
 -0.157 -0.104 0.28
 -0.15 -0.101 0.27
 -0.144 -0.098 0.265
 -0.224 -0.154 0.424
 -0.128 -0.089 0.24
 -0.12 -0.085 0.229
 -0.196 -0.14 0.387
 -0.269 -0.195 0.547
 -0.427 -0.312 0.889
 -0.825 -0.61 1.762
 -1.212 -0.908 2.636
 -1.428 -1.085 3.161
 -1.715 -1.322 3.864
 -1.84 -1.439 4.218
 -1.807 -1.434 4.213
 -1.774 -1.43 4.21
 -1.816 -1.485 4.385
 -1.783 -1.482 4.384
 -1.75 -1.477 4.379
 -1.719 -1.474 4.38
 -1.687 -1.47 4.378
 -1.656 -1.468 4.38
 -1.626 -1.465 4.38
 -1.595 -1.462 4.379
 -1.563 -1.458 4.374
 -1.533 -1.456 4.376
 -1.502 -1.453 4.374
 -1.47 -1.448 4.368
 -1.439 -1.444 4.364
 -1.41 -1.442 4.365
 -1.379 -1.438 4.359
 -1.35 -1.436 4.358
 -1.32 -1.433 4.356
 -1.29 -1.429 4.353
 -1.262 -1.428 4.354
 -1.234 -1.426 4.355
 -1.205 -1.424 4.355
 -1.178 -1.423 4.358
 -1.151 -1.424 4.365
 -1.122 -1.421 4.361
 -1.094 -1.418 4.359
 -1.065 -1.416 4.357
 -1.037 -1.413 4.353
 -1.008 -1.409 4.346
 -0.979 -1.407 4.344
 -0.952 -1.405 4.341
 -0.924 -1.403 4.341
 -0.898 -1.403 4.344
 -0.871 -1.402 4.344
 -0.843 -1.4 4.342
 -0.817 -1.399 4.344
 -0.79 -1.398 4.343
 -0.762 -1.395 4.337
 -0.735 -1.393 4.337
 -0.71 -1.394 4.342
 -0.682 -1.392 4.337
 -0.656 -1.391 4.337
 -0.63 -1.391 4.34
 -0.603 -1.389 4.337
 -0.576 -1.386 4.33
 -0.55 -1.387 4.337
 -0.524 -1.387 4.338
 -0.498 -1.386 4.338
 -0.472 -1.386 4.338
 -0.447 -1.387 4.344
 -0.42 -1.385 4.341
 -0.393 -1.38 4.326
 -0.366 -1.377 4.316
 -0.34 -1.376 4.316
 -0.314 -1.373 4.308
 -0.288 -1.372 4.304
 -0.263 -1.372 4.307
 -0.237 -1.373 4.311
 -0.212 -1.373 4.309
 -0.186 -1.373 4.312
 -0.161 -1.374 4.317
 -0.135 -1.375 4.317
 -0.109 -1.374 4.314
 -0.084 -1.372 4.31
 -0.058 -1.372 4.31
 -0.033 -1.369 4.3
 -0.007 -1.367 4.294
 0.017 -1.368 4.296
 0.043 -1.371 4.305
 0.068 -1.37 4.3
 0.094 -1.371 4.304
 0.119 -1.37 4.298
 0.144 -1.368 4.293
 0.17 -1.368 4.292
 0.196 -1.37 4.296
 0.221 -1.369 4.29
 0.247 -1.373 4.301
 0.273 -1.373 4.301
 0.298 -1.371 4.294
 0.323 -1.372 4.295
 0.349 -1.373 4.295
 0.374 -1.373 4.292
 0.4 -1.374 4.294
 0.426 -1.376 4.296
 0.452 -1.376 4.296
 0.478 -1.378 4.3
 0.504 -1.379 4.3
 0.53 -1.379 4.298
 0.556 -1.382 4.302
 0.582 -1.383 4.304
 0.608 -1.383 4.299
 0.634 -1.384 4.297
 0.66 -1.384 4.296
 0.686 -1.385 4.295
 0.71 -1.383 4.284
 0.737 -1.384 4.285
 0.763 -1.385 4.283
 0.789 -1.387 4.284
 0.814 -1.386 4.277
 0.842 -1.389 4.282
 0.869 -1.391 4.285
 0.894 -1.391 4.278
 0.921 -1.392 4.276
 0.947 -1.392 4.273
 0.973 -1.393 4.268
 0.999 -1.393 4.264
 1.026 -1.395 4.266
 1.053 -1.397 4.264
 1.081 -1.4 4.267
 1.108 -1.402 4.267
 1.135 -1.403 4.265
 1.163 -1.405 4.265
 1.19 -1.406 4.262
 1.216 -1.407 4.258
 1.244 -1.409 4.257
 1.272 -1.411 4.257
 1.3 -1.414 4.257
 1.328 -1.415 4.255
 1.356 -1.417 4.253
 1.384 -1.419 4.25
 1.412 -1.421 4.248
 1.439 -1.422 4.244
 1.469 -1.426 4.246
 1.498 -1.428 4.245
 1.527 -1.431 4.245
 1.555 -1.433 4.241
 1.585 -1.436 4.241
 1.613 -1.437 4.235
 1.643 -1.44 4.236
 1.672 -1.443 4.233
 1.701 -1.444 4.228
 1.729 -1.445 4.222
 1.756 -1.446 4.214
 1.78 -1.444 4.196
 1.805 -1.443 4.182
 1.83 -1.441 4.168
 1.851 -1.437 4.146
 1.869 -1.431 4.116
 0 0 0
 0 0 0
 0 0 0
 0 0 0
 0 0 0
 0 0 0
 0 0 0
 0 0 0
 0 0 0
 0 0 0
 1.09 -0.724 2.009
 1.583 -1.038 2.877
 1.667 -1.08 2.983
 1.793 -1.148 3.161
 1.799 -1.139 3.124
 1.798 -1.125 3.076
 1.773 -1.097 2.988
 1.78 -1.089 2.956
 -0.143 -0.088 0.234
 -0.137 -0.086 0.228
 -0.101 -0.064 0.168
 -0.093 -0.06 0.156
 -0.084 -0.055 0.141
 -0.072 -0.048 0.122
 -0.065 -0.044 0.11
 -0.057 -0.039 0.098
 -0.05 -0.035 0.084
 -0.041 -0.029 0.069
 -0.12 -0.084 0.23
 -0.195 -0.137 0.387
 -0.186 -0.133 0.375
 -0.426 -0.305 0.89
 -0.824 -0.598 1.763
 -1.131 -0.832 2.465
 -1.349 -1.006 2.992
 -1.715 -1.297 3.872
 -1.839 -1.411 4.225
 -1.806 -1.406 4.22
 -1.774 -1.402 4.217
 -1.814 -1.456 4.388
 -1.781 -1.452 4.387
 -1.747 -1.447 4.381
 -1.715 -1.443 4.379
 -1.683 -1.44 4.376
 -1.653 -1.438 4.379
 -1.622 -1.435 4.378
 -1.592 -1.432 4.38
 -1.56 -1.429 4.377
 -1.53 -1.426 4.377
 -1.5 -1.423 4.375
 -1.468 -1.419 4.371
 -1.437 -1.415 4.364
 -1.408 -1.413 4.367
 -1.378 -1.41 4.364
 -1.349 -1.408 4.364
 -1.319 -1.405 4.361
 -1.29 -1.403 4.361
 -1.262 -1.401 4.363
 -1.233 -1.399 4.361
 -1.204 -1.397 4.36
 -1.177 -1.396 4.363
 -1.151 -1.396 4.37
 -1.121 -1.393 4.365
 -1.093 -1.391 4.366
 -1.065 -1.389 4.364
 -1.036 -1.386 4.358
 -1.006 -1.381 4.347
 -0.978 -1.378 4.344
 -0.95 -1.376 4.341
 -0.922 -1.374 4.339
 -0.896 -1.374 4.344
 -0.87 -1.374 4.347
 -0.842 -1.372 4.344
 -0.816 -1.371 4.345
 -0.788 -1.369 4.343
 -0.76 -1.366 4.335
 -0.734 -1.365 4.336
 -0.708 -1.366 4.344
 -0.681 -1.363 4.337
 -0.655 -1.363 4.339
 -0.629 -1.364 4.345
 -0.603 -1.362 4.342
 -0.575 -1.358 4.331
 -0.55 -1.361 4.344
 -0.524 -1.361 4.345
 -0.498 -1.36 4.344
 -0.472 -1.359 4.341
 -0.447 -1.361 4.351
 -0.42 -1.359 4.347
 -0.392 -1.352 4.324
 -0.365 -1.348 4.313
 -0.34 -1.348 4.314
 -0.313 -1.345 4.308
 -0.288 -1.344 4.306
 -0.262 -1.345 4.309
 -0.237 -1.346 4.312
 -0.211 -1.345 4.311
 -0.186 -1.345 4.311
 -0.16 -1.345 4.312
 -0.135 -1.345 4.312
 -0.109 -1.345 4.312
 -0.083 -1.343 4.304
 -0.058 -1.343 4.306
 -0.032 -1.341 4.298
 -0.007 -1.339 4.291
 0.017 -1.34 4.294
 0.043 -1.345 4.309
 0.068 -1.342 4.3
 0.094 -1.344 4.306
 0.119 -1.342 4.298
 0.144 -1.34 4.29
 0.17 -1.34 4.289
 0.195 -1.341 4.293
 0.22 -1.34 4.288
 0.247 -1.345 4.302
 0.272 -1.347 4.305
 0.297 -1.344 4.295
 0.323 -1.345 4.297
 0.349 -1.346 4.298
 0.374 -1.346 4.296
 0.4 -1.347 4.296
 0.427 -1.351 4.305
 0.453 -1.353 4.309
 0.479 -1.354 4.311
 0.505 -1.356 4.314
 0.53 -1.355 4.307
 0.557 -1.357 4.31
 0.582 -1.357 4.309
 0.608 -1.358 4.308
 0.634 -1.358 4.306
 0.66 -1.359 4.306
 0.686 -1.36 4.305
 0.71 -1.357 4.29
 0.736 -1.358 4.29
 0.762 -1.358 4.287
 0.789 -1.36 4.288
 0.813 -1.358 4.277
 0.841 -1.362 4.286
 0.869 -1.365 4.292
 0.894 -1.365 4.284
 0.921 -1.366 4.283
 0.947 -1.367 4.28
 0.972 -1.366 4.273
 0.998 -1.365 4.266
 1.025 -1.368 4.268
 1.052 -1.369 4.266
 1.08 -1.372 4.268
 1.107 -1.374 4.27
 1.135 -1.376 4.27
 1.162 -1.378 4.269
 1.189 -1.379 4.267
 1.216 -1.38 4.264
 1.244 -1.382 4.262
 1.271 -1.383 4.259
 1.299 -1.385 4.258
 1.326 -1.387 4.255
 1.353 -1.388 4.251
 1.381 -1.39 4.249
 1.409 -1.392 4.247
 1.437 -1.393 4.244
 1.466 -1.396 4.244
 1.495 -1.399 4.244
 1.524 -1.401 4.243
 1.553 -1.403 4.241
 1.583 -1.407 4.242
 1.611 -1.409 4.239
 1.641 -1.412 4.239
 1.671 -1.415 4.238
 1.699 -1.416 4.233
 1.728 -1.418 4.227
 1.756 -1.419 4.22
 1.78 -1.417 4.206
 1.807 -1.417 4.195
 1.835 -1.418 4.187
 1.858 -1.416 4.17
 0 0 0
 0 0 0
 0 0 0
 0 0 0
 0 0 0
 0 0 0
 0 0 0
 0 0 0
 0 0 0
 0 0 0
 0 0 0
 0.919 -0.6 1.697
 1.555 -1.001 2.83
 1.651 -1.05 2.96
 1.788 -1.123 3.158
 1.793 -1.114 3.12
 1.795 -1.102 3.076
 1.794 -1.089 3.03
 1.794 -1.077 2.985
 -0.135 -0.082 0.222
 -0.156 -0.095 0.261
 -0.108 -0.067 0.18
 -0.098 -0.062 0.165
 -0.088 -0.056 0.149
 -0.074 -0.048 0.126
 -0.065 -0.043 0.11
 -0.056 -0.038 0.096
 -0.047 -0.032 0.08
 -0.038 -0.027 0.063
 -0.117 -0.08 0.224
 -0.193 -0.133 0.383
 -0.269 -0.187 0.549
 -0.507 -0.356 1.064
 -0.903 -0.643 1.936
 -1.209 -0.872 2.641
 -1.504 -1.1 3.344
 -1.79 -1.327 4.049
 -1.913 -1.44 4.403
 -1.879 -1.436 4.4
 -1.845 -1.431 4.396
 -1.811 -1.426 4.391
 -1.779 -1.423 4.389
 -1.745 -1.418 4.385
 -1.713 -1.414 4.382
 -1.682 -1.411 4.381
 -1.652 -1.409 4.384
 -1.62 -1.406 4.381
 -1.59 -1.403 4.383
 -1.559 -1.4 4.38
 -1.528 -1.397 4.379
 -1.497 -1.394 4.375
 -1.467 -1.391 4.374
 -1.435 -1.387 4.368
 -1.407 -1.385 4.37
 -1.377 -1.383 4.369
 -1.349 -1.381 4.371
 -1.318 -1.378 4.367
 -1.289 -1.375 4.366
 -1.261 -1.374 4.368
 -1.232 -1.372 4.367
 -1.203 -1.369 4.363
 -1.176 -1.368 4.367
 -1.15 -1.369 4.374
 -1.12 -1.365 4.366
 -1.092 -1.363 4.366
 -1.064 -1.361 4.367
 -1.035 -1.358 4.362
 -1.005 -1.353 4.349
 -0.977 -1.351 4.348
 -0.949 -1.348 4.343
 -0.922 -1.348 4.345
 -0.896 -1.347 4.349
 -0.869 -1.347 4.35
 -0.842 -1.345 4.349
 -0.815 -1.345 4.351
 -0.787 -1.342 4.345
 -0.759 -1.337 4.335
 -0.733 -1.338 4.34
 -0.708 -1.34 4.35
 -0.68 -1.336 4.34
 -0.655 -1.337 4.347
 -0.631 -1.341 4.362
 -0.604 -1.339 4.358
 -0.575 -1.333 4.339
 -0.551 -1.336 4.354
 -0.525 -1.337 4.357
 -0.498 -1.335 4.354
 -0.472 -1.334 4.353
 -0.447 -1.338 4.365
 -0.421 -1.336 4.36
 -0.391 -1.323 4.321
 -0.364 -1.319 4.311
 -0.339 -1.319 4.311
 -0.313 -1.318 4.309
 -0.287 -1.318 4.31
 -0.262 -1.319 4.312
 -0.237 -1.319 4.314
 -0.211 -1.319 4.315
 -0.185 -1.319 4.315
 -0.16 -1.319 4.315
 -0.134 -1.319 4.316
 -0.109 -1.318 4.313
 -0.083 -1.316 4.306
 -0.058 -1.316 4.307
 -0.032 -1.314 4.301
 -0.007 -1.312 4.292
 0.018 -1.312 4.294
 0.043 -1.319 4.316
 0.068 -1.316 4.303
 0.094 -1.316 4.304
 0.119 -1.31 4.284
 0.144 -1.306 4.269
 0.169 -1.305 4.265
 0.194 -1.306 4.267
 0.219 -1.305 4.263
 0.245 -1.312 4.282
 0.272 -1.316 4.294
 0.297 -1.314 4.288
 0.323 -1.318 4.296
 0.348 -1.318 4.296
 0.375 -1.322 4.306
 0.4 -1.322 4.306
 0.427 -1.326 4.315
 0.453 -1.328 4.321
 0.48 -1.33 4.323
 0.507 -1.334 4.332
 0.531 -1.332 4.322
 0.558 -1.334 4.327
 0.584 -1.335 4.326
 0.611 -1.338 4.335
 0.636 -1.336 4.324
 0.663 -1.338 4.328
 0.689 -1.34 4.329
 0.712 -1.334 4.307
 0.736 -1.331 4.294
 0.762 -1.332 4.29
 0.788 -1.333 4.29
 0.81 -1.327 4.268
 0.84 -1.334 4.284
 0.869 -1.339 4.298
 0.894 -1.339 4.291
 0.92 -1.339 4.287
 0.946 -1.339 4.281
 0.971 -1.338 4.274
 0.997 -1.338 4.269
 1.024 -1.34 4.268
 1.051 -1.341 4.268
 1.078 -1.344 4.269
 1.106 -1.346 4.271
 1.133 -1.348 4.271
 1.161 -1.35 4.271
 1.188 -1.351 4.268
 1.215 -1.352 4.264
 1.241 -1.353 4.26
 1.268 -1.355 4.258
 1.296 -1.356 4.255
 1.323 -1.357 4.252
 1.351 -1.359 4.25
 1.379 -1.361 4.25
 1.407 -1.363 4.247
 1.435 -1.365 4.247
 1.464 -1.368 4.247
 1.493 -1.371 4.247
 1.522 -1.373 4.245
 1.551 -1.375 4.243
 1.58 -1.378 4.242
 1.608 -1.379 4.238
 1.638 -1.382 4.237
 1.667 -1.385 4.235
 1.696 -1.386 4.23
 1.724 -1.388 4.224
 1.752 -1.389 4.22
 1.777 -1.388 4.206
 1.803 -1.388 4.195
 1.83 -1.388 4.184
 1.854 -1.386 4.168
 0 0 0
 0 0 0
 0 0 0
 0 0 0
 0 0 0
 0 0 0
 0 0 0
 0 0 0
 0 0 0
 0 0 0
 0 0 0
 0 0 0
 1.52 -0.96 2.772
 1.636 -1.021 2.94
 1.784 -1.1 3.158
 1.79 -1.091 3.12
 1.794 -1.081 3.082
 1.777 -1.058 3.006
 1.785 -1.051 2.975
 -0.109 -0.065 0.176
 -0.125 -0.075 0.208
 -0.112 -0.068 0.188
 -0.101 -0.062 0.17
 -0.088 -0.056 0.15
 -0.074 -0.047 0.126
 -0.062 -0.04 0.104
 -0.052 -0.034 0.087
 -0.042 -0.029 0.07
 -0.032 -0.023 0.052
 -0.111 -0.074 0.211
 -0.188 -0.127 0.375
 -0.349 -0.237 0.717
 -0.668 -0.46 1.408
 -1.062 -0.741 2.284
 -1.367 -0.967 2.993
 -1.66 -1.19 3.698
 -1.865 -1.356 4.227
 -1.91 -1.41 4.405
 -1.877 -1.406 4.403
 -1.843 -1.402 4.4
 -1.81 -1.398 4.397
 -1.779 -1.395 4.398
 -1.745 -1.39 4.393
 -1.712 -1.386 4.388
 -1.68 -1.382 4.385
 -1.649 -1.38 4.386
 -1.617 -1.376 4.381
 -1.587 -1.373 4.382
 -1.555 -1.37 4.379
 -1.525 -1.367 4.377
 -1.493 -1.363 4.372
 -1.463 -1.36 4.371
 -1.431 -1.356 4.364
 -1.403 -1.355 4.367
 -1.374 -1.353 4.367
 -1.346 -1.352 4.371
 -1.316 -1.349 4.367
 -1.289 -1.348 4.373
 -1.262 -1.348 4.377
 -1.233 -1.345 4.375
 -1.202 -1.341 4.366
 -1.175 -1.341 4.371
 -1.147 -1.34 4.374
 -0.993 -1.186 3.876
 -0.95 -1.163 3.803
 -0.904 -1.134 3.712
 -0.879 -1.131 3.707
 -0.851 -1.125 3.69
 -0.971 -1.317 4.329
 -0.943 -1.314 4.324
 -0.918 -1.315 4.332
 -0.893 -1.317 4.341
 -0.866 -1.317 4.344
 -0.84 -1.317 4.349
 -0.815 -1.318 4.357
 -0.787 -1.315 4.349
 -0.755 -1.305 4.321
 0 0 0
 0 0 0
 0 0 0
 0 0 0
 0 0 0
 0 0 0
 0 0 0
 0 0 0
 0 0 0
 0 0 0
 0 0 0
 0 0 0
 0 0 0
 -0.387 -1.284 4.284
 -0.362 -1.287 4.293
 -0.337 -1.288 4.299
 -0.312 -1.289 4.303
 -0.287 -1.291 4.31
 -0.262 -1.291 4.313
 -0.236 -1.292 4.317
 -0.211 -1.293 4.319
 -0.185 -1.292 4.318
 -0.159 -1.291 4.315
 -0.134 -1.291 4.315
 -0.108 -1.29 4.311
 -0.083 -1.287 4.301
 -0.057 -1.286 4.299
 -0.032 -1.284 4.293
 -0.007 -1.282 4.285
 0.018 -1.278 4.272
 0 0 0
 0 0 0
 0 0 0
 0 0 0
 0 0 0
 0 0 0
 0 0 0
 0 0 0
 0 0 0
 0 0 0
 0 0 0
 0 0 0
 0 0 0
 0 0 0
 0 0 0
 0 0 0
 0 0 0
 0 0 0
 0 0 0
 0 0 0
 0 0 0
 0 0 0
 0 0 0
 0 0 0
 0 0 0
 0 0 0
 0 0 0
 0 0 0
 0 0 0
 0 0 0
 0 0 0
 0 0 0
 0 0 0
 0 0 0
 0 0 0
 0.941 -1.306 4.266
 0.968 -1.308 4.266
 0.995 -1.309 4.266
 1.021 -1.31 4.262
 1.048 -1.312 4.263
 1.076 -1.315 4.266
 1.103 -1.317 4.266
 1.131 -1.319 4.268
 1.159 -1.322 4.271
 1.186 -1.323 4.269
 1.213 -1.325 4.267
 1.241 -1.326 4.265
 1.268 -1.328 4.264
 1.295 -1.329 4.259
 1.322 -1.33 4.255
 1.349 -1.331 4.252
 1.377 -1.333 4.251
 1.404 -1.334 4.246
 1.433 -1.336 4.245
 1.461 -1.338 4.244
 1.49 -1.341 4.245
 1.518 -1.343 4.241
 1.547 -1.345 4.24
 1.576 -1.348 4.239
 1.604 -1.349 4.234
 1.633 -1.352 4.232
 1.662 -1.354 4.23
 1.691 -1.355 4.225
 1.72 -1.358 4.222
 1.75 -1.36 4.221
 1.777 -1.361 4.212
 1.805 -1.362 4.206
 1.835 -1.364 4.202
 1.863 -1.366 4.195
 0 0 0
 0 0 0
 0 0 0
 0 0 0
 0 0 0
 0 0 0
 0 0 0
 0 0 0
 0 0 0
 0 0 0
 0 0 0
 0 0 0
 1.746 -1.081 3.193
 1.763 -1.079 3.175
 1.775 -1.073 3.149
 1.784 -1.066 3.116
 1.791 -1.058 3.083
 1.779 -1.039 3.016
 1.759 -1.016 2.938
 -0.149 -0.086 0.246
 -0.114 -0.067 0.188
 -0.105 -0.063 0.175
 -0.093 -0.057 0.157
 -0.081 -0.05 0.137
 -0.07 -0.044 0.118
 -0.058 -0.037 0.098
 -0.047 -0.03 0.077
 -0.04 -0.027 0.066
 -0.031 -0.021 0.049
 -0.193 -0.126 0.38
 -0.271 -0.179 0.546
 -0.515 -0.343 1.067
 -0.913 -0.616 1.933
 -1.304 -0.891 2.813
 -1.525 -1.057 3.347
 -1.816 -1.276 4.054
 -1.941 -1.384 4.409
 -1.91 -1.381 4.412
 -1.875 -1.377 4.407
 -1.84 -1.372 4.401
 -1.807 -1.368 4.398
 -1.776 -1.365 4.398
 -1.743 -1.361 4.395
 -1.71 -1.357 4.391
 -1.678 -1.353 4.388
 -1.647 -1.35 4.386
 -1.614 -1.346 4.381
 -1.584 -1.344 4.382
 -1.553 -1.341 4.381
 -1.523 -1.338 4.378
 -1.492 -1.335 4.375
 -1.462 -1.332 4.374
 -1.43 -1.328 4.367
 -1.401 -1.326 4.368
 -1.374 -1.326 4.374
 -1.346 -1.324 4.376
 -1.313 -1.319 4.364
 -1.285 -1.317 4.366
 -1.257 -1.317 4.369
 -1.227 -1.313 4.363
 -1.194 -1.306 4.347
 -1.171 -1.31 4.364
 0 0 0
 0 0 0
 0 0 0
 0 0 0
 0 0 0
 0 0 0
 0 0 0
 0 0 0
 0 0 0
 0 0 0
 0 0 0
 0 0 0
 0 0 0
 0 0 0
 0 0 0
 0 0 0
 0 0 0
 0 0 0
 0 0 0
 0 0 0
 0 0 0
 0 0 0
 0 0 0
 0 0 0
 0 0 0
 0 0 0
 0 0 0
 0 0 0
 -0.387 -1.261 4.296
 -0.362 -1.261 4.298
 -0.337 -1.262 4.302
 -0.312 -1.263 4.309
 -0.287 -1.265 4.315
 -0.261 -1.265 4.317
 -0.236 -1.266 4.319
 -0.21 -1.266 4.32
 -0.185 -1.264 4.316
 -0.159 -1.263 4.311
 -0.134 -1.263 4.311
 -0.108 -1.262 4.308
 -0.083 -1.26 4.301
 -0.057 -1.259 4.299
 -0.032 -1.258 4.295
 -0.007 -1.256 4.289
 0.018 -1.253 4.276
 0 0 0
 0 0 0
 0 0 0
 0 0 0
 0 0 0
 0 0 0
 0 0 0
 0 0 0
 0 0 0
 0 0 0
 0 0 0
 0 0 0
 0 0 0
 0 0 0
 0 0 0
 0 0 0
 0 0 0
 0 0 0
 0 0 0
 0 0 0
 0 0 0
 0 0 0
 0 0 0
 0 0 0
 0 0 0
 0 0 0
 0 0 0
 0 0 0
 0 0 0
 0 0 0
 0 0 0
 0 0 0
 0 0 0
 0 0 0
 0 0 0
 0.942 -1.281 4.274
 0.968 -1.282 4.273
 0.994 -1.283 4.269
 1.021 -1.284 4.267
 1.047 -1.285 4.266
 1.074 -1.287 4.266
 1.101 -1.288 4.265
 1.13 -1.291 4.269
 1.158 -1.294 4.272
 1.185 -1.296 4.272
 1.213 -1.297 4.27
 1.24 -1.3 4.27
 1.268 -1.301 4.268
 1.294 -1.301 4.262
 1.321 -1.303 4.259
 1.349 -1.304 4.257
 1.376 -1.305 4.253
 1.402 -1.306 4.247
 1.43 -1.308 4.245
 1.458 -1.309 4.241
 1.487 -1.312 4.242
 1.514 -1.313 4.236
 1.542 -1.315 4.234
 1.571 -1.317 4.232
 1.6 -1.319 4.231
 1.628 -1.321 4.227
 1.659 -1.324 4.227
 1.688 -1.326 4.224
 1.716 -1.328 4.221
 1.746 -1.33 4.218
 1.773 -1.331 4.21
 1.801 -1.332 4.204
 1.83 -1.334 4.198
 1.858 -1.336 4.193
 0 0 0
 0 0 0
 0 0 0
 0 0 0
 0 0 0
 0 0 0
 0 0 0
 0 0 0
 0 0 0
 0 0 0
 0 0 0
 0 0 0
 1.739 -1.055 3.185
 1.756 -1.053 3.167
 1.772 -1.05 3.149
 1.781 -1.044 3.118
 1.788 -1.035 3.082
 1.779 -1.019 3.021
 1.761 -0.997 2.948
 -0.127 -0.073 0.209
 -0.115 -0.066 0.19
 -0.1 -0.059 0.167
 -0.088 -0.053 0.148
 -0.076 -0.046 0.128
 -0.066 -0.041 0.111
 -0.053 -0.033 0.088
 -0.042 -0.027 0.069
 -0.036 -0.024 0.058
 -0.114 -0.073 0.216
 -0.361 -0.23 0.721
 -0.437 -0.282 0.891
 -0.762 -0.497 1.588
 -1.157 -0.764 2.458
 -1.463 -0.98 3.164
 -1.601 -1.087 3.521
 -1.888 -1.299 4.223
 -1.938 -1.354 4.411
 -1.905 -1.35 4.409
 -1.869 -1.345 4.402
 -1.834 -1.339 4.394
 -1.802 -1.336 4.392
 -1.771 -1.333 4.394
 -1.739 -1.331 4.393
 -1.708 -1.328 4.392
 -1.676 -1.324 4.39
 -1.643 -1.32 4.386
 -1.611 -1.316 4.38
 -1.581 -1.314 4.38
 -1.55 -1.311 4.379
 -1.519 -1.308 4.375
 -1.489 -1.305 4.375
 -1.458 -1.302 4.372
 -1.427 -1.298 4.366
 -1.398 -1.297 4.367
 -1.371 -1.296 4.373
 -1.341 -1.293 4.368
 -1.312 -1.291 4.368
 0 0 0
 0 0 0
 0 0 0
 0 0 0
 0 0 0
 0 0 0
 0 0 0
 0 0 0
 0 0 0
 0 0 0
 0 0 0
 0 0 0
 0 0 0
 0 0 0
 0 0 0
 0 0 0
 0 0 0
 0 0 0
 0 0 0
 0 0 0
 0 0 0
 0 0 0
 0 0 0
 0 0 0
 0 0 0
 0 0 0
 0 0 0
 0 0 0
 0 0 0
 0 0 0
 0 0 0
 0 0 0
 0 0 0
 -0.388 -1.238 4.311
 -0.363 -1.238 4.313
 -0.337 -1.238 4.313
 -0.312 -1.238 4.316
 -0.287 -1.239 4.321
 -0.261 -1.239 4.32
 -0.235 -1.239 4.321
 -0.21 -1.239 4.321
 -0.184 -1.237 4.317
 -0.159 -1.236 4.312
 -0.133 -1.235 4.31
 -0.108 -1.234 4.306
 -0.082 -1.233 4.303
 -0.057 -1.233 4.302
 -0.032 -1.232 4.299
 -0.006 -1.231 4.296
 0.018 -1.23 4.292
 0 0 0
 0 0 0
 0 0 0
 0 0 0
 0 0 0
 0 0 0
 0 0 0
 0 0 0
 0 0 0
 0 0 0
 0 0 0
 0 0 0
 0 0 0
 0 0 0
 0 0 0
 0 0 0
 0 0 0
 0 0 0
 0 0 0
 0 0 0
 0 0 0
 0 0 0
 0 0 0
 0 0 0
 0 0 0
 0 0 0
 0 0 0
 0 0 0
 0 0 0
 0 0 0
 0 0 0
 0 0 0
 0 0 0
 0 0 0
 0 0 0
 0.94 -1.253 4.274
 0.967 -1.254 4.272
 0.993 -1.255 4.269
 1.019 -1.256 4.266
 1.045 -1.257 4.263
 1.072 -1.258 4.262
 1.099 -1.259 4.262
 1.127 -1.262 4.265
 1.155 -1.265 4.269
 1.183 -1.268 4.271
 1.211 -1.27 4.271
 1.239 -1.272 4.273
 1.266 -1.273 4.27
 1.293 -1.274 4.266
 1.32 -1.275 4.261
 1.348 -1.278 4.262
 1.375 -1.278 4.256
 1.401 -1.278 4.249
 1.428 -1.28 4.245
 1.456 -1.281 4.242
 1.484 -1.283 4.239
 1.51 -1.283 4.232
 1.539 -1.285 4.231
 1.568 -1.287 4.229
 1.597 -1.29 4.228
 1.625 -1.291 4.224
 1.655 -1.295 4.225
 1.684 -1.296 4.222
 1.713 -1.299 4.219
 1.742 -1.301 4.216
 1.769 -1.301 4.208
 1.797 -1.303 4.202
 1.826 -1.304 4.197
 1.854 -1.305 4.189
 0 0 0
 0 0 0
 0 0 0
 0 0 0
 0 0 0
 0 0 0
 0 0 0
 0 0 0
 0 0 0
 0 0 0
 0 0 0
 0 0 0
 1.731 -1.029 3.176
 1.748 -1.027 3.158
 1.767 -1.026 3.145
 1.777 -1.02 3.116
 1.784 -1.012 3.082
 1.807 -1.014 3.074
 1.797 -0.997 3.013
 -0.08 -0.045 0.127
 -0.118 -0.067 0.197
 -0.1 -0.057 0.167
 -0.087 -0.051 0.147
 -0.074 -0.044 0.125
 -0.064 -0.039 0.108
 -0.05 -0.031 0.083
 -0.129 -0.078 0.238
 -0.121 -0.074 0.226
 -0.285 -0.176 0.558
 -0.529 -0.329 1.066
 -0.688 -0.434 1.412
 -1.009 -0.644 2.111
 -1.401 -0.906 2.985
 -1.622 -1.063 3.516
 -1.757 -1.168 3.873
 -1.966 -1.325 4.407
 -1.932 -1.321 4.404
 -1.899 -1.318 4.404
 -1.864 -1.313 4.397
 -1.828 -1.307 4.387
 -1.797 -1.305 4.388
 -1.768 -1.304 4.395
 -1.737 -1.301 4.395
 -1.706 -1.299 4.395
 -1.674 -1.296 4.394
 -1.642 -1.292 4.389
 -1.61 -1.288 4.384
 -1.579 -1.285 4.382
 -1.548 -1.282 4.38
 -1.517 -1.279 4.376
 -1.487 -1.277 4.376
 -1.456 -1.273 4.371
 -1.425 -1.27 4.368
 -1.396 -1.268 4.368
 -1.369 -1.268 4.373
 -1.339 -1.264 4.369
 -1.311 -1.264 4.374
 0 0 0
 0 0 0
 0 0 0
 0 0 0
 0 0 0
 0 0 0
 0 0 0
 0 0 0
 0 0 0
 0 0 0
 0 0 0
 0 0 0
 0 0 0
 0 0 0
 0 0 0
 0 0 0
 0 0 0
 0 0 0
 0 0 0
 0 0 0
 0 0 0
 0 0 0
 0 0 0
 0 0 0
 -0.186 -0.365 1.28
 -0.179 -0.367 1.288
 -0.171 -0.367 1.289
 -0.163 -0.366 1.286
 -0.156 -0.366 1.289
 0 0 0
 0 0 0
 0 0 0
 0 0 0
 -0.387 -1.21 4.31
 -0.362 -1.211 4.314
 -0.336 -1.21 4.313
 -0.311 -1.211 4.316
 -0.286 -1.211 4.319
 -0.26 -1.21 4.316
 -0.235 -1.211 4.319
 -0.209 -1.21 4.317
 -0.184 -1.209 4.314
 -0.158 -1.209 4.313
 -0.133 -1.209 4.312
 -0.107 -1.206 4.304
 -0.082 -1.207 4.305
 -0.057 -1.206 4.303
 -0.031 -1.205 4.298
 -0.006 -1.205 4.297
 0.018 -1.206 4.301
 0 0 0
 0 0 0
 0 0 0
 0 0 0
 0 0 0
 0 0 0
 0 0 0
 0 0 0
 0 0 0
 0 0 0
 0 0 0
 0 0 0
 0 0 0
 0 0 0
 0 0 0
 0 0 0
 0 0 0
 0 0 0
 0 0 0
 0 0 0
 0 0 0
 0 0 0
 0 0 0
 0 0 0
 0 0 0
 0 0 0
 0 0 0
 0 0 0
 0 0 0
 0 0 0
 0 0 0
 0 0 0
 0 0 0
 0 0 0
 0 0 0
 0.938 -1.225 4.27
 0.965 -1.226 4.271
 0.992 -1.228 4.272
 1.018 -1.229 4.269
 1.045 -1.23 4.266
 1.072 -1.231 4.266
 1.098 -1.233 4.264
 1.125 -1.234 4.264
 1.153 -1.237 4.266
 1.181 -1.239 4.267
 1.208 -1.24 4.266
 1.236 -1.243 4.268
 1.264 -1.245 4.267
 1.291 -1.246 4.264
 1.318 -1.247 4.261
 1.347 -1.25 4.264
 1.374 -1.251 4.26
 1.4 -1.251 4.253
 1.427 -1.252 4.249
 1.455 -1.254 4.246
 1.483 -1.255 4.243
 1.509 -1.256 4.236
 1.538 -1.258 4.235
 1.567 -1.26 4.233
 1.595 -1.262 4.229
 1.622 -1.263 4.224
 1.651 -1.265 4.221
 1.68 -1.267 4.219
 1.709 -1.269 4.216
 1.738 -1.271 4.214
 1.765 -1.272 4.205
 1.795 -1.274 4.202
 1.822 -1.275 4.194
 1.849 -1.275 4.186
 0 0 0
 0 0 0
 0 0 0
 0 0 0
 0 0 0
 0 0 0
 0 0 0
 0 0 0
 0 0 0
 0 0 0
 0 0 0
 0 0 0
 1.723 -1.004 3.167
 1.745 -1.004 3.159
 1.764 -1.004 3.146
 1.775 -0.998 3.118
 1.783 -0.991 3.085
 1.792 -0.985 3.054
 1.753 -0.953 2.944
 -0.118 -0.065 0.194
 -0.107 -0.06 0.177
 -0.097 -0.055 0.161
 -0.084 -0.048 0.142
 -0.069 -0.04 0.116
 -0.059 -0.035 0.099
 -0.046 -0.028 0.076
 -0.126 -0.075 0.232
 -0.206 -0.123 0.395
 -0.457 -0.275 0.907
 -0.785 -0.478 1.591
 -1.025 -0.632 2.115
 -1.341 -0.837 2.814
 -1.646 -1.042 3.515
 -1.782 -1.143 3.869
 -1.834 -1.193 4.049
 -1.962 -1.295 4.407
 -1.928 -1.291 4.403
 -1.895 -1.287 4.401
 -1.858 -1.281 4.389
 -1.82 -1.274 4.376
 -1.79 -1.273 4.38
 -1.763 -1.273 4.389
 -1.732 -1.271 4.391
 -1.702 -1.268 4.391
 -1.67 -1.265 4.39
 -1.638 -1.262 4.386
 -1.606 -1.258 4.382
 -1.575 -1.255 4.38
 -1.545 -1.253 4.378
 -1.514 -1.25 4.376
 -1.485 -1.248 4.376
 -1.453 -1.244 4.37
 -1.423 -1.241 4.367
 -1.394 -1.239 4.368
 -1.366 -1.239 4.372
 -1.336 -1.235 4.366
 -1.309 -1.235 4.372
 0 0 0
 0 0 0
 0 0 0
 0 0 0
 0 0 0
 0 0 0
 0 0 0
 0 0 0
 0 0 0
 0 0 0
 0 0 0
 0 0 0
 0 0 0
 0 0 0
 0 0 0
 0 0 0
 0 0 0
 0 0 0
 0 0 0
 0 0 0
 0 0 0
 0 0 0
 0 0 0
 -0.195 -0.36 1.293
 -0.185 -0.356 1.28
 -0.179 -0.358 1.288
 -0.171 -0.359 1.291
 -0.163 -0.357 1.284
 -0.155 -0.358 1.287
 -0.15 -0.363 1.307
 0 0 0
 0 0 0
 0 0 0
 -0.387 -1.186 4.319
 -0.361 -1.183 4.31
 -0.336 -1.183 4.31
 -0.31 -1.183 4.314
 -0.285 -1.184 4.316
 -0.259 -1.182 4.312
 -0.234 -1.184 4.319
 -0.209 -1.183 4.315
 -0.183 -1.182 4.312
 -0.158 -1.182 4.312
 -0.133 -1.182 4.312
 -0.107 -1.179 4.302
 -0.082 -1.18 4.306
 -0.057 -1.18 4.306
 -0.031 -1.178 4.3
 -0.006 -1.178 4.298
 0.018 -1.181 4.308
 0 0 0
 0 0 0
 0 0 0
 0 0 0
 0 0 0
 0 0 0
 0 0 0
 0 0 0
 0 0 0
 0 0 0
 0 0 0
 0 0 0
 0 0 0
 0 0 0
