 0.661 -1.471 4.239
 0.674 -1.472 4.241
 0.687 -1.472 4.238
 0.7 -1.473 4.238
 0.714 -1.475 4.242
 0.727 -1.475 4.242
 0.741 -1.478 4.247
 0.754 -1.478 4.246
 0.767 -1.478 4.245
 0.78 -1.479 4.245
 0.793 -1.479 4.243
 0.805 -1.478 4.236
 0.817 -1.478 4.234
 0.831 -1.479 4.236
 0.845 -1.481 4.238
 0.858 -1.482 4.238
 0.871 -1.481 4.235
 0.883 -1.482 4.233
 0.896 -1.481 4.229
 0.909 -1.481 4.226
 0.922 -1.481 4.224
 0.936 -1.483 4.227
 0.949 -1.484 4.229
 0.962 -1.485 4.227
 0.975 -1.484 4.224
 0.99 -1.487 4.229
 1.002 -1.487 4.226
 1.017 -1.49 4.231
 1.031 -1.491 4.232
 1.046 -1.494 4.237
 1.058 -1.493 4.232
 1.072 -1.494 4.231
 1.084 -1.493 4.226
 1.098 -1.495 4.227
 1.111 -1.495 4.226
 1.125 -1.496 4.225
 1.14 -1.499 4.231
 1.154 -1.5 4.23
 1.167 -1.501 4.229
 1.181 -1.502 4.229
 1.196 -1.505 4.233
 1.21 -1.506 4.231
 1.224 -1.507 4.231
 1.237 -1.508 4.231
 1.251 -1.508 4.229
 1.264 -1.508 4.224
 1.278 -1.509 4.224
 1.291 -1.51 4.223
 1.304 -1.51 4.219
 1.317 -1.509 4.213
 1.33 -1.51 4.211
 1.345 -1.512 4.213
 1.359 -1.513 4.212
 1.373 -1.514 4.212
 1.388 -1.517 4.214
 1.403 -1.518 4.215
 1.414 -1.516 4.205
 1.428 -1.517 4.203
 1.444 -1.52 4.207
 1.457 -1.52 4.205
 1.471 -1.521 4.202
 1.486 -1.523 4.203
 1.5 -1.524 4.203
 1.515 -1.525 4.201
 1.53 -1.528 4.204
 1.545 -1.53 4.205
 1.56 -1.531 4.203
 1.575 -1.533 4.205
 1.588 -1.532 4.199
 1.602 -1.534 4.199
 1.615 -1.534 4.193
 1.631 -1.536 4.194
 1.645 -1.537 4.192
 1.661 -1.54 4.195
 1.673 -1.538 4.186
 1.688 -1.54 4.186
 1.704 -1.542 4.188
 1.717 -1.542 4.181
 1.73 -1.542 4.176
 1.743 -1.542 4.172
 1.756 -1.542 4.166
 1.769 -1.541 4.159
 1.781 -1.541 4.152
 1.799 -1.545 4.157
 1.812 -1.544 4.151
 1.825 -1.544 4.145
 1.835 -1.542 4.133
 1.847 -1.54 4.125
 1.853 -1.534 4.102
 1.861 -1.53 4.085
 1.868 -1.525 4.066
 1.873 -1.518 4.043
 1.878 -1.512 4.021
 1.881 -1.504 3.994
 1.889 -1.5 3.978
 1.891 -1.491 3.949
 1.896 -1.486 3.929
 1.896 -1.476 3.897
 1.903 -1.471 3.879
 1.909 -1.466 3.86
 0 0 0
 0 0 0
 0 0 0
 0 0 0
 0 0 0
 0 0 0
 0 0 0
 0 0 0
 0 0 0
 0 0 0
 0 0 0
 0 0 0
 0 0 0
 0 0 0
 0 0 0
 0 0 0
 0 0 0
 0 0 0
 1.825 -1.247 3.18
 1.838 -1.248 3.178
 1.839 -1.241 3.155
 1.843 -1.237 3.139
 1.849 -1.234 3.125
 1.85 -1.227 3.103
 1.845 -1.217 3.072
 1.84 -1.207 3.041
 1.823 -1.19 2.991
 -2.457 -1.605 4.181
 0 0 0
 -2.416 -1.597 4.175
 -2.403 -1.598 4.183
 -2.389 -1.598 4.191
 -2.374 -1.598 4.197
 -2.355 -1.595 4.195
 -2.341 -1.594 4.201
 -2.33 -1.597 4.215
 -2.312 -1.595 4.215
 -2.3 -1.596 4.225
 -2.286 -1.596 4.232
 -2.272 -1.596 4.237
 -2.256 -1.595 4.242
 -2.242 -1.595 4.248
 -2.224 -1.592 4.246
 -2.206 -1.59 4.246
 -2.195 -1.592 4.259
 -2.177 -1.589 4.257
 -2.163 -1.589 4.263
 -2.15 -1.59 4.271
 -2.133 -1.587 4.271
 -2.116 -1.585 4.271
 -2.101 -1.585 4.277
 -2.086 -1.585 4.281
 -2.069 -1.582 4.279
 -2.059 -1.585 4.293
 -2.043 -1.584 4.296
 -2.025 -1.58 4.292
 -2.008 -1.578 4.293
 -1.993 -1.577 4.295
 -1.975 -1.574 4.293
 -1.96 -1.573 4.295
 -1.946 -1.574 4.302
 -1.931 -1.573 4.304
 -1.916 -1.572 4.308
 -1.902 -1.572 4.312
 -1.886 -1.57 4.313
 -1.87 -1.568 4.312
 -1.854 -1.566 4.312
 -1.838 -1.564 4.312
 -1.821 -1.562 4.312
 -1.806 -1.561 4.313
 -1.791 -1.56 4.315
 -1.776 -1.559 4.317
 -1.761 -1.558 4.319
 -1.745 -1.557 4.32
 -1.728 -1.554 4.316
 -1.714 -1.553 4.32
 -1.699 -1.552 4.32
 -1.683 -1.55 4.321
 -1.667 -1.548 4.318
 -1.654 -1.548 4.324
 -1.638 -1.546 4.322
 -1.622 -1.545 4.322
 -1.608 -1.544 4.323
 -1.592 -1.542 4.323
 -1.578 -1.542 4.327
 -1.562 -1.539 4.323
 -1.548 -1.539 4.326
 -1.531 -1.535 4.32
 -1.515 -1.533 4.318
 -1.5 -1.531 4.317
 -1.486 -1.531 4.319
 -1.469 -1.528 4.315
 -1.455 -1.527 4.316
 -1.44 -1.525 4.316
 -1.423 -1.522 4.309
 -1.409 -1.521 4.31
 -1.395 -1.52 4.312
 -1.38 -1.519 4.313
 -1.366 -1.518 4.312
 -1.352 -1.517 4.314
 -1.338 -1.517 4.315
 -1.323 -1.515 4.316
 -1.309 -1.514 4.315
 -1.294 -1.513 4.314
 -1.278 -1.51 4.31
 -1.264 -1.509 4.309
 -1.248 -1.505 4.303
 -1.232 -1.503 4.299
 -1.218 -1.502 4.298
 -1.206 -1.503 4.306
 -1.192 -1.502 4.304
 -1.177 -1.5 4.301
 -1.163 -1.499 4.304
 -1.15 -1.499 4.305
 -1.135 -1.497 4.302
 -1.121 -1.496 4.302
 -1.109 -1.497 4.309
 -1.096 -1.498 4.312
 -1.081 -1.495 4.308
 -1.067 -1.494 4.307
 -1.051 -1.491 4.3
 -1.037 -1.489 4.297
 -1.023 -1.488 4.298
 -1.009 -1.487 4.297
 -0.995 -1.485 4.294
 -0.982 -1.485 4.297
 -0.967 -1.483 4.291
 -0.952 -1.481 4.288
 -0.939 -1.481 4.29
 -0.926 -1.48 4.291
 -0.913 -1.48 4.293
 -0.901 -1.481 4.298
 -0.887 -1.48 4.296
 -0.873 -1.478 4.294
 -0.859 -1.478 4.295
 -0.846 -1.477 4.293
 -0.833 -1.477 4.295
 -0.819 -1.476 4.295
 -0.806 -1.475 4.294
 -0.792 -1.473 4.291
 -0.778 -1.471 4.286
 -0.764 -1.469 4.283
 -0.75 -1.468 4.28
 -0.737 -1.467 4.28
 -0.723 -1.466 4.279
 -0.71 -1.466 4.281
 -0.697 -1.465 4.277
 -0.683 -1.463 4.273
 -0.67 -1.464 4.277
 -0.657 -1.464 4.279
 -0.644 -1.463 4.279
 -0.632 -1.464 4.284
 -0.62 -1.467 4.293
 -0.606 -1.464 4.286
 -0.593 -1.464 4.287
 -0.58 -1.465 4.29
 -0.567 -1.464 4.29
 -0.554 -1.462 4.285
 -0.541 -1.462 4.285
 -0.528 -1.461 4.285
 -0.515 -1.461 4.285
 -0.502 -1.461 4.285
 -0.489 -1.461 4.287
 -0.476 -1.46 4.286
 -0.463 -1.459 4.284
 -0.449 -1.458 4.28
 -0.436 -1.457 4.28
 -0.423 -1.456 4.276
 -0.411 -1.456 4.279
 -0.397 -1.455 4.277
 -0.385 -1.456 4.281
 -0.372 -1.454 4.274
 -0.359 -1.454 4.276
 -0.346 -1.454 4.276
 -0.333 -1.455 4.279
 -0.321 -1.455 4.279
 -0.308 -1.457 4.286
 -0.295 -1.457 4.286
 -0.282 -1.455 4.282
 -0.269 -1.452 4.274
 -0.256 -1.45 4.268
 -0.243 -1.451 4.27
 -0.231 -1.451 4.271
 -0.218 -1.451 4.272
 -0.206 -1.454 4.282
 -0.193 -1.454 4.283
 -0.18 -1.453 4.278
 -0.167 -1.451 4.274
 -0.154 -1.451 4.274
 -0.141 -1.449 4.268
 -0.128 -1.45 4.27
 -0.116 -1.447 4.262
 -0.103 -1.447 4.261
 -0.09 -1.448 4.265
 -0.077 -1.448 4.265
 -0.065 -1.446 4.261
 -0.052 -1.448 4.266
 -0.039 -1.449 4.269
 -0.027 -1.448 4.266
 -0.014 -1.449 4.268
 -0.001 -1.45 4.27
 0.01 -1.448 4.264
 0.023 -1.447 4.262
 0.036 -1.449 4.267
 0.049 -1.449 4.268
 0.061 -1.448 4.263
 0.074 -1.45 4.269
 0.087 -1.45 4.268
 0.099 -1.447 4.26
 0.112 -1.446 4.255
 0.125 -1.449 4.264
 0.137 -1.447 4.259
 0.15 -1.449 4.262
 0.163 -1.449 4.262
 0.176 -1.449 4.263
 0.188 -1.448 4.26
 0.201 -1.451 4.268
 0.214 -1.451 4.266
 0.227 -1.452 4.267
 0.239 -1.452 4.268
 0.252 -1.45 4.262
 0.264 -1.449 4.256
 0.277 -1.449 4.256
 0.29 -1.449 4.255
 0.302 -1.449 4.256
 0.315 -1.451 4.259
 0.328 -1.452 4.262
 0.342 -1.454 4.267
 0.355 -1.456 4.27
 0.367 -1.455 4.267
 0.38 -1.454 4.264
 0.392 -1.453 4.258
 0.404 -1.451 4.252
 0.417 -1.452 4.253
 0.43 -1.452 4.253
 0.443 -1.453 4.255
 0.456 -1.453 4.254
 0.469 -1.454 4.253
 0.481 -1.452 4.248
 0.494 -1.453 4.248
 0.507 -1.454 4.249
 0.52 -1.456 4.253
 0.533 -1.456 4.255
 0.546 -1.457 4.255
 0.559 -1.459 4.258
 0.572 -1.458 4.256
 0.584 -1.457 4.25
 0.597 -1.456 4.246
 0.609 -1.455 4.242
 0.622 -1.456 4.241
 0.635 -1.457 4.242
 0.648 -1.456 4.24
 0.661 -1.457 4.24
 0.674 -1.459 4.245
 0.687 -1.46 4.245
 0.701 -1.461 4.246
 0.714 -1.463 4.25
 0.728 -1.465 4.252
 0.742 -1.467 4.256
 0.754 -1.466 4.252
 0.767 -1.467 4.252
 0.78 -1.467 4.251
 0.792 -1.466 4.245
 0.804 -1.463 4.235
 0.817 -1.463 4.234
 0.83 -1.464 4.233
 0.844 -1.466 4.237
 0.857 -1.467 4.237
 0.87 -1.468 4.237
 0.883 -1.468 4.234
 0.895 -1.467 4.23
 0.908 -1.466 4.226
 0.921 -1.468 4.227
 0.935 -1.469 4.228
 0.95 -1.472 4.234
 0.963 -1.472 4.232
 0.975 -1.472 4.229
 0.99 -1.474 4.232
 1.002 -1.474 4.229
 1.016 -1.475 4.229
 1.03 -1.477 4.233
 1.045 -1.48 4.237
 1.059 -1.481 4.237
 1.071 -1.481 4.234
 1.085 -1.481 4.232
 1.099 -1.483 4.233
 1.111 -1.482 4.229
 1.123 -1.482 4.224
 1.14 -1.486 4.232
 1.153 -1.487 4.232
 1.167 -1.487 4.23
 1.181 -1.489 4.233
 1.196 -1.492 4.237
 1.21 -1.493 4.236
 1.224 -1.494 4.235
 1.237 -1.494 4.232
 1.25 -1.494 4.23
 1.262 -1.493 4.224
 1.276 -1.495 4.224
 1.29 -1.495 4.221
 1.303 -1.495 4.217
 1.315 -1.494 4.211
 1.328 -1.495 4.209
 1.343 -1.496 4.209
 1.357 -1.498 4.211
 1.372 -1.5 4.213
 1.388 -1.503 4.217
 1.403 -1.505 4.22
 1.416 -1.505 4.214
 1.428 -1.504 4.209
 1.444 -1.507 4.211
 1.457 -1.507 4.209
 1.47 -1.507 4.204
 1.485 -1.509 4.204
 1.5 -1.511 4.207
 1.516 -1.513 4.209
 1.531 -1.515 4.209
 1.545 -1.517 4.209
 1.559 -1.517 4.207
 1.573 -1.518 4.205
 1.585 -1.517 4.196
 1.6 -1.519 4.197
 1.614 -1.519 4.193
 1.629 -1.521 4.193
 1.642 -1.521 4.189
 1.659 -1.524 4.192
 1.671 -1.523 4.185
 1.686 -1.525 4.185
 1.702 -1.528 4.188
 1.717 -1.529 4.186
 1.73 -1.528 4.179
 1.743 -1.528 4.174
 1.755 -1.528 4.167
 1.768 -1.527 4.16
 1.781 -1.527 4.154
 1.799 -1.531 4.16
 1.813 -1.531 4.156
 1.827 -1.532 4.153
 1.837 -1.529 4.14
 1.85 -1.529 4.134
 1.857 -1.524 4.116
 1.864 -1.519 4.097
 1.872 -1.515 4.079
 1.878 -1.509 4.059
 1.882 -1.502 4.034
 1.885 -1.494 4.007
 1.894 -1.491 3.993
 1.896 -1.483 3.965
 1.903 -1.478 3.946
 1.906 -1.471 3.921
 0 0 0
 0 0 0
 0 0 0
 0 0 0
 0 0 0
 0 0 0
 0 0 0
 0 0 0
 0 0 0
 0 0 0
 0 0 0
 0 0 0
 0 0 0
 0 0 0
 0 0 0
 0 0 0
 0 0 0
 0 0 0
 0 0 0
 0 0 0
 0 0 0
 1.843 -1.241 3.19
 1.838 -1.23 3.158
 1.846 -1.228 3.148
 1.852 -1.225 3.133
 1.851 -1.217 3.108
 1.848 -1.209 3.08
 1.859 -1.209 3.076
 1.808 -1.17 2.969
 -2.461 -1.594 4.194
 -2.405 -1.567 4.129
 -2.426 -1.59 4.197
 -2.409 -1.588 4.199
 -2.398 -1.59 4.211
 -2.391 -1.595 4.232
 -2.37 -1.591 4.227
 -2.356 -1.59 4.233
 -2.347 -1.594 4.25
 -2.331 -1.593 4.254
 -2.316 -1.592 4.258
 -2.301 -1.592 4.265
 -2.287 -1.592 4.271
 -2.271 -1.591 4.273
 -2.253 -1.589 4.274
 -2.234 -1.585 4.271
 -2.22 -1.585 4.277
 -2.207 -1.586 4.286
 -2.189 -1.583 4.284
 -2.176 -1.585 4.295
 -2.162 -1.585 4.301
 -2.145 -1.582 4.3
 -2.127 -1.58 4.299
 -2.11 -1.578 4.3
 -2.095 -1.577 4.303
 -2.076 -1.573 4.299
 -2.062 -1.574 4.305
 -2.046 -1.572 4.307
 -2.03 -1.57 4.308
 -2.011 -1.566 4.303
 -1.994 -1.565 4.303
 -1.977 -1.562 4.3
 -1.961 -1.56 4.302
 -1.947 -1.56 4.308
 -1.933 -1.56 4.313
 -1.918 -1.559 4.316
 -1.904 -1.56 4.322
 -1.887 -1.557 4.32
 -1.869 -1.554 4.316
 -1.852 -1.551 4.312
 -1.836 -1.549 4.313
 -1.821 -1.548 4.315
 -1.806 -1.548 4.318
 -1.791 -1.546 4.32
 -1.776 -1.546 4.323
 -1.761 -1.545 4.325
 -1.744 -1.542 4.321
 -1.728 -1.539 4.319
 -1.713 -1.539 4.322
 -1.697 -1.537 4.321
 -1.682 -1.536 4.322
 -1.666 -1.533 4.32
 -1.652 -1.533 4.324
 -1.636 -1.531 4.321
 -1.621 -1.53 4.323
 -1.606 -1.529 4.325
 -1.591 -1.527 4.324
 -1.578 -1.527 4.329
 -1.562 -1.526 4.328
 -1.546 -1.524 4.326
 -1.53 -1.521 4.323
 -1.516 -1.52 4.324
 -1.5 -1.519 4.324
 -1.485 -1.517 4.322
 -1.469 -1.514 4.319
 -1.454 -1.512 4.318
 -1.439 -1.511 4.318
 -1.423 -1.508 4.312
 -1.409 -1.508 4.315
 -1.396 -1.508 4.319
 -1.381 -1.507 4.319
 -1.365 -1.504 4.316
 -1.351 -1.503 4.317
 -1.337 -1.503 4.318
 -1.322 -1.501 4.316
 -1.308 -1.5 4.316
 -1.292 -1.498 4.313
 -1.277 -1.495 4.309
 -1.262 -1.493 4.308
 -1.247 -1.491 4.305
 -1.232 -1.489 4.3
 -1.218 -1.488 4.302
 -1.205 -1.489 4.307
 -1.191 -1.488 4.306
 -1.176 -1.486 4.305
 -1.163 -1.486 4.307
 -1.149 -1.485 4.308
 -1.136 -1.485 4.309
 -1.122 -1.485 4.311
 -1.109 -1.484 4.313
 -1.095 -1.484 4.315
 -1.081 -1.483 4.315
 -1.067 -1.481 4.313
 -1.052 -1.479 4.308
 -1.038 -1.478 4.307
 -1.024 -1.477 4.306
 -1.01 -1.475 4.305
 -0.995 -1.473 4.301
 -0.981 -1.472 4.299
 -0.967 -1.47 4.295
 -0.953 -1.468 4.292
 -0.939 -1.467 4.292
 -0.925 -1.466 4.291
 -0.913 -1.467 4.297
 -0.899 -1.467 4.297
 -0.886 -1.465 4.296
 -0.872 -1.464 4.295
 -0.859 -1.465 4.297
 -0.845 -1.463 4.295
 -0.833 -1.464 4.299
 -0.819 -1.463 4.298
 -0.806 -1.463 4.3
 -0.792 -1.462 4.299
 -0.778 -1.46 4.295
 -0.765 -1.458 4.292
 -0.751 -1.456 4.288
 -0.738 -1.456 4.289
 -0.724 -1.454 4.285
 -0.71 -1.453 4.283
 -0.696 -1.45 4.277
 -0.683 -1.45 4.278
 -0.67 -1.451 4.282
 -0.657 -1.45 4.282
 -0.644 -1.451 4.284
 -0.632 -1.452 4.29
 -0.62 -1.453 4.295
 -0.606 -1.451 4.288
 -0.593 -1.451 4.291
 -0.58 -1.451 4.292
 -0.567 -1.451 4.292
 -0.553 -1.448 4.286
 -0.54 -1.448 4.285
 -0.527 -1.447 4.284
 -0.514 -1.446 4.284
 -0.501 -1.446 4.285
 -0.489 -1.448 4.291
 -0.476 -1.447 4.29
 -0.463 -1.447 4.289
 -0.45 -1.446 4.287
 -0.437 -1.445 4.285
 -0.423 -1.444 4.282
 -0.411 -1.444 4.284
 -0.397 -1.442 4.279
 -0.385 -1.443 4.282
 -0.371 -1.441 4.277
 -0.359 -1.441 4.279
 -0.346 -1.441 4.278
 -0.333 -1.441 4.281
 -0.32 -1.442 4.282
 -0.308 -1.443 4.286
 -0.295 -1.442 4.285
 -0.282 -1.442 4.285
 -0.269 -1.439 4.277
 -0.256 -1.437 4.271
 -0.243 -1.438 4.274
 -0.23 -1.436 4.27
 -0.217 -1.435 4.266
 -0.205 -1.438 4.275
 -0.192 -1.439 4.278
 -0.179 -1.438 4.275
 -0.167 -1.439 4.278
 -0.154 -1.439 4.281
 -0.141 -1.437 4.275
 -0.128 -1.437 4.273
 -0.116 -1.435 4.267
 -0.103 -1.433 4.262
 -0.09 -1.434 4.266
 -0.077 -1.435 4.269
 -0.065 -1.435 4.269
 -0.052 -1.436 4.27
 -0.039 -1.437 4.273
 -0.027 -1.436 4.27
 -0.014 -1.437 4.272
 -0.001 -1.436 4.271
 0.01 -1.436 4.27
 0.023 -1.435 4.268
 0.036 -1.437 4.272
 0.049 -1.436 4.271
 0.061 -1.436 4.269
 0.074 -1.437 4.272
 0.087 -1.437 4.271
 0.099 -1.434 4.263
 0.112 -1.433 4.258
 0.125 -1.433 4.259
 0.137 -1.432 4.255
 0.15 -1.433 4.256
 0.162 -1.433 4.255
 0.175 -1.434 4.258
 0.188 -1.434 4.257
 0.201 -1.436 4.265
 0.214 -1.438 4.269
 0.227 -1.438 4.27
 0.239 -1.438 4.269
 0.252 -1.438 4.266
 0.264 -1.435 4.258
 0.277 -1.434 4.253
 0.289 -1.435 4.256
 0.302 -1.436 4.257
 0.315 -1.437 4.258
 0.328 -1.439 4.263
 0.342 -1.441 4.269
 0.355 -1.442 4.272
 0.367 -1.441 4.269
 0.38 -1.442 4.268
 0.392 -1.44 4.263
 0.404 -1.438 4.256
 0.417 -1.438 4.254
 0.43 -1.438 4.251
 0.442 -1.438 4.252
 0.455 -1.438 4.249
 0.468 -1.437 4.247
 0.48 -1.437 4.243
 0.493 -1.437 4.244
 0.506 -1.439 4.248
 0.52 -1.442 4.254
 0.533 -1.443 4.258
 0.546 -1.445 4.26
 0.56 -1.446 4.262
 0.572 -1.446 4.26
 0.585 -1.445 4.256
 0.597 -1.445 4.253
 0.609 -1.444 4.248
 0.623 -1.444 4.249
 0.635 -1.445 4.248
 0.648 -1.445 4.247
 0.661 -1.445 4.246
 0.675 -1.447 4.25
 0.688 -1.448 4.25
 0.701 -1.45 4.254
 0.714 -1.45 4.253
 0.728 -1.451 4.255
 0.741 -1.453 4.257
 0.753 -1.451 4.249
 0.766 -1.45 4.246
 0.779 -1.452 4.247
 0.791 -1.451 4.243
 0.803 -1.449 4.236
 0.817 -1.451 4.238
 0.83 -1.451 4.237
 0.844 -1.453 4.24
 0.857 -1.454 4.239
 0.87 -1.454 4.238
 0.882 -1.453 4.233
 0.895 -1.454 4.232
 0.908 -1.453 4.228
 0.921 -1.454 4.23
 0.935 -1.456 4.23
 0.95 -1.46 4.239
 0.963 -1.459 4.235
 0.976 -1.46 4.236
 0.99 -1.462 4.238
 1.003 -1.462 4.236
 1.017 -1.463 4.235
 1.032 -1.467 4.243
 1.046 -1.468 4.243
 1.059 -1.469 4.243
 1.072 -1.468 4.238
 1.084 -1.468 4.235
 1.098 -1.468 4.233
 1.111 -1.469 4.232
 1.124 -1.469 4.229
 1.139 -1.472 4.235
 1.153 -1.473 4.235
 1.166 -1.473 4.231
 1.18 -1.474 4.231
 1.194 -1.476 4.232
 1.208 -1.477 4.232
 1.221 -1.477 4.23
 1.235 -1.478 4.229
 1.249 -1.48 4.23
 1.262 -1.479 4.226
 1.276 -1.481 4.227
 1.29 -1.482 4.227
 1.304 -1.483 4.224
 1.316 -1.482 4.218
 1.33 -1.483 4.218
 1.344 -1.485 4.218
 1.359 -1.486 4.219
 1.373 -1.488 4.22
 1.388 -1.49 4.222
 1.403 -1.491 4.222
 1.415 -1.49 4.215
 1.426 -1.489 4.207
 1.441 -1.49 4.207
 1.453 -1.49 4.201
 1.467 -1.491 4.2
 1.482 -1.492 4.199
 1.499 -1.497 4.208
 1.515 -1.499 4.21
 1.531 -1.502 4.214
 1.545 -1.503 4.212
 1.559 -1.504 4.21
 1.571 -1.503 4.203
 1.583 -1.502 4.195
 1.598 -1.503 4.196
 1.612 -1.504 4.193
 1.628 -1.507 4.195
 1.642 -1.507 4.191
 1.658 -1.509 4.194
 1.67 -1.509 4.187
 1.686 -1.511 4.188
 1.701 -1.513 4.189
 1.718 -1.516 4.192
 1.73 -1.515 4.186
 1.745 -1.516 4.183
 1.756 -1.515 4.174
 1.768 -1.514 4.165
 1.781 -1.513 4.159
 1.799 -1.518 4.166
 1.813 -1.518 4.161
 1.826 -1.518 4.156
 1.839 -1.518 4.149
 1.85 -1.516 4.139
 1.858 -1.511 4.121
 1.867 -1.508 4.107
 1.877 -1.506 4.095
 1.884 -1.501 4.075
 1.89 -1.495 4.055
 1.895 -1.489 4.032
 1.904 -1.486 4.018
 1.904 -1.476 3.985
 1.912 -1.472 3.969
 0 0 0
 0 0 0
 0 0 0
 0 0 0
 0 0 0
 0 0 0
 0 0 0
 0 0 0
 0 0 0
 0 0 0
 0 0 0
 0 0 0
 0 0 0
 0 0 0
 0 0 0
 0 0 0
 0 0 0
 0 0 0
 0 0 0
 0 0 0
 0 0 0
 0 0 0
 1.839 -1.227 3.186
 1.837 -1.219 3.159
 1.845 -1.217 3.149
 1.85 -1.213 3.134
 1.854 -1.209 3.117
 1.849 -1.199 3.086
 1.859 -1.199 3.079
 1.869 -1.198 3.073
 -2.471 -1.586 4.216
 -2.469 -1.594 4.245
 -2.435 -1.581 4.217
 -2.416 -1.578 4.216
 -2.412 -1.585 4.241
 -2.409 -1.592 4.267
 -2.386 -1.587 4.259
 -2.371 -1.586 4.265
 -2.358 -1.588 4.275
 -2.343 -1.587 4.281
 -2.326 -1.585 4.282
 -2.313 -1.586 4.291
 -2.298 -1.586 4.296
 -2.286 -1.587 4.307
 -2.268 -1.585 4.307
 -2.252 -1.583 4.309
 -2.238 -1.584 4.318
 -2.224 -1.584 4.324
 -2.204 -1.58 4.32
 -2.19 -1.581 4.327
 -2.175 -1.58 4.331
 -2.158 -1.578 4.331
 -2.139 -1.574 4.327
 -2.118 -1.57 4.321
 -2.099 -1.566 4.316
 -2.079 -1.562 4.31
 -2.064 -1.561 4.313
 -2.049 -1.56 4.317
 -2.032 -1.558 4.318
 -2.014 -1.555 4.314
 -1.996 -1.552 4.312
 -1.98 -1.551 4.313
 -1.963 -1.548 4.313
 -1.95 -1.549 4.319
 -1.936 -1.549 4.325
 -1.921 -1.548 4.327
 -1.905 -1.546 4.328
 -1.888 -1.544 4.327
 -1.869 -1.54 4.32
 -1.853 -1.538 4.319
 -1.838 -1.537 4.321
 -1.822 -1.536 4.323
 -1.806 -1.534 4.323
 -1.792 -1.533 4.327
 -1.777 -1.533 4.33
 -1.762 -1.531 4.33
 -1.745 -1.528 4.326
 -1.728 -1.526 4.324
 -1.712 -1.524 4.323
 -1.695 -1.521 4.318
 -1.679 -1.519 4.319
 -1.663 -1.517 4.316
 -1.649 -1.517 4.32
 -1.633 -1.515 4.32
 -1.619 -1.514 4.321
 -1.603 -1.512 4.32
 -1.588 -1.51 4.319
 -1.574 -1.511 4.324
 -1.559 -1.509 4.322
 -1.543 -1.507 4.321
 -1.529 -1.506 4.323
 -1.514 -1.505 4.324
 -1.499 -1.504 4.324
 -1.484 -1.502 4.322
 -1.47 -1.501 4.325
 -1.454 -1.499 4.323
 -1.441 -1.499 4.326
 -1.424 -1.496 4.321
 -1.41 -1.496 4.324
 -1.396 -1.495 4.326
 -1.381 -1.494 4.324
 -1.366 -1.492 4.322
 -1.351 -1.49 4.322
 -1.337 -1.489 4.322
 -1.322 -1.487 4.319
 -1.308 -1.487 4.321
 -1.292 -1.483 4.315
 -1.276 -1.481 4.312
 -1.262 -1.48 4.311
 -1.247 -1.478 4.309
 -1.231 -1.475 4.301
 -1.218 -1.475 4.305
 -1.204 -1.474 4.307
 -1.19 -1.473 4.306
 -1.175 -1.472 4.305
 -1.163 -1.473 4.311
 -1.149 -1.472 4.311
 -1.135 -1.471 4.311
 -1.122 -1.471 4.314
 -1.108 -1.47 4.315
 -1.095 -1.47 4.317
 -1.081 -1.47 4.319
 -1.067 -1.469 4.318
 -1.053 -1.467 4.316
 -1.039 -1.466 4.314
 -1.025 -1.464 4.313
 -1.01 -1.462 4.31
 -0.996 -1.461 4.308
 -0.982 -1.46 4.306
 -0.968 -1.459 4.306
 -0.954 -1.457 4.304
 -0.94 -1.456 4.302
 -0.926 -1.454 4.299
 -0.913 -1.454 4.302
 -0.899 -1.452 4.298
 -0.884 -1.45 4.293
 -0.872 -1.451 4.297
 -0.859 -1.451 4.3
 -0.846 -1.452 4.304
 -0.834 -1.452 4.308
 -0.82 -1.452 4.309
 -0.807 -1.451 4.307
 -0.793 -1.451 4.308
 -0.779 -1.448 4.302
 -0.766 -1.448 4.303
 -0.751 -1.445 4.297
 -0.739 -1.446 4.3
 -0.724 -1.442 4.293
 -0.71 -1.44 4.288
 -0.696 -1.438 4.281
 -0.683 -1.437 4.281
 -0.67 -1.437 4.283
 -0.657 -1.437 4.284
 -0.644 -1.437 4.286
 -0.631 -1.437 4.288
 -0.619 -1.438 4.29
 -0.604 -1.435 4.282
 -0.592 -1.436 4.287
 -0.579 -1.435 4.286
 -0.566 -1.436 4.289
 -0.553 -1.434 4.284
 -0.54 -1.434 4.286
 -0.527 -1.434 4.288
 -0.514 -1.434 4.29
 -0.501 -1.434 4.291
 -0.49 -1.437 4.301
 -0.476 -1.436 4.298
 -0.463 -1.435 4.295
 -0.45 -1.433 4.292
 -0.437 -1.433 4.292
 -0.424 -1.432 4.289
 -0.411 -1.432 4.29
 -0.397 -1.43 4.285
 -0.385 -1.431 4.289
 -0.372 -1.429 4.284
 -0.359 -1.429 4.285
 -0.346 -1.429 4.285
 -0.333 -1.43 4.288
 -0.32 -1.429 4.286
 -0.308 -1.429 4.288
 -0.295 -1.428 4.286
 -0.282 -1.428 4.285
 -0.269 -1.426 4.28
 -0.256 -1.424 4.274
 -0.243 -1.424 4.275
 -0.23 -1.423 4.273
 -0.217 -1.422 4.269
 -0.204 -1.423 4.271
 -0.192 -1.424 4.277
 -0.179 -1.423 4.272
 -0.166 -1.424 4.275
 -0.154 -1.425 4.278
 -0.141 -1.424 4.276
 -0.128 -1.423 4.272
 -0.115 -1.422 4.272
 -0.103 -1.421 4.267
 -0.09 -1.422 4.272
 -0.077 -1.424 4.276
 -0.065 -1.424 4.278
 -0.052 -1.423 4.275
 -0.039 -1.423 4.273
 -0.027 -1.422 4.27
 -0.014 -1.422 4.271
 -0.001 -1.421 4.268
 0.011 -1.423 4.273
 0.023 -1.423 4.273
 0.036 -1.425 4.278
 0.049 -1.424 4.277
 0.061 -1.425 4.277
 0.074 -1.424 4.275
 0.087 -1.424 4.274
 0.099 -1.421 4.265
 0.112 -1.419 4.259
 0.124 -1.419 4.258
 0.137 -1.419 4.257
 0.15 -1.419 4.258
 0.162 -1.419 4.257
 0.175 -1.42 4.26
 0.188 -1.42 4.258
 0.201 -1.422 4.264
 0.214 -1.423 4.265
 0.226 -1.424 4.267
 0.239 -1.424 4.266
 0.252 -1.425 4.268
 0.264 -1.422 4.26
 0.277 -1.423 4.263
 0.29 -1.424 4.264
 0.303 -1.424 4.264
 0.315 -1.423 4.26
 0.328 -1.426 4.266
 0.341 -1.426 4.266
 0.354 -1.427 4.269
 0.367 -1.428 4.271
 0.38 -1.428 4.269
 0.392 -1.427 4.265
 0.405 -1.426 4.261
 0.417 -1.425 4.257
 0.429 -1.424 4.251
 0.442 -1.425 4.254
 0.455 -1.425 4.252
 0.467 -1.424 4.25
 0.48 -1.425 4.249
 0.493 -1.425 4.248
 0.506 -1.426 4.25
 0.52 -1.428 4.255
 0.533 -1.429 4.257
 0.546 -1.43 4.259
 0.559 -1.432 4.263
 0.572 -1.432 4.26
 0.584 -1.431 4.256
 0.597 -1.431 4.256
 0.61 -1.431 4.252
 0.622 -1.431 4.252
 0.635 -1.432 4.251
 0.648 -1.432 4.25
 0.661 -1.432 4.25
 0.675 -1.434 4.253
 0.688 -1.435 4.254
 0.701 -1.436 4.255
 0.715 -1.438 4.258
 0.728 -1.438 4.257
 0.741 -1.439 4.257
 0.753 -1.438 4.253
 0.766 -1.438 4.251
 0.779 -1.438 4.249
 0.791 -1.438 4.246
 0.803 -1.437 4.24
 0.816 -1.436 4.237
 0.829 -1.437 4.238
 0.843 -1.438 4.238
 0.856 -1.439 4.237
 0.869 -1.439 4.236
 0.882 -1.44 4.236
 0.895 -1.441 4.236
 0.909 -1.442 4.237
 0.923 -1.444 4.24
 0.936 -1.445 4.24
 0.951 -1.447 4.245
 0.963 -1.446 4.239
 0.975 -1.446 4.235
 0.988 -1.445 4.231
 1.001 -1.446 4.229
 1.014 -1.446 4.228
 1.029 -1.45 4.236
 1.042 -1.45 4.234
 1.057 -1.453 4.239
 1.07 -1.453 4.236
 1.083 -1.453 4.232
 1.096 -1.453 4.23
 1.11 -1.454 4.231
 1.123 -1.455 4.229
 1.138 -1.457 4.234
 1.153 -1.46 4.238
 1.166 -1.46 4.235
 1.18 -1.462 4.237
 1.194 -1.462 4.235
 1.207 -1.463 4.234
 1.22 -1.463 4.23
 1.233 -1.464 4.228
 1.247 -1.464 4.227
 1.261 -1.465 4.226
 1.275 -1.467 4.228
 1.29 -1.469 4.23
 1.303 -1.469 4.227
 1.316 -1.469 4.222
 1.33 -1.47 4.221
 1.343 -1.47 4.218
 1.357 -1.471 4.217
 1.371 -1.472 4.217
 1.386 -1.475 4.22
 1.402 -1.477 4.223
 1.415 -1.477 4.219
 1.428 -1.478 4.216
 1.443 -1.48 4.218
 1.455 -1.479 4.211
 1.469 -1.48 4.209
 1.484 -1.482 4.211
 1.5 -1.484 4.213
 1.515 -1.485 4.213
 1.53 -1.488 4.215
 1.544 -1.488 4.213
 1.557 -1.489 4.209
 1.57 -1.488 4.203
 1.583 -1.488 4.199
 1.599 -1.49 4.201
 1.613 -1.491 4.198
 1.628 -1.493 4.199
 1.641 -1.493 4.193
 1.656 -1.495 4.194
 1.668 -1.494 4.187
 1.685 -1.497 4.189
 1.701 -1.499 4.192
 1.718 -1.502 4.196
 1.73 -1.502 4.189
 1.745 -1.503 4.188
 1.757 -1.502 4.179
 1.768 -1.5 4.17
 1.781 -1.5 4.164
 1.8 -1.504 4.171
 1.812 -1.504 4.163
 1.826 -1.504 4.16
 1.838 -1.503 4.151
 1.849 -1.502 4.141
 1.857 -1.497 4.123
 1.866 -1.494 4.109
 1.875 -1.491 4.095
 1.884 -1.487 4.079
 1.89 -1.482 4.058
 1.895 -1.475 4.036
 1.903 -1.472 4.019
 1.9 -1.46 3.982
 0 0 0
 0 0 0
 0 0 0
 0 0 0
 0 0 0
 0 0 0
 0 0 0
 0 0 0
 0 0 0
 0 0 0
 0 0 0
 0 0 0
 0 0 0
 0 0 0
 0 0 0
 0 0 0
 0 0 0
 0 0 0
 0 0 0
 0 0 0
 0 0 0
 0 0 0
 0 0 0
 1.84 -1.217 3.193
 1.842 -1.211 3.171
 1.844 -1.206 3.152
 1.85 -1.203 3.138
 1.856 -1.2 3.124
 1.851 -1.189 3.092
 1.845 -1.179 3.059
 1.865 -1.185 3.07
 0 0 0
 0 0 0
 -2.455 -1.58 4.257
 -2.44 -1.579 4.262
 -2.436 -1.587 4.289
 -2.425 -1.589 4.302
 -2.406 -1.586 4.301
 -2.388 -1.583 4.3
 -2.37 -1.581 4.301
 -2.354 -1.58 4.306
 -2.337 -1.578 4.307
 -2.322 -1.578 4.312
 -2.307 -1.577 4.317
 -2.294 -1.579 4.328
 -2.276 -1.576 4.327
 -2.262 -1.576 4.333
 -2.245 -1.575 4.336
 -2.229 -1.574 4.339
 -2.208 -1.569 4.332
 -2.194 -1.569 4.338
 -2.176 -1.566 4.337
 -2.159 -1.564 4.338
 -2.14 -1.561 4.335
 -2.121 -1.557 4.331
 -2.101 -1.553 4.325
 -2.081 -1.549 4.318
 -2.064 -1.547 4.319
 -2.049 -1.546 4.323
 -2.035 -1.546 4.327
 -2.017 -1.543 4.324
 -1.998 -1.54 4.32
 -1.982 -1.538 4.323
 -1.964 -1.535 4.319
 -1.949 -1.534 4.322
 -1.935 -1.534 4.326
 -1.919 -1.533 4.329
 -1.904 -1.532 4.332
 -1.889 -1.531 4.332
 -1.87 -1.527 4.326
 -1.853 -1.524 4.324
 -1.838 -1.524 4.328
 -1.822 -1.521 4.326
 -1.805 -1.519 4.325
 -1.79 -1.518 4.326
 -1.774 -1.517 4.327
 -1.759 -1.515 4.328
 -1.742 -1.512 4.324
 -1.726 -1.511 4.324
 -1.712 -1.51 4.328
 -1.696 -1.508 4.326
 -1.68 -1.506 4.325
 -1.664 -1.504 4.324
 -1.649 -1.504 4.326
 -1.633 -1.501 4.323
 -1.618 -1.5 4.324
 -1.603 -1.498 4.324
 -1.588 -1.497 4.325
 -1.574 -1.497 4.328
 -1.558 -1.495 4.326
 -1.542 -1.492 4.323
 -1.528 -1.492 4.326
 -1.514 -1.492 4.329
 -1.498 -1.489 4.326
 -1.483 -1.488 4.326
 -1.47 -1.488 4.331
 -1.455 -1.487 4.329
 -1.441 -1.486 4.332
 -1.425 -1.484 4.329
 -1.411 -1.483 4.33
 -1.396 -1.482 4.33
 -1.38 -1.479 4.325
 -1.364 -1.476 4.321
 -1.35 -1.475 4.32
 -1.334 -1.473 4.317
 -1.321 -1.473 4.32
 -1.307 -1.472 4.321
 -1.291 -1.469 4.317
 -1.277 -1.468 4.317
 -1.264 -1.469 4.321
 -1.248 -1.466 4.317
 -1.232 -1.463 4.311
 -1.218 -1.462 4.311
 -1.203 -1.46 4.307
 -1.188 -1.458 4.306
 -1.173 -1.456 4.301
 -1.161 -1.457 4.308
 -1.148 -1.457 4.31
 -1.134 -1.456 4.311
 -1.12 -1.456 4.313
 -1.108 -1.457 4.318
 -1.094 -1.456 4.317
 -1.081 -1.456 4.321
 -1.067 -1.455 4.32
 -1.052 -1.453 4.317
 -1.038 -1.452 4.315
 -1.024 -1.45 4.314
 -1.009 -1.449 4.311
 -0.995 -1.447 4.308
 -0.981 -1.445 4.306
 -0.967 -1.444 4.305
 -0.953 -1.443 4.305
 -0.939 -1.441 4.301
 -0.926 -1.441 4.301
 -0.912 -1.44 4.302
 -0.898 -1.438 4.299
 -0.884 -1.437 4.296
 -0.87 -1.436 4.295
 -0.858 -1.436 4.299
 -0.845 -1.437 4.303
 -0.833 -1.438 4.307
 -0.819 -1.438 4.308
 -0.806 -1.437 4.309
 -0.793 -1.437 4.31
 -0.779 -1.434 4.304
 -0.765 -1.433 4.303
 -0.75 -1.43 4.295
 -0.738 -1.43 4.297
 -0.723 -1.428 4.29
 -0.71 -1.427 4.29
 -0.696 -1.426 4.289
 -0.684 -1.426 4.291
 -0.67 -1.426 4.29
 -0.657 -1.425 4.289
 -0.644 -1.424 4.288
 -0.631 -1.423 4.287
 -0.618 -1.423 4.288
 -0.604 -1.42 4.282
 -0.592 -1.422 4.288
 -0.578 -1.421 4.287
 -0.566 -1.422 4.289
 -0.552 -1.42 4.286
 -0.54 -1.42 4.288
 -0.526 -1.419 4.286
 -0.514 -1.42 4.288
 -0.501 -1.419 4.288
 -0.488 -1.421 4.294
 -0.475 -1.419 4.29
 -0.462 -1.42 4.291
 -0.449 -1.418 4.287
 -0.436 -1.417 4.286
 -0.423 -1.417 4.285
 -0.41 -1.417 4.286
 -0.397 -1.415 4.281
 -0.384 -1.416 4.285
 -0.371 -1.414 4.281
 -0.359 -1.415 4.286
 -0.346 -1.415 4.286
 -0.333 -1.416 4.29
 -0.32 -1.416 4.289
 -0.308 -1.417 4.293
 -0.295 -1.416 4.289
 -0.282 -1.415 4.287
 -0.269 -1.414 4.285
 -0.255 -1.411 4.276
 -0.243 -1.41 4.275
 -0.23 -1.409 4.27
 -0.217 -1.407 4.267
 -0.204 -1.407 4.266
 -0.192 -1.409 4.272
 -0.179 -1.408 4.271
 -0.166 -1.411 4.277
 -0.154 -1.413 4.284
 -0.141 -1.411 4.281
 -0.128 -1.41 4.277
 -0.115 -1.41 4.277
 -0.103 -1.408 4.271
 -0.09 -1.409 4.272
 -0.077 -1.412 4.282
 -0.065 -1.413 4.285
 -0.052 -1.412 4.283
 -0.039 -1.411 4.28
 -0.026 -1.41 4.276
 -0.014 -1.41 4.276
 -0.001 -1.409 4.272
 0.011 -1.41 4.275
 0.023 -1.41 4.276
 0.036 -1.412 4.28
 0.049 -1.41 4.274
 0.061 -1.41 4.276
 0.074 -1.408 4.269
 0.087 -1.407 4.265
 0.099 -1.405 4.257
 0.112 -1.404 4.255
 0.124 -1.403 4.252
 0.137 -1.405 4.258
 0.15 -1.406 4.26
 0.163 -1.407 4.261
 0.175 -1.408 4.264
 0.188 -1.408 4.264
 0.201 -1.41 4.268
 0.213 -1.408 4.264
 0.226 -1.41 4.267
 0.239 -1.41 4.268
 0.252 -1.411 4.269
 0.264 -1.409 4.262
 0.277 -1.411 4.268
 0.29 -1.41 4.265
 0.303 -1.411 4.265
 0.315 -1.41 4.263
 0.328 -1.411 4.264
 0.341 -1.412 4.265
 0.354 -1.413 4.269
 0.366 -1.412 4.265
 0.379 -1.413 4.265
 0.392 -1.413 4.264
 0.404 -1.412 4.26
 0.417 -1.41 4.255
 0.429 -1.411 4.255
 0.442 -1.412 4.257
 0.455 -1.411 4.253
 0.468 -1.412 4.255
 0.481 -1.413 4.255
 0.493 -1.413 4.255
 0.506 -1.414 4.256
 0.52 -1.417 4.262
 0.533 -1.416 4.26
 0.546 -1.417 4.261
 0.559 -1.418 4.262
 0.571 -1.417 4.257
 0.584 -1.417 4.255
 0.596 -1.416 4.253
 0.609 -1.417 4.252
 0.622 -1.417 4.251
 0.635 -1.418 4.253
 0.648 -1.419 4.252
 0.661 -1.42 4.255
 0.675 -1.422 4.258
 0.688 -1.423 4.259
 0.701 -1.423 4.257
 0.714 -1.424 4.259
 0.727 -1.424 4.256
 0.739 -1.423 4.252
 0.751 -1.422 4.246
 0.764 -1.422 4.245
 0.777 -1.421 4.241
 0.79 -1.422 4.24
 0.802 -1.421 4.235
 0.815 -1.422 4.237
 0.828 -1.422 4.235
 0.842 -1.425 4.239
 0.855 -1.425 4.238
 0.868 -1.425 4.237
 0.881 -1.426 4.236
 0.895 -1.427 4.238
 0.907 -1.427 4.234
 0.922 -1.429 4.238
 0.935 -1.43 4.238
 0.949 -1.432 4.243
 0.962 -1.432 4.24
 0.976 -1.433 4.241
 0.988 -1.433 4.237
 1.002 -1.434 4.237
 1.015 -1.435 4.236
 1.028 -1.435 4.235
 1.042 -1.436 4.235
 1.056 -1.438 4.238
 1.069 -1.439 4.236
 1.082 -1.439 4.233
 1.097 -1.441 4.238
 1.111 -1.442 4.238
 1.124 -1.442 4.235
 1.138 -1.444 4.236
 1.152 -1.446 4.24
 1.165 -1.446 4.235
 1.179 -1.447 4.236
 1.193 -1.448 4.236
 1.207 -1.45 4.237
 1.22 -1.449 4.232
 1.233 -1.45 4.232
 1.248 -1.452 4.232
 1.261 -1.452 4.23
 1.275 -1.454 4.231
 1.29 -1.456 4.233
 1.303 -1.456 4.23
 1.315 -1.455 4.223
 1.329 -1.456 4.222
 1.343 -1.457 4.221
 1.357 -1.457 4.22
 1.37 -1.458 4.216
 1.385 -1.46 4.221
 1.4 -1.462 4.222
 1.413 -1.462 4.217
 1.426 -1.462 4.214
 1.441 -1.464 4.216
 1.454 -1.464 4.211
 1.468 -1.465 4.209
 1.483 -1.466 4.209
 1.498 -1.469 4.212
 1.513 -1.47 4.213
 1.528 -1.472 4.214
 1.542 -1.473 4.212
 1.556 -1.474 4.21
 1.569 -1.474 4.204
 1.583 -1.475 4.203
 1.599 -1.477 4.206
 1.613 -1.479 4.204
 1.629 -1.48 4.204
 1.643 -1.481 4.203
 1.658 -1.483 4.202
 1.669 -1.481 4.193
 1.685 -1.484 4.196
 1.702 -1.487 4.199
 1.717 -1.488 4.199
 1.729 -1.487 4.19
 1.745 -1.489 4.191
 1.756 -1.488 4.182
 1.767 -1.486 4.172
 1.78 -1.486 4.166
 1.798 -1.489 4.17
 1.811 -1.489 4.164
 1.823 -1.489 4.158
 1.836 -1.488 4.152
 1.848 -1.487 4.143
 1.856 -1.483 4.125
 1.865 -1.48 4.112
 1.876 -1.478 4.101
 1.885 -1.475 4.086
 1.894 -1.471 4.071
 1.905 -1.47 4.061
 1.914 -1.467 4.048
 0 0 0
 0 0 0
 0 0 0
 0 0 0
 0 0 0
 0 0 0
 0 0 0
 0 0 0
 0 0 0
 0 0 0
 0 0 0
 0 0 0
 0 0 0
 0 0 0
 0 0 0
 0 0 0
 0 0 0
 0 0 0
 0 0 0
 0 0 0
 0 0 0
 0 0 0
 0 0 0
 0 0 0
 1.836 -1.203 3.188
 1.846 -1.203 3.181
 1.847 -1.197 3.16
 1.849 -1.191 3.14
 1.854 -1.187 3.124
 1.85 -1.179 3.095
 1.862 -1.179 3.092
 1.807 -1.138 2.977
 0 0 0
 0 0 0
 -2.484 -1.584 4.312
 -2.465 -1.581 4.312
 -2.449 -1.581 4.317
 -2.436 -1.581 4.325
 -2.42 -1.581 4.331
 -2.399 -1.577 4.326
 -2.382 -1.575 4.329
 -2.367 -1.574 4.334
 -2.35 -1.573 4.335
 -2.331 -1.57 4.334
 -2.315 -1.569 4.339
 -2.302 -1.57 4.347
 -2.282 -1.566 4.343
 -2.267 -1.566 4.349
 -2.248 -1.563 4.346
 -2.229 -1.559 4.344
 -2.209 -1.555 4.338
 -2.195 -1.555 4.345
 -2.177 -1.553 4.345
 -2.164 -1.554 4.353
 -2.146 -1.551 4.352
 -2.126 -1.547 4.345
 -2.105 -1.542 4.338
 -2.084 -1.537 4.329
 -2.065 -1.534 4.326
 -2.049 -1.532 4.327
 -2.035 -1.532 4.332
 -2.017 -1.529 4.329
 -1.999 -1.526 4.326
 -1.982 -1.524 4.326
 -1.964 -1.521 4.323
 -1.948 -1.52 4.324
 -1.934 -1.519 4.329
 -1.917 -1.517 4.328
 -1.903 -1.517 4.332
 -1.887 -1.516 4.334
 -1.869 -1.512 4.33
 -1.851 -1.509 4.325
 -1.837 -1.509 4.329
 -1.821 -1.507 4.329
 -1.805 -1.506 4.329
 -1.79 -1.504 4.331
 -1.776 -1.504 4.334
 -1.76 -1.503 4.336
 -1.741 -1.498 4.325
 -1.726 -1.497 4.328
 -1.711 -1.496 4.33
 -1.696 -1.495 4.331
 -1.682 -1.494 4.333
 -1.666 -1.493 4.334
 -1.65 -1.491 4.333
 -1.633 -1.488 4.328
 -1.617 -1.485 4.325
 -1.599 -1.481 4.317
 -1.585 -1.481 4.32
 -1.569 -1.479 4.319
 -1.554 -1.478 4.319
 -1.537 -1.474 4.313
 -1.525 -1.476 4.321
 -1.511 -1.475 4.324
 -1.496 -1.474 4.324
 -1.481 -1.472 4.323
 -1.469 -1.474 4.332
 -1.453 -1.471 4.327
 -1.438 -1.47 4.328
 -1.422 -1.467 4.323
 -1.409 -1.467 4.327
 -1.395 -1.467 4.329
 -1.379 -1.464 4.325
 -1.363 -1.462 4.322
 -1.349 -1.461 4.323
 -1.333 -1.458 4.318
 -1.318 -1.456 4.315
 -1.305 -1.457 4.32
 -1.29 -1.455 4.318
 -1.276 -1.454 4.318
 -1.262 -1.454 4.321
 -1.247 -1.452 4.319
 -1.231 -1.448 4.31
 -1.218 -1.448 4.313
 -1.202 -1.446 4.309
 -1.189 -1.446 4.311
 -1.174 -1.443 4.307
 -1.161 -1.445 4.314
 -1.147 -1.443 4.311
 -1.133 -1.443 4.313
 -1.119 -1.441 4.311
 -1.107 -1.442 4.317
 -1.092 -1.441 4.315
 -1.079 -1.44 4.318
 -1.064 -1.439 4.315
 -1.051 -1.438 4.315
 -1.036 -1.436 4.311
 -1.022 -1.435 4.311
 -1.008 -1.433 4.309
 -0.994 -1.432 4.307
 -0.98 -1.43 4.304
 -0.966 -1.43 4.305
 -0.952 -1.429 4.304
 -0.938 -1.427 4.301
 -0.925 -1.427 4.304
 -0.912 -1.427 4.305
 -0.898 -1.425 4.303
 -0.884 -1.424 4.301
 -0.871 -1.423 4.3
 -0.858 -1.423 4.302
 -0.845 -1.423 4.304
 -0.832 -1.424 4.308
 -0.818 -1.422 4.305
 -0.805 -1.422 4.305
 -0.791 -1.421 4.305
 -0.777 -1.419 4.301
 -0.763 -1.418 4.298
 -0.749 -1.415 4.292
 -0.737 -1.417 4.299
 -0.723 -1.415 4.295
 -0.709 -1.413 4.292
 -0.696 -1.412 4.288
 -0.683 -1.412 4.291
 -0.669 -1.41 4.285
 -0.655 -1.407 4.278
 -0.643 -1.409 4.284
 -0.629 -1.407 4.282
 -0.617 -1.409 4.287
 -0.604 -1.408 4.285
 -0.592 -1.41 4.294
 -0.578 -1.408 4.29
 -0.566 -1.409 4.294
 -0.552 -1.407 4.289
 -0.539 -1.407 4.291
 -0.526 -1.406 4.288
 -0.513 -1.406 4.29
 -0.5 -1.405 4.287
 -0.488 -1.406 4.291
 -0.474 -1.405 4.289
 -0.462 -1.406 4.291
 -0.449 -1.404 4.289
 -0.435 -1.403 4.286
 -0.423 -1.403 4.288
 -0.41 -1.402 4.285
 -0.396 -1.4 4.278
 -0.383 -1.4 4.281
 -0.371 -1.401 4.284
 -0.358 -1.402 4.288
 -0.346 -1.402 4.288
 -0.333 -1.403 4.291
 -0.32 -1.401 4.287
 -0.307 -1.402 4.289
 -0.294 -1.401 4.287
 -0.281 -1.4 4.284
 -0.268 -1.398 4.28
 -0.255 -1.397 4.277
 -0.242 -1.397 4.276
 -0.229 -1.394 4.269
 -0.217 -1.394 4.269
 -0.204 -1.394 4.269
 -0.191 -1.395 4.273
 -0.179 -1.394 4.27
 -0.166 -1.397 4.277
 -0.154 -1.398 4.281
 -0.141 -1.397 4.28
 -0.128 -1.395 4.273
 -0.115 -1.396 4.277
 -0.102 -1.395 4.273
 -0.09 -1.395 4.275
 -0.077 -1.399 4.285
 -0.065 -1.401 4.292
 -0.052 -1.401 4.291
 -0.039 -1.4 4.287
 -0.026 -1.399 4.285
 -0.014 -1.399 4.284
 -0.001 -1.397 4.279
 0.011 -1.398 4.282
 0.023 -1.399 4.285
 0.036 -1.4 4.288
 0.049 -1.398 4.279
 0.062 -1.398 4.281
 0.074 -1.395 4.272
 0.087 -1.394 4.266
 0.099 -1.392 4.259
 0.112 -1.391 4.259
 0.124 -1.391 4.256
 0.137 -1.391 4.255
 0.15 -1.392 4.258
 0.162 -1.392 4.258
 0.175 -1.393 4.261
 0.188 -1.393 4.26
 0.201 -1.397 4.27
 0.213 -1.395 4.264
 0.226 -1.397 4.271
 0.24 -1.4 4.278
 0.252 -1.401 4.28
 0.265 -1.399 4.273
 0.278 -1.403 4.284
 0.29 -1.401 4.277
 0.303 -1.399 4.271
 0.315 -1.398 4.267
 0.328 -1.397 4.264
 0.34 -1.395 4.256
 0.353 -1.397 4.26
 0.366 -1.396 4.258
 0.379 -1.398 4.261
 0.392 -1.399 4.265
 0.404 -1.399 4.264
 0.417 -1.398 4.259
 0.43 -1.399 4.261
 0.442 -1.397 4.255
 0.454 -1.397 4.251
 0.468 -1.399 4.257
 0.481 -1.4 4.258
 0.493 -1.399 4.255
 0.507 -1.403 4.266
 0.521 -1.405 4.27
 0.533 -1.403 4.262
 0.546 -1.404 4.264
 0.559 -1.405 4.265
 0.571 -1.404 4.259
 0.583 -1.402 4.254
 0.596 -1.403 4.254
 0.609 -1.403 4.254
 0.621 -1.403 4.251
 0.634 -1.404 4.251
 0.648 -1.405 4.254
 0.661 -1.405 4.252
 0.674 -1.406 4.253
 0.688 -1.408 4.258
 0.701 -1.41 4.26
 0.714 -1.41 4.26
 0.727 -1.411 4.259
 0.739 -1.409 4.253
 0.751 -1.409 4.25
 0.764 -1.408 4.245
 0.776 -1.408 4.242
 0.789 -1.408 4.24
 0.802 -1.408 4.239
 0.814 -1.407 4.235
 0.828 -1.409 4.236
 0.841 -1.41 4.239
 0.854 -1.41 4.237
 0.867 -1.411 4.235
 0.881 -1.412 4.236
 0.894 -1.412 4.235
 0.906 -1.412 4.231
 0.921 -1.415 4.238
 0.934 -1.416 4.238
 0.948 -1.417 4.238
 0.961 -1.418 4.239
 0.975 -1.42 4.242
 0.988 -1.42 4.239
 1.002 -1.421 4.241
 1.015 -1.422 4.24
 1.028 -1.422 4.238
 1.041 -1.423 4.236
 1.056 -1.425 4.241
 1.07 -1.426 4.241
 1.083 -1.427 4.241
 1.098 -1.43 4.246
 1.111 -1.43 4.244
 1.124 -1.43 4.241
 1.138 -1.431 4.24
 1.152 -1.432 4.24
 1.164 -1.432 4.236
 1.179 -1.433 4.238
 1.191 -1.433 4.234
 1.206 -1.435 4.235
 1.218 -1.435 4.232
 1.232 -1.436 4.232
 1.246 -1.437 4.232
 1.26 -1.438 4.232
 1.274 -1.44 4.232
 1.289 -1.442 4.235
 1.303 -1.442 4.232
 1.315 -1.442 4.228
 1.33 -1.443 4.229
 1.343 -1.444 4.227
 1.358 -1.446 4.228
 1.37 -1.445 4.221
 1.385 -1.447 4.224
 1.4 -1.448 4.224
 1.413 -1.449 4.221
 1.426 -1.448 4.216
 1.441 -1.451 4.219
 1.454 -1.451 4.214
 1.467 -1.451 4.211
 1.481 -1.452 4.209
 1.497 -1.454 4.212
 1.511 -1.456 4.212
 1.526 -1.457 4.212
 1.54 -1.458 4.21
 1.554 -1.458 4.207
 1.566 -1.458 4.2
 1.58 -1.459 4.199
 1.596 -1.461 4.201
 1.61 -1.462 4.2
 1.627 -1.465 4.203
 1.642 -1.467 4.204
 1.657 -1.468 4.203
 1.669 -1.468 4.197
 1.685 -1.47 4.199
 1.7 -1.472 4.198
 1.714 -1.473 4.196
 1.727 -1.472 4.19
 1.743 -1.474 4.19
 1.755 -1.473 4.182
 1.767 -1.472 4.174
 1.779 -1.472 4.167
 1.796 -1.474 4.17
 1.811 -1.476 4.169
 1.823 -1.475 4.161
 1.836 -1.475 4.154
 1.849 -1.475 4.149
 1.856 -1.47 4.13
 1.864 -1.466 4.113
 1.875 -1.464 4.103
 1.887 -1.463 4.095
 1.896 -1.46 4.08
 1.913 -1.463 4.082
 1.925 -1.462 4.075
 0 0 0
 0 0 0
 0 0 0
 0 0 0
 0 0 0
 0 0 0
 0 0 0
 0 0 0
 0 0 0
 0 0 0
 0 0 0
 0 0 0
 0 0 0
 0 0 0
 0 0 0
 0 0 0
 0 0 0
 0 0 0
 0 0 0
 0 0 0
 0 0 0
 0 0 0
 0 0 0
 0 0 0
 1.845 -1.198 3.207
 1.848 -1.193 3.188
 1.85 -1.188 3.169
 1.854 -1.183 3.151
 1.856 -1.178 3.132
 1.85 -1.168 3.097
 1.882 -1.181 3.128
 1.832 -1.143 3.021
 -2.545 -1.589 4.357
 -2.465 -1.548 4.252
 -2.491 -1.574 4.329
 -2.471 -1.571 4.327
 -2.454 -1.569 4.331
 -2.437 -1.567 4.332
 -2.419 -1.566 4.334
 -2.402 -1.564 4.336
 -2.385 -1.562 4.338
 -2.371 -1.562 4.345
 -2.356 -1.562 4.351
 -2.337 -1.559 4.35
 -2.322 -1.559 4.355
 -2.308 -1.559 4.363
 -2.286 -1.555 4.357
 -2.27 -1.554 4.36
 -2.25 -1.55 4.356
 -2.231 -1.546 4.352
 -2.211 -1.542 4.347
 -2.198 -1.543 4.356
 -2.179 -1.54 4.353
 -2.167 -1.542 4.363
 -2.149 -1.539 4.362
 -2.129 -1.535 4.356
 -2.107 -1.53 4.347
 -2.087 -1.525 4.34
 -2.068 -1.522 4.336
 -2.05 -1.519 4.334
 -2.035 -1.518 4.337
 -2.017 -1.515 4.334
 -1.999 -1.512 4.332
 -1.983 -1.511 4.332
 -1.965 -1.508 4.33
 -1.95 -1.507 4.332
 -1.936 -1.507 4.337
 -1.917 -1.503 4.333
 -1.902 -1.502 4.335
 -1.887 -1.502 4.339
 -1.869 -1.499 4.334
 -1.851 -1.495 4.329
 -1.838 -1.496 4.335
 -1.822 -1.494 4.335
 -1.805 -1.492 4.333
 -1.79 -1.49 4.335
 -1.775 -1.489 4.337
 -1.76 -1.488 4.339
 -1.741 -1.484 4.33
 -1.727 -1.484 4.335
 -1.712 -1.483 4.337
 -1.698 -1.483 4.34
 -1.682 -1.481 4.34
 -1.667 -1.48 4.34
 -1.65 -1.477 4.337
 -1.633 -1.474 4.331
 -1.615 -1.47 4.325
 -1.597 -1.466 4.316
 -1.583 -1.466 4.319
 -1.567 -1.463 4.317
 -1.552 -1.462 4.318
 -1.535 -1.459 4.311
 -1.524 -1.461 4.322
 -1.509 -1.46 4.324
 -1.496 -1.46 4.327
 -1.48 -1.458 4.324
 -1.469 -1.46 4.335
 -1.452 -1.457 4.329
 -1.438 -1.456 4.331
 -1.422 -1.453 4.326
 -1.408 -1.454 4.33
 -1.394 -1.452 4.33
 -1.377 -1.45 4.325
 -1.362 -1.447 4.321
 -1.348 -1.447 4.323
 -1.331 -1.442 4.314
 -1.317 -1.442 4.315
 -1.304 -1.442 4.32
 -1.289 -1.441 4.319
 -1.275 -1.44 4.319
 -1.262 -1.44 4.322
 -1.247 -1.438 4.321
 -1.231 -1.435 4.314
 -1.217 -1.434 4.315
 -1.201 -1.431 4.309
 -1.188 -1.432 4.314
 -1.173 -1.429 4.309
 -1.16 -1.43 4.312
 -1.145 -1.427 4.309
 -1.131 -1.427 4.309
 -1.117 -1.425 4.306
 -1.103 -1.425 4.308
 -1.089 -1.423 4.307
 -1.076 -1.423 4.309
 -1.062 -1.423 4.31
 -1.049 -1.422 4.311
 -1.035 -1.421 4.309
 -1.021 -1.42 4.311
 -1.008 -1.42 4.313
 -0.993 -1.418 4.309
 -0.98 -1.417 4.308
 -0.967 -1.417 4.311
 -0.952 -1.415 4.305
 -0.938 -1.413 4.302
 -0.925 -1.413 4.305
 -0.911 -1.412 4.304
 -0.897 -1.411 4.302
 -0.884 -1.411 4.303
 -0.87 -1.41 4.303
 -0.857 -1.409 4.303
 -0.844 -1.409 4.303
 -0.831 -1.409 4.306
 -0.817 -1.407 4.303
 -0.803 -1.406 4.301
 -0.791 -1.407 4.305
 -0.777 -1.405 4.302
 -0.762 -1.403 4.297
 -0.749 -1.403 4.298
 -0.737 -1.404 4.304
 -0.723 -1.401 4.295
 -0.709 -1.399 4.292
 -0.696 -1.399 4.292
 -0.682 -1.398 4.291
 -0.668 -1.396 4.285
 -0.654 -1.393 4.278
 -0.642 -1.395 4.287
 -0.629 -1.395 4.286
 -0.617 -1.396 4.292
 -0.604 -1.395 4.29
 -0.592 -1.397 4.299
 -0.579 -1.396 4.296
 -0.566 -1.396 4.297
 -0.552 -1.394 4.293
 -0.54 -1.395 4.296
 -0.526 -1.394 4.294
 -0.513 -1.394 4.294
 -0.5 -1.392 4.291
 -0.487 -1.392 4.292
 -0.474 -1.392 4.291
 -0.462 -1.393 4.296
 -0.449 -1.392 4.294
 -0.435 -1.39 4.289
 -0.423 -1.392 4.294
 -0.409 -1.389 4.287
 -0.396 -1.386 4.277
 -0.383 -1.385 4.277
 -0.37 -1.387 4.284
 -0.358 -1.388 4.286
 -0.345 -1.388 4.287
 -0.332 -1.388 4.289
 -0.319 -1.386 4.282
 -0.307 -1.387 4.285
 -0.293 -1.385 4.28
 -0.281 -1.385 4.28
 -0.268 -1.384 4.278
 -0.255 -1.384 4.28
 -0.242 -1.382 4.274
 -0.229 -1.382 4.272
 -0.216 -1.381 4.271
 -0.204 -1.38 4.269
 -0.191 -1.381 4.272
 -0.178 -1.381 4.273
 -0.166 -1.384 4.28
 -0.153 -1.384 4.28
 -0.141 -1.383 4.28
 -0.128 -1.382 4.274
 -0.115 -1.382 4.277
 -0.102 -1.38 4.269
 -0.09 -1.381 4.273
 -0.077 -1.384 4.283
 -0.065 -1.386 4.289
 -0.052 -1.386 4.287
 -0.039 -1.386 4.289
 -0.026 -1.386 4.287
 -0.014 -1.385 4.283
 -0.001 -1.383 4.278
 0.011 -1.385 4.284
 0.023 -1.385 4.285
 0.036 -1.387 4.289
 0.049 -1.385 4.283
 0.062 -1.387 4.289
 0.074 -1.383 4.278
 0.087 -1.381 4.271
 0.099 -1.378 4.261
 0.112 -1.379 4.262
 0.124 -1.376 4.253
 0.137 -1.376 4.253
 0.15 -1.376 4.254
 0.162 -1.378 4.259
 0.175 -1.379 4.259
 0.188 -1.38 4.263
 0.201 -1.383 4.271
 0.213 -1.382 4.267
 0.226 -1.383 4.27
 0.239 -1.386 4.279
 0.252 -1.387 4.281
 0.265 -1.386 4.278
 0.278 -1.391 4.291
 0.291 -1.388 4.282
 0.303 -1.386 4.275
 0.315 -1.386 4.272
 0.328 -1.385 4.271
 0.34 -1.382 4.259
 0.353 -1.383 4.262
 0.366 -1.383 4.26
 0.379 -1.385 4.264
 0.392 -1.386 4.266
 0.404 -1.386 4.267
 0.417 -1.386 4.264
 0.43 -1.387 4.266
 0.442 -1.384 4.257
 0.454 -1.384 4.253
 0.468 -1.386 4.26
 0.481 -1.388 4.264
 0.493 -1.387 4.261
 0.508 -1.392 4.275
 0.521 -1.394 4.279
 0.533 -1.392 4.271
 0.546 -1.392 4.27
 0.559 -1.392 4.269
 0.571 -1.391 4.262
 0.583 -1.389 4.254
 0.596 -1.389 4.255
 0.609 -1.39 4.256
 0.621 -1.39 4.253
 0.634 -1.39 4.252
 0.648 -1.392 4.256
 0.661 -1.392 4.255
 0.673 -1.392 4.254
 0.687 -1.395 4.261
 0.701 -1.397 4.264
 0.714 -1.397 4.262
 0.726 -1.396 4.258
 0.738 -1.395 4.253
 0.751 -1.395 4.251
 0.763 -1.394 4.244
 0.776 -1.394 4.242
 0.789 -1.395 4.243
 0.802 -1.395 4.242
 0.814 -1.394 4.235
 0.827 -1.395 4.238
 0.841 -1.397 4.24
 0.854 -1.397 4.237
 0.866 -1.396 4.232
 0.88 -1.398 4.236
 0.893 -1.399 4.237
 0.906 -1.398 4.233
 0.92 -1.4 4.237
 0.934 -1.403 4.241
 0.947 -1.402 4.237
 0.96 -1.403 4.235
 0.974 -1.405 4.24
 0.987 -1.405 4.237
 1.001 -1.407 4.242
 1.016 -1.409 4.245
 1.028 -1.409 4.241
 1.041 -1.409 4.239
 1.055 -1.411 4.242
 1.069 -1.412 4.242
 1.082 -1.413 4.241
 1.098 -1.416 4.248
 1.111 -1.416 4.246
 1.125 -1.417 4.246
 1.137 -1.417 4.24
 1.151 -1.418 4.241
 1.163 -1.417 4.236
 1.177 -1.418 4.234
 1.189 -1.417 4.228
 1.202 -1.418 4.227
 1.215 -1.418 4.225
 1.23 -1.42 4.227
 1.245 -1.423 4.231
 1.26 -1.425 4.234
 1.275 -1.427 4.237
 1.289 -1.429 4.239
 1.303 -1.429 4.236
 1.315 -1.428 4.231
 1.33 -1.43 4.232
 1.344 -1.431 4.232
 1.358 -1.433 4.232
 1.37 -1.431 4.224
 1.386 -1.434 4.229
 1.4 -1.436 4.229
 1.412 -1.435 4.222
 1.426 -1.436 4.221
 1.442 -1.439 4.226
 1.455 -1.438 4.22
 1.468 -1.438 4.217
 1.483 -1.44 4.219
 1.498 -1.442 4.218
 1.511 -1.442 4.216
 1.525 -1.443 4.213
 1.539 -1.444 4.211
 1.552 -1.444 4.206
 1.566 -1.444 4.203
 1.58 -1.445 4.201
 1.594 -1.446 4.201
 1.61 -1.449 4.203
 1.626 -1.451 4.205
 1.64 -1.452 4.204
 1.656 -1.454 4.205
 1.671 -1.456 4.204
 1.685 -1.457 4.203
 1.7 -1.459 4.203
 1.715 -1.459 4.2
 1.727 -1.459 4.194
 1.742 -1.461 4.193
 1.755 -1.46 4.187
 1.767 -1.459 4.179
 1.778 -1.457 4.169
 1.795 -1.46 4.171
 1.811 -1.462 4.173
 1.821 -1.46 4.16
 1.835 -1.461 4.157
 1.85 -1.462 4.155
 1.856 -1.456 4.134
 1.863 -1.451 4.114
 1.878 -1.453 4.112
 1.886 -1.449 4.096
 1.895 -1.446 4.081
 1.914 -1.451 4.09
 0 0 0
 0 0 0
 0 0 0
 0 0 0
 0 0 0
 0 0 0
 0 0 0
 0 0 0
 0 0 0
 0 0 0
 0 0 0
 0 0 0
 0 0 0
 0 0 0
 0 0 0
 0 0 0
 0 0 0
 0 0 0
 0 0 0
 0 0 0
 0 0 0
 0 0 0
 0 0 0
 0 0 0
 0 0 0
 1.839 -1.184 3.201
 1.849 -1.183 3.194
 1.85 -1.177 3.172
 1.854 -1.173 3.155
 1.855 -1.167 3.133
 1.849 -1.156 3.099
 1.827 -1.136 3.039
 1.829 -1.131 3.02
 0 0 0
 -2.536 -1.578 4.38
 -2.498 -1.564 4.345
 -2.476 -1.559 4.34
 -2.459 -1.558 4.344
 -2.44 -1.555 4.343
 -2.422 -1.553 4.343
 -2.403 -1.55 4.343
 -2.385 -1.548 4.342
 -2.369 -1.547 4.348
 -2.353 -1.546 4.351
 -2.337 -1.545 4.356
 -2.323 -1.545 4.362
 -2.31 -1.546 4.371
 -2.287 -1.541 4.363
 -2.271 -1.54 4.367
 -2.249 -1.534 4.357
 -2.228 -1.53 4.351
 -2.209 -1.526 4.347
 -2.196 -1.528 4.357
 -2.179 -1.526 4.357
 -2.167 -1.527 4.368
 -2.148 -1.524 4.365
 -2.128 -1.52 4.359
 -2.106 -1.515 4.349
 -2.086 -1.51 4.342
 -2.067 -1.507 4.339
 -2.05 -1.505 4.338
 -2.033 -1.503 4.337
 -2.016 -1.501 4.338
 -1.998 -1.498 4.334
 -1.98 -1.494 4.33
 -1.962 -1.492 4.327
 -1.947 -1.491 4.331
 -1.933 -1.491 4.335
 -1.916 -1.488 4.333
 -1.901 -1.487 4.336
 -1.887 -1.488 4.342
 -1.869 -1.484 4.337
 -1.851 -1.482 4.334
 -1.837 -1.481 4.337
 -1.82 -1.478 4.335
 -1.803 -1.476 4.332
 -1.787 -1.474 4.332
 -1.769 -1.471 4.328
 -1.755 -1.471 4.331
 -1.739 -1.469 4.329
 -1.725 -1.469 4.334
 -1.71 -1.468 4.337
 -1.697 -1.468 4.343
 -1.682 -1.467 4.343
 -1.664 -1.464 4.338
 -1.648 -1.461 4.335
 -1.631 -1.459 4.331
 -1.614 -1.456 4.327
 -1.596 -1.451 4.317
 -1.583 -1.452 4.325
 -1.568 -1.451 4.323
 -1.554 -1.45 4.327
 -1.537 -1.447 4.321
 -1.524 -1.448 4.328
 -1.509 -1.446 4.327
 -1.495 -1.446 4.33
 -1.479 -1.443 4.324
 -1.467 -1.445 4.334
 -1.451 -1.442 4.33
 -1.437 -1.442 4.334
 -1.421 -1.439 4.328
 -1.408 -1.44 4.334
 -1.393 -1.439 4.334
 -1.377 -1.436 4.329
 -1.361 -1.433 4.324
 -1.348 -1.433 4.327
 -1.331 -1.429 4.319
 -1.316 -1.428 4.318
 -1.303 -1.428 4.322
 -1.289 -1.427 4.322
 -1.275 -1.427 4.323
 -1.262 -1.427 4.326
 -1.247 -1.425 4.324
 -1.231 -1.422 4.319
 -1.216 -1.42 4.317
 -1.2 -1.417 4.31
 -1.187 -1.417 4.312
 -1.17 -1.413 4.303
 -1.157 -1.413 4.305
 -1.143 -1.411 4.303
 -1.128 -1.41 4.301
 -1.113 -1.408 4.298
 -1.101 -1.409 4.304
 -1.087 -1.407 4.301
 -1.073 -1.406 4.301
 -1.059 -1.405 4.299
 -1.045 -1.404 4.3
 -1.03 -1.402 4.296
 -1.017 -1.402 4.299
 -1.005 -1.403 4.303
 -0.991 -1.402 4.303
 -0.978 -1.402 4.306
 -0.965 -1.402 4.306
 -0.95 -1.4 4.303
 -0.936 -1.398 4.3
 -0.924 -1.399 4.306
 -0.91 -1.397 4.302
 -0.897 -1.398 4.306
 -0.884 -1.398 4.307
 -0.87 -1.397 4.307
 -0.857 -1.396 4.305
 -0.843 -1.396 4.306
 -0.83 -1.396 4.308
 -0.816 -1.394 4.304
 -0.802 -1.392 4.3
 -0.79 -1.393 4.306
 -0.776 -1.391 4.302
 -0.762 -1.389 4.296
 -0.749 -1.389 4.299
 -0.736 -1.39 4.303
 -0.722 -1.386 4.293
 -0.709 -1.386 4.294
 -0.696 -1.387 4.297
 -0.682 -1.384 4.291
 -0.668 -1.382 4.286
 -0.654 -1.379 4.278
 -0.642 -1.381 4.286
 -0.628 -1.379 4.28
 -0.616 -1.381 4.289
 -0.603 -1.381 4.289
 -0.591 -1.383 4.297
 -0.578 -1.381 4.293
 -0.565 -1.382 4.298
 -0.552 -1.381 4.295
 -0.539 -1.381 4.297
 -0.526 -1.38 4.293
 -0.513 -1.38 4.294
 -0.499 -1.378 4.29
 -0.486 -1.377 4.287
 -0.473 -1.377 4.289
 -0.461 -1.379 4.296
 -0.448 -1.378 4.292
 -0.434 -1.375 4.285
 -0.422 -1.377 4.292
 -0.409 -1.374 4.284
 -0.395 -1.37 4.273
 -0.382 -1.37 4.274
 -0.37 -1.374 4.285
 -0.358 -1.374 4.287
 -0.345 -1.376 4.294
 -0.332 -1.375 4.292
 -0.319 -1.373 4.284
 -0.306 -1.373 4.287
 -0.293 -1.372 4.283
 -0.28 -1.37 4.276
 -0.267 -1.369 4.274
 -0.255 -1.369 4.276
 -0.242 -1.367 4.271
 -0.229 -1.368 4.271
 -0.217 -1.369 4.277
 -0.204 -1.369 4.276
 -0.191 -1.369 4.276
 -0.178 -1.369 4.278
 -0.166 -1.37 4.28
 -0.153 -1.369 4.278
 -0.14 -1.368 4.276
 -0.127 -1.367 4.272
 -0.115 -1.366 4.27
 -0.102 -1.365 4.266
 -0.089 -1.365 4.266
 -0.077 -1.367 4.273
 -0.064 -1.369 4.278
 -0.052 -1.369 4.279
 -0.039 -1.37 4.28
 -0.026 -1.37 4.281
 -0.014 -1.369 4.279
 -0.001 -1.369 4.278
 0.011 -1.371 4.283
 0.024 -1.373 4.289
 0.036 -1.374 4.294
 0.049 -1.374 4.292
 0.062 -1.376 4.297
 0.074 -1.372 4.286
 0.087 -1.368 4.273
 0.099 -1.367 4.268
 0.112 -1.366 4.266
 0.124 -1.364 4.26
 0.137 -1.364 4.259
 0.15 -1.366 4.264
 0.163 -1.367 4.266
 0.175 -1.368 4.27
 0.188 -1.369 4.272
 0.201 -1.373 4.285
 0.213 -1.369 4.27
 0.226 -1.371 4.274
 0.24 -1.374 4.283
 0.252 -1.375 4.285
 0.265 -1.375 4.286
 0.279 -1.382 4.307
 0.291 -1.378 4.294
 0.303 -1.376 4.285
 0.316 -1.374 4.28
 0.328 -1.373 4.273
 0.34 -1.368 4.257
 0.352 -1.368 4.258
 0.365 -1.368 4.256
 0.378 -1.37 4.261
 0.391 -1.371 4.263
 0.404 -1.371 4.263
 0.417 -1.372 4.265
 0.43 -1.375 4.271
 0.442 -1.371 4.26
 0.455 -1.372 4.26
 0.469 -1.376 4.272
 0.482 -1.377 4.272
 0.494 -1.375 4.265
 0.508 -1.38 4.279
 0.521 -1.381 4.28
 0.533 -1.377 4.268
 0.546 -1.378 4.27
 0.559 -1.379 4.271
 0.57 -1.377 4.262
 0.582 -1.375 4.255
 0.595 -1.376 4.256
 0.609 -1.377 4.257
 0.62 -1.375 4.25
 0.634 -1.376 4.252
 0.647 -1.377 4.253
 0.66 -1.378 4.254
 0.673 -1.379 4.257
 0.688 -1.384 4.268
 0.702 -1.385 4.27
 0.715 -1.386 4.271
 0.727 -1.385 4.267
 0.739 -1.383 4.259
 0.752 -1.384 4.259
 0.764 -1.383 4.253
 0.776 -1.382 4.248
 0.789 -1.382 4.247
 0.802 -1.382 4.245
 0.813 -1.379 4.233
 0.827 -1.381 4.237
 0.841 -1.383 4.242
 0.853 -1.383 4.239
 0.866 -1.382 4.234
