 0.016 0.238 1.45
 0.025 0.239 1.456
 0.034 0.239 1.458
 0.042 0.24 1.46
 0.051 0.24 1.462
 0.059 0.241 1.468
 0.068 0.242 1.476
 0.077 0.244 1.489
 0.087 0.247 1.503
 0.097 0.249 1.518
 0.107 0.252 1.534
 0.116 0.254 1.545
 0.126 0.255 1.552
 0.136 0.256 1.558
 0.145 0.256 1.558
 0.153 0.255 1.551
 0.161 0.253 1.542
 0.169 0.252 1.53
 0.176 0.249 1.514
 0.183 0.247 1.499
 0.19 0.244 1.485
 0.197 0.242 1.468
 0.203 0.239 1.449
 0.208 0.235 1.429
 0.212 0.231 1.401
 0.216 0.226 1.37
 0.218 0.22 1.333
 0.219 0.213 1.293
 0.219 0.206 1.25
 0.221 0.201 1.215
 0.221 0.195 1.18
 0.221 0.189 1.142
 0.221 0.183 1.107
 0.219 0.176 1.064
 0.213 0.167 1.008
 0.206 0.157 0.946
 0.201 0.148 0.896
 0.19 0.137 0.824
 0.176 0.123 0.742
 0.16 0.109 0.657
 0.144 0.096 0.579
 0.141 0.091 0.553
 0.135 0.085 0.516
 0.131 0.081 0.489
 0.128 0.077 0.466
 0.128 0.076 0.456
 0.125 0.072 0.435
 0.122 0.068 0.412
 0.117 0.065 0.39
 0.116 0.062 0.375
 0.113 0.06 0.359
 0.114 0.059 0.354
 0.116 0.059 0.355
 0.12 0.06 0.36
 0.126 0.061 0.368
 0.131 0.063 0.377
 0.135 0.064 0.38
 0.137 0.064 0.379
 0.14 0.064 0.379
 0.14 0.063 0.374
 0.146 0.064 0.381
 0.151 0.066 0.387
 0.156 0.067 0.393
 0.16 0.068 0.397
 0.163 0.068 0.398
 0.164 0.067 0.392
 0.167 0.067 0.394
 0.172 0.068 0.398
 0.177 0.069 0.403
 0.183 0.071 0.409
 0.192 0.073 0.424
 0.195 0.073 0.423
 0.199 0.074 0.425
 0.204 0.075 0.429
 0.215 0.078 0.444
 0.22 0.078 0.447
 0.228 0.08 0.457
 0.238 0.083 0.47
 0.249 0.086 0.485
 0.262 0.089 0.503
 0.28 0.094 0.528
 0.299 0.099 0.556
 0.321 0.105 0.588
 0.342 0.111 0.619
 0.361 0.116 0.642
 0.376 0.119 0.66
 0.392 0.123 0.678
 0.385 0.12 0.657
 -0.334 0.114 0.59
 -0.342 0.118 0.613
 -0.345 0.12 0.627
 -0.349 0.123 0.645
 -0.351 0.126 0.66
 -0.354 0.128 0.675
 -0.356 0.131 0.689
 -0.357 0.133 0.703
 -0.357 0.135 0.714
 -0.356 0.136 0.724
 -0.355 0.137 0.733
 -0.353 0.138 0.741
 -0.35 0.139 0.745
 -0.347 0.14 0.751
 -0.344 0.14 0.757
 -0.341 0.141 0.764
 -0.34 0.143 0.774
 -0.34 0.145 0.788
 -0.342 0.148 0.806
 -0.347 0.152 0.832
 -0.353 0.158 0.863
 -0.363 0.164 0.901
 -0.373 0.172 0.944
 -0.384 0.18 0.99
 -0.394 0.188 1.034
 -0.402 0.195 1.077
 -0.409 0.202 1.116
 -0.414 0.208 1.151
 -0.417 0.213 1.181
 -0.418 0.217 1.207
 -0.417 0.22 1.228
 -0.413 0.223 1.243
 -0.409 0.224 1.256
 -0.405 0.226 1.268
 -0.4 0.228 1.278
 -0.395 0.229 1.289
 -0.39 0.231 1.299
 -0.384 0.232 1.307
 -0.377 0.233 1.315
 -0.371 0.234 1.323
 -0.364 0.234 1.329
 -0.357 0.235 1.334
 -0.35 0.236 1.339
 -0.342 0.236 1.341
 -0.334 0.235 1.34
 -0.325 0.235 1.339
 -0.316 0.234 1.337
 -0.307 0.233 1.334
 -0.298 0.232 1.328
 -0.288 0.23 1.321
 -0.279 0.229 1.315
 -0.27 0.228 1.31
 -0.261 0.227 1.307
 -0.254 0.227 1.309
 -0.246 0.227 1.311
 -0.239 0.227 1.313
 -0.231 0.228 1.317
 -0.224 0.228 1.32
 -0.217 0.229 1.324
 -0.21 0.229 1.33
 -0.202 0.23 1.334
 -0.195 0.23 1.338
 -0.188 0.231 1.344
 -0.181 0.232 1.352
 -0.174 0.234 1.361
 -0.168 0.236 1.376
 -0.162 0.239 1.393
 -0.155 0.242 1.41
 -0.149 0.245 1.427
 -0.142 0.247 1.441
 -0.134 0.248 1.45
 -0.126 0.249 1.455
 -0.118 0.249 1.455
 -0.109 0.248 1.45
 -0.1 0.246 1.442
 -0.091 0.245 1.432
 -0.082 0.243 1.421
 -0.073 0.241 1.413
 -0.065 0.24 1.408
 -0.056 0.239 1.405
 -0.048 0.239 1.404
 -0.04 0.239 1.405
 -0.032 0.239 1.406
 -0.024 0.24 1.41
 -0.016 0.241 1.416
 -0.008 0.242 1.424
 0 0.244 1.435
 0.008 0.246 1.444
 0.017 0.247 1.451
 0.025 0.248 1.457
 0.034 0.248 1.46
 0.042 0.248 1.46
 0.051 0.249 1.462
 0.059 0.25 1.467
 0.068 0.251 1.474
 0.077 0.253 1.485
 0.087 0.255 1.499
 0.097 0.258 1.514
 0.106 0.26 1.528
 0.116 0.262 1.538
 0.125 0.263 1.544
 0.135 0.263 1.547
 0.144 0.263 1.545
 0.152 0.262 1.539
 0.16 0.26 1.529
 0.168 0.259 1.517
 0.175 0.256 1.503
 0.182 0.253 1.486
 0.188 0.251 1.469
 0.195 0.248 1.452
 0.2 0.244 1.431
 0.205 0.24 1.408
 0.21 0.236 1.38
 0.213 0.23 1.349
 0.215 0.224 1.31
 0.216 0.217 1.271
 0.217 0.211 1.233
 0.218 0.206 1.201
 0.22 0.2 1.171
 0.22 0.194 1.133
 0.217 0.186 1.083
 0.209 0.174 1.016
 0.201 0.163 0.949
 0.197 0.155 0.901
 0.193 0.148 0.86
 0.181 0.135 0.787
 0.174 0.126 0.733
 0.161 0.114 0.663
 0.148 0.102 0.593
 0.145 0.097 0.566
 0.137 0.09 0.523
 0.134 0.086 0.5
 0.13 0.081 0.473
 0.13 0.079 0.461
 0.126 0.075 0.439
 0.123 0.072 0.417
 0.119 0.068 0.396
 0.117 0.065 0.379
 0.115 0.063 0.364
 0.116 0.062 0.36
 0.118 0.062 0.36
 0.122 0.063 0.365
 0.127 0.065 0.372
 0.133 0.066 0.381
 0.136 0.067 0.383
 0.139 0.067 0.383
 0.141 0.067 0.383
 0.142 0.066 0.377
 0.145 0.066 0.378
 0.149 0.067 0.382
 0.154 0.068 0.388
 0.158 0.069 0.392
 0.164 0.071 0.398
 0.166 0.07 0.396
 0.169 0.071 0.397
 0.173 0.071 0.4
 0.176 0.072 0.401
 0.18 0.072 0.403
 0.19 0.075 0.418
 0.194 0.075 0.419
 0.195 0.075 0.416
 0.2 0.076 0.419
 0.209 0.078 0.431
 0.213 0.079 0.432
 0.221 0.081 0.442
 0.235 0.085 0.463
 0.247 0.088 0.48
 0.261 0.092 0.5
 0.278 0.097 0.525
 0.298 0.103 0.554
 0.316 0.108 0.579
 0.336 0.113 0.606
 0.352 0.117 0.626
 0.367 0.121 0.643
 0.384 0.125 0.663
 0.399 0.129 0.68
 -0.332 0.117 0.585
 -0.339 0.121 0.607
 -0.341 0.123 0.621
 -0.345 0.126 0.638
 -0.348 0.129 0.653
 -0.351 0.131 0.668
 -0.352 0.134 0.682
 -0.354 0.136 0.695
 -0.354 0.138 0.706
 -0.353 0.139 0.717
 -0.352 0.141 0.726
 -0.35 0.142 0.734
 -0.347 0.143 0.739
 -0.344 0.143 0.744
 -0.341 0.144 0.75
 -0.338 0.145 0.756
 -0.337 0.146 0.766
 -0.337 0.148 0.779
 -0.338 0.151 0.797
 -0.343 0.156 0.822
 -0.35 0.161 0.853
 -0.359 0.168 0.892
 -0.37 0.176 0.934
 -0.381 0.185 0.981
 -0.391 0.192 1.025
 -0.399 0.2 1.067
 -0.406 0.207 1.106
 -0.411 0.213 1.14
 -0.413 0.218 1.171
 -0.415 0.223 1.197
 -0.414 0.226 1.219
 -0.412 0.229 1.237
 -0.409 0.232 1.252
 -0.404 0.233 1.264
 -0.399 0.235 1.275
 -0.394 0.237 1.286
 -0.389 0.238 1.296
 -0.383 0.239 1.305
 -0.377 0.24 1.313
 -0.371 0.241 1.32
 -0.364 0.242 1.327
 -0.357 0.243 1.332
 -0.35 0.243 1.336
 -0.342 0.243 1.338
 -0.333 0.243 1.337
 -0.325 0.242 1.337
 -0.317 0.242 1.337
 -0.308 0.241 1.335
 -0.298 0.24 1.329
 -0.289 0.239 1.323
 -0.28 0.237 1.317
 -0.27 0.236 1.312
 -0.262 0.235 1.308
 -0.254 0.235 1.309
 -0.246 0.235 1.311
 -0.239 0.235 1.313
 -0.231 0.236 1.316
 -0.224 0.236 1.32
 -0.217 0.237 1.323
 -0.21 0.237 1.328
 -0.202 0.238 1.332
 -0.195 0.238 1.336
 -0.188 0.239 1.341
 -0.181 0.24 1.348
 -0.174 0.242 1.359
 -0.167 0.244 1.371
 -0.161 0.246 1.387
 -0.155 0.249 1.405
 -0.148 0.252 1.421
 -0.141 0.254 1.435
 -0.134 0.256 1.445
 -0.126 0.257 1.452
 -0.117 0.257 1.452
 -0.109 0.256 1.448
 -0.1 0.255 1.441
 -0.091 0.253 1.433
 -0.082 0.251 1.422
 -0.073 0.25 1.415
 -0.065 0.249 1.409
 -0.056 0.248 1.407
 -0.048 0.248 1.406
 -0.04 0.248 1.406
 -0.032 0.248 1.408
 -0.024 0.249 1.412
 -0.016 0.25 1.417
 -0.008 0.251 1.426
 0 0.253 1.436
 0.008 0.255 1.445
 0.017 0.256 1.452
 0.025 0.257 1.457
 0.034 0.257 1.46
 0.042 0.257 1.46
 0.051 0.257 1.46
 0.059 0.258 1.463
 0.068 0.259 1.47
 0.077 0.261 1.48
 0.087 0.263 1.492
 0.096 0.265 1.507
 0.106 0.268 1.52
 0.115 0.269 1.529
 0.125 0.27 1.534
 0.134 0.27 1.534
 0.142 0.27 1.53
 0.151 0.269 1.525
 0.159 0.267 1.515
 0.166 0.265 1.504
 0.174 0.263 1.492
 0.181 0.26 1.476
 0.187 0.257 1.455
 0.192 0.253 1.434
 0.198 0.249 1.412
 0.203 0.245 1.387
 0.206 0.24 1.357
 0.209 0.234 1.324
 0.21 0.227 1.283
 0.211 0.22 1.241
 0.211 0.212 1.198
 0.213 0.207 1.17
 0.212 0.2 1.129
 0.211 0.192 1.085
 0.205 0.182 1.023
 0.2 0.172 0.972
 0.191 0.16 0.901
 0.188 0.153 0.862
 0.189 0.15 0.843
 0.179 0.138 0.777
 0.172 0.129 0.724
 0.16 0.117 0.658
 0.147 0.105 0.589
 0.144 0.1 0.563
 0.138 0.094 0.526
 0.134 0.089 0.498
 0.131 0.085 0.477
 0.13 0.082 0.462
 0.127 0.079 0.44
 0.124 0.075 0.422
 0.121 0.072 0.401
 0.118 0.069 0.384
 0.117 0.066 0.371
 0.119 0.066 0.368
 0.121 0.066 0.368
 0.126 0.067 0.375
 0.13 0.068 0.38
 0.134 0.069 0.385
 0.137 0.069 0.384
 0.139 0.069 0.383
 0.142 0.07 0.385
 0.142 0.068 0.377
 0.145 0.069 0.378
 0.15 0.07 0.383
 0.155 0.071 0.391
 0.159 0.072 0.394
 0.166 0.074 0.405
 0.17 0.075 0.406
 0.173 0.075 0.407
 0.176 0.075 0.406
 0.178 0.075 0.404
 0.182 0.075 0.406
 0.188 0.077 0.413
 0.191 0.077 0.414
 0.193 0.077 0.411
 0.198 0.078 0.414
 0.203 0.078 0.417
 0.206 0.079 0.419
 0.215 0.081 0.43
 0.229 0.085 0.451
 0.242 0.089 0.469
 0.257 0.094 0.492
 0.275 0.099 0.518
 0.294 0.105 0.546
 0.311 0.109 0.568
 0.33 0.115 0.594
 0.345 0.119 0.613
 0.359 0.122 0.629
 0.379 0.128 0.654
 0.381 0.127 0.648
 -0.335 0.122 0.591
 -0.337 0.124 0.603
 -0.338 0.126 0.615
 -0.342 0.129 0.631
 -0.345 0.132 0.646
 -0.347 0.134 0.661
 -0.349 0.137 0.674
 -0.35 0.139 0.687
 -0.35 0.141 0.698
 -0.35 0.143 0.708
 -0.349 0.144 0.718
 -0.347 0.145 0.726
 -0.344 0.146 0.732
 -0.341 0.147 0.738
 -0.339 0.148 0.744
 -0.335 0.148 0.749
 -0.334 0.15 0.759
 -0.334 0.152 0.772
 -0.335 0.155 0.788
 -0.34 0.159 0.813
 -0.347 0.165 0.845
 -0.355 0.172 0.882
 -0.366 0.18 0.925
 -0.377 0.189 0.971
 -0.387 0.197 1.014
 -0.395 0.205 1.056
 -0.402 0.212 1.095
 -0.407 0.218 1.128
 -0.41 0.223 1.159
 -0.412 0.228 1.187
 -0.411 0.232 1.21
 -0.41 0.235 1.229
 -0.407 0.238 1.245
 -0.403 0.24 1.259
 -0.398 0.242 1.271
 -0.393 0.244 1.282
 -0.388 0.246 1.292
 -0.382 0.247 1.301
 -0.377 0.248 1.31
 -0.37 0.249 1.317
 -0.364 0.25 1.324
 -0.357 0.25 1.329
 -0.349 0.251 1.334
 -0.342 0.251 1.336
 -0.333 0.251 1.337
 -0.325 0.251 1.337
 -0.317 0.25 1.337
 -0.308 0.25 1.336
 -0.299 0.248 1.331
 -0.289 0.247 1.324
 -0.28 0.245 1.317
 -0.27 0.244 1.311
 -0.262 0.243 1.307
 -0.254 0.242 1.306
 -0.246 0.243 1.308
 -0.239 0.243 1.311
 -0.231 0.243 1.313
 -0.224 0.244 1.318
 -0.216 0.244 1.32
 -0.209 0.244 1.324
 -0.202 0.245 1.328
 -0.194 0.245 1.332
 -0.187 0.246 1.336
 -0.18 0.247 1.343
 -0.173 0.249 1.353
 -0.167 0.251 1.364
 -0.16 0.253 1.379
 -0.154 0.256 1.396
 -0.148 0.259 1.412
 -0.141 0.261 1.426
 -0.133 0.263 1.437
 -0.125 0.264 1.444
 -0.117 0.264 1.445
 -0.108 0.264 1.443
 -0.099 0.262 1.435
 -0.091 0.261 1.427
 -0.082 0.259 1.418
 -0.073 0.258 1.411
 -0.065 0.257 1.406
 -0.056 0.256 1.405
 -0.048 0.256 1.404
 -0.04 0.256 1.404
 -0.032 0.256 1.405
 -0.024 0.257 1.41
 -0.016 0.258 1.415
 -0.007 0.259 1.423
 0 0.261 1.433
 0.008 0.262 1.442
 0.017 0.264 1.448
 0.025 0.265 1.454
 0.034 0.265 1.457
 0.042 0.265 1.456
 0.051 0.265 1.456
 0.059 0.265 1.458
 0.068 0.266 1.463
 0.077 0.268 1.471
 0.086 0.27 1.482
 0.096 0.272 1.495
 0.105 0.274 1.507
 0.115 0.276 1.516
 0.124 0.277 1.52
 0.132 0.277 1.518
 0.141 0.276 1.513
 0.149 0.275 1.506
 0.157 0.273 1.496
 0.165 0.271 1.486
 0.172 0.27 1.479
 0.179 0.267 1.463
 0.185 0.263 1.442
 0.191 0.259 1.42
 0.196 0.255 1.397
 0.2 0.25 1.366
 0.203 0.244 1.333
 0.205 0.237 1.298
 0.205 0.229 1.252
 0.205 0.221 1.207
 0.205 0.213 1.165
 0.206 0.207 1.13
 0.205 0.199 1.088
 0.202 0.191 1.04
 0.197 0.181 0.985
 0.186 0.166 0.903
 0.177 0.153 0.834
 0.177 0.149 0.811
 0.174 0.143 0.776
 0.168 0.133 0.725
 0.166 0.129 0.7
 0.159 0.12 0.653
 0.146 0.107 0.583
 0.142 0.102 0.553
 0.137 0.096 0.52
 0.132 0.09 0.489
 0.13 0.087 0.47
 0.129 0.084 0.455
 0.127 0.081 0.438
 0.124 0.078 0.42
 0.122 0.075 0.405
 0.12 0.072 0.389
 0.119 0.07 0.378
 0.12 0.069 0.373
 0.123 0.069 0.372
 0.127 0.071 0.379
 0.132 0.072 0.385
 0.136 0.073 0.39
 0.14 0.074 0.395
 0.143 0.074 0.395
 0.147 0.075 0.398
 0.147 0.074 0.391
 0.15 0.074 0.39
 0.153 0.074 0.392
 0.157 0.075 0.395
 0.16 0.075 0.395
 0.166 0.077 0.403
 0.169 0.077 0.402
 0.171 0.076 0.401
 0.174 0.077 0.401
 0.175 0.076 0.397
 0.179 0.077 0.399
 0.185 0.078 0.407
 0.19 0.079 0.41
 0.192 0.079 0.407
 0.197 0.08 0.412
 0.2 0.08 0.412
 0.203 0.08 0.411
 0.211 0.082 0.42
 0.224 0.086 0.44
 0.238 0.091 0.46
 0.254 0.096 0.485
 0.271 0.101 0.51
 0.29 0.107 0.538
 0.306 0.111 0.558
 0.323 0.116 0.581
 0.337 0.12 0.598
 0.352 0.124 0.616
 0.349 0.121 0.601
 0.37 0.127 0.628
 -0.328 0.123 0.576
 -0.325 0.123 0.58
 -0.336 0.129 0.609
 -0.339 0.132 0.624
 -0.342 0.135 0.639
 -0.344 0.138 0.654
 -0.346 0.14 0.667
 -0.347 0.142 0.68
 -0.347 0.144 0.692
 -0.347 0.146 0.701
 -0.345 0.147 0.71
 -0.343 0.148 0.717
 -0.341 0.149 0.724
 -0.338 0.15 0.729
 -0.335 0.151 0.736
 -0.332 0.152 0.742
 -0.331 0.153 0.752
 -0.331 0.155 0.764
 -0.332 0.158 0.78
 -0.336 0.163 0.804
 -0.343 0.169 0.835
 -0.352 0.176 0.871
 -0.362 0.184 0.914
 -0.373 0.193 0.959
 -0.384 0.201 1.005
 -0.392 0.209 1.046
 -0.399 0.217 1.086
 -0.404 0.223 1.119
 -0.407 0.229 1.15
 -0.409 0.234 1.177
 -0.409 0.238 1.201
 -0.407 0.242 1.221
 -0.405 0.245 1.238
 -0.401 0.247 1.253
 -0.397 0.249 1.265
 -0.392 0.251 1.277
 -0.388 0.253 1.289
 -0.382 0.254 1.299
 -0.376 0.256 1.307
 -0.37 0.257 1.314
 -0.363 0.257 1.32
 -0.356 0.258 1.325
 -0.349 0.259 1.33
 -0.341 0.259 1.333
 -0.333 0.259 1.335
 -0.325 0.258 1.334
 -0.316 0.258 1.334
 -0.308 0.257 1.332
 -0.298 0.256 1.327
 -0.289 0.254 1.32
 -0.279 0.253 1.313
 -0.27 0.251 1.307
 -0.261 0.25 1.302
 -0.253 0.249 1.301
 -0.245 0.25 1.304
 -0.238 0.25 1.308
 -0.231 0.25 1.31
 -0.224 0.251 1.316
 -0.216 0.251 1.317
 -0.209 0.252 1.321
 -0.201 0.252 1.325
 -0.194 0.253 1.329
 -0.187 0.253 1.331
 -0.179 0.254 1.337
 -0.172 0.255 1.344
 -0.166 0.257 1.353
 -0.159 0.259 1.366
 -0.153 0.262 1.383
 -0.146 0.265 1.4
 -0.14 0.268 1.415
 -0.132 0.269 1.424
 -0.124 0.271 1.431
 -0.116 0.27 1.43
 -0.107 0.27 1.428
 -0.099 0.269 1.422
 -0.09 0.267 1.417
 -0.081 0.266 1.411
 -0.073 0.265 1.407
 -0.064 0.264 1.403
 -0.056 0.264 1.4
 -0.048 0.264 1.4
 -0.04 0.264 1.399
 -0.032 0.264 1.401
 -0.024 0.264 1.405
 -0.016 0.265 1.411
 -0.007 0.267 1.418
 0 0.269 1.429
 0.008 0.27 1.438
 0.017 0.272 1.444
 0.025 0.273 1.45
 0.034 0.273 1.453
 0.042 0.273 1.45
 0.05 0.273 1.451
 0.059 0.273 1.453
 0.068 0.274 1.456
 0.076 0.275 1.463
 0.086 0.277 1.473
 0.095 0.279 1.483
 0.104 0.281 1.493
 0.114 0.282 1.501
 0.123 0.283 1.505
 0.131 0.283 1.502
 0.139 0.282 1.496
 0.148 0.28 1.489
 0.155 0.279 1.479
 0.163 0.277 1.47
 0.171 0.276 1.463
 0.178 0.273 1.448
 0.184 0.269 1.429
 0.189 0.265 1.406
 0.193 0.26 1.378
 0.196 0.253 1.343
 0.199 0.246 1.304
 0.2 0.238 1.262
 0.199 0.229 1.213
 0.199 0.221 1.167
 0.198 0.213 1.126
 0.199 0.207 1.092
 0.198 0.199 1.049
 0.194 0.189 0.999
 0.191 0.181 0.954
 0.181 0.166 0.877
 0.176 0.157 0.827
 0.173 0.15 0.79
 0.168 0.142 0.747
 0.163 0.134 0.704
 0.161 0.129 0.679
 0.153 0.12 0.629
 0.143 0.109 0.573
 0.139 0.103 0.542
 0.135 0.097 0.512
 0.132 0.093 0.489
 0.131 0.091 0.475
 0.129 0.087 0.457
 0.128 0.084 0.441
 0.125 0.081 0.424
 0.123 0.078 0.408
 0.121 0.075 0.39
 0.121 0.073 0.383
 0.122 0.072 0.377
 0.124 0.073 0.378
 0.128 0.073 0.381
 0.132 0.074 0.385
 0.135 0.075 0.387
 0.141 0.076 0.394
 0.142 0.076 0.391
 0.146 0.077 0.394
 0.147 0.076 0.391
 0.151 0.076 0.392
 0.153 0.076 0.392
 0.158 0.078 0.397
 0.16 0.077 0.395
 0.166 0.079 0.402
 0.168 0.079 0.401
 0.171 0.079 0.4
 0.173 0.079 0.398
 0.174 0.078 0.394
 0.179 0.079 0.399
 0.183 0.08 0.402
 0.188 0.081 0.405
 0.19 0.081 0.403
 0.194 0.081 0.406
 0.196 0.081 0.402
 0.2 0.082 0.404
 0.209 0.084 0.415
 0.223 0.089 0.438
 0.238 0.094 0.46
 0.254 0.099 0.484
 0.272 0.105 0.51
 0.289 0.11 0.535
 0.302 0.114 0.55
 0.318 0.118 0.571
 0.332 0.122 0.588
 0.345 0.126 0.603
 0.356 0.128 0.613
 0.359 0.128 0.608
 -0.322 0.125 0.565
 -0.333 0.131 0.594
 -0.332 0.132 0.601
 -0.335 0.135 0.617
 -0.338 0.138 0.632
 -0.341 0.14 0.646
 -0.342 0.143 0.66
 -0.343 0.145 0.672
 -0.344 0.147 0.684
 -0.343 0.149 0.694
 -0.342 0.15 0.703
 -0.34 0.151 0.71
 -0.338 0.152 0.717
 -0.335 0.153 0.722
 -0.332 0.154 0.728
 -0.328 0.154 0.732
 -0.327 0.156 0.741
 -0.327 0.158 0.754
 -0.328 0.161 0.77
 -0.333 0.166 0.794
 -0.34 0.172 0.826
 -0.348 0.179 0.861
 -0.358 0.188 0.903
 -0.369 0.196 0.947
 -0.379 0.205 0.992
 -0.388 0.213 1.034
 -0.395 0.221 1.073
 -0.4 0.228 1.106
 -0.403 0.234 1.138
 -0.405 0.239 1.166
 -0.406 0.244 1.191
 -0.405 0.247 1.212
 -0.402 0.251 1.23
 -0.399 0.253 1.246
 -0.395 0.256 1.259
 -0.391 0.258 1.272
 -0.386 0.26 1.284
 -0.381 0.262 1.294
 -0.375 0.263 1.304
 -0.369 0.264 1.311
 -0.362 0.265 1.316
 -0.355 0.265 1.321
 -0.348 0.266 1.325
 -0.34 0.266 1.327
 -0.332 0.266 1.33
 -0.324 0.265 1.329
 -0.315 0.265 1.328
 -0.307 0.264 1.327
 -0.298 0.263 1.323
 -0.288 0.261 1.315
 -0.278 0.26 1.309
 -0.269 0.259 1.304
 -0.26 0.257 1.299
 -0.252 0.257 1.297
 -0.245 0.257 1.3
 -0.238 0.257 1.304
 -0.23 0.258 1.308
 -0.223 0.259 1.312
 -0.216 0.259 1.314
 -0.208 0.259 1.317
 -0.201 0.259 1.319
 -0.193 0.259 1.321
 -0.186 0.26 1.323
 -0.178 0.261 1.329
 -0.171 0.261 1.334
 -0.164 0.263 1.343
 -0.158 0.265 1.354
 -0.151 0.268 1.369
 -0.145 0.271 1.385
 -0.138 0.273 1.399
 -0.131 0.275 1.409
 -0.123 0.276 1.416
 -0.115 0.276 1.417
 -0.107 0.276 1.417
 -0.098 0.275 1.411
 -0.089 0.274 1.408
 -0.081 0.273 1.403
 -0.073 0.273 1.401
 -0.064 0.272 1.397
 -0.056 0.271 1.395
 -0.048 0.271 1.395
 -0.04 0.271 1.395
 -0.032 0.271 1.396
 -0.024 0.272 1.4
 -0.016 0.273 1.406
 -0.007 0.274 1.413
 0 0.276 1.423
 0.008 0.278 1.43
 0.017 0.279 1.437
 0.025 0.28 1.443
 0.034 0.281 1.447
 0.042 0.28 1.445
 0.05 0.28 1.445
 0.059 0.281 1.448
 0.067 0.281 1.45
 0.076 0.282 1.454
 0.085 0.284 1.464
 0.094 0.286 1.473
 0.103 0.287 1.48
 0.113 0.289 1.488
 0.122 0.29 1.492
 0.13 0.289 1.487
 0.138 0.288 1.481
 0.146 0.286 1.473
 0.154 0.284 1.462
 0.161 0.282 1.452
 0.169 0.281 1.444
 0.175 0.278 1.429
 0.182 0.275 1.412
 0.187 0.271 1.39
 0.191 0.265 1.361
 0.194 0.258 1.323
 0.195 0.249 1.28
 0.195 0.24 1.231
 0.194 0.23 1.179
 0.193 0.221 1.131
 0.192 0.212 1.088
 0.191 0.205 1.05
 0.189 0.196 1.004
 0.186 0.187 0.957
 0.183 0.179 0.913
 0.175 0.166 0.849
 0.174 0.16 0.816
 0.172 0.154 0.786
 0.165 0.144 0.734
 0.161 0.136 0.694
 0.159 0.131 0.666
 0.149 0.12 0.612
 0.141 0.111 0.563
 0.139 0.106 0.541
 0.135 0.101 0.511
 0.132 0.096 0.49
 0.132 0.094 0.477
 0.129 0.09 0.455
 0.128 0.087 0.441
 0.127 0.085 0.428
 0.126 0.082 0.416
 0.123 0.079 0.397
 0.123 0.077 0.39
 0.123 0.076 0.381
 0.125 0.075 0.379
 0.128 0.076 0.381
 0.132 0.077 0.385
 0.136 0.078 0.388
 0.142 0.079 0.397
 0.144 0.079 0.396
 0.147 0.08 0.397
 0.15 0.08 0.396
 0.151 0.079 0.392
 0.153 0.079 0.39
 0.156 0.079 0.392
 0.159 0.079 0.392
 0.164 0.081 0.398
 0.168 0.081 0.4
 0.17 0.081 0.397
 0.171 0.08 0.393
 0.171 0.079 0.387
 0.175 0.08 0.389
 0.178 0.08 0.39
 0.184 0.082 0.396
 0.188 0.082 0.398
 0.193 0.083 0.402
 0.195 0.083 0.401
 0.201 0.085 0.407
 0.209 0.087 0.415
 0.222 0.091 0.434
 0.236 0.096 0.455
 0.252 0.101 0.479
 0.268 0.107 0.503
 0.287 0.113 0.53
 0.302 0.117 0.549
 0.318 0.122 0.57
 0.329 0.125 0.582
 0.341 0.128 0.594
 0.361 0.134 0.619
 0.364 0.133 0.615
 -0.325 0.13 0.57
 -0.324 0.131 0.577
 -0.328 0.134 0.593
 -0.331 0.137 0.608
 -0.334 0.14 0.623
 -0.337 0.143 0.638
 -0.338 0.145 0.651
 -0.34 0.148 0.664
 -0.34 0.15 0.676
 -0.34 0.152 0.687
 -0.339 0.153 0.695
 -0.337 0.154 0.702
 -0.335 0.156 0.709
 -0.331 0.156 0.714
 -0.329 0.157 0.72
 -0.326 0.158 0.725
 -0.325 0.16 0.735
 -0.324 0.162 0.746
 -0.326 0.165 0.763
 -0.33 0.169 0.786
 -0.336 0.176 0.817
 -0.344 0.182 0.85
 -0.354 0.191 0.892
 -0.364 0.2 0.934
 -0.374 0.209 0.977
 -0.383 0.217 1.019
 -0.391 0.225 1.06
 -0.396 0.232 1.096
 -0.401 0.239 1.129
 -0.403 0.245 1.158
 -0.404 0.25 1.184
 -0.403 0.254 1.206
 -0.401 0.257 1.223
 -0.398 0.26 1.239
 -0.394 0.262 1.252
 -0.39 0.265 1.266
 -0.385 0.267 1.278
 -0.38 0.269 1.29
 -0.374 0.27 1.298
 -0.368 0.271 1.306
 -0.361 0.272 1.311
 -0.354 0.272 1.316
 -0.346 0.273 1.319
 -0.339 0.273 1.321
 -0.331 0.273 1.323
 -0.322 0.272 1.322
 -0.314 0.272 1.322
 -0.306 0.271 1.32
 -0.297 0.27 1.317
 -0.287 0.268 1.309
 -0.278 0.267 1.304
 -0.269 0.266 1.3
 -0.26 0.265 1.295
 -0.252 0.264 1.293
 -0.244 0.264 1.296
 -0.237 0.264 1.299
 -0.23 0.265 1.303
 -0.222 0.265 1.306
 -0.215 0.265 1.306
 -0.207 0.265 1.309
 -0.2 0.266 1.311
 -0.192 0.266 1.313
 -0.185 0.266 1.316
 -0.177 0.267 1.32
 -0.17 0.268 1.325
 -0.163 0.269 1.33
 -0.156 0.27 1.34
 -0.15 0.273 1.355
 -0.144 0.276 1.371
 -0.137 0.279 1.384
 -0.129 0.28 1.393
 -0.122 0.282 1.401
 -0.114 0.282 1.401
 -0.106 0.282 1.402
 -0.097 0.281 1.399
 -0.089 0.281 1.4
 -0.08 0.28 1.395
 -0.072 0.28 1.394
 -0.064 0.279 1.391
 -0.056 0.279 1.39
 -0.048 0.278 1.39
 -0.04 0.278 1.39
 -0.032 0.279 1.392
 -0.024 0.279 1.395
 -0.015 0.281 1.402
 -0.007 0.282 1.408
 0 0.283 1.417
 0.008 0.285 1.424
 0.017 0.286 1.431
 0.025 0.288 1.437
 0.034 0.289 1.442
 0.042 0.289 1.443
 0.05 0.289 1.443
 0.059 0.289 1.445
 0.067 0.289 1.446
 0.076 0.29 1.45
 0.085 0.291 1.456
 0.094 0.293 1.463
 0.103 0.294 1.47
 0.112 0.295 1.476
 0.121 0.296 1.478
 0.129 0.295 1.475
 0.137 0.294 1.468
 0.145 0.292 1.458
 0.152 0.29 1.446
 0.159 0.287 1.434
 0.167 0.286 1.425
 0.173 0.283 1.411
 0.18 0.28 1.395
 0.185 0.276 1.372
 0.189 0.27 1.342
 0.191 0.261 1.3
 0.191 0.251 1.251
 0.19 0.241 1.199
 0.189 0.231 1.147
 0.187 0.221 1.099
 0.186 0.212 1.054
 0.186 0.205 1.016
 0.183 0.195 0.969
 0.179 0.186 0.921
 0.177 0.178 0.88
 0.171 0.167 0.825
 0.168 0.159 0.789
 0.165 0.152 0.753
 0.158 0.142 0.702
 0.155 0.135 0.667
 0.152 0.13 0.64
 0.146 0.121 0.595
 0.139 0.112 0.555
 0.138 0.109 0.535
 0.135 0.104 0.513
 0.133 0.1 0.493
 0.133 0.098 0.48
 0.131 0.094 0.463
 0.13 0.091 0.449
 0.129 0.089 0.435
 0.127 0.086 0.42
 0.125 0.082 0.403
 0.125 0.081 0.394
 0.125 0.079 0.386
 0.127 0.079 0.384
 0.129 0.079 0.384
 0.132 0.079 0.385
 0.135 0.08 0.387
 0.14 0.081 0.393
 0.142 0.081 0.39
 0.144 0.08 0.388
 0.147 0.081 0.39
 0.15 0.081 0.389
 0.152 0.081 0.388
 0.155 0.081 0.389
 0.159 0.082 0.392
 0.162 0.082 0.392
 0.165 0.083 0.393
 0.167 0.082 0.39
 0.169 0.082 0.388
 0.169 0.081 0.383
 0.173 0.081 0.384
 0.175 0.081 0.382
 0.181 0.083 0.389
 0.186 0.084 0.394
 0.192 0.085 0.399
 0.196 0.086 0.402
 0.204 0.089 0.412
 0.211 0.09 0.419
 0.221 0.093 0.432
 0.234 0.098 0.45
 0.248 0.103 0.471
 0.264 0.108 0.494
 0.283 0.114 0.522
 0.3 0.12 0.546
 0.316 0.125 0.567
 0.329 0.129 0.58
 0.339 0.131 0.589
 0.354 0.135 0.607
 0.357 0.135 0.604
 -0.319 0.131 0.559
 -0.318 0.132 0.565
 -0.325 0.137 0.587
 -0.328 0.14 0.601
 -0.331 0.143 0.616
 -0.333 0.146 0.631
 -0.335 0.148 0.644
 -0.336 0.151 0.656
 -0.337 0.153 0.669
 -0.337 0.155 0.679
 -0.335 0.156 0.686
 -0.333 0.157 0.693
 -0.331 0.158 0.699
 -0.327 0.159 0.704
 -0.325 0.16 0.71
 -0.322 0.161 0.716
 -0.321 0.162 0.726
 -0.32 0.164 0.737
 -0.322 0.168 0.754
 -0.326 0.172 0.776
 -0.332 0.178 0.805
 -0.34 0.185 0.839
 -0.35 0.194 0.88
 -0.36 0.203 0.921
 -0.369 0.212 0.964
 -0.378 0.221 1.006
 -0.386 0.229 1.047
 -0.393 0.237 1.084
 -0.398 0.244 1.119
 -0.401 0.25 1.15
 -0.401 0.255 1.176
 -0.401 0.26 1.197
 -0.398 0.263 1.214
 -0.395 0.266 1.23
 -0.392 0.268 1.244
 -0.388 0.271 1.259
 -0.383 0.273 1.271
 -0.378 0.275 1.282
 -0.372 0.277 1.291
 -0.366 0.278 1.299
 -0.359 0.279 1.304
 -0.352 0.279 1.309
 -0.345 0.279 1.312
 -0.337 0.28 1.314
 -0.329 0.279 1.315
 -0.321 0.279 1.314
 -0.312 0.278 1.312
 -0.304 0.277 1.311
 -0.295 0.277 1.308
 -0.285 0.275 1.302
 -0.277 0.274 1.298
 -0.268 0.273 1.295
 -0.259 0.272 1.292
 -0.251 0.271 1.29
 -0.244 0.271 1.291
 -0.236 0.271 1.294
 -0.229 0.272 1.296
 -0.221 0.272 1.298
 -0.213 0.271 1.297
 -0.206 0.272 1.302
 -0.199 0.272 1.304
 -0.191 0.272 1.306
 -0.184 0.273 1.308
 -0.176 0.273 1.311
 -0.169 0.274 1.315
 -0.162 0.275 1.322
 -0.155 0.276 1.331
 -0.149 0.279 1.345
 -0.143 0.282 1.36
 -0.136 0.285 1.372
 -0.128 0.286 1.38
 -0.121 0.287 1.386
 -0.113 0.287 1.387
 -0.105 0.287 1.388
 -0.096 0.287 1.387
 -0.088 0.287 1.389
 -0.08 0.287 1.387
 -0.072 0.287 1.388
 -0.064 0.286 1.387
 -0.056 0.286 1.386
 -0.048 0.286 1.386
 -0.04 0.286 1.386
 -0.031 0.286 1.388
 -0.023 0.287 1.39
 -0.015 0.288 1.396
 -0.007 0.289 1.403
 0 0.291 1.41
 0.008 0.292 1.417
 0.017 0.294 1.424
 0.025 0.295 1.432
 0.033 0.296 1.437
 0.042 0.296 1.438
 0.05 0.297 1.439
 0.059 0.297 1.441
 0.067 0.297 1.441
 0.076 0.297 1.442
 0.084 0.298 1.448
 0.093 0.3 1.453
 0.102 0.301 1.459
 0.111 0.302 1.466
 0.12 0.302 1.466
 0.128 0.302 1.463
 0.136 0.301 1.457
 0.144 0.298 1.445
 0.151 0.295 1.431
 0.158 0.293 1.418
 0.165 0.29 1.405
 0.171 0.287 1.389
 0.177 0.284 1.373
 0.183 0.28 1.353
 0.186 0.273 1.318
 0.187 0.264 1.275
 0.187 0.254 1.226
 0.186 0.243 1.172
 0.184 0.232 1.119
 0.183 0.223 1.074
 0.182 0.214 1.03
 0.181 0.205 0.99
 0.179 0.197 0.949
 0.175 0.187 0.9
 0.173 0.179 0.861
 0.168 0.168 0.809
 0.164 0.16 0.768
 0.161 0.152 0.731
 0.154 0.142 0.682
 0.151 0.135 0.649
 0.147 0.129 0.618
 0.143 0.122 0.582
 0.138 0.115 0.549
 0.137 0.111 0.533
 0.136 0.108 0.516
 0.136 0.105 0.502
 0.134 0.101 0.484
 0.132 0.098 0.465
 0.13 0.094 0.448
 0.128 0.091 0.433
 0.126 0.088 0.416
 0.124 0.084 0.4
 0.123 0.082 0.388
 0.123 0.08 0.381
 0.126 0.08 0.381
 0.128 0.08 0.38
 0.131 0.081 0.381
 0.134 0.081 0.383
 0.139 0.083 0.389
 0.139 0.082 0.382
 0.14 0.081 0.378
 0.145 0.082 0.382
 0.147 0.082 0.382
 0.15 0.082 0.382
 0.153 0.083 0.383
 0.159 0.084 0.391
 0.161 0.084 0.389
 0.164 0.084 0.389
 0.165 0.083 0.384
 0.168 0.084 0.385
 0.168 0.083 0.38
 0.171 0.083 0.38
 0.173 0.083 0.377
 0.178 0.084 0.382
 0.184 0.086 0.389
 0.19 0.087 0.395
 0.197 0.089 0.402
 0.204 0.091 0.412
 0.21 0.093 0.416
 0.217 0.095 0.424
 0.228 0.098 0.439
 0.241 0.102 0.456
 0.256 0.108 0.479
 0.276 0.115 0.508
 0.294 0.121 0.534
 0.31 0.126 0.555
 0.323 0.13 0.57
 0.334 0.133 0.579
 0.322 0.126 0.55
 0.335 0.13 0.564
 -0.317 0.134 0.554
 -0.319 0.136 0.566
 -0.322 0.139 0.58
 -0.324 0.142 0.594
 -0.327 0.145 0.609
 -0.33 0.148 0.624
 -0.332 0.151 0.637
 -0.332 0.153 0.648
 -0.333 0.155 0.66
 -0.333 0.157 0.669
 -0.331 0.158 0.676
 -0.329 0.159 0.683
 -0.326 0.161 0.69
 -0.323 0.161 0.694
 -0.321 0.162 0.7
 -0.318 0.163 0.706
 -0.317 0.165 0.715
 -0.316 0.167 0.726
 -0.318 0.17 0.743
 -0.322 0.175 0.764
 -0.328 0.181 0.793
 -0.335 0.188 0.826
 -0.345 0.197 0.866
 -0.355 0.206 0.907
 -0.365 0.215 0.95
 -0.374 0.224 0.994
 -0.383 0.233 1.035
 -0.389 0.242 1.074
 -0.395 0.249 1.111
 -0.398 0.256 1.142
 -0.398 0.261 1.166
 -0.398 0.265 1.188
 -0.395 0.268 1.204
 -0.392 0.271 1.22
 -0.389 0.274 1.235
 -0.385 0.277 1.25
 -0.381 0.279 1.262
 -0.376 0.281 1.274
 -0.37 0.283 1.282
 -0.365 0.284 1.291
 -0.358 0.285 1.297
 -0.351 0.286 1.301
 -0.343 0.286 1.304
 -0.335 0.286 1.306
 -0.327 0.285 1.306
 -0.319 0.285 1.304
 -0.31 0.284 1.303
 -0.302 0.283 1.301
 -0.293 0.282 1.299
 -0.284 0.281 1.293
 -0.276 0.28 1.292
 -0.267 0.279 1.289
 -0.259 0.279 1.288
 -0.251 0.278 1.285
 -0.243 0.278 1.286
 -0.235 0.278 1.286
 -0.228 0.278 1.288
 -0.22 0.278 1.288
 -0.212 0.278 1.29
 -0.205 0.278 1.294
 -0.198 0.278 1.296
 -0.19 0.279 1.298
 -0.183 0.279 1.301
 -0.175 0.279 1.304
 -0.168 0.28 1.308
 -0.161 0.281 1.314
 -0.154 0.283 1.323
 -0.148 0.285 1.335
 -0.142 0.288 1.35
 -0.135 0.291 1.362
 -0.127 0.292 1.37
 -0.12 0.293 1.376
 -0.112 0.294 1.378
 -0.104 0.294 1.38
 -0.096 0.294 1.38
 -0.088 0.294 1.383
 -0.08 0.294 1.383
 -0.072 0.294 1.384
 -0.064 0.294 1.384
 -0.056 0.294 1.382
 -0.047 0.294 1.381
 -0.039 0.294 1.382
 -0.031 0.294 1.383
 -0.023 0.294 1.385
 -0.015 0.295 1.39
 -0.007 0.297 1.397
 0 0.298 1.405
 0.008 0.3 1.412
 0.017 0.301 1.419
 0.025 0.302 1.423
 0.033 0.303 1.427
 0.042 0.303 1.427
 0.05 0.303 1.429
 0.059 0.304 1.432
 0.067 0.304 1.434
 0.076 0.305 1.437
 0.084 0.306 1.443
 0.093 0.307 1.447
 0.102 0.308 1.451
 0.111 0.309 1.455
 0.119 0.309 1.456
 0.127 0.308 1.451
 0.135 0.307 1.445
 0.143 0.305 1.433
 0.15 0.301 1.418
 0.156 0.298 1.403
 0.163 0.295 1.388
 0.169 0.292 1.371
 0.175 0.288 1.354
 0.18 0.284 1.333
 0.182 0.276 1.294
 0.184 0.267 1.252
 0.184 0.256 1.201
 0.182 0.244 1.143
 0.18 0.233 1.091
 0.179 0.224 1.049
 0.178 0.214 1.003
 0.176 0.206 0.963
 0.174 0.197 0.922
 0.169 0.186 0.868
 0.166 0.177 0.826
 0.162 0.167 0.782
 0.159 0.16 0.745
 0.158 0.154 0.716
 0.152 0.145 0.674
 0.148 0.136 0.635
 0.143 0.129 0.599
 0.138 0.121 0.563
 0.135 0.116 0.537
 0.136 0.113 0.526
 0.136 0.111 0.514
 0.137 0.109 0.506
 0.136 0.106 0.489
 0.133 0.102 0.47
 0.131 0.098 0.451
 0.129 0.094 0.435
 0.126 0.09 0.414
 0.124 0.087 0.399
 0.123 0.084 0.388
 0.124 0.083 0.383
 0.126 0.083 0.38
 0.128 0.083 0.379
 0.13 0.083 0.377
 0.132 0.083 0.377
 0.134 0.082 0.375
 0.134 0.081 0.367
 0.135 0.08 0.363
 0.14 0.081 0.368
 0.142 0.081 0.368
 0.146 0.082 0.37
 0.149 0.083 0.372
 0.154 0.084 0.377
 0.155 0.084 0.375
 0.158 0.084 0.374
 0.159 0.083 0.37
 0.162 0.083 0.371
 0.164 0.083 0.37
 0.167 0.083 0.37
 0.169 0.083 0.369
 0.175 0.085 0.376
 0.182 0.087 0.383
 0.186 0.088 0.385
 0.193 0.09 0.394
 0.201 0.093 0.405
 0.206 0.094 0.408
 0.213 0.096 0.416
 0.223 0.099 0.429
 0.234 0.103 0.443
 0.249 0.108 0.464
 0.268 0.115 0.492
 0.286 0.121 0.517
 0.303 0.127 0.54
 0.316 0.131 0.555
 0.325 0.133 0.564
 0.341 0.138 0.582
 0.335 0.134 0.563
 -0.313 0.136 0.547
 -0.317 0.139 0.561
 -0.318 0.141 0.572
 -0.321 0.144 0.586
 -0.324 0.147 0.601
 -0.327 0.151 0.616
 -0.328 0.153 0.629
 -0.329 0.156 0.64
 -0.329 0.158 0.651
 -0.329 0.16 0.661
 -0.327 0.161 0.668
 -0.325 0.162 0.674
 -0.322 0.163 0.68
 -0.319 0.164 0.685
 -0.316 0.164 0.689
 -0.313 0.165 0.695
 -0.312 0.166 0.702
 -0.311 0.169 0.713
 -0.313 0.172 0.73
 -0.317 0.177 0.752
 -0.323 0.183 0.78
 -0.331 0.191 0.815
 -0.34 0.199 0.853
 -0.35 0.208 0.893
 -0.36 0.218 0.936
 -0.37 0.228 0.981
 -0.378 0.237 1.021
 -0.385 0.246 1.062
 -0.391 0.254 1.099
 -0.394 0.26 1.13
 -0.395 0.265 1.153
 -0.394 0.27 1.175
 -0.392 0.273 1.192
 -0.389 0.276 1.207
 -0.386 0.279 1.222
 -0.382 0.282 1.237
 -0.378 0.285 1.251
 -0.373 0.287 1.263
 -0.368 0.289 1.272
 -0.362 0.29 1.281
 -0.356 0.291 1.288
 -0.349 0.292 1.292
 -0.341 0.292 1.296
 -0.334 0.292 1.298
 -0.326 0.292 1.298
 -0.317 0.291 1.297
 -0.309 0.291 1.296
 -0.3 0.29 1.294
 -0.292 0.289 1.291
 -0.283 0.288 1.287
 -0.275 0.287 1.287
 -0.266 0.287 1.285
 -0.258 0.286 1.283
 -0.25 0.285 1.281
 -0.242 0.284 1.279
 -0.234 0.284 1.277
 -0.226 0.283 1.277
 -0.218 0.283 1.276
 -0.21 0.283 1.276
 -0.203 0.283 1.279
 -0.196 0.283 1.282
 -0.189 0.284 1.286
 -0.182 0.285 1.291
 -0.175 0.286 1.297
 -0.168 0.287 1.303
 -0.161 0.288 1.308
 -0.154 0.29 1.317
 -0.147 0.292 1.327
 -0.141 0.294 1.34
 -0.134 0.297 1.352
 -0.127 0.299 1.36
 -0.119 0.3 1.367
 -0.111 0.301 1.371
 -0.104 0.301 1.374
 -0.096 0.301 1.375
 -0.088 0.301 1.376
 -0.08 0.301 1.376
 -0.071 0.301 1.377
 -0.063 0.301 1.377
 -0.055 0.301 1.376
 -0.047 0.301 1.376
 -0.039 0.301 1.377
 -0.031 0.301 1.378
 -0.023 0.301 1.38
 -0.015 0.303 1.386
 -0.007 0.304 1.393
 0 0.306 1.401
 0.008 0.307 1.408
 0.017 0.308 1.413
 0.025 0.309 1.415
 0.033 0.31 1.419
 0.041 0.31 1.419
 0.05 0.309 1.418
 0.058 0.31 1.421
 0.067 0.311 1.425
 0.075 0.311 1.427
 0.084 0.313 1.434
 0.093 0.314 1.44
 0.101 0.315 1.444
 0.11 0.316 1.446
 0.119 0.316 1.446
 0.126 0.314 1.44
 0.134 0.313 1.432
 0.141 0.31 1.419
 0.148 0.307 1.404
 0.155 0.304 1.388
 0.161 0.3 1.371
 0.167 0.297 1.355
 0.173 0.293 1.338
 0.178 0.289 1.318
 0.18 0.28 1.279
 0.182 0.271 1.236
 0.181 0.26 1.184
 0.179 0.247 1.125
 0.177 0.236 1.073
 0.176 0.226 1.03
 0.174 0.216 0.983
 0.172 0.207 0.94
 0.17 0.197 0.896
 0.164 0.184 0.837
 0.161 0.175 0.797
 0.157 0.167 0.757
 0.155 0.159 0.723
 0.154 0.155 0.701
 0.151 0.147 0.665
 0.145 0.138 0.623
 0.14 0.13 0.588
 0.136 0.123 0.555
 0.134 0.118 0.532
 0.134 0.115 0.52
 0.135 0.113 0.508
 0.134 0.11 0.495
 0.133 0.106 0.478
 0.13 0.102 0.458
 0.127 0.098 0.438
 0.126 0.094 0.423
 0.124 0.091 0.408
 0.123 0.088 0.394
 0.122 0.086 0.385
 0.124 0.086 0.382
 0.125 0.085 0.377
 0.127 0.084 0.376
 0.128 0.084 0.372
 0.13 0.084 0.371
 0.131 0.083 0.366
 0.132 0.082 0.362
 0.134 0.081 0.359
 0.138 0.082 0.363
 0.141 0.083 0.364
 0.144 0.084 0.367
 0.146 0.083 0.365
 0.151 0.085 0.37
 0.152 0.084 0.365
 0.152 0.083 0.36
 0.153 0.082 0.355
 0.156 0.082 0.357
 0.158 0.082 0.356
 0.163 0.083 0.359
 0.167 0.084 0.363
 0.173 0.086 0.369
 0.179 0.088 0.376
 0.182 0.088 0.377
 0.189 0.091 0.386
 0.197 0.093 0.395
 0.202 0.094 0.399
 0.209 0.096 0.407
 0.219 0.1 0.421
 0.23 0.104 0.435
 0.245 0.109 0.455
 0.263 0.116 0.482
 0.28 0.122 0.506
 0.296 0.127 0.527
 0.308 0.131 0.541
 0.318 0.134 0.55
 0.329 0.137 0.562
 0.334 0.138 0.562
 -0.308 0.137 0.537
 -0.312 0.141 0.552
 -0.315 0.144 0.566
 -0.318 0.147 0.58
 -0.32 0.15 0.594
 -0.323 0.153 0.609
 -0.324 0.156 0.621
 -0.325 0.158 0.632
 -0.325 0.16 0.642
 -0.324 0.162 0.651
 -0.322 0.163 0.657
 -0.32 0.164 0.664
 -0.318 0.165 0.67
 -0.315 0.166 0.674
 -0.312 0.166 0.679
 -0.309 0.167 0.684
 -0.307 0.168 0.69
 -0.305 0.17 0.698
 -0.307 0.173 0.715
 -0.311 0.178 0.737
 -0.317 0.185 0.764
 -0.326 0.193 0.8
 -0.335 0.202 0.839
 -0.345 0.211 0.879
 -0.355 0.221 0.922
 -0.365 0.231 0.967
 -0.373 0.24 1.007
 -0.381 0.25 1.049
 -0.387 0.258 1.087
 -0.39 0.264 1.116
 -0.389 0.269 1.137
 -0.387 0.272 1.154
 -0.384 0.275 1.165
 -0.38 0.277 1.179
 -0.378 0.281 1.196
 -0.375 0.285 1.214
 -0.373 0.288 1.233
 -0.37 0.292 1.251
 -0.365 0.294 1.262
 -0.36 0.296 1.271
 -0.353 0.297 1.277
 -0.346 0.298 1.282
 -0.339 0.298 1.286
 -0.332 0.298 1.289
 -0.323 0.298 1.287
 -0.314 0.296 1.283
 -0.305 0.295 1.28
 -0.297 0.294 1.277
 -0.288 0.293 1.274
 -0.28 0.292 1.273
 -0.273 0.293 1.276
 -0.265 0.293 1.277
 -0.257 0.292 1.276
 -0.249 0.292 1.276
 -0.241 0.291 1.273
 -0.233 0.29 1.271
 -0.225 0.289 1.269
 -0.217 0.289 1.267
 -0.209 0.288 1.265
 -0.201 0.288 1.268
 -0.194 0.288 1.27
 -0.187 0.29 1.276
 -0.181 0.291 1.282
 -0.174 0.292 1.289
 -0.167 0.293 1.295
 -0.16 0.295 1.303
 -0.153 0.296 1.31
 -0.146 0.298 1.32
 -0.14 0.301 1.332
 -0.133 0.303 1.344
 -0.126 0.305 1.352
 -0.118 0.306 1.358
 -0.111 0.307 1.363
 -0.103 0.307 1.365
 -0.095 0.307 1.365
 -0.087 0.308 1.367
 -0.079 0.308 1.368
 -0.071 0.308 1.369
 -0.063 0.308 1.369
 -0.055 0.308 1.369
 -0.047 0.308 1.371
 -0.039 0.308 1.371
 -0.031 0.308 1.374
 -0.023 0.309 1.377
 -0.015 0.31 1.381
 -0.007 0.311 1.388
 0 0.313 1.395
 0.008 0.315 1.402
 0.016 0.315 1.404
 0.025 0.315 1.406
 0.033 0.316 1.409
 0.041 0.315 1.406
 0.049 0.315 1.404
 0.058 0.316 1.409
 0.066 0.317 1.414
 0.075 0.318 1.416
 0.083 0.319 1.424
 0.092 0.321 1.43
 0.101 0.322 1.433
 0.109 0.322 1.433
 0.117 0.321 1.43
 0.125 0.32 1.425
 0.133 0.318 1.417
 0.14 0.316 1.405
 0.147 0.313 1.392
 0.154 0.31 1.377
 0.16 0.306 1.36
 0.166 0.302 1.344
 0.172 0.298 1.325
 0.176 0.293 1.303
 0.178 0.284 1.26
 0.179 0.274 1.214
 0.177 0.261 1.156
 0.175 0.248 1.098
 0.173 0.236 1.045
 0.172 0.226 1.002
 0.17 0.216 0.958
 0.168 0.207 0.917
 0.166 0.198 0.874
 0.159 0.184 0.812
 0.157 0.176 0.776
 0.154 0.167 0.739
 0.152 0.16 0.707
 0.15 0.154 0.679
 0.148 0.148 0.652
 0.141 0.138 0.607
 0.137 0.13 0.573
 0.133 0.124 0.543
 0.131 0.118 0.52
 0.132 0.116 0.51
 0.133 0.114 0.502
 0.13 0.11 0.48
 0.128 0.105 0.461
 0.126 0.101 0.442
 0.123 0.096 0.421
 0.12 0.092 0.402
 0.12 0.09 0.392
 0.119 0.088 0.381
 0.12 0.087 0.376
 0.122 0.087 0.376
 0.124 0.086 0.374
 0.127 0.087 0.374
 0.128 0.086 0.371
 0.129 0.085 0.366
 0.129 0.083 0.359
 0.13 0.082 0.354
 0.131 0.082 0.351
 0.134 0.083 0.353
 0.139 0.084 0.358
 0.142 0.084 0.359
 0.144 0.084 0.358
 0.148 0.085 0.362
 0.148 0.084 0.357
 0.147 0.082 0.347
 0.147 0.081 0.342
 0.15 0.081 0.343
 0.153 0.082 0.344
 0.157 0.083 0.346
 0.162 0.084 0.352
 0.168 0.086 0.359
 0.174 0.088 0.365
 0.176 0.088 0.365
 0.184 0.09 0.374
 0.19 0.092 0.381
 0.196 0.094 0.386
 0.204 0.096 0.395
 0.213 0.1 0.407
 0.224 0.104 0.422
 0.238 0.109 0.442
 0.256 0.116 0.469
 0.272 0.122 0.491
 0.288 0.127 0.512
 0.301 0.132 0.528
 0.312 0.135 0.539
 0.322 0.138 0.548
 0.323 0.136 0.541
 -0.305 0.14 0.531
 -0.31 0.143 0.548
 -0.312 0.146 0.559
 -0.314 0.149 0.573
 -0.317 0.152 0.587
 -0.32 0.155 0.602
 -0.321 0.158 0.613
 -0.322 0.16 0.624
 -0.321 0.162 0.634
 -0.321 0.164 0.642
 -0.319 0.165 0.649
 -0.316 0.166 0.655
 -0.314 0.167 0.66
 -0.311 0.168 0.664
 -0.307 0.168 0.668
 -0.304 0.169 0.673
 -0.302 0.17 0.678
 -0.3 0.171 0.685
 -0.302 0.175 0.701
 -0.305 0.18 0.723
 -0.311 0.186 0.749
 -0.321 0.195 0.787
 -0.331 0.204 0.826
 -0.34 0.213 0.866
 -0.35 0.223 0.909
 -0.361 0.234 0.955
 -0.369 0.243 0.994
 -0.377 0.253 1.035
 -0.383 0.261 1.072
 -0.385 0.267 1.099
 -0.383 0.271 1.117
 -0.381 0.275 1.133
 -0.377 0.277 1.143
 -0.373 0.279 1.154
 -0.371 0.283 1.173
 -0.37 0.287 1.194
 -0.368 0.292 1.215
 -0.366 0.297 1.236
 -0.363 0.3 1.253
 -0.357 0.302 1.261
 -0.351 0.303 1.268
 -0.344 0.303 1.272
 -0.337 0.304 1.276
 -0.329 0.304 1.277
 -0.32 0.302 1.273
 -0.311 0.3 1.267
 -0.301 0.299 1.26
 -0.292 0.297 1.254
 -0.284 0.296 1.253
 -0.276 0.296 1.256
 -0.27 0.297 1.261
 -0.263 0.298 1.265
 -0.256 0.298 1.268
 -0.248 0.297 1.266
 -0.239 0.296 1.262
 -0.231 0.295 1.26
 -0.223 0.294 1.257
 -0.215 0.294 1.255
 -0.207 0.293 1.254
 -0.2 0.293 1.256
 -0.193 0.294 1.258
 -0.186 0.295 1.264
 -0.179 0.296 1.272
 -0.173 0.298 1.278
 -0.166 0.299 1.286
 -0.159 0.301 1.294
 -0.152 0.302 1.302
 -0.145 0.304 1.309
 -0.139 0.306 1.32
 -0.132 0.309 1.333
 -0.125 0.311 1.341
 -0.118 0.312 1.348
 -0.11 0.313 1.354
 -0.103 0.314 1.358
 -0.094 0.314 1.357
 -0.087 0.314 1.357
 -0.079 0.314 1.358
 -0.071 0.314 1.358
 -0.063 0.314 1.359
 -0.055 0.314 1.36
 -0.047 0.314 1.362
 -0.039 0.314 1.363
 -0.031 0.315 1.366
 -0.023 0.316 1.37
 -0.015 0.317 1.375
 -0.007 0.319 1.382
 0 0.32 1.389
 0.008 0.322 1.396
 0.016 0.322 1.397
 0.025 0.321 1.395
 0.033 0.321 1.394
 0.041 0.32 1.388
 0.049 0.319 1.385
 0.057 0.32 1.39
 0.066 0.322 1.397
 0.074 0.323 1.401
 0.083 0.325 1.412
 0.092 0.327 1.418
 0.1 0.327 1.419
 0.108 0.327 1.418
 0.116 0.326 1.414
 0.124 0.325 1.407
 0.132 0.323 1.4
 0.139 0.321 1.389
 0.146 0.318 1.376
 0.152 0.315 1.363
 0.158 0.311 1.346
 0.164 0.307 1.327
 0.169 0.302 1.307
 0.174 0.296 1.281
 0.175 0.286 1.238
 0.176 0.276 1.193
 0.175 0.264 1.138
 0.172 0.25 1.08
 0.17 0.238 1.026
 0.168 0.228 0.982
 0.166 0.217 0.936
 0.164 0.207 0.892
 0.162 0.198 0.851
 0.156 0.185 0.795
 0.153 0.177 0.759
 0.151 0.169 0.724
 0.149 0.162 0.697
 0.147 0.155 0.667
 0.145 0.149 0.64
 0.139 0.139 0.597
 0.135 0.132 0.563
 0.13 0.124 0.529
 0.128 0.119 0.508
 0.129 0.117 0.497
 0.129 0.114 0.487
 0.125 0.108 0.461
 0.124 0.105 0.445
 0.122 0.1 0.427
 0.118 0.095 0.404
 0.116 0.091 0.387
 0.117 0.091 0.384
 0.117 0.089 0.375
 0.118 0.088 0.371
 0.122 0.089 0.376
 0.125 0.089 0.375
 0.127 0.089 0.374
 0.129 0.089 0.372
 0.129 0.088 0.367
 0.128 0.085 0.356
 0.128 0.084 0.349
 0.129 0.083 0.345
 0.132 0.083 0.347
 0.135 0.084 0.349
 0.139 0.085 0.351
 0.141 0.085 0.35
 0.144 0.085 0.35
 0.143 0.083 0.342
 0.141 0.081 0.333
 0.142 0.08 0.327
 0.143 0.08 0.326
 0.148 0.081 0.33
 0.153 0.083 0.337
 0.16 0.085 0.347
 0.166 0.087 0.353
 0.171 0.089 0.359
 0.173 0.089 0.358
 0.18 0.091 0.365
 0.185 0.092 0.37
 0.191 0.094 0.376
 0.199 0.097 0.386
 0.208 0.1 0.398
 0.219 0.104 0.412
 0.234 0.11 0.433
 0.25 0.116 0.457
 0.266 0.122 0.479
 0.281 0.127 0.499
 0.294 0.132 0.514
 0.303 0.134 0.522
 0.317 0.139 0.539
 0.332 0.144 0.556
 -0.304 0.142 0.528
 -0.306 0.145 0.539
 -0.308 0.148 0.552
 -0.311 0.151 0.566
 -0.314 0.154 0.58
 -0.316 0.158 0.594
 -0.317 0.16 0.605
 -0.318 0.162 0.616
 -0.317 0.164 0.625
 -0.316 0.166 0.633
 -0.315 0.167 0.64
 -0.313 0.168 0.646
 -0.31 0.169 0.651
 -0.307 0.17 0.656
 -0.304 0.17 0.659
 -0.301 0.171 0.663
 -0.298 0.172 0.668
 -0.296 0.173 0.674
 -0.297 0.177 0.69
 -0.301 0.182 0.712
 -0.306 0.188 0.737
 -0.315 0.196 0.772
 -0.325 0.206 0.811
 -0.334 0.215 0.85
 -0.345 0.225 0.893
 -0.356 0.237 0.94
 -0.364 0.247 0.981
 -0.372 0.256 1.022
 -0.378 0.265 1.058
 -0.379 0.27 1.082
 -0.378 0.274 1.099
 -0.375 0.277 1.113
 -0.37 0.278 1.121
 -0.364 0.279 1.126
 -0.363 0.284 1.148
 -0.363 0.289 1.171
 -0.362 0.295 1.194
 -0.362 0.3 1.218
 -0.36 0.305 1.241
 -0.355 0.307 1.25
 -0.348 0.308 1.256
 -0.341 0.309 1.261
 -0.334 0.309 1.265
 -0.326 0.309 1.264
 -0.317 0.307 1.259
 -0.307 0.305 1.252
 -0.297 0.302 1.243
 -0.287 0.299 1.231
 -0.279 0.299 1.232
 -0.273 0.3 1.238
 -0.267 0.301 1.245
 -0.26 0.303 1.252
 -0.254 0.304 1.259
 -0.246 0.303 1.258
 -0.238 0.302 1.253
 -0.229 0.3 1.248
 -0.221 0.299 1.245
 -0.213 0.298 1.242
 -0.205 0.298 1.24
 -0.198 0.298 1.241
 -0.19 0.298 1.243
 -0.184 0.299 1.249
 -0.177 0.3 1.256
 -0.17 0.301 1.261
 -0.164 0.303 1.269
 -0.157 0.305 1.278
 -0.15 0.306 1.284
 -0.144 0.308 1.291
 -0.137 0.31 1.302
 -0.13 0.313 1.314
 -0.123 0.315 1.322
 -0.117 0.317 1.333
 -0.109 0.319 1.341
 -0.102 0.32 1.346
 -0.094 0.32 1.348
 -0.086 0.32 1.348
 -0.078 0.32 1.35
 -0.07 0.32 1.35
 -0.062 0.32 1.35
 -0.054 0.32 1.352
 -0.047 0.321 1.355
 -0.039 0.321 1.357
 -0.031 0.322 1.361
 -0.023 0.323 1.365
 -0.015 0.324 1.37
 -0.007 0.326 1.376
 0 0.327 1.382
 0.008 0.328 1.387
 0.016 0.328 1.387
 0.024 0.327 1.382
 0.032 0.326 1.379
 0.04 0.325 1.372
 0.048 0.324 1.369
 0.056 0.325 1.373
 0.065 0.327 1.382
 0.073 0.328 1.389
 0.082 0.331 1.399
 0.091 0.332 1.404
 0.099 0.332 1.404
 0.107 0.332 1.402
 0.115 0.331 1.398
 0.123 0.329 1.39
 0.13 0.327 1.382
 0.137 0.325 1.371
 0.144 0.322 1.359
 0.15 0.319 1.344
 0.156 0.315 1.328
 0.162 0.311 1.31
 0.167 0.306 1.288
 0.171 0.299 1.257
 0.172 0.289 1.216
 0.173 0.278 1.169
 0.17 0.264 1.11
 0.168 0.25 1.052
 0.166 0.238 0.999
 0.164 0.227 0.955
 0.161 0.216 0.907
 0.16 0.207 0.868
 0.157 0.197 0.824
 0.152 0.185 0.774
 0.149 0.176 0.735
 0.147 0.168 0.703
 0.145 0.162 0.676
 0.143 0.155 0.647
 0.141 0.149 0.621
 0.137 0.141 0.586
 0.132 0.132 0.551
 0.127 0.123 0.514
 0.125 0.119 0.494
 0.124 0.115 0.479
 0.124 0.112 0.466
 0.121 0.107 0.444
 0.121 0.105 0.433
 0.119 0.101 0.417
 0.116 0.096 0.397
 0.114 0.093 0.382
 0.116 0.092 0.38
 0.116 0.09 0.372
 0.118 0.09 0.368
 0.122 0.091 0.373
 0.123 0.09 0.369
 0.124 0.09 0.367
 0.126 0.089 0.362
 0.127 0.088 0.359
 0.125 0.085 0.346
 0.126 0.084 0.342
 0.127 0.084 0.339
 0.13 0.084 0.34
 0.132 0.084 0.339
 0.136 0.085 0.343
 0.138 0.085 0.342
 0.139 0.084 0.339
 0.138 0.082 0.33
 0.137 0.08 0.321
 0.136 0.078 0.313
 0.137 0.078 0.31
 0.141 0.079 0.315
 0.147 0.082 0.324
 0.155 0.085 0.335
 0.161 0.087 0.341
 0.166 0.088 0.347
 0.168 0.088 0.346
 0.174 0.09 0.354
 0.18 0.092 0.36
 0.189 0.095 0.37
 0.198 0.099 0.382
 0.208 0.103 0.396
 0.219 0.107 0.411
 0.233 0.112 0.431
 0.247 0.118 0.451
 0.262 0.123 0.47
 0.275 0.128 0.488
 0.286 0.132 0.5
 0.294 0.134 0.506
 0.303 0.136 0.513
 0.314 0.14 0.525
 -0.299 0.144 0.519
 -0.301 0.146 0.53
 -0.305 0.15 0.545
 -0.308 0.153 0.558
 -0.31 0.156 0.571
 -0.312 0.159 0.585
 -0.313 0.162 0.596
 -0.314 0.164 0.607
 -0.314 0.166 0.617
 -0.313 0.168 0.625
 -0.311 0.169 0.632
 -0.309 0.17 0.637
 -0.306 0.171 0.642
 -0.303 0.172 0.646
 -0.299 0.172 0.648
 -0.296 0.173 0.653
 -0.294 0.174 0.658
 -0.292 0.175 0.664
 -0.293 0.179 0.68
 -0.297 0.184 0.701
 -0.302 0.189 0.725
 -0.31 0.198 0.758
 -0.32 0.207 0.797
 -0.328 0.216 0.834
 -0.339 0.227 0.876
 -0.35 0.238 0.922
 -0.359 0.249 0.965
 -0.367 0.259 1.006
 -0.373 0.268 1.043
 -0.374 0.273 1.065
 -0.372 0.276 1.08
 -0.367 0.278 1.089
 -0.362 0.279 1.094
 -0.356 0.279 1.098
 -0.355 0.285 1.121
 -0.356 0.291 1.147
 -0.357 0.297 1.174
 -0.357 0.304 1.202
 -0.356 0.309 1.225
 -0.351 0.311 1.236
 -0.345 0.313 1.243
 -0.338 0.314 1.248
 -0.332 0.314 1.253
 -0.323 0.314 1.252
 -0.314 0.311 1.245
 -0.304 0.309 1.237
 -0.293 0.305 1.225
 -0.282 0.301 1.209
 -0.275 0.302 1.212
 -0.269 0.303 1.219
 -0.263 0.305 1.227
 -0.258 0.307 1.237
 -0.252 0.309 1.248
 -0.244 0.308 1.246
 -0.235 0.306 1.24
 -0.227 0.305 1.235
 -0.219 0.303 1.23
 -0.21 0.302 1.227
 -0.202 0.301 1.223
 -0.195 0.301 1.223
 -0.188 0.301 1.224
 -0.181 0.301 1.228
 -0.174 0.303 1.235
 -0.168 0.304 1.241
 -0.161 0.306 1.249
 -0.155 0.308 1.258
 -0.148 0.309 1.264
 -0.142 0.311 1.273
 -0.135 0.314 1.285
 -0.129 0.316 1.295
 -0.122 0.318 1.305
 -0.115 0.321 1.317
 -0.108 0.323 1.324
 -0.101 0.324 1.329
 -0.093 0.325 1.333
 -0.085 0.325 1.335
 -0.078 0.326 1.338
 -0.07 0.326 1.339
 -0.062 0.326 1.341
 -0.054 0.327 1.344
 -0.046 0.327 1.347
 -0.038 0.328 1.349
 -0.031 0.329 1.353
 -0.023 0.33 1.358
 -0.015 0.331 1.362
 -0.007 0.332 1.368
 0 0.333 1.371
 0.008 0.334 1.375
 0.016 0.333 1.372
 0.024 0.332 1.37
 0.032 0.331 1.366
 0.04 0.33 1.361
 0.048 0.329 1.356
 0.056 0.33 1.361
 0.064 0.332 1.368
 0.073 0.334 1.374
 0.081 0.336 1.384
 0.09 0.337 1.389
 0.098 0.337 1.389
 0.106 0.337 1.386
 0.114 0.335 1.381
 0.121 0.333 1.372
 0.129 0.332 1.365
 0.136 0.329 1.355
 0.142 0.327 1.343
 0.149 0.323 1.328
 0.155 0.319 1.311
 0.159 0.313 1.287
 0.164 0.307 1.261
 0.167 0.299 1.227
 0.168 0.289 1.186
 0.168 0.277 1.136
 0.166 0.263 1.079
 0.164 0.251 1.027
 0.161 0.237 0.971
 0.159 0.226 0.925
 0.156 0.215 0.878
 0.154 0.205 0.837
 0.151 0.194 0.793
 0.147 0.184 0.749
 0.144 0.175 0.712
 0.143 0.168 0.684
 0.142 0.162 0.66
 0.139 0.154 0.627
 0.137 0.148 0.602
 0.133 0.14 0.57
 0.129 0.132 0.536
 0.124 0.124 0.503
 0.121 0.118 0.477
 0.119 0.114 0.46
 0.119 0.11 0.446
 0.117 0.106 0.428
 0.116 0.103 0.415
 0.116 0.101 0.405
 0.114 0.097 0.39
 0.112 0.093 0.375
 0.113 0.092 0.37
 0.114 0.091 0.364
 0.115 0.09 0.359
 0.118 0.09 0.361
 0.12 0.09 0.359
 0.121 0.089 0.356
 0.121 0.088 0.349
 0.123 0.087 0.346
 0.121 0.085 0.336
 0.122 0.084 0.331
 0.124 0.083 0.329
 0.126 0.084 0.33
 0.128 0.084 0.329
 0.132 0.085 0.332
 0.134 0.085 0.333
 0.137 0.085 0.332
 0.136 0.083 0.325
 0.135 0.082 0.318
 0.134 0.079 0.308
 0.133 0.078 0.302
 0.136 0.078 0.302
 0.142 0.08 0.31
 0.149 0.084 0.321
 0.155 0.085 0.328
 0.16 0.087 0.335
 0.164 0.088 0.338
 0.17 0.09 0.344
 0.175 0.092 0.349
 0.184 0.095 0.361
 0.193 0.099 0.372
 0.203 0.103 0.386
 0.213 0.107 0.4
 0.228 0.113 0.421
 0.242 0.118 0.441
 0.257 0.124 0.46
 0.27 0.129 0.477
 0.28 0.132 0.487
 0.287 0.134 0.493
 0.307 0.141 0.519
 0.29 0.132 0.484
 -0.296 0.146 0.513
 -0.302 0.15 0.531
 -0.302 0.152 0.54
 -0.305 0.155 0.553
 -0.307 0.158 0.565
 -0.309 0.161 0.577
 -0.309 0.164 0.588
 -0.31 0.166 0.599
 -0.31 0.168 0.608
 -0.309 0.17 0.616
 -0.308 0.171 0.623
 -0.305 0.172 0.628
 -0.303 0.173 0.633
 -0.3 0.174 0.637
 -0.296 0.174 0.64
 -0.293 0.175 0.644
 -0.291 0.176 0.65
 -0.288 0.177 0.656
 -0.29 0.181 0.671
 -0.294 0.186 0.692
 -0.298 0.191 0.714
 -0.304 0.199 0.743
 -0.314 0.208 0.781
 -0.322 0.217 0.817
 -0.332 0.228 0.858
 -0.344 0.24 0.905
 -0.354 0.251 0.949
 -0.362 0.261 0.99
 -0.369 0.271 1.029
 -0.37 0.277 1.052
 -0.367 0.28 1.066
 -0.363 0.282 1.075
 -0.357 0.282 1.08
 -0.351 0.283 1.083
 -0.351 0.288 1.106
 -0.352 0.295 1.133
 -0.353 0.301 1.159
 -0.353 0.308 1.187
 -0.352 0.313 1.211
 -0.347 0.316 1.221
 -0.341 0.317 1.228
 -0.335 0.318 1.235
 -0.329 0.319 1.24
 -0.32 0.318 1.237
 -0.31 0.315 1.227
 -0.299 0.311 1.215
 -0.288 0.307 1.2
 -0.276 0.302 1.182
 -0.27 0.303 1.187
 -0.265 0.305 1.198
 -0.259 0.307 1.208
 -0.254 0.31 1.219
 -0.249 0.313 1.232
 -0.241 0.312 1.229
 -0.232 0.31 1.223
 -0.224 0.309 1.219
 -0.216 0.307 1.215
 -0.208 0.306 1.211
 -0.2 0.305 1.208
 -0.193 0.304 1.207
 -0.185 0.304 1.207
 -0.179 0.305 1.21
 -0.172 0.306 1.216
 -0.165 0.307 1.221
 -0.159 0.309 1.228
 -0.153 0.311 1.24
 -0.146 0.313 1.247
 -0.14 0.315 1.257
 -0.134 0.318 1.269
 -0.127 0.32 1.279
 -0.121 0.323 1.289
 -0.114 0.326 1.302
 -0.107 0.327 1.308
 -0.099 0.328 1.312
 -0.092 0.329 1.316
 -0.084 0.329 1.317
 -0.076 0.329 1.317
 -0.069 0.329 1.318
 -0.061 0.329 1.319
 -0.053 0.33 1.325
 -0.046 0.331 1.329
 -0.038 0.333 1.335
 -0.03 0.334 1.341
 -0.023 0.336 1.349
 -0.015 0.337 1.353
 -0.007 0.338 1.357
 0 0.338 1.356
 0.008 0.338 1.359
 0.016 0.337 1.355
 0.024 0.337 1.352
 0.032 0.336 1.35
 0.04 0.335 1.346
 0.048 0.334 1.344
 0.056 0.336 1.349
 0.064 0.337 1.354
 0.072 0.339 1.36
 0.081 0.341 1.369
 0.089 0.341 1.372
 0.097 0.341 1.37
 0.105 0.34 1.367
 0.112 0.338 1.359
 0.119 0.336 1.35
 0.127 0.335 1.342
 0.134 0.332 1.332
 0.14 0.329 1.32
 0.146 0.326 1.306
 0.152 0.321 1.285
 0.156 0.314 1.259
 0.16 0.307 1.229
 0.162 0.298 1.191
 0.163 0.287 1.148
 0.162 0.274 1.096
 0.16 0.26 1.04
 0.158 0.248 0.989
 0.155 0.234 0.933
 0.152 0.222 0.885
 0.15 0.211 0.843
 0.148 0.202 0.804
 0.145 0.191 0.762
 0.142 0.182 0.724
 0.14 0.173 0.687
 0.138 0.166 0.66
 0.136 0.16 0.634
 0.133 0.151 0.6
 0.131 0.145 0.574
 0.128 0.138 0.548
 0.124 0.13 0.514
 0.119 0.122 0.483
 0.116 0.116 0.458
 0.115 0.112 0.443
 0.114 0.109 0.428
 0.113 0.106 0.415
