 1.336 -1.632 4.119
 1.361 -1.631 4.111
 1.388 -1.633 4.106
 1.412 -1.631 4.093
 1.439 -1.631 4.087
 1.462 -1.629 4.073
 1.489 -1.631 4.068
 1.515 -1.631 4.06
 1.542 -1.632 4.052
 1.567 -1.631 4.043
 1.592 -1.631 4.032
 1.618 -1.631 4.023
 1.642 -1.629 4.009
 1.667 -1.629 3.998
 1.691 -1.627 3.984
 1.717 -1.628 3.975
 1.742 -1.627 3.962
 1.766 -1.625 3.949
 1.789 -1.623 3.933
 1.809 -1.618 3.909
 1.819 -1.604 3.866
 1.828 -1.59 3.821
 1.834 -1.574 3.771
 1.837 -1.555 3.714
 1.842 -1.54 3.666
 1.851 -1.526 3.623
 1.855 -1.51 3.574
 1.86 -1.496 3.528
 1.847 -1.467 3.448
 1.774 -1.391 3.26
 1.749 -1.355 3.164
 1.751 -1.341 3.119
 1.762 -1.333 3.09
 1.772 -1.325 3.06
 1.775 -1.312 3.019
 1.772 -1.294 2.968
 1.742 -1.259 2.875
 1.775 -1.268 2.886
 -2.286 -1.624 3.859
 -2.259 -1.624 3.872
 -2.22 -1.615 3.863
 -2.197 -1.618 3.882
 -2.172 -1.618 3.897
 -2.146 -1.619 3.91
 -2.119 -1.619 3.923
 -2.093 -1.619 3.936
 -2.067 -1.62 3.949
 -2.04 -1.619 3.959
 -2.015 -1.62 3.974
 -1.986 -1.619 3.981
 -1.961 -1.619 3.994
 -1.937 -1.622 4.011
 -1.909 -1.62 4.018
 -1.881 -1.62 4.026
 -1.857 -1.622 4.043
 -1.827 -1.618 4.044
 -1.796 -1.614 4.043
 -1.769 -1.614 4.053
 -1.744 -1.615 4.066
 -1.715 -1.613 4.07
 -1.69 -1.615 4.083
 -1.663 -1.614 4.091
 -1.636 -1.613 4.097
 -1.608 -1.611 4.102
 -1.581 -1.611 4.108
 -1.554 -1.61 4.115
 -1.529 -1.612 4.129
 -1.505 -1.614 4.141
 -1.476 -1.611 4.141
 -1.451 -1.612 4.154
 -1.423 -1.611 4.158
 -1.396 -1.61 4.163
 -1.368 -1.609 4.166
 -1.344 -1.61 4.177
 -1.314 -1.606 4.173
 -1.288 -1.606 4.181
 -1.26 -1.604 4.182
 -1.233 -1.603 4.185
 -1.205 -1.6 4.185
 -1.179 -1.601 4.193
 -1.151 -1.598 4.191
 -1.125 -1.598 4.195
 -1.099 -1.598 4.203
 -1.072 -1.597 4.203
 -1.044 -1.595 4.203
 -1.018 -1.594 4.208
 -0.992 -1.594 4.212
 -0.965 -1.593 4.214
 -0.94 -1.594 4.221
 -0.915 -1.595 4.228
 -0.888 -1.593 4.228
 -0.861 -1.591 4.228
 -0.834 -1.59 4.229
 -0.807 -1.588 4.226
 -0.781 -1.587 4.226
 -0.756 -1.588 4.234
 -0.73 -1.588 4.239
 -0.704 -1.587 4.238
 -0.678 -1.588 4.245
 -0.653 -1.59 4.251
 -0.627 -1.589 4.252
 -0.601 -1.589 4.256
 -0.575 -1.589 4.259
 -0.549 -1.588 4.259
 -0.523 -1.588 4.259
 -0.497 -1.587 4.259
 -0.471 -1.585 4.257
 -0.445 -1.584 4.257
 -0.42 -1.586 4.262
 -0.394 -1.584 4.26
 -0.368 -1.585 4.263
 -0.342 -1.585 4.265
 -0.317 -1.586 4.269
 -0.291 -1.584 4.265
 -0.265 -1.585 4.267
 -0.239 -1.582 4.262
 -0.213 -1.582 4.261
 -0.188 -1.581 4.261
 -0.162 -1.581 4.26
 -0.136 -1.58 4.259
 -0.111 -1.581 4.261
 -0.085 -1.581 4.261
 -0.06 -1.58 4.259
 -0.034 -1.582 4.265
 -0.008 -1.582 4.264
 0.016 -1.58 4.258
 0.042 -1.58 4.259
 0.067 -1.58 4.257
 0.093 -1.579 4.253
 0.118 -1.579 4.253
 0.144 -1.581 4.257
 0.169 -1.58 4.253
 0.195 -1.58 4.254
 0.221 -1.58 4.252
 0.246 -1.58 4.25
 0.272 -1.579 4.246
 0.297 -1.581 4.249
 0.323 -1.581 4.246
 0.349 -1.583 4.249
 0.374 -1.582 4.245
 0.4 -1.584 4.248
 0.426 -1.584 4.246
 0.452 -1.585 4.247
 0.477 -1.584 4.242
 0.503 -1.586 4.242
 0.528 -1.585 4.239
 0.554 -1.586 4.238
 0.58 -1.586 4.234
 0.606 -1.587 4.233
 0.632 -1.589 4.234
 0.659 -1.592 4.239
 0.684 -1.591 4.234
 0.711 -1.593 4.233
 0.736 -1.592 4.229
 0.761 -1.591 4.22
 0.787 -1.591 4.216
 0.813 -1.592 4.215
 0.839 -1.594 4.214
 0.866 -1.595 4.214
 0.893 -1.597 4.214
 0.919 -1.598 4.211
 0.945 -1.599 4.208
 0.972 -1.601 4.207
 0.998 -1.602 4.206
 1.026 -1.604 4.206
 1.052 -1.605 4.202
 1.079 -1.607 4.2
 1.105 -1.607 4.195
 1.131 -1.608 4.191
 1.157 -1.607 4.183
 1.183 -1.608 4.178
 1.211 -1.611 4.178
 1.237 -1.611 4.173
 1.264 -1.613 4.169
 1.292 -1.616 4.169
 1.319 -1.616 4.164
 1.346 -1.618 4.161
 1.373 -1.619 4.156
 1.401 -1.621 4.152
 1.426 -1.621 4.143
 1.453 -1.622 4.138
 1.478 -1.62 4.125
 1.504 -1.621 4.118
 1.531 -1.622 4.111
 1.557 -1.622 4.102
 1.584 -1.622 4.095
 1.61 -1.623 4.087
 1.637 -1.623 4.078
 1.661 -1.622 4.064
 1.687 -1.622 4.055
 1.712 -1.62 4.041
 1.738 -1.62 4.031
 1.763 -1.62 4.019
 1.785 -1.617 4.001
 1.805 -1.611 3.976
 1.822 -1.603 3.947
 1.831 -1.589 3.9
 1.838 -1.574 3.851
 1.845 -1.558 3.801
 1.85 -1.542 3.751
 1.854 -1.525 3.698
 1.865 -1.514 3.661
 1.871 -1.499 3.614
 1.879 -1.487 3.572
 0 0 0
 1.764 -1.361 3.249
 1.736 -1.324 3.148
 1.75 -1.319 3.125
 1.761 -1.311 3.096
 1.772 -1.304 3.068
 1.776 -1.292 3.029
 1.772 -1.274 2.977
 1.761 -1.252 2.913
 1.749 -1.229 2.85
 -2.299 -1.606 3.89
 -2.278 -1.611 3.915
 -2.247 -1.608 3.921
 -2.225 -1.611 3.942
 -2.201 -1.613 3.959
 -2.177 -1.615 3.977
 -2.149 -1.614 3.987
 -2.122 -1.614 3.999
 -2.095 -1.615 4.012
 -2.069 -1.615 4.025
 -2.043 -1.616 4.039
 -2.016 -1.616 4.049
 -1.991 -1.617 4.065
 -1.965 -1.618 4.078
 -1.935 -1.616 4.084
 -1.907 -1.615 4.092
 -1.882 -1.617 4.107
 -1.852 -1.614 4.11
 -1.821 -1.61 4.111
 -1.794 -1.611 4.121
 -1.769 -1.611 4.133
 -1.74 -1.61 4.139
 -1.713 -1.61 4.148
 -1.686 -1.609 4.156
 -1.657 -1.607 4.159
 -1.628 -1.605 4.163
 -1.601 -1.605 4.171
 -1.574 -1.605 4.179
 -1.549 -1.606 4.192
 -1.525 -1.609 4.207
 -1.496 -1.607 4.209
 -1.47 -1.607 4.217
 -1.441 -1.605 4.22
 -1.413 -1.604 4.224
 -1.384 -1.6 4.221
 -1.358 -1.601 4.231
 -1.328 -1.597 4.227
 -1.302 -1.597 4.236
 -1.273 -1.595 4.235
 -1.246 -1.594 4.24
 -1.218 -1.592 4.24
 -1.191 -1.591 4.244
 -1.162 -1.587 4.24
 -1.135 -1.587 4.244
 -1.109 -1.587 4.251
 -1.081 -1.585 4.25
 -1.054 -1.583 4.25
 -1.028 -1.583 4.257
 -1.001 -1.583 4.26
 -0.974 -1.581 4.261
 -0.948 -1.582 4.268
 -0.923 -1.583 4.276
 -0.895 -1.58 4.27
 -0.867 -1.577 4.268
 -0.84 -1.576 4.267
 -0.813 -1.573 4.265
 -0.786 -1.572 4.264
 -0.761 -1.573 4.271
 -0.735 -1.573 4.277
 -0.708 -1.572 4.276
 -0.683 -1.573 4.281
 -0.657 -1.573 4.286
 -0.63 -1.572 4.284
 -0.604 -1.571 4.285
 -0.578 -1.57 4.284
 -0.551 -1.568 4.282
 -0.525 -1.567 4.283
 -0.499 -1.568 4.287
 -0.473 -1.567 4.287
 -0.447 -1.567 4.288
 -0.422 -1.568 4.292
 -0.395 -1.566 4.29
 -0.369 -1.565 4.287
 -0.343 -1.565 4.288
 -0.318 -1.565 4.29
 -0.291 -1.563 4.287
 -0.266 -1.562 4.285
 -0.24 -1.56 4.281
 -0.214 -1.559 4.278
 -0.188 -1.559 4.279
 -0.162 -1.558 4.277
 -0.137 -1.558 4.278
 -0.111 -1.56 4.282
 -0.085 -1.561 4.284
 -0.06 -1.56 4.284
 -0.034 -1.562 4.289
 -0.008 -1.562 4.288
 0.016 -1.56 4.283
 0.042 -1.56 4.282
 0.068 -1.56 4.28
 0.093 -1.559 4.277
 0.119 -1.559 4.277
 0.145 -1.561 4.281
 0.17 -1.559 4.275
 0.196 -1.56 4.277
 0.222 -1.56 4.274
 0.247 -1.56 4.274
 0.273 -1.559 4.269
 0.299 -1.561 4.273
 0.324 -1.56 4.267
 0.35 -1.561 4.269
 0.375 -1.56 4.264
 0.401 -1.562 4.267
 0.427 -1.563 4.267
 0.453 -1.565 4.269
 0.479 -1.564 4.264
 0.505 -1.566 4.267
 0.531 -1.566 4.263
 0.556 -1.565 4.258
 0.582 -1.565 4.256
 0.608 -1.566 4.255
 0.634 -1.567 4.254
 0.661 -1.571 4.26
 0.687 -1.571 4.258
 0.713 -1.572 4.256
 0.739 -1.572 4.252
 0.764 -1.57 4.243
 0.789 -1.57 4.239
 0.816 -1.571 4.237
 0.843 -1.574 4.239
 0.869 -1.575 4.239
 0.897 -1.578 4.241
 0.923 -1.579 4.237
 0.949 -1.579 4.233
 0.976 -1.581 4.232
 1.003 -1.583 4.232
 1.03 -1.586 4.234
 1.058 -1.587 4.232
 1.085 -1.589 4.231
 1.111 -1.589 4.226
 1.137 -1.59 4.221
 1.163 -1.59 4.214
 1.19 -1.591 4.211
 1.218 -1.594 4.212
 1.245 -1.596 4.209
 1.273 -1.598 4.207
 1.301 -1.6 4.205
 1.327 -1.6 4.199
 1.355 -1.602 4.195
 1.383 -1.604 4.193
 1.41 -1.605 4.189
 1.436 -1.605 4.18
 1.464 -1.607 4.177
 1.49 -1.607 4.167
 1.516 -1.606 4.157
 1.545 -1.609 4.156
 1.572 -1.61 4.149
 1.599 -1.611 4.143
 1.626 -1.612 4.136
 1.654 -1.614 4.131
 1.679 -1.613 4.118
 1.705 -1.612 4.107
 1.73 -1.611 4.094
 1.755 -1.61 4.081
 1.779 -1.608 4.064
 1.799 -1.603 4.041
 1.817 -1.595 4.011
 1.83 -1.585 3.973
 1.84 -1.571 3.929
 1.849 -1.557 3.881
 1.857 -1.542 3.835
 1.864 -1.528 3.787
 1.871 -1.514 3.741
 1.88 -1.501 3.699
 1.887 -1.487 3.653
 0 0 0
 0 0 0
 0 0 0
 1.733 -1.3 3.15
 1.748 -1.296 3.129
 1.761 -1.29 3.104
 1.772 -1.282 3.075
 1.777 -1.271 3.037
 1.776 -1.256 2.99
 1.771 -1.239 2.938
 1.768 -1.223 2.889
 -2.259 -1.553 3.833
 -2.297 -1.597 3.956
 -2.281 -1.605 3.989
 -2.258 -1.608 4.01
 -2.233 -1.609 4.027
 -2.206 -1.61 4.041
 -2.178 -1.61 4.052
 -2.151 -1.609 4.064
 -2.124 -1.61 4.078
 -2.099 -1.611 4.093
 -2.073 -1.613 4.108
 -2.046 -1.613 4.12
 -2.019 -1.613 4.133
 -1.991 -1.612 4.142
 -1.959 -1.609 4.143
 -1.931 -1.608 4.152
 -1.904 -1.609 4.165
 -1.875 -1.607 4.17
 -1.845 -1.604 4.174
 -1.819 -1.606 4.187
 -1.791 -1.605 4.196
 -1.762 -1.604 4.202
 -1.735 -1.603 4.21
 -1.707 -1.602 4.217
 -1.676 -1.599 4.218
 -1.647 -1.597 4.221
 -1.619 -1.596 4.227
 -1.592 -1.596 4.235
 -1.566 -1.597 4.247
 -1.54 -1.598 4.257
 -1.511 -1.596 4.26
 -1.483 -1.594 4.264
 -1.454 -1.592 4.267
 -1.426 -1.591 4.27
 -1.396 -1.587 4.268
 -1.369 -1.588 4.276
 -1.34 -1.585 4.275
 -1.313 -1.584 4.28
 -1.284 -1.582 4.28
 -1.257 -1.581 4.285
 -1.229 -1.58 4.288
 -1.201 -1.578 4.289
 -1.172 -1.575 4.286
 -1.144 -1.573 4.288
 -1.117 -1.572 4.291
 -1.089 -1.569 4.288
 -1.062 -1.568 4.291
 -1.035 -1.568 4.296
 -1.008 -1.567 4.297
 -0.981 -1.566 4.298
 -0.954 -1.565 4.303
 -0.927 -1.565 4.305
 -0.899 -1.562 4.301
 -0.872 -1.56 4.3
 -0.844 -1.557 4.298
 -0.817 -1.555 4.296
 -0.79 -1.553 4.294
 -0.764 -1.554 4.298
 -0.738 -1.553 4.301
 -0.711 -1.552 4.3
 -0.685 -1.552 4.303
 -0.659 -1.553 4.31
 -0.632 -1.551 4.308
 -0.606 -1.55 4.308
 -0.579 -1.548 4.305
 -0.553 -1.547 4.303
 -0.526 -1.545 4.3
 -0.5 -1.544 4.3
 -0.474 -1.543 4.3
 -0.448 -1.542 4.3
 -0.422 -1.542 4.301
 -0.395 -1.54 4.297
 -0.369 -1.54 4.297
 -0.343 -1.539 4.298
 -0.317 -1.538 4.296
 -0.291 -1.536 4.292
 -0.265 -1.536 4.292
 -0.239 -1.535 4.289
 -0.213 -1.533 4.285
 -0.188 -1.535 4.291
 -0.162 -1.535 4.291
 -0.137 -1.534 4.289
 -0.111 -1.534 4.291
 -0.085 -1.535 4.292
 -0.059 -1.534 4.289
 -0.034 -1.535 4.291
 -0.008 -1.535 4.292
 0.017 -1.534 4.29
 0.042 -1.535 4.29
 0.068 -1.534 4.288
 0.094 -1.535 4.289
 0.119 -1.535 4.288
 0.145 -1.534 4.286
 0.17 -1.533 4.281
 0.196 -1.534 4.282
 0.221 -1.533 4.279
 0.247 -1.534 4.279
 0.273 -1.534 4.277
 0.299 -1.534 4.278
 0.324 -1.534 4.273
 0.35 -1.535 4.275
 0.375 -1.534 4.27
 0.401 -1.536 4.274
 0.427 -1.538 4.276
 0.454 -1.539 4.278
 0.479 -1.54 4.276
 0.506 -1.542 4.279
 0.531 -1.542 4.276
 0.557 -1.541 4.271
 0.582 -1.54 4.266
 0.608 -1.54 4.261
 0.634 -1.54 4.259
 0.66 -1.543 4.262
 0.686 -1.544 4.261
 0.713 -1.545 4.26
 0.739 -1.546 4.26
 0.764 -1.545 4.253
 0.79 -1.546 4.25
 0.816 -1.547 4.248
 0.844 -1.549 4.25
 0.871 -1.551 4.252
 0.898 -1.554 4.255
 0.924 -1.555 4.251
 0.95 -1.555 4.247
 0.977 -1.557 4.246
 1.004 -1.558 4.243
 1.032 -1.561 4.246
 1.059 -1.563 4.247
 1.087 -1.567 4.249
 1.114 -1.567 4.245
 1.14 -1.568 4.24
 1.166 -1.567 4.233
 1.193 -1.569 4.231
 1.222 -1.572 4.232
 1.25 -1.574 4.231
 1.277 -1.576 4.228
 1.306 -1.58 4.231
 1.334 -1.581 4.228
 1.361 -1.583 4.224
 1.389 -1.585 4.221
 1.417 -1.586 4.217
 1.442 -1.585 4.206
 1.469 -1.586 4.199
 1.495 -1.586 4.191
 1.522 -1.587 4.184
 1.552 -1.59 4.184
 1.581 -1.592 4.181
 1.609 -1.595 4.179
 1.638 -1.597 4.174
 1.666 -1.598 4.168
 1.691 -1.597 4.156
 1.718 -1.597 4.146
 1.743 -1.596 4.133
 1.767 -1.595 4.118
 1.79 -1.591 4.099
 1.809 -1.585 4.072
 1.825 -1.576 4.038
 1.838 -1.565 3.999
 1.849 -1.553 3.956
 1.858 -1.539 3.91
 1.867 -1.525 3.864
 1.875 -1.512 3.818
 1.883 -1.498 3.774
 1.888 -1.483 3.722
 0 0 0
 0 0 0
 0 0 0
 0 0 0
 1.736 -1.281 3.162
 1.755 -1.279 3.147
 1.766 -1.272 3.12
 1.774 -1.263 3.087
 1.781 -1.253 3.051
 1.779 -1.238 3.003
 1.766 -1.215 2.936
 1.759 -1.196 2.88
 -2.364 -1.597 4.021
 -2.32 -1.586 4.006
 -1.934 -1.338 3.389
 -1.916 -1.341 3.408
 -1.893 -1.342 3.421
 -1.962 -1.408 3.602
 -1.938 -1.408 3.613
 -1.915 -1.409 3.625
 -1.89 -1.409 3.636
 -1.954 -1.475 3.82
 -1.928 -1.475 3.829
 -1.818 -1.41 3.67
 -1.877 -1.475 3.851
 -1.932 -1.538 4.028
 -1.901 -1.535 4.03
 -1.874 -1.535 4.04
 -1.927 -1.6 4.224
 -1.897 -1.598 4.229
 -1.868 -1.597 4.236
 -1.842 -1.598 4.249
 -1.812 -1.597 4.255
 -1.782 -1.594 4.259
 -1.753 -1.593 4.264
 -1.723 -1.59 4.266
 -1.691 -1.586 4.265
 -1.662 -1.584 4.268
 -1.633 -1.583 4.274
 -1.606 -1.583 4.283
 -1.58 -1.584 4.294
 -1.553 -1.584 4.302
 -1.524 -1.582 4.305
 -1.495 -1.58 4.308
 -1.465 -1.578 4.309
 -1.436 -1.575 4.309
 -1.405 -1.571 4.306
 -1.377 -1.57 4.311
 -1.349 -1.568 4.312
 -1.32 -1.567 4.314
 -1.292 -1.565 4.316
 -1.264 -1.564 4.319
 -1.236 -1.563 4.322
 -1.207 -1.559 4.319
 -1.178 -1.556 4.317
 -1.15 -1.554 4.316
 -1.122 -1.553 4.32
 -1.093 -1.55 4.316
 -1.066 -1.549 4.318
 -1.039 -1.547 4.32
 -1.011 -1.545 4.319
 -0.983 -1.544 4.32
 -0.956 -1.543 4.321
 -0.929 -1.542 4.323
 -0.901 -1.539 4.32
 -0.874 -1.538 4.32
 -0.847 -1.535 4.317
 -0.819 -1.534 4.317
 -0.792 -1.532 4.316
 -0.766 -1.531 4.317
 -0.739 -1.53 4.316
 -0.711 -1.527 4.313
 -0.685 -1.526 4.312
 -0.659 -1.526 4.315
 -0.632 -1.524 4.314
 -0.605 -1.523 4.312
 -0.579 -1.521 4.309
 -0.552 -1.52 4.308
 -0.526 -1.519 4.308
 -0.5 -1.518 4.308
 -0.474 -1.517 4.308
 -0.448 -1.517 4.31
 -0.422 -1.517 4.311
 -0.395 -1.515 4.308
 -0.369 -1.514 4.306
 -0.343 -1.514 4.307
 -0.317 -1.512 4.302
 -0.291 -1.51 4.298
 -0.265 -1.509 4.296
 -0.239 -1.509 4.296
 -0.213 -1.508 4.295
 -0.188 -1.509 4.299
 -0.162 -1.51 4.3
 -0.136 -1.508 4.297
 -0.111 -1.509 4.3
 -0.085 -1.509 4.3
 -0.059 -1.509 4.298
 -0.034 -1.508 4.296
 -0.008 -1.509 4.299
 0.017 -1.508 4.296
 0.042 -1.508 4.296
 0.068 -1.507 4.292
 0.094 -1.509 4.297
 0.119 -1.509 4.297
 0.145 -1.509 4.294
 0.17 -1.507 4.289
 0.196 -1.509 4.292
 0.222 -1.508 4.287
 0.247 -1.508 4.285
 0.273 -1.508 4.286
 0.299 -1.51 4.288
 0.324 -1.508 4.282
 0.35 -1.51 4.284
 0.376 -1.51 4.282
 0.402 -1.51 4.282
 0.428 -1.512 4.284
 0.454 -1.514 4.287
 0.48 -1.514 4.284
 0.506 -1.515 4.285
 0.531 -1.515 4.283
 0.557 -1.515 4.278
 0.583 -1.515 4.275
 0.608 -1.514 4.27
 0.634 -1.515 4.269
 0.66 -1.516 4.269
 0.686 -1.517 4.266
 0.712 -1.517 4.264
 0.739 -1.519 4.265
 0.764 -1.518 4.258
 0.79 -1.519 4.256
 0.816 -1.52 4.255
 0.843 -1.523 4.257
 0.87 -1.525 4.258
 0.898 -1.528 4.261
 0.924 -1.528 4.258
 0.951 -1.529 4.256
 0.978 -1.531 4.255
 1.004 -1.532 4.252
 1.032 -1.535 4.254
 1.06 -1.538 4.257
 1.087 -1.54 4.258
 1.114 -1.541 4.253
 1.141 -1.542 4.251
 1.168 -1.543 4.246
 1.195 -1.544 4.243
 1.223 -1.547 4.244
 1.25 -1.549 4.242
 1.278 -1.55 4.238
 1.306 -1.553 4.238
 1.334 -1.555 4.238
 1.362 -1.557 4.236
 1.391 -1.56 4.235
 1.419 -1.562 4.232
 1.446 -1.563 4.225
 1.473 -1.563 4.218
 1.5 -1.564 4.213
 1.528 -1.566 4.208
 1.557 -1.569 4.207
 1.586 -1.571 4.204
 1.616 -1.574 4.203
 1.644 -1.576 4.199
 1.672 -1.578 4.193
 1.699 -1.578 4.185
 1.727 -1.579 4.177
 1.753 -1.578 4.165
 1.776 -1.575 4.147
 1.799 -1.572 4.128
 1.817 -1.565 4.099
 1.835 -1.558 4.069
 1.847 -1.546 4.027
 1.861 -1.536 3.99
 1.871 -1.524 3.947
 1.883 -1.512 3.906
 1.889 -1.497 3.856
 1.902 -1.488 3.82
 0 0 0
 0 0 0
 0 0 0
 0 0 0
 0 0 0
 1.735 -1.259 3.168
 1.752 -1.256 3.151
 1.767 -1.251 3.129
 1.776 -1.243 3.097
 1.782 -1.233 3.061
 1.782 -1.219 3.015
 1.774 -1.2 2.956
 1.798 -1.202 2.951
 -2.407 -1.599 4.105
 -2.396 -1.61 4.148
 -1.496 -1.018 2.625
 -1.482 -1.021 2.641
 -1.461 -1.018 2.644
 -1.536 -1.083 2.823
 -1.516 -1.083 2.829
 -1.495 -1.082 2.835
 -1.476 -1.081 2.843
 -1.545 -1.147 3.024
 -1.522 -1.145 3.028
 -1.419 -1.081 2.867
 -1.566 -1.21 3.218
 -1.706 -1.335 3.564
 -1.76 -1.397 3.739
 -1.737 -1.398 3.751
 -1.868 -1.525 4.103
 -1.839 -1.523 4.109
 -1.811 -1.522 4.116
 -1.784 -1.522 4.125
 -1.828 -1.583 4.302
 -1.797 -1.58 4.303
 -1.766 -1.577 4.306
 -1.735 -1.574 4.307
 -1.704 -1.571 4.306
 -1.674 -1.569 4.31
 -1.646 -1.568 4.317
 -1.618 -1.567 4.323
 -1.589 -1.566 4.328
 -1.561 -1.565 4.335
 -1.532 -1.563 4.337
 -1.501 -1.559 4.334
 -1.471 -1.557 4.336
 -1.442 -1.555 4.337
 -1.411 -1.551 4.334
 -1.383 -1.55 4.337
 -1.355 -1.548 4.34
 -1.325 -1.546 4.34
 -1.297 -1.544 4.342
 -1.269 -1.543 4.345
 -1.239 -1.54 4.342
 -1.209 -1.536 4.336
 -1.18 -1.533 4.335
 -1.15 -1.529 4.328
 -1.122 -1.526 4.326
 -1.094 -1.524 4.327
 -1.067 -1.523 4.329
 -1.039 -1.521 4.329
 -1.011 -1.519 4.328
 -0.984 -1.518 4.33
 -0.957 -1.517 4.332
 -0.93 -1.517 4.335
 -0.902 -1.514 4.331
 -0.875 -1.514 4.335
 -0.848 -1.511 4.332
 -0.82 -1.51 4.331
 -0.793 -1.508 4.329
 -0.766 -1.506 4.328
 -0.739 -1.504 4.324
 -0.711 -1.501 4.319
 -0.684 -1.5 4.319
 -0.658 -1.499 4.319
 -0.631 -1.498 4.319
 -0.605 -1.497 4.319
 -0.579 -1.495 4.318
 -0.552 -1.493 4.315
 -0.526 -1.493 4.315
 -0.499 -1.491 4.313
 -0.473 -1.49 4.312
 -0.447 -1.49 4.314
 -0.421 -1.49 4.315
 -0.395 -1.489 4.314
 -0.369 -1.489 4.316
 -0.343 -1.489 4.318
 -0.317 -1.487 4.311
 -0.291 -1.485 4.307
 -0.265 -1.483 4.302
 -0.239 -1.482 4.301
 -0.213 -1.481 4.298
 -0.188 -1.482 4.301
 -0.162 -1.482 4.303
 -0.136 -1.482 4.302
 -0.111 -1.482 4.304
 -0.085 -1.482 4.303
 -0.059 -1.482 4.304
 -0.033 -1.481 4.302
 -0.008 -1.482 4.303
 0.017 -1.482 4.301
 0.042 -1.482 4.303
 0.068 -1.481 4.299
 0.094 -1.483 4.303
 0.119 -1.483 4.302
 0.145 -1.482 4.298
 0.17 -1.481 4.294
 0.196 -1.482 4.296
 0.222 -1.48 4.29
 0.247 -1.48 4.288
 0.273 -1.481 4.288
 0.299 -1.482 4.29
 0.324 -1.481 4.285
 0.35 -1.483 4.289
 0.376 -1.483 4.288
 0.402 -1.485 4.289
 0.428 -1.486 4.29
 0.454 -1.487 4.291
 0.479 -1.487 4.288
 0.505 -1.488 4.288
 0.531 -1.489 4.287
 0.557 -1.489 4.285
 0.583 -1.489 4.283
 0.609 -1.489 4.28
 0.635 -1.49 4.279
 0.661 -1.491 4.277
 0.686 -1.491 4.275
 0.712 -1.491 4.271
 0.739 -1.493 4.271
 0.764 -1.492 4.266
 0.79 -1.493 4.264
 0.816 -1.493 4.259
 0.843 -1.496 4.263
 0.87 -1.498 4.264
 0.897 -1.5 4.266
 0.924 -1.501 4.263
 0.951 -1.503 4.264
 0.978 -1.505 4.263
 1.004 -1.506 4.259
 1.032 -1.509 4.263
 1.06 -1.512 4.265
 1.087 -1.514 4.265
 1.113 -1.513 4.257
 1.14 -1.514 4.254
 1.166 -1.515 4.249
 1.194 -1.517 4.247
 1.222 -1.519 4.247
 1.25 -1.521 4.247
 1.278 -1.524 4.246
 1.306 -1.526 4.245
 1.333 -1.528 4.242
 1.361 -1.53 4.24
 1.39 -1.532 4.239
 1.417 -1.533 4.235
 1.445 -1.534 4.229
 1.472 -1.536 4.224
 1.5 -1.537 4.22
 1.528 -1.539 4.216
 1.558 -1.542 4.216
 1.587 -1.545 4.216
 1.617 -1.548 4.215
 1.647 -1.552 4.214
 1.676 -1.554 4.21
 1.703 -1.555 4.203
 1.731 -1.555 4.195
 1.758 -1.555 4.185
 1.78 -1.552 4.165
 1.802 -1.548 4.144
 1.821 -1.542 4.117
 1.839 -1.535 4.086
 1.85 -1.522 4.043
 1.866 -1.514 4.01
 1.879 -1.504 3.97
 1.892 -1.494 3.933
 1.898 -1.479 3.882
 0 0 0
 0 0 0
 0 0 0
 0 0 0
 0 0 0
 0 0 0
 1.732 -1.235 3.17
 1.754 -1.235 3.16
 1.77 -1.232 3.141
 1.779 -1.224 3.109
 1.786 -1.214 3.074
 1.786 -1.2 3.028
 1.769 -1.176 2.956
 1.773 -1.165 2.918
 -0.04 -0.028 0.056
 -0.037 -0.026 0.052
 -1.055 -0.705 1.851
 -1.046 -0.708 1.864
 -1.03 -0.706 1.864
 -1.107 -0.768 2.036
 -1.091 -0.766 2.038
 -1.076 -0.765 2.041
 -1.058 -0.762 2.039
 -1.131 -0.825 2.215
 -1.113 -0.823 2.216
 -1.015 -0.761 2.052
 -1.25 -0.949 2.571
 -1.394 -1.072 2.916
 -1.535 -1.197 3.265
 -1.594 -1.26 3.448
 -1.805 -1.448 3.973
 -1.777 -1.446 3.978
 -1.826 -1.508 4.159
 -1.798 -1.507 4.166
 -1.84 -1.565 4.338
 -1.808 -1.562 4.339
 -1.776 -1.559 4.339
 -1.745 -1.555 4.34
 -1.712 -1.551 4.337
 -1.682 -1.549 4.34
 -1.653 -1.547 4.344
 -1.624 -1.546 4.348
 -1.593 -1.543 4.349
 -1.564 -1.541 4.352
 -1.535 -1.539 4.354
 -1.503 -1.535 4.351
 -1.474 -1.533 4.352
 -1.444 -1.53 4.351
 -1.413 -1.526 4.348
 -1.383 -1.523 4.347
 -1.354 -1.521 4.348
 -1.324 -1.518 4.345
 -1.296 -1.516 4.347
 -1.268 -1.514 4.349
 -1.238 -1.511 4.346
 -1.208 -1.507 4.339
 -1.18 -1.506 4.342
 -1.15 -1.502 4.336
 -1.122 -1.499 4.335
 -1.095 -1.499 4.338
 -1.068 -1.498 4.341
 -1.039 -1.496 4.339
 -1.012 -1.494 4.34
 -0.984 -1.493 4.341
 -0.957 -1.491 4.34
 -0.929 -1.489 4.34
 -0.902 -1.487 4.338
 -0.875 -1.486 4.339
 -0.847 -1.484 4.338
 -0.82 -1.483 4.338
 -0.793 -1.481 4.335
 -0.765 -1.479 4.333
 -0.738 -1.476 4.329
 -0.711 -1.474 4.325
 -0.684 -1.473 4.324
 -0.657 -1.472 4.324
 -0.631 -1.471 4.325
 -0.605 -1.47 4.324
 -0.578 -1.468 4.323
 -0.551 -1.467 4.32
 -0.525 -1.466 4.32
 -0.499 -1.464 4.316
 -0.472 -1.463 4.316
 -0.447 -1.463 4.317
 -0.42 -1.462 4.316
 -0.394 -1.461 4.315
 -0.368 -1.461 4.315
 -0.343 -1.46 4.316
 -0.316 -1.458 4.312
 -0.29 -1.457 4.308
 -0.264 -1.455 4.304
 -0.239 -1.455 4.304
 -0.213 -1.454 4.303
 -0.187 -1.455 4.304
 -0.161 -1.454 4.304
 -0.136 -1.454 4.304
 -0.11 -1.455 4.306
 -0.085 -1.454 4.303
 -0.059 -1.454 4.304
 -0.033 -1.454 4.303
 -0.008 -1.454 4.303
 0.017 -1.454 4.302
 0.043 -1.454 4.303
 0.068 -1.453 4.3
 0.094 -1.454 4.301
 0.119 -1.455 4.304
 0.145 -1.454 4.299
 0.17 -1.453 4.295
 0.196 -1.454 4.296
 0.221 -1.453 4.291
 0.247 -1.452 4.288
 0.273 -1.453 4.289
 0.298 -1.455 4.292
 0.324 -1.454 4.29
 0.35 -1.456 4.291
 0.376 -1.456 4.29
 0.401 -1.457 4.29
 0.427 -1.457 4.29
 0.453 -1.458 4.29
 0.479 -1.459 4.29
 0.505 -1.46 4.288
 0.53 -1.46 4.287
 0.556 -1.461 4.287
 0.582 -1.461 4.285
 0.608 -1.462 4.283
 0.634 -1.463 4.283
 0.66 -1.463 4.279
 0.686 -1.463 4.276
 0.712 -1.464 4.274
 0.738 -1.465 4.272
 0.763 -1.465 4.268
 0.789 -1.465 4.265
 0.815 -1.465 4.261
 0.842 -1.468 4.263
 0.869 -1.469 4.263
 0.896 -1.471 4.264
 0.923 -1.473 4.265
 0.95 -1.476 4.267
 0.977 -1.477 4.266
 1.003 -1.478 4.262
 1.031 -1.481 4.266
 1.058 -1.483 4.266
 1.086 -1.485 4.265
 1.112 -1.485 4.259
 1.14 -1.488 4.26
 1.166 -1.489 4.257
 1.194 -1.491 4.256
 1.221 -1.492 4.254
 1.25 -1.495 4.254
 1.278 -1.497 4.253
 1.305 -1.498 4.25
 1.333 -1.5 4.247
 1.361 -1.503 4.247
 1.39 -1.505 4.246
 1.417 -1.506 4.241
 1.445 -1.508 4.237
 1.472 -1.509 4.233
 1.501 -1.511 4.23
 1.529 -1.513 4.228
 1.559 -1.517 4.228
 1.588 -1.52 4.227
 1.618 -1.523 4.226
 1.648 -1.526 4.225
 1.677 -1.527 4.221
 1.704 -1.529 4.214
 1.733 -1.53 4.209
 1.76 -1.53 4.198
 1.783 -1.527 4.18
 1.804 -1.523 4.158
 1.825 -1.518 4.133
 1.843 -1.511 4.104
 1.856 -1.501 4.065
 1.875 -1.495 4.037
 1.892 -1.488 4.008
 1.908 -1.48 3.974
 0 0 0
 0 0 0
 0 0 0
 0 0 0
 0 0 0
 0 0 0
 0 0 0
 1.572 -1.102 2.882
 1.6 -1.108 2.889
 1.771 -1.212 3.15
 1.779 -1.203 3.116
 1.787 -1.194 3.082
 1.789 -1.182 3.04
 1.765 -1.153 2.955
 1.776 -1.147 2.929
 -0.059 -0.039 0.088
 -0.115 -0.076 0.187
 -0.614 -0.404 1.074
 -0.607 -0.404 1.078
 -0.595 -0.401 1.073
 -0.674 -0.46 1.237
 -0.662 -0.457 1.234
 -0.651 -0.455 1.232
 -0.637 -0.451 1.225
 -0.712 -0.511 1.393
 -0.698 -0.507 1.388
 -0.604 -0.445 1.218
 -0.843 -0.629 1.733
 -1.075 -0.813 2.251
 -1.302 -0.998 2.774
 -1.444 -1.122 3.129
 -1.736 -1.368 3.829
 -1.786 -1.428 4.007
 -1.834 -1.488 4.187
 -1.805 -1.486 4.191
 -1.846 -1.543 4.363
 -1.814 -1.539 4.363
 -1.782 -1.536 4.363
 -1.75 -1.532 4.362
 -1.717 -1.528 4.358
 -1.686 -1.525 4.36
 -1.656 -1.523 4.362
 -1.626 -1.52 4.363
 -1.596 -1.518 4.364
 -1.565 -1.514 4.363
 -1.535 -1.512 4.365
 -1.504 -1.508 4.361
 -1.474 -1.506 4.361
 -1.443 -1.503 4.36
 -1.413 -1.5 4.358
 -1.383 -1.496 4.355
 -1.354 -1.494 4.356
 -1.324 -1.49 4.351
 -1.294 -1.488 4.35
 -1.266 -1.486 4.353
 -1.236 -1.483 4.349
 -1.206 -1.479 4.343
 -1.18 -1.479 4.349
 -1.15 -1.475 4.344
 -1.122 -1.473 4.342
 -1.095 -1.473 4.348
 -1.068 -1.472 4.351
 -1.039 -1.469 4.348
 -1.011 -1.467 4.347
 -0.984 -1.466 4.347
 -0.955 -1.463 4.342
 -0.928 -1.461 4.341
 -0.9 -1.459 4.339
 -0.873 -1.458 4.34
 -0.846 -1.456 4.34
 -0.819 -1.455 4.34
 -0.792 -1.453 4.337
 -0.764 -1.451 4.336
 -0.737 -1.449 4.331
 -0.71 -1.446 4.327
 -0.683 -1.445 4.327
 -0.656 -1.444 4.326
 -0.63 -1.443 4.325
 -0.604 -1.442 4.327
 -0.577 -1.441 4.326
 -0.551 -1.44 4.326
 -0.525 -1.439 4.326
 -0.498 -1.436 4.318
 -0.471 -1.434 4.313
 -0.445 -1.433 4.313
 -0.419 -1.432 4.312
 -0.393 -1.431 4.31
 -0.368 -1.433 4.317
 -0.342 -1.434 4.322
 -0.316 -1.433 4.319
 -0.29 -1.431 4.315
 -0.264 -1.43 4.312
 -0.238 -1.429 4.312
 -0.213 -1.428 4.309
 -0.187 -1.427 4.307
 -0.161 -1.428 4.308
 -0.136 -1.427 4.308
 -0.11 -1.427 4.307
 -0.084 -1.425 4.302
 -0.059 -1.426 4.305
 -0.033 -1.426 4.303
 -0.007 -1.426 4.302
 0.017 -1.426 4.304
 0.043 -1.428 4.307
 0.068 -1.427 4.306
 0.094 -1.428 4.306
 0.12 -1.429 4.311
 0.145 -1.427 4.303
 0.17 -1.427 4.3
 0.196 -1.426 4.297
 0.221 -1.424 4.29
 0.247 -1.424 4.288
 0.272 -1.425 4.29
 0.298 -1.426 4.292
 0.324 -1.426 4.289
 0.35 -1.428 4.293
 0.375 -1.428 4.291
 0.401 -1.428 4.289
 0.426 -1.428 4.287
 0.452 -1.429 4.288
 0.478 -1.429 4.285
 0.503 -1.429 4.282
 0.529 -1.43 4.282
 0.555 -1.432 4.285
 0.581 -1.433 4.285
 0.607 -1.434 4.284
 0.634 -1.436 4.286
 0.659 -1.436 4.282
 0.685 -1.435 4.276
 0.711 -1.436 4.274
 0.737 -1.437 4.274
 0.762 -1.436 4.268
 0.788 -1.437 4.265
 0.814 -1.438 4.263
 0.841 -1.44 4.264
 0.867 -1.441 4.263
 0.894 -1.443 4.264
 0.922 -1.446 4.269
 0.949 -1.448 4.269
 0.976 -1.449 4.268
 1.002 -1.451 4.267
 1.03 -1.454 4.27
 1.057 -1.455 4.268
 1.085 -1.458 4.271
 1.112 -1.459 4.266
 1.139 -1.46 4.264
 1.165 -1.461 4.261
 1.193 -1.463 4.26
 1.22 -1.464 4.256
 1.247 -1.465 4.252
 1.275 -1.467 4.252
 1.303 -1.469 4.25
 1.33 -1.471 4.247
 1.358 -1.473 4.245
 1.387 -1.476 4.247
 1.415 -1.477 4.243
 1.443 -1.479 4.24
 1.471 -1.482 4.238
 1.501 -1.484 4.238
 1.53 -1.487 4.237
 1.559 -1.49 4.235
 1.588 -1.492 4.234
 1.617 -1.495 4.232
 1.646 -1.497 4.229
 1.675 -1.499 4.225
 1.704 -1.501 4.22
 1.732 -1.503 4.215
 1.759 -1.503 4.206
 1.783 -1.501 4.189
 1.806 -1.498 4.17
 1.828 -1.494 4.148
 1.849 -1.489 4.125
 1.866 -1.482 4.094
 1.885 -1.477 4.067
 1.906 -1.472 4.044
 0 0 0
 0 0 0
 0 0 0
 0 0 0
 0 0 0
 0 0 0
 0 0 0
 0 0 0
 1.376 -0.948 2.528
 1.47 -1 2.659
 1.771 -1.19 3.157
 1.78 -1.182 3.125
 1.787 -1.173 3.091
 1.789 -1.161 3.047
 1.775 -1.139 2.978
 1.759 -1.116 2.908
 -0.045 -0.03 0.065
 -0.03 -0.02 0.039
 -0.163 -0.106 0.277
 -0.16 -0.106 0.276
 -0.154 -0.103 0.27
 -0.238 -0.16 0.429
 -0.228 -0.156 0.418
 -0.222 -0.154 0.413
 -0.213 -0.149 0.401
 -0.29 -0.205 0.561
 -0.28 -0.201 0.55
 -0.19 -0.139 0.376
 -0.434 -0.319 0.888
 -0.671 -0.499 1.403
 -0.985 -0.741 2.1
 -1.21 -0.923 2.626
 -1.584 -1.226 3.5
 -1.713 -1.345 3.851
 -1.838 -1.464 4.204
 -1.808 -1.461 4.207
 -1.849 -1.518 4.379
 -1.816 -1.513 4.376
 -1.784 -1.51 4.377
 -1.752 -1.507 4.377
 -1.719 -1.502 4.371
 -1.688 -1.499 4.372
 -1.658 -1.497 4.376
 -1.627 -1.494 4.374
 -1.595 -1.49 4.373
 -1.564 -1.487 4.37
 -1.535 -1.485 4.372
 -1.503 -1.481 4.368
 -1.473 -1.478 4.368
 -1.444 -1.476 4.368
 -1.414 -1.473 4.367
 -1.382 -1.469 4.362
 -1.353 -1.465 4.359
 -1.322 -1.462 4.355
 -1.292 -1.458 4.352
 -1.264 -1.457 4.353
 -1.234 -1.454 4.35
 -1.205 -1.451 4.347
 -1.178 -1.45 4.352
 -1.15 -1.448 4.35
 -1.122 -1.446 4.35
 -1.095 -1.447 4.357
 -1.067 -1.445 4.357
 -1.039 -1.443 4.356
 -1.011 -1.441 4.355
 -0.983 -1.439 4.353
 -0.955 -1.435 4.347
 -0.927 -1.434 4.346
 -0.899 -1.431 4.342
 -0.872 -1.429 4.341
 -0.844 -1.427 4.339
 -0.818 -1.426 4.34
 -0.79 -1.425 4.339
 -0.764 -1.424 4.34
 -0.737 -1.422 4.337
 -0.71 -1.42 4.335
 -0.683 -1.419 4.333
 -0.656 -1.417 4.331
 -0.629 -1.416 4.33
 -0.603 -1.416 4.333
 -0.577 -1.415 4.333
 -0.551 -1.414 4.331
 -0.525 -1.414 4.333
 -0.498 -1.41 4.324
 -0.471 -1.408 4.32
 -0.445 -1.407 4.319
 -0.419 -1.407 4.32
 -0.393 -1.405 4.315
 -0.367 -1.406 4.32
 -0.342 -1.406 4.322
 -0.316 -1.405 4.32
 -0.29 -1.404 4.318
 -0.264 -1.403 4.316
 -0.238 -1.403 4.318
 -0.212 -1.402 4.314
 -0.187 -1.4 4.31
 -0.161 -1.4 4.308
 -0.135 -1.4 4.308
 -0.11 -1.4 4.309
 -0.084 -1.399 4.307
 -0.058 -1.4 4.31
 -0.033 -1.4 4.31
 -0.007 -1.4 4.311
 0.017 -1.4 4.31
 0.043 -1.402 4.314
 0.068 -1.402 4.313
 0.094 -1.402 4.314
 0.12 -1.404 4.319
 0.145 -1.402 4.31
 0.171 -1.401 4.308
 0.196 -1.4 4.304
 0.221 -1.398 4.297
 0.247 -1.398 4.293
 0.273 -1.4 4.298
 0.298 -1.401 4.299
 0.324 -1.4 4.296
 0.35 -1.402 4.3
 0.375 -1.402 4.297
 0.401 -1.401 4.293
 0.426 -1.401 4.288
 0.452 -1.403 4.291
 0.477 -1.402 4.286
 0.503 -1.402 4.284
 0.529 -1.403 4.284
 0.555 -1.405 4.288
 0.581 -1.407 4.289
 0.607 -1.408 4.29
 0.634 -1.41 4.294
 0.66 -1.41 4.29
 0.685 -1.409 4.283
 0.711 -1.41 4.281
 0.737 -1.411 4.28
 0.762 -1.41 4.273
 0.788 -1.41 4.27
 0.814 -1.411 4.268
 0.84 -1.413 4.268
 0.867 -1.414 4.267
 0.894 -1.416 4.268
 0.922 -1.419 4.274
 0.949 -1.422 4.276
 0.975 -1.423 4.274
 1.002 -1.424 4.273
 1.03 -1.427 4.274
 1.056 -1.427 4.269
 1.083 -1.429 4.269
 1.109 -1.429 4.265
 1.137 -1.431 4.263
 1.163 -1.432 4.26
 1.192 -1.435 4.262
 1.218 -1.436 4.258
 1.246 -1.437 4.255
 1.274 -1.44 4.255
 1.301 -1.441 4.252
 1.328 -1.442 4.248
 1.356 -1.444 4.247
 1.385 -1.447 4.246
 1.412 -1.448 4.243
 1.441 -1.451 4.242
 1.47 -1.453 4.241
 1.499 -1.456 4.241
 1.528 -1.459 4.241
 1.557 -1.461 4.239
 1.587 -1.464 4.238
 1.615 -1.466 4.235
 1.645 -1.469 4.234
 1.674 -1.471 4.23
 1.703 -1.473 4.226
 1.732 -1.475 4.222
 1.76 -1.477 4.216
 1.784 -1.474 4.198
 1.808 -1.472 4.182
 1.831 -1.469 4.163
 1.853 -1.466 4.143
 1.873 -1.461 4.118
 1.898 -1.46 4.104
 0 0 0
 0 0 0
 0 0 0
 0 0 0
 0 0 0
 0 0 0
 0 0 0
 0 0 0
 0 0 0
 1.376 -0.931 2.533
 1.469 -0.982 2.663
 1.77 -1.168 3.162
 1.781 -1.162 3.133
 1.787 -1.152 3.097
 1.789 -1.14 3.054
 1.785 -1.125 3.002
 1.791 -1.116 2.966
 -0.124 -0.078 0.201
 -0.101 -0.064 0.164
 -0.086 -0.056 0.14
 -0.083 -0.055 0.138
 -0.079 -0.053 0.132
 -0.07 -0.048 0.118
 -0.061 -0.042 0.102
 -0.055 -0.038 0.092
 -0.044 -0.031 0.073
 -0.035 -0.026 0.057
 -0.027 -0.021 0.042
 -0.024 -0.018 0.036
 -0.186 -0.135 0.374
 -0.426 -0.312 0.889
 -0.823 -0.608 1.756
 -1.129 -0.846 2.455
 -1.504 -1.142 3.329
 -1.711 -1.318 3.855
 -1.836 -1.435 4.207
 -1.806 -1.433 4.21
 -1.847 -1.488 4.384
 -1.815 -1.485 4.384
 -1.784 -1.482 4.385
 -1.752 -1.479 4.384
 -1.719 -1.474 4.38
 -1.688 -1.471 4.38
 -1.657 -1.469 4.381
 -1.624 -1.464 4.377
 -1.594 -1.462 4.377
 -1.563 -1.458 4.374
 -1.533 -1.456 4.375
 -1.501 -1.451 4.37
 -1.471 -1.449 4.37
 -1.442 -1.447 4.371
 -1.412 -1.444 4.37
 -1.381 -1.44 4.365
 -1.351 -1.437 4.363
 -1.322 -1.434 4.361
 -1.291 -1.431 4.356
 -1.262 -1.428 4.354
 -1.232 -1.425 4.351
 -1.204 -1.422 4.35
 -1.176 -1.422 4.353
 -1.148 -1.419 4.352
 -1.121 -1.419 4.357
 -1.095 -1.42 4.363
 -1.067 -1.419 4.366
 -1.04 -1.417 4.366
 -1.012 -1.416 4.366
 -0.984 -1.413 4.363
 -0.955 -1.41 4.357
 -0.927 -1.408 4.356
 -0.899 -1.405 4.351
 -0.871 -1.403 4.348
 -0.844 -1.401 4.345
 -0.817 -1.4 4.346
 -0.79 -1.398 4.344
 -0.763 -1.397 4.344
 -0.736 -1.395 4.342
 -0.709 -1.394 4.341
 -0.683 -1.393 4.34
 -0.656 -1.391 4.338
 -0.629 -1.39 4.338
 -0.604 -1.39 4.341
 -0.577 -1.39 4.342
 -0.55 -1.388 4.338
 -0.524 -1.387 4.339
 -0.497 -1.383 4.326
 -0.47 -1.38 4.32
 -0.444 -1.379 4.319
 -0.418 -1.379 4.32
 -0.392 -1.375 4.311
 -0.366 -1.377 4.319
 -0.341 -1.378 4.32
 -0.315 -1.377 4.321
 -0.289 -1.376 4.319
 -0.264 -1.376 4.32
 -0.238 -1.376 4.318
 -0.212 -1.374 4.314
 -0.186 -1.373 4.31
 -0.16 -1.371 4.307
 -0.135 -1.371 4.305
 -0.109 -1.371 4.306
 -0.084 -1.369 4.301
 -0.058 -1.37 4.303
 -0.033 -1.371 4.307
 -0.007 -1.372 4.309
 0.017 -1.372 4.31
 0.043 -1.376 4.32
 0.069 -1.376 4.32
 0.094 -1.376 4.318
 0.12 -1.377 4.323
 0.145 -1.375 4.312
 0.171 -1.375 4.312
 0.196 -1.374 4.308
 0.221 -1.372 4.299
 0.247 -1.371 4.297
 0.273 -1.373 4.302
 0.298 -1.374 4.302
 0.324 -1.374 4.3
 0.35 -1.376 4.305
 0.375 -1.375 4.301
 0.4 -1.375 4.297
 0.426 -1.374 4.291
 0.451 -1.375 4.291
 0.477 -1.374 4.286
 0.502 -1.375 4.285
 0.528 -1.376 4.288
 0.555 -1.379 4.292
 0.581 -1.38 4.294
 0.608 -1.382 4.297
 0.634 -1.384 4.3
 0.659 -1.384 4.295
 0.685 -1.383 4.289
 0.71 -1.383 4.286
 0.736 -1.384 4.283
 0.762 -1.383 4.278
 0.787 -1.383 4.274
 0.813 -1.384 4.272
 0.84 -1.386 4.273
 0.866 -1.387 4.272
 0.893 -1.389 4.271
 0.921 -1.393 4.28
 0.949 -1.395 4.282
 0.975 -1.396 4.279
 1.002 -1.397 4.277
 1.029 -1.399 4.276
 1.054 -1.398 4.269
 1.081 -1.4 4.269
 1.108 -1.401 4.266
 1.135 -1.403 4.265
 1.162 -1.404 4.261
 1.19 -1.407 4.264
 1.217 -1.408 4.259
 1.244 -1.409 4.258
 1.273 -1.412 4.258
 1.3 -1.413 4.255
 1.327 -1.415 4.252
 1.355 -1.416 4.25
 1.383 -1.419 4.249
 1.41 -1.42 4.244
 1.439 -1.422 4.244
 1.468 -1.425 4.243
 1.497 -1.428 4.243
 1.526 -1.43 4.242
 1.555 -1.432 4.24
 1.584 -1.435 4.238
 1.613 -1.437 4.236
 1.643 -1.44 4.235
 1.671 -1.442 4.231
 1.7 -1.444 4.228
 1.729 -1.446 4.223
 1.757 -1.447 4.216
 1.782 -1.446 4.202
 1.807 -1.445 4.189
 1.832 -1.443 4.174
 1.855 -1.441 4.156
 1.875 -1.435 4.129
 0 0 0
 0 0 0
 0 0 0
 0 0 0
 0 0 0
 0 0 0
 0 0 0
 0 0 0
 0 0 0
 0 0 0
 1.369 -0.909 2.525
 1.462 -0.959 2.656
 1.765 -1.144 3.159
 1.776 -1.138 3.132
 1.785 -1.13 3.1
 1.79 -1.12 3.061
 1.77 -1.095 2.982
 1.775 -1.086 2.947
 -0.11 -0.068 0.178
 -0.103 -0.065 0.169
 -0.094 -0.06 0.155
 -0.091 -0.059 0.152
 -0.086 -0.056 0.146
 -0.076 -0.05 0.128
 -0.067 -0.045 0.113
 -0.059 -0.04 0.1
 -0.046 -0.032 0.077
 -0.037 -0.026 0.06
 -0.029 -0.021 0.046
 -0.025 -0.019 0.039
 -0.187 -0.133 0.378
 -0.428 -0.307 0.893
 -0.824 -0.598 1.761
 -1.208 -0.888 2.634
 -1.581 -1.179 3.509
 -1.787 -1.351 4.035
 -1.91 -1.466 4.388
 -1.878 -1.463 4.389
 -1.846 -1.459 4.389
 -1.814 -1.456 4.388
 -1.783 -1.453 4.391
 -1.75 -1.45 4.389
 -1.718 -1.446 4.386
 -1.686 -1.442 4.385
 -1.655 -1.44 4.386
 -1.623 -1.435 4.38
 -1.593 -1.433 4.382
 -1.561 -1.429 4.378
 -1.531 -1.427 4.378
 -1.499 -1.422 4.372
 -1.469 -1.419 4.371
 -1.439 -1.417 4.371
 -1.41 -1.415 4.371
 -1.379 -1.411 4.368
 -1.35 -1.409 4.366
 -1.321 -1.407 4.367
 -1.29 -1.402 4.359
 -1.26 -1.4 4.357
 -1.232 -1.397 4.356
 -1.203 -1.395 4.354
 -1.175 -1.394 4.356
 -1.147 -1.393 4.358
 -1.121 -1.393 4.366
 -1.095 -1.393 4.37
 -1.068 -1.393 4.375
 -1.04 -1.392 4.377
 -1.012 -1.39 4.376
 -0.984 -1.387 4.371
 -0.955 -1.383 4.363
 -0.927 -1.381 4.36
 -0.898 -1.378 4.355
 -0.87 -1.374 4.348
 -0.842 -1.372 4.345
 -0.816 -1.372 4.347
 -0.788 -1.369 4.343
 -0.762 -1.368 4.343
 -0.735 -1.368 4.345
 -0.708 -1.366 4.343
 -0.682 -1.364 4.341
 -0.655 -1.364 4.343
 -0.629 -1.363 4.343
 -0.603 -1.362 4.342
 -0.576 -1.362 4.343
 -0.55 -1.362 4.345
 -0.524 -1.361 4.346
 -0.497 -1.356 4.331
 -0.47 -1.354 4.327
 -0.444 -1.353 4.324
 -0.418 -1.351 4.32
 -0.39 -1.345 4.301
 -0.365 -1.347 4.309
 -0.339 -1.347 4.311
 -0.314 -1.347 4.313
 -0.288 -1.347 4.313
 -0.263 -1.348 4.319
 -0.237 -1.348 4.319
 -0.212 -1.347 4.318
 -0.186 -1.346 4.313
 -0.16 -1.345 4.31
 -0.134 -1.344 4.308
 -0.109 -1.343 4.305
 -0.083 -1.341 4.299
 -0.058 -1.342 4.301
 -0.032 -1.342 4.302
 -0.007 -1.342 4.302
 0.017 -1.343 4.304
 0.043 -1.348 4.321
 0.069 -1.35 4.324
 0.094 -1.349 4.323
 0.12 -1.352 4.331
 0.145 -1.349 4.32
 0.171 -1.349 4.318
 0.196 -1.346 4.309
 0.221 -1.345 4.303
 0.247 -1.345 4.302
 0.273 -1.347 4.307
 0.298 -1.349 4.309
 0.324 -1.348 4.305
 0.35 -1.349 4.308
 0.375 -1.348 4.3
 0.4 -1.347 4.295
 0.425 -1.346 4.29
 0.451 -1.348 4.295
 0.476 -1.347 4.289
 0.502 -1.348 4.288
 0.528 -1.349 4.29
 0.554 -1.351 4.292
 0.58 -1.352 4.292
 0.606 -1.354 4.295
 0.633 -1.357 4.301
 0.659 -1.356 4.296
 0.684 -1.355 4.29
 0.71 -1.356 4.289
 0.736 -1.357 4.288
 0.761 -1.356 4.28
 0.786 -1.355 4.273
 0.812 -1.357 4.273
 0.839 -1.358 4.272
 0.864 -1.358 4.268
 0.891 -1.36 4.27
 0.921 -1.366 4.283
 0.948 -1.368 4.285
 0.974 -1.368 4.279
 1.001 -1.37 4.28
 1.027 -1.371 4.276
 1.052 -1.37 4.268
 1.079 -1.371 4.267
 1.107 -1.373 4.267
 1.134 -1.375 4.266
 1.16 -1.375 4.262
 1.188 -1.378 4.263
 1.215 -1.379 4.26
 1.242 -1.38 4.256
 1.269 -1.382 4.255
 1.297 -1.383 4.251
 1.324 -1.385 4.25
 1.352 -1.387 4.248
 1.38 -1.389 4.247
 1.408 -1.391 4.245
 1.438 -1.395 4.248
 1.467 -1.397 4.247
 1.496 -1.4 4.247
 1.525 -1.402 4.245
 1.553 -1.404 4.242
 1.582 -1.406 4.24
 1.611 -1.408 4.237
 1.64 -1.41 4.234
 1.668 -1.412 4.231
 1.698 -1.415 4.229
 1.726 -1.417 4.224
 1.754 -1.418 4.217
 1.781 -1.418 4.206
 1.807 -1.418 4.196
 1.832 -1.417 4.182
 1.857 -1.415 4.167
 0 0 0
 0 0 0
 0 0 0
 0 0 0
 0 0 0
 0 0 0
 0 0 0
 0 0 0
 0.624 -0.424 1.204
 0 0 0
 0 0 0
 1.315 -0.858 2.431
 1.432 -0.922 2.607
 1.763 -1.121 3.161
 1.775 -1.115 3.136
 1.783 -1.108 3.103
 1.79 -1.099 3.069
 1.752 -1.064 2.959
 1.782 -1.07 2.964
 -0.139 -0.084 0.229
 -0.094 -0.058 0.152
 -0.105 -0.065 0.174
 -0.097 -0.061 0.163
 -0.086 -0.055 0.146
 -0.076 -0.05 0.13
 -0.065 -0.043 0.11
 -0.056 -0.038 0.095
 -0.044 -0.031 0.074
 -0.037 -0.026 0.06
 -0.029 -0.021 0.045
 -0.025 -0.018 0.038
 -0.186 -0.13 0.376
 -0.427 -0.3 0.893
 -0.821 -0.585 1.76
 -1.206 -0.869 2.633
 -1.578 -1.154 3.509
 -1.785 -1.324 4.037
 -1.907 -1.435 4.389
 -1.875 -1.432 4.389
 -1.842 -1.429 4.389
 -1.811 -1.426 4.39
 -1.78 -1.424 4.393
 -1.748 -1.42 4.391
 -1.716 -1.417 4.39
 -1.685 -1.414 4.391
 -1.654 -1.411 4.389
 -1.621 -1.406 4.384
 -1.59 -1.404 4.384
 -1.559 -1.4 4.38
 -1.528 -1.397 4.378
 -1.497 -1.393 4.375
 -1.467 -1.391 4.374
 -1.438 -1.389 4.375
 -1.409 -1.387 4.376
 -1.379 -1.384 4.375
 -1.349 -1.382 4.373
 -1.321 -1.38 4.374
 -1.289 -1.375 4.365
 -1.26 -1.372 4.363
 -1.231 -1.37 4.36
 -1.202 -1.368 4.36
 -1.174 -1.366 4.359
 -1.147 -1.365 4.364
 -1.121 -1.366 4.372
 -1.094 -1.366 4.377
 -1.067 -1.365 4.379
 -1.041 -1.365 4.385
 -1.012 -1.363 4.382
 -0.984 -1.361 4.379
 -0.954 -1.356 4.369
 -0.927 -1.355 4.369
 -0.897 -1.35 4.358
 -0.869 -1.347 4.35
 -0.841 -1.345 4.347
 -0.815 -1.344 4.35
 -0.787 -1.342 4.346
 -0.762 -1.342 4.351
 -0.736 -1.344 4.359
 -0.709 -1.342 4.357
 -0.682 -1.34 4.353
 -0.656 -1.34 4.356
 -0.629 -1.337 4.348
 -0.602 -1.335 4.345
 -0.575 -1.334 4.343
 -0.549 -1.333 4.343
 -0.524 -1.334 4.347
 -0.495 -1.327 4.329
 -0.468 -1.323 4.317
 -0.442 -1.322 4.315
 -0.416 -1.322 4.316
 -0.389 -1.315 4.294
 -0.364 -1.318 4.307
 -0.339 -1.319 4.311
 -0.313 -1.319 4.313
 -0.288 -1.319 4.313
 -0.262 -1.321 4.319
 -0.237 -1.321 4.321
 -0.211 -1.32 4.318
 -0.185 -1.318 4.314
 -0.16 -1.318 4.313
 -0.134 -1.317 4.31
 -0.109 -1.316 4.307
 -0.083 -1.315 4.304
 -0.058 -1.316 4.305
 -0.032 -1.315 4.304
 -0.007 -1.316 4.306
 0.018 -1.317 4.309
 0.043 -1.325 4.334
 0.069 -1.327 4.34
 0.095 -1.328 4.341
 0.121 -1.33 4.349
 0.146 -1.325 4.33
 0.171 -1.325 4.332
 0.196 -1.322 4.319
 0.221 -1.318 4.303
 0.246 -1.317 4.301
 0.273 -1.321 4.311
 0.298 -1.32 4.306
 0.323 -1.319 4.302
 0.35 -1.323 4.312
 0.374 -1.32 4.3
 0.399 -1.317 4.29
 0.424 -1.317 4.286
 0.45 -1.32 4.291
 0.474 -1.315 4.275
 0.5 -1.317 4.276
 0.527 -1.319 4.283
 0.552 -1.321 4.285
 0.579 -1.324 4.292
 0.606 -1.326 4.296
 0.633 -1.329 4.301
 0.658 -1.329 4.299
 0.684 -1.33 4.297
 0.709 -1.329 4.29
 0.737 -1.332 4.297
 0.761 -1.33 4.285
 0.786 -1.329 4.278
 0.811 -1.329 4.274
 0.838 -1.331 4.275
 0.864 -1.332 4.274
 0.891 -1.333 4.274
 0.92 -1.339 4.286
 0.949 -1.342 4.293
 0.974 -1.342 4.287
 1.001 -1.343 4.285
 1.027 -1.344 4.282
 1.053 -1.344 4.277
 1.079 -1.345 4.272
 1.106 -1.346 4.269
 1.132 -1.346 4.265
 1.158 -1.347 4.26
 1.185 -1.348 4.259
 1.212 -1.35 4.257
 1.24 -1.352 4.255
 1.268 -1.354 4.255
 1.295 -1.355 4.251
 1.322 -1.357 4.25
 1.35 -1.358 4.248
 1.378 -1.36 4.247
 1.406 -1.363 4.246
 1.436 -1.366 4.249
 1.465 -1.369 4.249
 1.494 -1.371 4.248
 1.522 -1.373 4.245
 1.55 -1.374 4.24
 1.579 -1.377 4.239
 1.608 -1.379 4.237
 1.637 -1.381 4.234
 1.665 -1.383 4.231
 1.695 -1.386 4.228
 1.722 -1.386 4.22
 1.751 -1.388 4.216
 1.779 -1.389 4.209
 1.807 -1.39 4.202
 1.834 -1.391 4.194
 1.865 -1.394 4.193
 0 0 0
 0 0 0
 0 0 0
 0 0 0
 0 0 0
 0 0 0
 0 0 0
 0 0 0
 0 0 0
 0 0 0
 0 0 0
 1.284 -0.821 2.377
 1.544 -0.975 2.817
 1.758 -1.097 3.16
 1.773 -1.093 3.138
 1.78 -1.085 3.103
 1.787 -1.077 3.069
 1.805 -1.075 3.054
 1.78 -1.048 2.966
 -0.125 -0.074 0.205
 -0.152 -0.091 0.256
 -0.107 -0.065 0.178
 -0.099 -0.061 0.167
 -0.086 -0.054 0.145
 -0.074 -0.047 0.126
 -0.065 -0.042 0.111
 -0.057 -0.037 0.096
 -0.046 -0.031 0.078
 -0.126 -0.083 0.238
 -0.117 -0.078 0.224
 -0.195 -0.131 0.388
 -0.435 -0.296 0.898
 -0.671 -0.462 1.415
 -0.981 -0.684 2.109
 -1.362 -0.963 2.983
 -1.654 -1.186 3.684
 -1.781 -1.295 4.037
 -1.904 -1.405 4.39
 -1.871 -1.402 4.39
 -1.84 -1.399 4.391
 -1.808 -1.396 4.392
 -1.777 -1.394 4.394
 -1.745 -1.39 4.392
 -1.714 -1.387 4.392
 -1.683 -1.385 4.393
 -1.652 -1.382 4.392
 -1.619 -1.377 4.386
 -1.587 -1.374 4.383
 -1.556 -1.37 4.38
 -1.525 -1.367 4.378
 -1.495 -1.364 4.377
 -1.466 -1.363 4.378
 -1.437 -1.361 4.38
 -1.408 -1.36 4.383
 -1.379 -1.358 4.383
 -1.349 -1.354 4.38
 -1.32 -1.353 4.38
 -1.29 -1.349 4.376
 -1.26 -1.346 4.37
 -1.231 -1.343 4.369
 -1.203 -1.342 4.37
 -1.173 -1.339 4.366
 -1.146 -1.338 4.368
 -1.121 -1.34 4.379
 -1.094 -1.339 4.384
 -1.066 -1.338 4.383
 -1.041 -1.339 4.393
 -1.013 -1.338 4.393
 -0.984 -1.335 4.388
 -0.953 -1.329 4.371
 -0.926 -1.328 4.374
 -0.897 -1.323 4.362
 -0.868 -1.319 4.353
 -0.84 -1.317 4.349
 -0.815 -1.318 4.357
 -0.788 -1.316 4.355
 0 0 0
 0 0 0
 0 0 0
 0 0 0
 0 0 0
 0 0 0
 0 0 0
 0 0 0
 0 0 0
 0 0 0
 0 0 0
 0 0 0
 0 0 0
 0 0 0
 -0.385 -1.278 4.261
 -0.362 -1.285 4.287
 -0.337 -1.287 4.295
 -0.312 -1.288 4.299
 -0.287 -1.289 4.305
 -0.262 -1.292 4.315
 -0.236 -1.292 4.317
 -0.211 -1.292 4.315
 -0.185 -1.291 4.315
 -0.159 -1.291 4.313
 -0.134 -1.29 4.311
 -0.108 -1.289 4.308
 -0.083 -1.288 4.306
 -0.057 -1.288 4.306
 -0.032 -1.288 4.303
 -0.007 -1.287 4.301
 0.018 -1.285 4.295
 0 0 0
 0 0 0
 0 0 0
 0 0 0
 0 0 0
 0 0 0
 0 0 0
 0 0 0
 0 0 0
 0 0 0
 0 0 0
 0 0 0
 0 0 0
 0 0 0
 0 0 0
 0 0 0
 0 0 0
 0 0 0
 0 0 0
 0 0 0
 0 0 0
 0 0 0
 0 0 0
 0 0 0
 0 0 0
 0 0 0
 0 0 0
 0 0 0
 0 0 0
 0 0 0
 0 0 0
 0 0 0
 0 0 0
 0 0 0
 0 0 0
 0.948 -1.315 4.295
 0.973 -1.314 4.287
 0.999 -1.315 4.284
 1.025 -1.315 4.279
 1.051 -1.316 4.275
 1.077 -1.316 4.269
 1.103 -1.317 4.267
 1.13 -1.318 4.266
 1.157 -1.32 4.264
 1.185 -1.321 4.263
 1.212 -1.323 4.262
 1.24 -1.325 4.262
 1.267 -1.327 4.259
 1.293 -1.327 4.253
 1.321 -1.328 4.251
 1.349 -1.331 4.251
 1.376 -1.332 4.248
 1.405 -1.335 4.248
 1.435 -1.338 4.251
 1.463 -1.34 4.249
 1.492 -1.342 4.248
 1.52 -1.344 4.245
 1.547 -1.345 4.24
 1.576 -1.348 4.238
 1.605 -1.35 4.237
 1.633 -1.352 4.233
 1.662 -1.354 4.229
 1.691 -1.356 4.227
 1.719 -1.357 4.221
 1.749 -1.36 4.22
 1.777 -1.361 4.212
 1.806 -1.363 4.207
 1.834 -1.364 4.201
 1.868 -1.369 4.207
 0 0 0
 0 0 0
 0 0 0
 0 0 0
 0 0 0
 0 0 0
 0 0 0
 0 0 0
 0 0 0
 0 0 0
 0 0 0
 0 0 0
 1.728 -1.07 3.158
 1.752 -1.072 3.155
 1.766 -1.068 3.132
 1.774 -1.06 3.099
 1.784 -1.054 3.07
 1.772 -1.035 3.004
 1.779 -1.027 2.971
 -0.119 -0.069 0.194
 -0.155 -0.091 0.261
 -0.104 -0.062 0.174
 -0.095 -0.057 0.159
 -0.081 -0.05 0.136
 -0.07 -0.044 0.119
 -0.063 -0.04 0.106
 -0.052 -0.034 0.088
 -0.043 -0.028 0.071
 -0.209 -0.135 0.405
 -0.285 -0.186 0.566
 -0.36 -0.237 0.731
 -0.684 -0.455 1.422
 -0.999 -0.673 2.116
 -1.223 -0.836 2.636
 -1.52 -1.053 3.336
 -1.808 -1.27 4.036
 -1.854 -1.322 4.211
 -1.9 -1.374 4.389
 -1.867 -1.371 4.388
 -1.836 -1.368 4.389
 -1.805 -1.366 4.394
 -1.774 -1.364 4.394
 -1.742 -1.36 4.392
 -1.711 -1.358 4.394
 -1.68 -1.355 4.394
 -1.649 -1.352 4.392
 -1.617 -1.348 4.389
 -1.585 -1.345 4.386
 -1.554 -1.341 4.382
 -1.523 -1.338 4.379
 -1.493 -1.336 4.378
 -1.463 -1.333 4.378
 -1.433 -1.331 4.377
 -1.405 -1.33 4.381
 -1.376 -1.328 4.383
 -1.346 -1.325 4.378
 -1.317 -1.323 4.378
 -1.29 -1.323 4.385
 -1.257 -1.316 4.368
 -1.229 -1.315 4.371
 -1.202 -1.314 4.373
 -1.172 -1.311 4.367
 0 0 0
 0 0 0
 0 0 0
 0 0 0
 0 0 0
 0 0 0
 0 0 0
 0 0 0
 0 0 0
 0 0 0
 0 0 0
 0 0 0
 0 0 0
 0 0 0
 0 0 0
 0 0 0
 0 0 0
 0 0 0
 0 0 0
 0 0 0
 0 0 0
 0 0 0
 0 0 0
 0 0 0
 0 0 0
 0 0 0
 0 0 0
 0 0 0
 -0.384 -1.249 4.255
 -0.361 -1.256 4.283
 -0.336 -1.259 4.292
 -0.311 -1.259 4.294
 -0.286 -1.261 4.301
 -0.261 -1.264 4.313
 -0.235 -1.264 4.313
 -0.21 -1.264 4.313
 -0.185 -1.264 4.315
 -0.159 -1.264 4.315
 -0.134 -1.263 4.313
 -0.108 -1.263 4.312
 -0.083 -1.262 4.31
 -0.057 -1.262 4.311
 -0.032 -1.261 4.307
 -0.007 -1.261 4.304
 0.018 -1.26 4.301
 0 0 0
 0 0 0
 0 0 0
 0 0 0
 0 0 0
 0 0 0
 0 0 0
 0 0 0
 0 0 0
 0 0 0
 0 0 0
 0 0 0
 0 0 0
 0 0 0
 0 0 0
 0 0 0
 0 0 0
 0 0 0
 0 0 0
 0 0 0
 0 0 0
 0 0 0
 0 0 0
 0 0 0
 0 0 0
 0 0 0
 0 0 0
 0 0 0
 0 0 0
 0 0 0
 0 0 0
 0 0 0
 0 0 0
 0 0 0
 0 0 0
 0.943 -1.283 4.281
 0.969 -1.283 4.277
 0.997 -1.286 4.28
 1.023 -1.286 4.276
 1.049 -1.287 4.273
 1.075 -1.288 4.271
 1.103 -1.29 4.27
 1.129 -1.291 4.267
 1.156 -1.292 4.265
 1.183 -1.293 4.262
 1.21 -1.295 4.262
 1.238 -1.297 4.261
 1.265 -1.298 4.259
 1.291 -1.299 4.253
 1.318 -1.3 4.251
 1.347 -1.302 4.25
 1.375 -1.305 4.251
 1.404 -1.307 4.252
 1.434 -1.311 4.255
 1.462 -1.313 4.254
 1.49 -1.315 4.252
 1.517 -1.316 4.245
 1.544 -1.316 4.239
 1.573 -1.318 4.236
 1.601 -1.32 4.234
 1.63 -1.322 4.23
 1.659 -1.324 4.227
 1.687 -1.326 4.223
 1.715 -1.327 4.217
 1.744 -1.329 4.213
 1.771 -1.33 4.205
 1.798 -1.33 4.197
 1.826 -1.331 4.19
 1.857 -1.335 4.19
 0 0 0
 0 0 0
 0 0 0
 0 0 0
 0 0 0
 0 0 0
 0 0 0
 0 0 0
 0 0 0
 0 0 0
 0 0 0
 0 0 0
 1.726 -1.048 3.162
 1.752 -1.051 3.161
 1.765 -1.046 3.136
 1.774 -1.04 3.106
 1.785 -1.034 3.078
 1.762 -1.009 2.993
 1.777 -1.006 2.974
 -0.123 -0.07 0.201
 -0.129 -0.075 0.216
 -0.1 -0.059 0.167
 -0.091 -0.054 0.152
 -0.075 -0.046 0.126
 -0.064 -0.04 0.108
 -0.058 -0.036 0.098
 -0.049 -0.031 0.081
 -0.041 -0.027 0.067
 -0.208 -0.131 0.403
 -0.284 -0.181 0.566
 -0.443 -0.286 0.904
 -0.849 -0.553 1.77
 -1.161 -0.766 2.466
 -1.382 -0.925 2.988
 -1.678 -1.139 3.69
 -1.882 -1.296 4.211
 -1.848 -1.29 4.204
 -1.901 -1.347 4.399
 -1.867 -1.343 4.395
 -1.835 -1.34 4.395
 -1.804 -1.337 4.397
 -1.771 -1.334 4.395
 -1.74 -1.331 4.394
 -1.709 -1.329 4.396
 -1.677 -1.325 4.393
 -1.646 -1.322 4.392
 -1.614 -1.319 4.39
 -1.582 -1.315 4.385
 -1.551 -1.312 4.383
 -1.521 -1.31 4.382
 -1.491 -1.307 4.381
 -1.461 -1.305 4.38
 -1.431 -1.302 4.377
 -1.402 -1.3 4.379
 -1.373 -1.298 4.379
 -1.343 -1.295 4.374
 -1.312 -1.291 4.367
 0 0 0
 0 0 0
 0 0 0
 0 0 0
 0 0 0
 0 0 0
 0 0 0
 0 0 0
 0 0 0
 0 0 0
 0 0 0
 0 0 0
 0 0 0
 0 0 0
 0 0 0
 0 0 0
 0 0 0
 0 0 0
 0 0 0
 0 0 0
 0 0 0
 0 0 0
 0 0 0
 0 0 0
 0 0 0
 0 0 0
 0 0 0
 0 0 0
 0 0 0
 0 0 0
 0 0 0
 0 0 0
 0 0 0
 -0.383 -1.221 4.253
 -0.36 -1.228 4.28
 -0.335 -1.232 4.292
 -0.31 -1.232 4.296
 -0.285 -1.234 4.301
 -0.261 -1.237 4.314
 -0.235 -1.238 4.317
 -0.21 -1.238 4.318
 -0.184 -1.238 4.319
 -0.159 -1.238 4.321
 -0.134 -1.238 4.32
 -0.108 -1.237 4.317
 -0.083 -1.236 4.315
 -0.057 -1.237 4.317
 -0.032 -1.236 4.313
 -0.006 -1.235 4.309
 0.018 -1.236 4.311
 0 0 0
 0 0 0
 0 0 0
 0 0 0
 0 0 0
 0 0 0
 0 0 0
 0 0 0
 0 0 0
 0 0 0
 0 0 0
 0 0 0
 0 0 0
 0 0 0
 0 0 0
 0 0 0
 0 0 0
 0 0 0
 0 0 0
 0 0 0
 0 0 0
 0 0 0
 0 0 0
 0 0 0
 0 0 0
 0 0 0
 0 0 0
 0 0 0
 0 0 0
 0 0 0
 0 0 0
 0 0 0
 0 0 0
 0 0 0
 0 0 0
 0.943 -1.257 4.286
 0.968 -1.256 4.279
 0.995 -1.258 4.279
 1.021 -1.258 4.275
 1.048 -1.26 4.274
 1.074 -1.26 4.271
 1.101 -1.262 4.27
 1.127 -1.263 4.267
 1.155 -1.264 4.266
 1.181 -1.265 4.262
 1.208 -1.267 4.26
 1.235 -1.268 4.259
 1.263 -1.27 4.258
 1.289 -1.27 4.253
 1.317 -1.272 4.251
 1.345 -1.274 4.251
 1.374 -1.277 4.253
 1.403 -1.28 4.254
 1.431 -1.282 4.254
 1.459 -1.284 4.251
 1.487 -1.285 4.248
 1.514 -1.286 4.242
 1.541 -1.287 4.236
 1.57 -1.289 4.236
 1.599 -1.292 4.234
 1.628 -1.294 4.233
 1.658 -1.297 4.232
 1.686 -1.298 4.227
 1.713 -1.299 4.219
 1.742 -1.301 4.216
 1.769 -1.301 4.207
 1.795 -1.301 4.197
 1.824 -1.303 4.191
 1.856 -1.307 4.195
 0 0 0
 0 0 0
 0 0 0
 0 0 0
 0 0 0
 0 0 0
 0 0 0
 0 0 0
 0 0 0
 0 0 0
 0 0 0
 0 0 0
 1.726 -1.027 3.168
 1.75 -1.028 3.162
 1.763 -1.024 3.139
 1.771 -1.017 3.106
 1.782 -1.011 3.078
 1.773 -0.995 3.018
 1.808 -1.003 3.031
 -0.115 -0.064 0.187
 -0.099 -0.056 0.162
 -0.095 -0.055 0.159
 -0.085 -0.05 0.142
 -0.072 -0.043 0.121
 -0.061 -0.037 0.103
 -0.055 -0.034 0.093
 -0.047 -0.029 0.078
 -0.039 -0.025 0.064
 -0.205 -0.127 0.398
 -0.367 -0.229 0.736
 -0.61 -0.384 1.25
 -1.011 -0.645 2.116
 -1.321 -0.854 2.814
 -1.541 -1.01 3.339
 -1.754 -1.165 3.864
 -1.874 -1.264 4.201
 -1.836 -1.255 4.184
 -1.897 -1.316 4.398
 -1.864 -1.313 4.396
 -1.831 -1.31 4.395
 -1.8 -1.307 4.396
 -1.767 -1.303 4.392
 -1.735 -1.3 4.391
 -1.705 -1.298 4.392
 -1.673 -1.295 4.389
 -1.642 -1.292 4.389
 -1.611 -1.289 4.389
 -1.58 -1.286 4.386
 -1.549 -1.283 4.383
 -1.519 -1.281 4.384
 -1.49 -1.279 4.386
 -1.46 -1.277 4.383
 -1.429 -1.274 4.38
 -1.401 -1.272 4.383
 -1.371 -1.27 4.381
 -1.34 -1.266 4.373
 -1.31 -1.262 4.368
 0 0 0
 0 0 0
 0 0 0
 0 0 0
 0 0 0
 0 0 0
 0 0 0
 0 0 0
 0 0 0
 0 0 0
 0 0 0
 0 0 0
 0 0 0
 0 0 0
 0 0 0
 0 0 0
 0 0 0
 0 0 0
 0 0 0
 0 0 0
 0 0 0
 0 0 0
 0 0 0
 0 0 0
 -0.185 -0.364 1.277
 -0.179 -0.366 1.285
 -0.171 -0.366 1.286
 -0.165 -0.369 1.299
 -0.158 -0.372 1.311
 0 0 0
 0 0 0
 0 0 0
 0 0 0
 -0.384 -1.2 4.274
 -0.36 -1.204 4.289
 -0.335 -1.206 4.298
 -0.31 -1.207 4.302
 -0.285 -1.208 4.305
 -0.26 -1.21 4.314
 -0.235 -1.21 4.316
 -0.209 -1.211 4.318
 -0.184 -1.21 4.318
 -0.159 -1.211 4.318
 -0.133 -1.21 4.317
 -0.108 -1.21 4.318
