 -0.229 -0.585 1.616
 -0.219 -0.586 1.619
 -0.21 -0.587 1.623
 -0.2 -0.588 1.627
 -0.191 -0.589 1.631
 -0.181 -0.59 1.635
 -0.172 -0.592 1.639
 -0.162 -0.593 1.643
 -0.153 -0.594 1.646
 -0.143 -0.595 1.65
 -0.133 -0.596 1.653
 -0.124 -0.597 1.657
 -0.114 -0.598 1.66
 -0.104 -0.599 1.664
 -0.094 -0.6 1.668
 -0.084 -0.601 1.671
 -0.074 -0.602 1.674
 -0.064 -0.604 1.678
 -0.054 -0.605 1.681
 -0.044 -0.606 1.684
 -0.034 -0.607 1.687
 -0.024 -0.608 1.691
 -0.014 -0.609 1.693
 -0.004 -0.611 1.697
 0.005 -0.612 1.7
 0.016 -0.613 1.704
 0.026 -0.614 1.706
 0.036 -0.615 1.71
 0.047 -0.616 1.712
 0.057 -0.617 1.714
 0.067 -0.618 1.716
 0.078 -0.619 1.718
 0.088 -0.619 1.717
 0.098 -0.619 1.717
 0.109 -0.62 1.719
 0.119 -0.62 1.718
 0.129 -0.619 1.715
 0.139 -0.618 1.711
 0.149 -0.616 1.705
 0.159 -0.613 1.695
 0.168 -0.609 1.683
 0.177 -0.605 1.671
 0.185 -0.6 1.657
 0.194 -0.595 1.642
 0.202 -0.59 1.626
 0.209 -0.584 1.608
 0.217 -0.579 1.593
 0.225 -0.575 1.581
 0.233 -0.571 1.569
 0.242 -0.57 1.564
 0.252 -0.57 1.563
 0.261 -0.571 1.563
 0.271 -0.57 1.561
 0.281 -0.573 1.566
 0.291 -0.573 1.566
 0.301 -0.574 1.566
 0.31 -0.573 1.562
 0.319 -0.572 1.556
 0.326 -0.568 1.544
 0.331 -0.561 1.522
 0.338 -0.557 1.511
 0.345 -0.553 1.498
 0.351 -0.548 1.481
 0.351 -0.535 1.443
 0 0 0
 0 0 0
 0 0 0
 0 0 0
 0 0 0
 0 0 0
 0 0 0
 0 0 0
 0 0 0
 0 0 0
 0 0 0
 0 0 0
 0 0 0
 0 0 0
 0 0 0
 0 0 0
 0 0 0
 0 0 0
 0 0 0
 0 0 0
 0 0 0
 0 0 0
 0 0 0
 0 0 0
 0 0 0
 0 0 0
 0 0 0
 0 0 0
 0 0 0
 0.359 -0.313 0.789
 0.353 -0.303 0.762
 0.361 -0.306 0.767
 0.362 -0.303 0.756
 0.361 -0.298 0.741
 0.359 -0.293 0.727
 0.37 -0.298 0.736
 0.368 -0.292 0.721
 0.371 -0.291 0.714
 0.376 -0.291 0.713
 0.378 -0.288 0.704
 0.376 -0.284 0.691
 0.378 -0.282 0.683
 0.381 -0.281 0.678
 0.383 -0.279 0.671
 0.387 -0.278 0.668
 0.391 -0.278 0.665
 0.395 -0.277 0.66
 0.403 -0.28 0.664
 0.415 -0.285 0.674
 0 0 0
 -0.15 -0.104 0.247
 -0.232 -0.162 0.395
 -0.255 -0.18 0.443
 -0.281 -0.2 0.497
 -0.302 -0.218 0.543
 -0.31 -0.226 0.567
 -0.309 -0.228 0.573
 -0.306 -0.229 0.577
 -0.302 -0.229 0.58
 -0.299 -0.23 0.582
 -0.295 -0.23 0.584
 -0.291 -0.23 0.587
 -0.288 -0.23 0.589
 -0.285 -0.231 0.592
 -0.281 -0.231 0.595
 -0.278 -0.232 0.599
 -0.275 -0.233 0.603
 -0.273 -0.234 0.607
 -0.27 -0.235 0.611
 -0.267 -0.236 0.616
 -0.265 -0.238 0.621
 -0.263 -0.24 0.628
 -0.261 -0.242 0.636
 -0.26 -0.244 0.643
 -0.258 -0.247 0.652
 -0.258 -0.251 0.664
 -0.266 -0.263 0.699
 -0.286 -0.287 0.765
 -0.311 -0.318 0.849
 -0.346 -0.36 0.967
 -0.394 -0.418 1.127
 -0.433 -0.467 1.264
 -0.459 -0.505 1.369
 -0.478 -0.535 1.456
 -0.485 -0.553 1.508
 -0.476 -0.555 1.514
 -0.468 -0.555 1.519
 -0.458 -0.556 1.522
 -0.449 -0.556 1.526
 -0.44 -0.557 1.53
 -0.431 -0.558 1.534
 -0.422 -0.558 1.538
 -0.413 -0.559 1.542
 -0.404 -0.559 1.545
 -0.395 -0.56 1.549
 -0.386 -0.56 1.552
 -0.376 -0.561 1.555
 -0.367 -0.562 1.559
 -0.358 -0.562 1.563
 -0.349 -0.563 1.566
 -0.34 -0.564 1.57
 -0.33 -0.565 1.574
 -0.321 -0.565 1.577
 -0.312 -0.566 1.581
 -0.303 -0.567 1.585
 -0.294 -0.568 1.589
 -0.284 -0.569 1.592
 -0.275 -0.569 1.596
 -0.266 -0.57 1.599
 -0.256 -0.571 1.603
 -0.247 -0.572 1.607
 -0.238 -0.573 1.61
 -0.228 -0.574 1.615
 -0.219 -0.575 1.619
 -0.209 -0.576 1.622
 -0.2 -0.577 1.626
 -0.191 -0.578 1.631
 -0.181 -0.58 1.635
 -0.172 -0.581 1.639
 -0.162 -0.582 1.642
 -0.152 -0.583 1.646
 -0.143 -0.584 1.649
 -0.133 -0.585 1.653
 -0.123 -0.586 1.657
 -0.114 -0.587 1.661
 -0.104 -0.588 1.665
 -0.094 -0.59 1.669
 -0.084 -0.591 1.671
 -0.074 -0.592 1.675
 -0.064 -0.593 1.678
 -0.054 -0.594 1.681
 -0.044 -0.595 1.684
 -0.034 -0.596 1.688
 -0.024 -0.597 1.691
 -0.014 -0.598 1.694
 -0.004 -0.599 1.697
 0.005 -0.6 1.7
 0.016 -0.602 1.704
 0.026 -0.603 1.707
 0.036 -0.604 1.71
 0.046 -0.605 1.712
 0.057 -0.606 1.715
 0.067 -0.607 1.716
 0.078 -0.607 1.717
 0.088 -0.607 1.717
 0.098 -0.608 1.717
 0.109 -0.608 1.718
 0.119 -0.608 1.718
 0.129 -0.608 1.715
 0.139 -0.607 1.712
 0.149 -0.605 1.706
 0.158 -0.602 1.696
 0.168 -0.598 1.684
 0.176 -0.594 1.672
 0.185 -0.59 1.658
 0.193 -0.584 1.642
 0.201 -0.579 1.626
 0.209 -0.573 1.609
 0.217 -0.568 1.593
 0.225 -0.565 1.581
 0.233 -0.561 1.571
 0.242 -0.56 1.566
 0.252 -0.561 1.568
 0.262 -0.562 1.568
 0.271 -0.562 1.566
 0.282 -0.564 1.571
 0.292 -0.565 1.573
 0.302 -0.566 1.574
 0.311 -0.565 1.57
 0.319 -0.563 1.563
 0.327 -0.559 1.549
 0.331 -0.551 1.525
 0.337 -0.546 1.509
 0.344 -0.543 1.497
 0.35 -0.538 1.482
 0.352 -0.528 1.452
 0 0 0
 0 0 0
 0 0 0
 0 0 0
 0 0 0
 0 0 0
 0 0 0
 0 0 0
 0 0 0
 0 0 0
 0 0 0
 0 0 0
 0 0 0
 0 0 0
 0 0 0
 0 0 0
 0 0 0
 0 0 0
 0 0 0
 0 0 0
 0 0 0
 0 0 0
 0 0 0
 0 0 0
 0 0 0
 0 0 0
 0 0 0
 0 0 0
 0 0 0
 0.359 -0.308 0.791
 0.352 -0.298 0.762
 0.36 -0.3 0.766
 0.363 -0.298 0.76
 0.362 -0.294 0.745
 0.361 -0.289 0.731
 0.37 -0.293 0.738
 0.368 -0.287 0.722
 0.37 -0.285 0.714
 0.374 -0.284 0.709
 0.375 -0.282 0.701
 0.373 -0.277 0.686
 0.378 -0.277 0.684
 0.38 -0.275 0.677
 0.383 -0.274 0.673
 0.389 -0.275 0.673
 0.393 -0.275 0.669
 0.394 -0.272 0.66
 0.395 -0.27 0.653
 0.395 -0.267 0.643
 -0.149 -0.1 0.242
 -0.163 -0.111 0.271
 -0.242 -0.166 0.415
 -0.267 -0.185 0.464
 -0.293 -0.206 0.52
 -0.308 -0.218 0.556
 -0.311 -0.223 0.571
 -0.309 -0.225 0.576
 -0.306 -0.225 0.579
 -0.303 -0.226 0.582
 -0.299 -0.226 0.584
 -0.295 -0.226 0.586
 -0.292 -0.226 0.589
 -0.288 -0.227 0.591
 -0.285 -0.227 0.594
 -0.281 -0.228 0.597
 -0.278 -0.228 0.6
 -0.275 -0.229 0.604
 -0.272 -0.23 0.608
 -0.27 -0.231 0.612
 -0.267 -0.232 0.617
 -0.265 -0.234 0.622
 -0.263 -0.236 0.629
 -0.261 -0.238 0.637
 -0.259 -0.24 0.644
 -0.258 -0.243 0.653
 -0.259 -0.247 0.667
 -0.275 -0.267 0.724
 -0.306 -0.302 0.822
 -0.342 -0.344 0.939
 -0.386 -0.395 1.083
 -0.433 -0.451 1.242
 -0.464 -0.491 1.357
 -0.479 -0.517 1.43
 -0.486 -0.535 1.485
 -0.484 -0.543 1.509
 -0.476 -0.544 1.514
 -0.467 -0.545 1.519
 -0.457 -0.545 1.522
 -0.449 -0.546 1.526
 -0.439 -0.546 1.53
 -0.43 -0.547 1.534
 -0.421 -0.548 1.537
 -0.412 -0.548 1.541
 -0.403 -0.549 1.545
 -0.394 -0.549 1.549
 -0.385 -0.55 1.552
 -0.376 -0.551 1.556
 -0.367 -0.551 1.559
 -0.357 -0.552 1.563
 -0.348 -0.552 1.566
 -0.339 -0.553 1.57
 -0.33 -0.554 1.574
 -0.321 -0.555 1.578
 -0.311 -0.555 1.581
 -0.302 -0.556 1.585
 -0.293 -0.557 1.588
 -0.284 -0.558 1.592
 -0.274 -0.558 1.595
 -0.265 -0.559 1.599
 -0.256 -0.56 1.603
 -0.246 -0.561 1.606
 -0.237 -0.562 1.609
 -0.228 -0.563 1.614
 -0.218 -0.564 1.618
 -0.209 -0.565 1.621
 -0.199 -0.566 1.625
 -0.19 -0.567 1.63
 -0.181 -0.568 1.634
 -0.171 -0.569 1.638
 -0.162 -0.571 1.642
 -0.152 -0.572 1.645
 -0.142 -0.573 1.649
 -0.133 -0.574 1.653
 -0.123 -0.575 1.657
 -0.113 -0.576 1.661
 -0.103 -0.577 1.664
 -0.094 -0.579 1.668
 -0.084 -0.579 1.671
 -0.074 -0.58 1.674
 -0.064 -0.582 1.678
 -0.054 -0.583 1.681
 -0.044 -0.583 1.684
 -0.034 -0.585 1.687
 -0.024 -0.586 1.691
 -0.014 -0.587 1.694
 -0.004 -0.588 1.697
 0.005 -0.589 1.7
 0.016 -0.59 1.703
 0.026 -0.591 1.706
 0.036 -0.593 1.71
 0.046 -0.594 1.712
 0.057 -0.594 1.714
 0.067 -0.595 1.715
 0.077 -0.596 1.717
 0.088 -0.596 1.716
 0.098 -0.596 1.717
 0.108 -0.597 1.718
 0.119 -0.597 1.718
 0.129 -0.596 1.716
 0.139 -0.595 1.711
 0.149 -0.594 1.706
 0.158 -0.59 1.696
 0.167 -0.587 1.684
 0.176 -0.583 1.671
 0.185 -0.579 1.658
 0.193 -0.573 1.642
 0.201 -0.568 1.626
 0.209 -0.563 1.608
 0.216 -0.557 1.592
 0.225 -0.554 1.582
 0.232 -0.549 1.564
 0.241 -0.548 1.56
 0.25 -0.548 1.561
 0.261 -0.55 1.563
 0.27 -0.55 1.564
 0.282 -0.555 1.576
 0.292 -0.556 1.577
 0.302 -0.557 1.577
 0.311 -0.555 1.571
 0.318 -0.552 1.56
 0.325 -0.547 1.545
 0.331 -0.541 1.526
 0.337 -0.537 1.511
 0.344 -0.533 1.5
 0.351 -0.529 1.487
 0.355 -0.522 1.464
 0 0 0
 0 0 0
 0 0 0
 0 0 0
 0 0 0
 0 0 0
 0 0 0
 0 0 0
 0 0 0
 0 0 0
 0 0 0
 0 0 0
 0 0 0
 0 0 0
 0 0 0
 0 0 0
 0 0 0
 0 0 0
 0 0 0
 0 0 0
 0 0 0
 0 0 0
 0 0 0
 0 0 0
 0 0 0
 0 0 0
 0 0 0
 0 0 0
 0.341 -0.292 0.767
 0.348 -0.294 0.769
 0.345 -0.287 0.749
 0.354 -0.291 0.756
 0.359 -0.29 0.754
 0.361 -0.288 0.745
 0.36 -0.283 0.73
 0.369 -0.287 0.737
 0.367 -0.282 0.721
 0.369 -0.279 0.714
 0.37 -0.277 0.705
 0.374 -0.276 0.701
 0.373 -0.272 0.687
 0.376 -0.271 0.683
 0.378 -0.269 0.676
 0.382 -0.269 0.672
 0.387 -0.269 0.67
 0.389 -0.267 0.664
 0.392 -0.266 0.658
 0.381 -0.256 0.631
 0.38 -0.252 0.619
 -0.152 -0.101 0.248
 -0.191 -0.128 0.32
 -0.257 -0.173 0.441
 -0.283 -0.192 0.494
 -0.304 -0.209 0.54
 -0.312 -0.218 0.565
 -0.312 -0.22 0.573
 -0.31 -0.221 0.578
 -0.306 -0.222 0.581
 -0.303 -0.222 0.584
 -0.299 -0.222 0.586
 -0.296 -0.222 0.588
 -0.292 -0.223 0.591
 -0.289 -0.223 0.594
 -0.285 -0.224 0.596
 -0.282 -0.224 0.599
 -0.279 -0.225 0.603
 -0.276 -0.225 0.606
 -0.273 -0.226 0.61
 -0.27 -0.227 0.614
 -0.267 -0.228 0.619
 -0.265 -0.23 0.624
 -0.263 -0.232 0.632
 -0.262 -0.234 0.639
 -0.26 -0.236 0.646
 -0.259 -0.239 0.655
 -0.26 -0.244 0.671
 -0.286 -0.273 0.755
 -0.328 -0.319 0.885
 -0.375 -0.371 1.033
 -0.425 -0.427 1.195
 -0.471 -0.481 1.352
 -0.49 -0.511 1.439
 -0.494 -0.524 1.48
 -0.491 -0.531 1.503
 -0.483 -0.533 1.51
 -0.474 -0.533 1.514
 -0.466 -0.534 1.518
 -0.456 -0.534 1.521
 -0.447 -0.535 1.526
 -0.438 -0.536 1.529
 -0.429 -0.536 1.534
 -0.42 -0.537 1.537
 -0.411 -0.538 1.541
 -0.402 -0.538 1.544
 -0.393 -0.539 1.548
 -0.384 -0.539 1.552
 -0.375 -0.54 1.555
 -0.366 -0.54 1.559
 -0.357 -0.541 1.563
 -0.347 -0.542 1.566
 -0.338 -0.542 1.57
 -0.329 -0.543 1.573
 -0.32 -0.544 1.577
 -0.311 -0.545 1.581
 -0.302 -0.545 1.585
 -0.292 -0.546 1.588
 -0.283 -0.547 1.591
 -0.274 -0.548 1.595
 -0.265 -0.549 1.599
 -0.255 -0.55 1.603
 -0.246 -0.551 1.607
 -0.237 -0.551 1.61
 -0.227 -0.552 1.614
 -0.218 -0.553 1.618
 -0.209 -0.554 1.621
 -0.199 -0.555 1.625
 -0.19 -0.556 1.629
 -0.18 -0.557 1.633
 -0.171 -0.558 1.637
 -0.161 -0.559 1.641
 -0.152 -0.561 1.645
 -0.142 -0.562 1.649
 -0.132 -0.563 1.652
 -0.123 -0.564 1.657
 -0.113 -0.565 1.66
 -0.103 -0.566 1.664
 -0.093 -0.567 1.668
 -0.084 -0.568 1.671
 -0.074 -0.569 1.674
 -0.064 -0.57 1.678
 -0.054 -0.571 1.681
 -0.044 -0.572 1.684
 -0.034 -0.574 1.688
 -0.024 -0.575 1.691
 -0.014 -0.576 1.694
 -0.004 -0.577 1.697
 0.005 -0.578 1.7
 0.016 -0.579 1.703
 0.026 -0.58 1.706
 0.036 -0.581 1.71
 0.046 -0.582 1.712
 0.057 -0.583 1.714
 0.067 -0.584 1.715
 0.077 -0.584 1.716
 0.088 -0.584 1.716
 0.098 -0.585 1.716
 0.108 -0.585 1.717
 0.119 -0.586 1.718
 0.129 -0.585 1.715
 0.139 -0.584 1.711
 0.149 -0.582 1.706
 0.158 -0.579 1.695
 0.167 -0.576 1.684
 0.176 -0.572 1.671
 0.184 -0.567 1.657
 0.193 -0.562 1.641
 0.201 -0.557 1.625
 0.208 -0.552 1.608
 0.216 -0.547 1.592
 0.224 -0.543 1.58
 0.231 -0.538 1.563
 0.24 -0.537 1.56
 0.251 -0.539 1.565
 0.261 -0.541 1.57
 0.271 -0.543 1.572
 0.283 -0.547 1.584
 0.293 -0.547 1.582
 0.302 -0.546 1.577
 0.31 -0.543 1.568
 0.317 -0.54 1.557
 0.323 -0.534 1.537
 0.328 -0.528 1.518
 0.334 -0.522 1.498
 0.34 -0.518 1.484
 0.345 -0.512 1.466
 0.349 -0.504 1.441
 0 0 0
 0 0 0
 0 0 0
 0 0 0
 0 0 0
 0 0 0
 0 0 0
 0 0 0
 0 0 0
 0 0 0
 0 0 0
 0 0 0
 0 0 0
 0 0 0
 0 0 0
 0 0 0
 0 0 0
 0 0 0
 0 0 0
 0 0 0
 0 0 0
 0 0 0
 0 0 0
 0 0 0
 0 0 0
 0 0 0
 0 0 0
 0 0 0
 0.346 -0.291 0.778
 0.351 -0.291 0.776
 0.348 -0.284 0.757
 0.352 -0.284 0.752
 0.358 -0.285 0.753
 0.36 -0.282 0.744
 0.36 -0.279 0.733
 0.368 -0.281 0.736
 0.368 -0.278 0.726
 0.369 -0.275 0.716
 0.371 -0.273 0.708
 0.373 -0.271 0.7
 0.373 -0.267 0.688
 0.376 -0.266 0.684
 0.379 -0.265 0.678
 0.382 -0.264 0.674
 0.387 -0.265 0.673
 0.389 -0.263 0.665
 0.39 -0.26 0.657
 0.388 -0.256 0.644
 0.39 -0.255 0.637
 -0.167 -0.108 0.274
 -0.236 -0.154 0.399
 -0.27 -0.178 0.465
 -0.296 -0.198 0.519
 -0.311 -0.21 0.555
 -0.314 -0.215 0.57
 -0.313 -0.217 0.576
 -0.31 -0.218 0.58
 -0.307 -0.218 0.583
 -0.303 -0.218 0.586
 -0.3 -0.219 0.589
 -0.296 -0.219 0.591
 -0.293 -0.22 0.594
 -0.29 -0.22 0.597
 -0.286 -0.22 0.599
 -0.282 -0.22 0.601
 -0.279 -0.221 0.604
 -0.276 -0.221 0.607
 -0.273 -0.222 0.611
 -0.27 -0.223 0.615
 -0.267 -0.225 0.621
 -0.265 -0.226 0.626
 -0.264 -0.228 0.634
 -0.262 -0.231 0.642
 -0.26 -0.233 0.649
 -0.26 -0.236 0.659
 -0.265 -0.245 0.687
 -0.303 -0.284 0.801
 -0.354 -0.338 0.959
 -0.407 -0.394 1.124
 -0.456 -0.45 1.286
 -0.497 -0.499 1.431
 -0.506 -0.518 1.488
 -0.5 -0.521 1.5
 -0.491 -0.522 1.505
 -0.483 -0.523 1.51
 -0.473 -0.523 1.514
 -0.465 -0.524 1.518
 -0.456 -0.524 1.522
 -0.447 -0.525 1.526
 -0.437 -0.525 1.529
 -0.429 -0.526 1.533
 -0.419 -0.526 1.537
 -0.41 -0.527 1.541
 -0.401 -0.528 1.544
 -0.392 -0.528 1.548
 -0.383 -0.529 1.551
 -0.374 -0.529 1.555
 -0.365 -0.53 1.558
 -0.356 -0.53 1.562
 -0.347 -0.531 1.565
 -0.337 -0.532 1.569
 -0.328 -0.533 1.573
 -0.319 -0.533 1.577
 -0.31 -0.534 1.58
 -0.301 -0.535 1.584
 -0.292 -0.535 1.588
 -0.282 -0.536 1.591
 -0.273 -0.537 1.595
 -0.264 -0.538 1.598
 -0.255 -0.539 1.603
 -0.245 -0.54 1.606
 -0.236 -0.54 1.61
 -0.227 -0.541 1.613
 -0.217 -0.542 1.617
 -0.208 -0.543 1.62
 -0.199 -0.544 1.624
 -0.189 -0.545 1.629
 -0.18 -0.546 1.632
 -0.17 -0.547 1.636
 -0.161 -0.548 1.64
 -0.151 -0.549 1.644
 -0.142 -0.551 1.648
 -0.132 -0.552 1.652
 -0.122 -0.553 1.656
 -0.113 -0.554 1.66
 -0.103 -0.555 1.663
 -0.093 -0.556 1.667
 -0.083 -0.557 1.67
 -0.074 -0.558 1.673
 -0.064 -0.559 1.677
 -0.054 -0.56 1.681
 -0.044 -0.561 1.684
 -0.034 -0.563 1.688
 -0.024 -0.564 1.69
 -0.014 -0.564 1.693
 -0.004 -0.566 1.696
 0.006 -0.567 1.699
 0.016 -0.567 1.702
 0.026 -0.569 1.705
 0.036 -0.57 1.709
 0.046 -0.571 1.711
 0.057 -0.572 1.713
 0.067 -0.572 1.714
 0.077 -0.573 1.716
 0.088 -0.573 1.715
 0.098 -0.573 1.715
 0.108 -0.574 1.716
 0.118 -0.574 1.717
 0.129 -0.573 1.714
 0.139 -0.572 1.711
 0.148 -0.571 1.705
 0.158 -0.568 1.695
 0.167 -0.564 1.683
 0.176 -0.56 1.67
 0.184 -0.556 1.657
 0.192 -0.551 1.64
 0.2 -0.546 1.624
 0.208 -0.541 1.607
 0.216 -0.536 1.592
 0.224 -0.533 1.58
 0.231 -0.529 1.567
 0.24 -0.528 1.563
 0.251 -0.53 1.57
 0.261 -0.532 1.573
 0.272 -0.534 1.577
 0.283 -0.537 1.585
 0.292 -0.537 1.582
 0.301 -0.535 1.576
 0.309 -0.532 1.566
 0.316 -0.529 1.553
 0.322 -0.523 1.534
 0.328 -0.518 1.518
 0.333 -0.512 1.498
 0.34 -0.508 1.486
 0.346 -0.504 1.471
 0.351 -0.498 1.452
 0 0 0
 0 0 0
 0 0 0
 0 0 0
 0 0 0
 0 0 0
 0 0 0
 0 0 0
 0 0 0
 0 0 0
 0 0 0
 0 0 0
 0 0 0
 0 0 0
 0 0 0
 0 0 0
 0 0 0
 0 0 0
 0 0 0
 0 0 0
 0 0 0
 0 0 0
 0 0 0
 0 0 0
 0 0 0
 0 0 0
 0 0 0
 0.352 -0.295 0.808
 0.338 -0.279 0.761
 0.343 -0.279 0.76
 0.348 -0.279 0.758
 0.352 -0.279 0.755
 0.358 -0.279 0.754
 0.362 -0.279 0.75
 0.365 -0.277 0.744
 0.37 -0.277 0.742
 0.371 -0.275 0.732
 0.372 -0.272 0.723
 0.374 -0.27 0.714
 0.374 -0.267 0.705
 0.374 -0.263 0.692
 0.377 -0.262 0.688
 0.379 -0.261 0.681
 0.383 -0.26 0.676
 0.388 -0.26 0.675
 0.39 -0.259 0.668
 0.39 -0.256 0.659
 0.382 -0.248 0.636
 0.409 -0.262 0.67
 -0.198 -0.126 0.329
 -0.287 -0.184 0.489
 -0.286 -0.185 0.495
 -0.306 -0.201 0.539
 -0.315 -0.209 0.564
 -0.315 -0.212 0.573
 -0.313 -0.213 0.579
 -0.311 -0.214 0.583
 -0.308 -0.215 0.586
 -0.304 -0.215 0.589
 -0.301 -0.216 0.592
 -0.297 -0.216 0.595
 -0.294 -0.216 0.597
 -0.29 -0.217 0.6
 -0.287 -0.217 0.602
 -0.283 -0.217 0.604
 -0.28 -0.218 0.607
 -0.276 -0.218 0.61
 -0.273 -0.219 0.613
 -0.27 -0.22 0.617
 -0.268 -0.221 0.623
 -0.266 -0.222 0.629
 -0.264 -0.225 0.636
 -0.263 -0.227 0.644
 -0.261 -0.229 0.653
 -0.262 -0.234 0.668
 -0.278 -0.252 0.722
 -0.324 -0.299 0.861
 -0.378 -0.354 1.025
 -0.429 -0.409 1.189
 -0.476 -0.461 1.346
 -0.507 -0.5 1.465
 -0.508 -0.51 1.496
 -0.499 -0.511 1.501
 -0.49 -0.512 1.506
 -0.481 -0.512 1.51
 -0.472 -0.512 1.513
 -0.463 -0.513 1.517
 -0.454 -0.514 1.521
 -0.446 -0.514 1.525
 -0.437 -0.515 1.529
 -0.428 -0.515 1.533
 -0.418 -0.516 1.536
 -0.409 -0.516 1.54
 -0.4 -0.517 1.544
 -0.391 -0.517 1.547
 -0.382 -0.518 1.551
 -0.373 -0.519 1.554
 -0.364 -0.519 1.558
 -0.355 -0.52 1.561
 -0.346 -0.52 1.565
 -0.337 -0.521 1.568
 -0.328 -0.522 1.573
 -0.319 -0.523 1.576
 -0.309 -0.523 1.58
 -0.3 -0.524 1.584
 -0.291 -0.525 1.587
 -0.282 -0.526 1.591
 -0.273 -0.527 1.595
 -0.263 -0.527 1.598
 -0.254 -0.528 1.602
 -0.245 -0.529 1.605
 -0.235 -0.529 1.608
 -0.226 -0.53 1.612
 -0.217 -0.531 1.616
 -0.207 -0.532 1.62
 -0.198 -0.533 1.624
 -0.189 -0.534 1.628
 -0.179 -0.535 1.632
 -0.17 -0.536 1.635
 -0.16 -0.537 1.639
 -0.151 -0.538 1.643
 -0.141 -0.54 1.647
 -0.132 -0.541 1.651
 -0.122 -0.542 1.654
 -0.112 -0.543 1.658
 -0.103 -0.544 1.663
 -0.093 -0.545 1.666
 -0.083 -0.546 1.669
 -0.073 -0.547 1.673
 -0.063 -0.548 1.676
 -0.054 -0.549 1.679
 -0.044 -0.55 1.683
 -0.034 -0.551 1.687
 -0.024 -0.552 1.69
 -0.014 -0.553 1.693
 -0.004 -0.555 1.697
 0.006 -0.555 1.699
 0.016 -0.556 1.702
 0.026 -0.557 1.705
 0.036 -0.559 1.708
 0.046 -0.559 1.71
 0.057 -0.56 1.713
 0.067 -0.561 1.714
 0.077 -0.561 1.715
 0.087 -0.562 1.715
 0.098 -0.562 1.715
 0.108 -0.562 1.716
 0.118 -0.562 1.716
 0.128 -0.562 1.713
 0.138 -0.561 1.71
 0.148 -0.559 1.704
 0.157 -0.557 1.694
 0.166 -0.553 1.683
 0.175 -0.549 1.67
 0.184 -0.545 1.656
 0.192 -0.54 1.64
 0.2 -0.535 1.624
 0.208 -0.53 1.607
 0.215 -0.526 1.592
 0.223 -0.522 1.58
 0.231 -0.518 1.567
 0.239 -0.516 1.559
 0.25 -0.519 1.565
 0.26 -0.52 1.569
 0.271 -0.522 1.573
 0.282 -0.526 1.583
 0.292 -0.526 1.583
 0.301 -0.525 1.576
 0.309 -0.523 1.568
 0.316 -0.519 1.555
 0.322 -0.513 1.535
 0.328 -0.508 1.519
 0.333 -0.502 1.499
 0.339 -0.497 1.483
 0.344 -0.493 1.467
 0.349 -0.487 1.447
 0 0 0
 0 0 0
 0 0 0
 0 0 0
 0 0 0
 0 0 0
 0 0 0
 0 0 0
 0 0 0
 0 0 0
 0 0 0
 0 0 0
 0 0 0
 0 0 0
 0 0 0
 0 0 0
 0 0 0
 0 0 0
 0 0 0
 0 0 0
 0 0 0
 0 0 0
 0 0 0
 0 0 0
 0 0 0
 0 0 0
 0.352 -0.294 0.823
 0.347 -0.285 0.797
 0.336 -0.273 0.758
 0.338 -0.271 0.751
 0.348 -0.274 0.759
 0.349 -0.272 0.75
 0.355 -0.272 0.75
 0.362 -0.274 0.751
 0.368 -0.275 0.752
 0.369 -0.272 0.742
 0.372 -0.271 0.736
 0.373 -0.268 0.725
 0.375 -0.266 0.719
 0.375 -0.263 0.707
 0.376 -0.26 0.697
 0.378 -0.259 0.692
 0.382 -0.258 0.687
 0.384 -0.256 0.681
 0.389 -0.256 0.678
 0.391 -0.255 0.672
 0.393 -0.253 0.664
 0.398 -0.254 0.664
 0.387 -0.244 0.636
 -0.256 -0.159 0.428
 -0.305 -0.192 0.522
 -0.299 -0.191 0.52
 -0.313 -0.202 0.553
 -0.317 -0.207 0.569
 -0.316 -0.209 0.577
 -0.314 -0.21 0.582
 -0.311 -0.211 0.586
 -0.309 -0.211 0.589
 -0.305 -0.212 0.592
 -0.302 -0.212 0.596
 -0.299 -0.213 0.598
 -0.295 -0.213 0.601
 -0.292 -0.213 0.603
 -0.288 -0.214 0.606
 -0.284 -0.214 0.607
 -0.28 -0.214 0.61
 -0.277 -0.214 0.612
 -0.273 -0.215 0.615
 -0.27 -0.216 0.619
 -0.268 -0.217 0.625
 -0.266 -0.219 0.631
 -0.265 -0.221 0.64
 -0.264 -0.224 0.649
 -0.263 -0.227 0.659
 -0.268 -0.234 0.683
 -0.293 -0.261 0.764
 -0.343 -0.31 0.914
 -0.396 -0.364 1.077
 -0.446 -0.417 1.24
 -0.489 -0.466 1.387
 -0.511 -0.495 1.478
 -0.507 -0.5 1.497
 -0.498 -0.501 1.502
 -0.489 -0.501 1.506
 -0.481 -0.502 1.51
 -0.472 -0.502 1.513
 -0.463 -0.503 1.517
 -0.454 -0.503 1.521
 -0.445 -0.504 1.526
 -0.436 -0.505 1.53
 -0.427 -0.505 1.533
 -0.418 -0.505 1.536
 -0.409 -0.506 1.54
 -0.4 -0.506 1.543
 -0.39 -0.507 1.546
 -0.381 -0.507 1.55
 -0.372 -0.508 1.553
 -0.363 -0.509 1.557
 -0.354 -0.509 1.561
 -0.345 -0.51 1.565
 -0.336 -0.511 1.569
 -0.327 -0.511 1.573
 -0.318 -0.512 1.576
 -0.309 -0.513 1.58
 -0.3 -0.513 1.583
 -0.29 -0.514 1.586
 -0.281 -0.515 1.59
 -0.272 -0.516 1.594
 -0.263 -0.516 1.598
 -0.254 -0.517 1.601
 -0.244 -0.518 1.605
 -0.235 -0.519 1.609
 -0.226 -0.52 1.612
 -0.216 -0.521 1.616
 -0.207 -0.522 1.62
 -0.198 -0.523 1.624
 -0.188 -0.524 1.628
 -0.179 -0.525 1.631
 -0.17 -0.526 1.635
 -0.16 -0.527 1.639
 -0.15 -0.527 1.642
 -0.141 -0.529 1.647
 -0.131 -0.53 1.65
 -0.122 -0.531 1.653
 -0.112 -0.532 1.658
 -0.102 -0.533 1.662
 -0.093 -0.534 1.665
 -0.083 -0.535 1.669
 -0.073 -0.536 1.673
 -0.063 -0.537 1.676
 -0.053 -0.538 1.679
 -0.044 -0.539 1.682
 -0.034 -0.54 1.686
 -0.024 -0.541 1.689
 -0.014 -0.542 1.692
 -0.003 -0.543 1.696
 0.006 -0.544 1.699
 0.016 -0.545 1.701
 0.026 -0.546 1.704
 0.036 -0.547 1.707
 0.046 -0.548 1.709
 0.057 -0.549 1.712
 0.067 -0.55 1.713
 0.077 -0.55 1.715
 0.087 -0.551 1.715
 0.098 -0.551 1.715
 0.108 -0.551 1.716
 0.118 -0.551 1.716
 0.128 -0.551 1.713
 0.138 -0.55 1.709
 0.148 -0.548 1.703
 0.157 -0.545 1.693
 0.166 -0.542 1.682
 0.175 -0.538 1.668
 0.184 -0.534 1.655
 0.192 -0.529 1.639
 0.2 -0.525 1.624
 0.207 -0.52 1.607
 0.215 -0.515 1.592
 0.223 -0.512 1.58
 0.23 -0.507 1.564
 0.239 -0.505 1.555
 0.249 -0.506 1.559
 0.259 -0.509 1.565
 0.269 -0.51 1.568
 0.281 -0.515 1.58
 0.291 -0.516 1.582
 0.3 -0.514 1.576
 0.308 -0.512 1.566
 0.315 -0.509 1.555
 0.321 -0.503 1.535
 0.327 -0.498 1.518
 0.331 -0.491 1.494
 0.335 -0.483 1.468
 0.339 -0.477 1.448
 0.343 -0.469 1.424
 0.346 -0.462 1.399
 0 0 0
 0 0 0
 0 0 0
 0 0 0
 0 0 0
 0 0 0
 0 0 0
 0 0 0
 0 0 0
 0 0 0
 0 0 0
 0 0 0
 0 0 0
 0 0 0
 0 0 0
 0 0 0
 0 0 0
 0 0 0
 0 0 0
 0 0 0
 0 0 0
 0.352 -0.307 0.888
 0.358 -0.307 0.886
 0 0 0
 0.351 -0.292 0.837
 0.357 -0.293 0.837
 0.357 -0.288 0.821
 0.35 -0.279 0.792
 0.35 -0.275 0.779
 0.353 -0.273 0.772
 0.353 -0.27 0.759
 0.356 -0.268 0.753
 0.36 -0.267 0.749
 0.367 -0.269 0.75
 0.368 -0.267 0.742
 0.371 -0.265 0.735
 0.372 -0.262 0.726
 0.375 -0.261 0.72
 0.375 -0.258 0.708
 0.376 -0.255 0.699
 0.378 -0.254 0.692
 0.38 -0.252 0.685
 0.383 -0.251 0.68
 0.387 -0.25 0.676
 0.389 -0.249 0.669
 0.391 -0.247 0.663
 0.395 -0.247 0.66
 0.411 -0.254 0.677
 -0.296 -0.181 0.5
 -0.319 -0.197 0.548
 -0.309 -0.193 0.539
 -0.318 -0.201 0.562
 -0.319 -0.204 0.573
 -0.317 -0.206 0.58
 -0.315 -0.207 0.585
 -0.313 -0.208 0.589
 -0.31 -0.208 0.593
 -0.307 -0.209 0.596
 -0.303 -0.209 0.599
 -0.3 -0.21 0.602
 -0.296 -0.21 0.604
 -0.292 -0.21 0.606
 -0.289 -0.21 0.609
 -0.285 -0.21 0.61
 -0.281 -0.21 0.612
 -0.277 -0.211 0.614
 -0.274 -0.211 0.617
 -0.271 -0.212 0.621
 -0.268 -0.213 0.627
 -0.267 -0.215 0.634
 -0.266 -0.218 0.644
 -0.266 -0.221 0.655
 -0.267 -0.226 0.67
 -0.279 -0.24 0.714
 -0.315 -0.275 0.822
 -0.367 -0.326 0.98
 -0.418 -0.377 1.141
 -0.467 -0.428 1.299
 -0.502 -0.468 1.426
 -0.513 -0.488 1.488
 -0.506 -0.49 1.498
 -0.498 -0.491 1.502
 -0.489 -0.491 1.506
 -0.48 -0.492 1.511
 -0.471 -0.492 1.514
 -0.462 -0.493 1.518
 -0.453 -0.493 1.522
 -0.444 -0.494 1.526
 -0.435 -0.494 1.529
 -0.426 -0.495 1.533
 -0.417 -0.495 1.536
 -0.408 -0.495 1.539
 -0.399 -0.496 1.543
 -0.39 -0.496 1.546
 -0.381 -0.497 1.549
 -0.371 -0.497 1.553
 -0.362 -0.498 1.556
 -0.353 -0.499 1.56
 -0.344 -0.499 1.564
 -0.335 -0.5 1.568
 -0.326 -0.501 1.572
 -0.317 -0.501 1.575
 -0.308 -0.502 1.579
 -0.299 -0.503 1.582
 -0.29 -0.503 1.585
 -0.281 -0.504 1.589
 -0.272 -0.505 1.594
 -0.262 -0.506 1.597
 -0.253 -0.507 1.601
 -0.244 -0.508 1.605
 -0.235 -0.509 1.609
 -0.225 -0.509 1.612
 -0.216 -0.51 1.616
 -0.207 -0.511 1.62
 -0.197 -0.512 1.624
 -0.188 -0.513 1.628
 -0.179 -0.514 1.631
 -0.169 -0.515 1.635
 -0.16 -0.516 1.639
 -0.15 -0.517 1.642
 -0.141 -0.518 1.646
 -0.131 -0.519 1.649
 -0.121 -0.519 1.652
 -0.112 -0.521 1.657
 -0.102 -0.522 1.661
 -0.092 -0.523 1.664
 -0.083 -0.524 1.668
 -0.073 -0.525 1.672
 -0.063 -0.526 1.676
 -0.053 -0.527 1.679
 -0.043 -0.528 1.683
 -0.033 -0.529 1.686
 -0.023 -0.53 1.689
 -0.013 -0.531 1.692
 -0.003 -0.532 1.696
 0.006 -0.533 1.699
 0.016 -0.534 1.701
 0.026 -0.535 1.704
 0.036 -0.536 1.708
 0.046 -0.537 1.709
 0.057 -0.538 1.712
 0.067 -0.539 1.714
 0.077 -0.539 1.715
 0.087 -0.54 1.715
 0.098 -0.54 1.715
 0.108 -0.54 1.715
 0.118 -0.54 1.715
 0.128 -0.54 1.713
 0.138 -0.539 1.709
 0.148 -0.537 1.703
 0.157 -0.534 1.693
 0.166 -0.531 1.681
 0.175 -0.527 1.668
 0.183 -0.523 1.654
 0.191 -0.518 1.638
 0.199 -0.514 1.623
 0.207 -0.509 1.606
 0.215 -0.505 1.591
 0.223 -0.501 1.579
 0.23 -0.496 1.562
 0.237 -0.493 1.55
 0.248 -0.495 1.555
 0.259 -0.498 1.563
 0.269 -0.499 1.567
 0.281 -0.504 1.58
 0.292 -0.506 1.585
 0.3 -0.505 1.579
 0.308 -0.502 1.568
 0.316 -0.499 1.558
 0.321 -0.494 1.538
 0.327 -0.488 1.52
 0.331 -0.481 1.495
 0.334 -0.473 1.468
 0.337 -0.465 1.441
 0.342 -0.459 1.422
 0.344 -0.451 1.394
 0.344 -0.44 1.357
 0 0 0
 0 0 0
 0 0 0
 0 0 0
 0 0 0
 0 0 0
 0 0 0
 0 0 0
 0 0 0
 0 0 0
 0 0 0
 0 0 0
 0 0 0
 0 0 0
 0 0 0
 0 0 0
 0 0 0
 0 0 0
 0 0 0
 0 0 0
 0.352 -0.301 0.889
 0.358 -0.302 0.888
 0 0 0
 0.344 -0.281 0.823
 0.353 -0.284 0.829
 0.356 -0.282 0.822
 0.351 -0.275 0.797
 0.352 -0.271 0.784
 0.354 -0.269 0.776
 0.354 -0.266 0.764
 0.356 -0.263 0.756
 0.359 -0.262 0.749
 0.366 -0.263 0.751
 0.367 -0.261 0.741
 0.37 -0.259 0.735
 0.371 -0.257 0.725
 0.375 -0.256 0.721
 0.372 -0.251 0.705
 0.374 -0.249 0.697
 0.376 -0.248 0.69
 0.377 -0.246 0.682
 0.381 -0.245 0.678
 0.387 -0.246 0.677
 0.389 -0.245 0.672
 0.392 -0.243 0.666
 0.381 -0.234 0.638
 0.391 -0.237 0.645
 -0.311 -0.186 0.526
 -0.322 -0.195 0.554
 -0.316 -0.194 0.552
 -0.32 -0.198 0.568
 -0.32 -0.201 0.576
 -0.318 -0.202 0.583
 -0.316 -0.203 0.588
 -0.314 -0.204 0.592
 -0.311 -0.205 0.596
 -0.308 -0.206 0.6
 -0.305 -0.206 0.603
 -0.301 -0.207 0.606
 -0.298 -0.207 0.609
 -0.294 -0.207 0.611
 -0.29 -0.207 0.613
 -0.286 -0.207 0.614
 -0.282 -0.207 0.616
 -0.278 -0.207 0.617
 -0.274 -0.207 0.619
 -0.271 -0.208 0.623
 -0.269 -0.209 0.628
 -0.267 -0.212 0.636
 -0.268 -0.215 0.649
 -0.27 -0.221 0.667
 -0.279 -0.231 0.702
 -0.3 -0.253 0.77
 -0.345 -0.296 0.906
 -0.397 -0.346 1.064
 -0.446 -0.394 1.219
 -0.486 -0.437 1.356
 -0.512 -0.469 1.459
 -0.514 -0.479 1.492
 -0.506 -0.48 1.499
 -0.497 -0.481 1.503
 -0.488 -0.481 1.507
 -0.479 -0.482 1.511
 -0.47 -0.482 1.515
 -0.461 -0.483 1.518
 -0.452 -0.483 1.522
 -0.443 -0.484 1.526
 -0.434 -0.484 1.529
 -0.425 -0.484 1.533
 -0.416 -0.485 1.536
 -0.407 -0.485 1.54
 -0.398 -0.486 1.543
 -0.389 -0.486 1.546
 -0.38 -0.487 1.549
 -0.371 -0.487 1.553
 -0.362 -0.488 1.556
 -0.353 -0.488 1.56
 -0.344 -0.489 1.564
 -0.335 -0.49 1.568
 -0.326 -0.49 1.571
 -0.317 -0.491 1.575
 -0.307 -0.492 1.578
 -0.298 -0.492 1.582
 -0.289 -0.493 1.585
 -0.28 -0.494 1.589
 -0.271 -0.495 1.593
 -0.262 -0.495 1.596
 -0.253 -0.496 1.6
 -0.243 -0.497 1.604
 -0.234 -0.498 1.608
 -0.225 -0.499 1.612
 -0.216 -0.5 1.616
 -0.206 -0.501 1.62
 -0.197 -0.502 1.624
 -0.188 -0.502 1.627
 -0.178 -0.503 1.63
 -0.169 -0.504 1.635
 -0.159 -0.505 1.638
 -0.15 -0.506 1.641
 -0.14 -0.507 1.645
 -0.131 -0.508 1.649
 -0.121 -0.509 1.652
 -0.112 -0.51 1.656
 -0.102 -0.511 1.661
 -0.092 -0.512 1.664
 -0.083 -0.513 1.668
 -0.073 -0.514 1.672
 -0.063 -0.515 1.675
 -0.053 -0.516 1.679
 -0.043 -0.518 1.683
 -0.033 -0.519 1.686
 -0.023 -0.519 1.689
 -0.013 -0.52 1.692
 -0.003 -0.521 1.695
 0.006 -0.522 1.698
 0.016 -0.523 1.7
 0.026 -0.524 1.704
 0.036 -0.525 1.706
 0.046 -0.526 1.708
 0.056 -0.527 1.711
 0.067 -0.527 1.713
 0.077 -0.528 1.714
 0.087 -0.528 1.715
 0.097 -0.528 1.715
 0.108 -0.529 1.715
 0.118 -0.529 1.714
 0.128 -0.528 1.712
 0.138 -0.527 1.708
 0.147 -0.526 1.702
 0.157 -0.523 1.692
 0.166 -0.52 1.681
 0.174 -0.516 1.668
 0.183 -0.512 1.654
 0.191 -0.508 1.639
 0.199 -0.503 1.623
 0.207 -0.499 1.606
 0.214 -0.494 1.591
 0.222 -0.491 1.579
 0.229 -0.485 1.559
 0.236 -0.481 1.545
 0.246 -0.483 1.548
 0.257 -0.485 1.555
 0.267 -0.487 1.559
 0.28 -0.492 1.575
 0.291 -0.495 1.584
 0.3 -0.495 1.579
 0.308 -0.492 1.569
 0.315 -0.489 1.557
 0.321 -0.484 1.539
 0.327 -0.479 1.521
 0.331 -0.472 1.498
 0.335 -0.464 1.471
 0.338 -0.458 1.448
 0.343 -0.452 1.429
 0.345 -0.443 1.398
 0.344 -0.432 1.36
 0 0 0
 0 0 0
 0 0 0
 0 0 0
 0 0 0
 0 0 0
 0 0 0
 0 0 0
 0 0 0
 0 0 0
 0 0 0
 0 0 0
 0 0 0
 0 0 0
 0 0 0
 0 0 0
 0 0 0
 0 0 0
 0 0 0
 0.349 -0.298 0.899
 0.348 -0.292 0.88
 0.354 -0.293 0.88
 0.346 -0.282 0.844
 0.345 -0.276 0.825
 0.344 -0.272 0.81
 0.349 -0.272 0.808
 0.346 -0.266 0.787
 0.348 -0.263 0.777
 0.35 -0.261 0.77
 0.354 -0.26 0.764
 0.355 -0.257 0.754
 0.358 -0.256 0.747
 0.363 -0.257 0.747
 0.365 -0.254 0.738
 0.368 -0.253 0.732
 0.37 -0.251 0.725
 0.375 -0.251 0.722
 0.374 -0.248 0.709
 0.377 -0.246 0.704
 0.377 -0.244 0.694
 0.378 -0.241 0.684
 0.381 -0.24 0.678
 0.386 -0.241 0.678
 0.388 -0.239 0.671
 0.392 -0.239 0.667
 0.38 -0.229 0.637
 0.398 -0.237 0.658
 -0.319 -0.187 0.541
 -0.322 -0.191 0.555
 -0.321 -0.193 0.561
 -0.322 -0.196 0.572
 -0.321 -0.198 0.58
 -0.32 -0.199 0.586
 -0.317 -0.2 0.591
 -0.315 -0.201 0.596
 -0.312 -0.202 0.6
 -0.309 -0.203 0.604
 -0.306 -0.203 0.607
 -0.303 -0.204 0.61
 -0.299 -0.204 0.613
 -0.295 -0.204 0.615
 -0.291 -0.204 0.617
 -0.287 -0.204 0.619
 -0.283 -0.204 0.62
 -0.279 -0.204 0.621
 -0.275 -0.204 0.623
 -0.272 -0.205 0.626
 -0.269 -0.206 0.631
 -0.268 -0.208 0.639
 -0.27 -0.213 0.657
 -0.281 -0.225 0.696
 -0.299 -0.243 0.756
 -0.33 -0.272 0.849
 -0.381 -0.319 1.001
 -0.43 -0.367 1.155
 -0.47 -0.408 1.288
 -0.501 -0.442 1.4
 -0.518 -0.465 1.478
 -0.513 -0.469 1.493
 -0.505 -0.47 1.499
 -0.496 -0.471 1.504
 -0.487 -0.471 1.508
 -0.479 -0.472 1.512
 -0.47 -0.472 1.515
 -0.46 -0.472 1.518
 -0.451 -0.473 1.522
 -0.443 -0.473 1.526
 -0.434 -0.474 1.53
 -0.425 -0.474 1.533
 -0.416 -0.475 1.536
 -0.407 -0.475 1.54
 -0.397 -0.475 1.543
 -0.388 -0.476 1.545
 -0.379 -0.476 1.549
 -0.37 -0.477 1.552
 -0.361 -0.477 1.556
 -0.352 -0.478 1.56
 -0.343 -0.479 1.564
 -0.334 -0.48 1.568
 -0.325 -0.48 1.571
 -0.316 -0.481 1.574
 -0.307 -0.481 1.578
 -0.298 -0.482 1.582
 -0.289 -0.483 1.585
 -0.28 -0.483 1.589
 -0.271 -0.484 1.593
 -0.261 -0.485 1.596
 -0.252 -0.486 1.6
 -0.243 -0.487 1.604
 -0.234 -0.488 1.608
 -0.225 -0.488 1.612
 -0.215 -0.489 1.616
 -0.206 -0.49 1.62
 -0.197 -0.491 1.623
 -0.187 -0.492 1.627
 -0.178 -0.493 1.63
 -0.169 -0.494 1.635
 -0.159 -0.495 1.638
 -0.15 -0.495 1.641
 -0.14 -0.496 1.645
 -0.131 -0.497 1.649
 -0.121 -0.498 1.652
 -0.111 -0.499 1.656
 -0.102 -0.5 1.66
 -0.092 -0.501 1.664
 -0.082 -0.502 1.667
 -0.073 -0.504 1.672
 -0.063 -0.504 1.675
 -0.053 -0.506 1.679
 -0.043 -0.507 1.682
 -0.033 -0.508 1.685
 -0.023 -0.509 1.689
 -0.013 -0.51 1.692
 -0.003 -0.51 1.695
 0.006 -0.511 1.698
 0.016 -0.512 1.701
 0.026 -0.513 1.704
 0.036 -0.514 1.706
 0.046 -0.515 1.708
 0.056 -0.516 1.71
 0.067 -0.516 1.712
 0.077 -0.517 1.714
 0.087 -0.517 1.714
 0.097 -0.517 1.714
 0.108 -0.518 1.715
 0.118 -0.518 1.714
 0.128 -0.517 1.712
 0.138 -0.516 1.708
 0.147 -0.515 1.703
 0.157 -0.512 1.693
 0.166 -0.509 1.682
 0.174 -0.505 1.668
 0.183 -0.502 1.654
 0.191 -0.497 1.638
 0.199 -0.493 1.622
 0.206 -0.488 1.605
 0.214 -0.484 1.59
 0.222 -0.481 1.579
 0.228 -0.474 1.555
 0.236 -0.47 1.542
 0.246 -0.472 1.546
 0.256 -0.475 1.554
 0.266 -0.476 1.557
 0.279 -0.482 1.576
 0.29 -0.485 1.583
 0.299 -0.484 1.579
 0.307 -0.481 1.567
 0.315 -0.479 1.559
 0.321 -0.474 1.541
 0.327 -0.47 1.524
 0.331 -0.463 1.499
 0.335 -0.455 1.473
 0.337 -0.447 1.446
 0.342 -0.442 1.427
 0.344 -0.434 1.397
 0.344 -0.424 1.363
 0 0 0
 0 0 0
 0 0 0
 0 0 0
 0 0 0
 0 0 0
 0 0 0
 0 0 0
 0 0 0
 0 0 0
 0 0 0
 0 0 0
 0 0 0
 0 0 0
 0 0 0
 0 0 0
 0 0 0
 0 0 0
 0 0 0
 0.349 -0.292 0.9
 0.348 -0.287 0.882
 0.355 -0.287 0.882
 0.347 -0.277 0.848
 0.343 -0.27 0.822
 0.345 -0.267 0.814
 0.349 -0.266 0.808
 0.35 -0.263 0.796
 0.349 -0.259 0.781
 0.351 -0.257 0.773
 0.353 -0.255 0.764
 0.355 -0.253 0.756
 0.355 -0.249 0.743
 0.359 -0.248 0.739
 0.36 -0.246 0.729
 0.363 -0.245 0.723
 0.365 -0.243 0.717
 0.37 -0.243 0.715
 0.372 -0.242 0.707
 0.376 -0.241 0.703
 0.377 -0.239 0.695
 0.377 -0.236 0.683
 0.38 -0.235 0.679
 0.384 -0.235 0.676
 0.386 -0.234 0.669
 0.39 -0.233 0.665
 0.398 -0.235 0.668
 0.402 -0.235 0.665
 -0.32 -0.184 0.545
 -0.318 -0.185 0.55
 -0.322 -0.19 0.565
 -0.323 -0.192 0.575
 -0.322 -0.194 0.583
 -0.32 -0.196 0.589
 -0.318 -0.197 0.594
 -0.316 -0.198 0.598
 -0.313 -0.199 0.603
 -0.31 -0.199 0.607
 -0.307 -0.2 0.611
 -0.304 -0.201 0.615
 -0.301 -0.201 0.618
 -0.297 -0.201 0.621
 -0.293 -0.202 0.623
 -0.289 -0.202 0.624
 -0.285 -0.201 0.625
 -0.281 -0.201 0.626
 -0.276 -0.201 0.627
 -0.273 -0.201 0.63
 -0.27 -0.202 0.634
 -0.27 -0.205 0.644
 -0.276 -0.213 0.672
 -0.296 -0.232 0.735
 -0.324 -0.258 0.82
 -0.361 -0.292 0.934
 -0.412 -0.339 1.087
 -0.457 -0.382 1.231
 -0.488 -0.415 1.34
 -0.509 -0.44 1.426
 -0.518 -0.456 1.482
 -0.512 -0.459 1.493
 -0.504 -0.46 1.499
 -0.495 -0.461 1.504
 -0.487 -0.461 1.508
 -0.478 -0.462 1.512
 -0.469 -0.462 1.515
 -0.46 -0.462 1.518
 -0.451 -0.463 1.522
 -0.442 -0.463 1.526
 -0.433 -0.464 1.53
 -0.424 -0.464 1.533
 -0.415 -0.465 1.537
 -0.406 -0.465 1.54
 -0.397 -0.465 1.543
 -0.388 -0.466 1.546
 -0.378 -0.466 1.549
 -0.369 -0.467 1.552
 -0.36 -0.467 1.556
 -0.352 -0.468 1.56
 -0.343 -0.468 1.563
 -0.334 -0.469 1.568
 -0.324 -0.47 1.57
 -0.315 -0.47 1.574
 -0.306 -0.471 1.578
 -0.297 -0.472 1.582
 -0.288 -0.472 1.585
 -0.279 -0.473 1.589
 -0.27 -0.474 1.593
 -0.261 -0.475 1.596
 -0.252 -0.475 1.6
 -0.243 -0.476 1.605
 -0.233 -0.477 1.609
 -0.224 -0.478 1.612
 -0.215 -0.479 1.616
 -0.206 -0.48 1.62
 -0.196 -0.481 1.623
 -0.187 -0.481 1.626
 -0.178 -0.482 1.63
 -0.168 -0.483 1.635
 -0.159 -0.484 1.638
 -0.149 -0.485 1.642
 -0.14 -0.486 1.646
 -0.13 -0.487 1.649
 -0.121 -0.488 1.652
 -0.111 -0.489 1.656
 -0.102 -0.49 1.66
 -0.092 -0.491 1.663
 -0.082 -0.492 1.667
 -0.072 -0.493 1.671
 -0.063 -0.494 1.675
 -0.053 -0.495 1.678
 -0.043 -0.496 1.682
 -0.033 -0.497 1.685
 -0.023 -0.498 1.689
 -0.013 -0.499 1.692
 -0.003 -0.5 1.695
 0.006 -0.501 1.698
 0.016 -0.501 1.7
 0.026 -0.502 1.703
 0.036 -0.503 1.705
 0.046 -0.504 1.707
 0.056 -0.504 1.709
 0.067 -0.505 1.712
 0.077 -0.506 1.713
 0.087 -0.506 1.714
 0.097 -0.506 1.714
 0.107 -0.507 1.715
 0.118 -0.507 1.714
 0.128 -0.506 1.712
 0.137 -0.505 1.708
 0.147 -0.504 1.703
 0.156 -0.501 1.692
 0.165 -0.498 1.681
 0.174 -0.495 1.668
 0.182 -0.491 1.653
 0.191 -0.487 1.638
 0.199 -0.482 1.622
 0.206 -0.478 1.605
 0.214 -0.473 1.589
 0.222 -0.47 1.578
 0.228 -0.463 1.553
 0.235 -0.46 1.541
 0.245 -0.461 1.544
 0.256 -0.464 1.551
 0.266 -0.465 1.554
 0.279 -0.471 1.574
 0.289 -0.474 1.58
 0.299 -0.473 1.577
 0.306 -0.471 1.566
 0.314 -0.469 1.558
 0.321 -0.465 1.543
 0.326 -0.46 1.523
 0.33 -0.452 1.496
 0.334 -0.445 1.472
 0.337 -0.438 1.445
 0.34 -0.431 1.422
 0.344 -0.425 1.398
 0 0 0
 0 0 0
 0 0 0
 0 0 0
 0 0 0
 0 0 0
 0 0 0
 0 0 0
 0 0 0
 0 0 0
 0 0 0
 0 0 0
 0 0 0
 0 0 0
 0 0 0
 0 0 0
 0 0 0
 0 0 0
 0 0 0
 0 0 0
 0.333 -0.273 0.86
 0.332 -0.268 0.842
 0.337 -0.268 0.839
 0.338 -0.264 0.826
 0.34 -0.262 0.817
 0.343 -0.26 0.81
 0.346 -0.259 0.803
 0.349 -0.258 0.797
 0.35 -0.255 0.785
 0.35 -0.251 0.771
 0.353 -0.25 0.765
 0.357 -0.249 0.761
 0.356 -0.245 0.746
 0.357 -0.242 0.737
 0.361 -0.242 0.732
 0.363 -0.24 0.724
 0.365 -0.238 0.716
 0.369 -0.238 0.713
 0.371 -0.236 0.706
 0.374 -0.236 0.702
 0.376 -0.234 0.695
 0.376 -0.231 0.683
 0.378 -0.23 0.677
 0.384 -0.23 0.676
 0.385 -0.228 0.668
 0.388 -0.228 0.664
 0.395 -0.229 0.665
 0.4 -0.229 0.663
 -0.322 -0.181 0.548
 -0.323 -0.184 0.559
 -0.323 -0.187 0.568
 -0.323 -0.189 0.577
 -0.323 -0.191 0.586
 -0.321 -0.192 0.592
 -0.319 -0.193 0.597
 -0.317 -0.194 0.602
 -0.314 -0.195 0.607
 -0.312 -0.196 0.611
 -0.309 -0.197 0.616
 -0.306 -0.198 0.62
 -0.303 -0.199 0.624
 -0.3 -0.199 0.627
 -0.296 -0.199 0.63
 -0.292 -0.199 0.632
 -0.288 -0.199 0.632
 -0.283 -0.199 0.633
 -0.278 -0.199 0.633
 -0.275 -0.199 0.635
 -0.272 -0.2 0.64
 -0.272 -0.203 0.652
 -0.286 -0.216 0.698
 -0.315 -0.242 0.785
 -0.352 -0.275 0.895
 -0.396 -0.314 1.027
 -0.446 -0.359 1.18
 -0.483 -0.396 1.305
 -0.505 -0.42 1.389
 -0.516 -0.437 1.449
 -0.519 -0.447 1.485
 -0.511 -0.449 1.493
 -0.503 -0.45 1.498
 -0.494 -0.451 1.503
 -0.486 -0.451 1.508
 -0.477 -0.452 1.511
 -0.468 -0.452 1.515
 -0.459 -0.452 1.518
 -0.45 -0.453 1.522
 -0.441 -0.453 1.525
 -0.432 -0.454 1.529
 -0.423 -0.454 1.532
 -0.414 -0.455 1.536
 -0.405 -0.455 1.54
 -0.396 -0.455 1.543
 -0.387 -0.456 1.546
 -0.378 -0.456 1.549
 -0.369 -0.457 1.553
 -0.36 -0.457 1.556
 -0.351 -0.458 1.559
 -0.342 -0.458 1.563
 -0.333 -0.459 1.567
 -0.324 -0.459 1.57
 -0.315 -0.46 1.574
 -0.306 -0.461 1.578
 -0.297 -0.461 1.581
 -0.288 -0.462 1.585
 -0.279 -0.463 1.589
 -0.27 -0.464 1.593
 -0.26 -0.464 1.596
 -0.251 -0.465 1.6
 -0.242 -0.466 1.604
 -0.233 -0.467 1.608
 -0.224 -0.468 1.612
 -0.215 -0.469 1.616
 -0.205 -0.469 1.619
 -0.196 -0.47 1.623
 -0.187 -0.471 1.626
 -0.177 -0.472 1.63
 -0.168 -0.473 1.634
 -0.158 -0.474 1.638
 -0.149 -0.475 1.641
 -0.14 -0.475 1.645
 -0.13 -0.477 1.649
 -0.121 -0.477 1.653
 -0.111 -0.478 1.657
 -0.101 -0.479 1.66
 -0.092 -0.48 1.664
 -0.082 -0.481 1.667
 -0.072 -0.482 1.671
 -0.063 -0.483 1.674
 -0.053 -0.484 1.678
 -0.043 -0.485 1.682
 -0.033 -0.486 1.686
 -0.023 -0.487 1.689
 -0.013 -0.488 1.692
 -0.003 -0.489 1.695
 0.006 -0.49 1.697
 0.016 -0.49 1.7
 0.026 -0.491 1.703
 0.036 -0.492 1.705
 0.046 -0.493 1.707
 0.056 -0.494 1.709
 0.067 -0.494 1.711
 0.077 -0.495 1.712
 0.087 -0.495 1.713
 0.097 -0.495 1.713
 0.107 -0.496 1.714
 0.117 -0.496 1.713
 0.127 -0.495 1.712
 0.137 -0.495 1.708
 0.147 -0.493 1.703
 0.156 -0.491 1.693
 0.165 -0.488 1.681
 0.174 -0.484 1.667
 0.182 -0.48 1.652
 0.19 -0.476 1.636
 0.198 -0.471 1.621
 0.206 -0.467 1.604
 0.213 -0.463 1.588
 0.221 -0.46 1.577
 0.227 -0.453 1.551
 0.234 -0.449 1.538
 0.244 -0.451 1.541
 0.255 -0.453 1.547
 0.265 -0.454 1.55
 0.278 -0.461 1.572
 0.289 -0.463 1.579
 0.298 -0.463 1.575
 0.305 -0.46 1.564
 0.313 -0.457 1.553
 0.319 -0.453 1.537
 0.325 -0.448 1.518
 0.329 -0.441 1.493
 0.333 -0.436 1.472
 0.335 -0.427 1.44
 0.339 -0.421 1.418
 0.342 -0.414 1.392
 0.337 -0.398 1.336
 0 0 0
 0 0 0
 0 0 0
 0 0 0
 0 0 0
 0 0 0
 0 0 0
 0 0 0
 0 0 0
 0 0 0
 0 0 0
 0 0 0
 0 0 0
 0 0 0
 0 0 0
 0 0 0
 0 0 0
 0 0 0
 0 0 0
 0 0 0
 0.32 -0.254 0.813
 0.332 -0.259 0.828
 0.338 -0.259 0.827
 0.337 -0.254 0.81
 0.338 -0.251 0.798
 0.34 -0.249 0.79
 0.341 -0.246 0.778
 0.343 -0.244 0.769
 0.346 -0.243 0.764
 0.349 -0.242 0.759
 0.354 -0.242 0.756
 0.355 -0.239 0.746
 0.356 -0.237 0.736
 0.358 -0.235 0.728
 0.362 -0.235 0.724
 0.364 -0.233 0.717
 0.367 -0.232 0.711
 0.37 -0.231 0.705
 0.373 -0.23 0.701
 0.375 -0.228 0.693
 0.375 -0.226 0.683
 0.378 -0.225 0.678
 0.383 -0.225 0.677
 0.386 -0.224 0.671
 0.389 -0.223 0.666
 0.388 -0.22 0.655
 0.401 -0.225 0.666
 -0.322 -0.178 0.55
 -0.32 -0.179 0.555
 -0.324 -0.183 0.57
 -0.324 -0.185 0.579
 -0.324 -0.187 0.588
 -0.322 -0.189 0.595
 -0.32 -0.19 0.6
 -0.318 -0.191 0.605
 -0.316 -0.192 0.61
 -0.313 -0.193 0.616
 -0.311 -0.194 0.622
 -0.309 -0.196 0.627
 -0.307 -0.197 0.632
 -0.304 -0.197 0.636
 -0.3 -0.198 0.64
 -0.296 -0.198 0.641
 -0.291 -0.198 0.642
 -0.287 -0.197 0.642
 -0.282 -0.197 0.642
 -0.278 -0.197 0.644
 -0.275 -0.198 0.649
 -0.278 -0.203 0.667
 -0.3 -0.223 0.735
 -0.338 -0.255 0.845
 -0.383 -0.293 0.976
 -0.429 -0.333 1.115
 -0.476 -0.375 1.263
 -0.504 -0.404 1.363
 -0.516 -0.421 1.423
 -0.519 -0.431 1.46
 -0.519 -0.438 1.487
 -0.511 -0.439 1.494
 -0.502 -0.44 1.499
 -0.494 -0.441 1.503
 -0.485 -0.441 1.507
 -0.476 -0.441 1.511
 -0.467 -0.442 1.515
 -0.458 -0.442 1.518
 -0.449 -0.443 1.522
 -0.44 -0.443 1.525
 -0.431 -0.444 1.529
 -0.422 -0.444 1.532
 -0.414 -0.444 1.536
 -0.404 -0.445 1.539
 -0.395 -0.445 1.543
 -0.386 -0.445 1.545
 -0.377 -0.446 1.549
 -0.368 -0.446 1.552
 -0.359 -0.447 1.555
 -0.35 -0.448 1.559
 -0.341 -0.448 1.563
 -0.333 -0.449 1.567
 -0.323 -0.449 1.57
 -0.314 -0.45 1.574
 -0.305 -0.451 1.577
 -0.296 -0.451 1.581
 -0.287 -0.452 1.584
 -0.278 -0.453 1.589
 -0.269 -0.453 1.593
 -0.26 -0.454 1.596
 -0.251 -0.455 1.6
 -0.242 -0.456 1.604
 -0.233 -0.457 1.608
 -0.223 -0.457 1.612
 -0.214 -0.458 1.615
 -0.205 -0.459 1.619
 -0.196 -0.46 1.622
 -0.186 -0.46 1.626
 -0.177 -0.461 1.63
 -0.168 -0.462 1.634
 -0.158 -0.463 1.637
 -0.149 -0.464 1.641
 -0.139 -0.465 1.645
 -0.13 -0.466 1.649
 -0.12 -0.467 1.653
 -0.111 -0.468 1.657
 -0.101 -0.469 1.66
 -0.092 -0.47 1.664
 -0.082 -0.471 1.667
 -0.072 -0.472 1.671
 -0.062 -0.472 1.674
 -0.053 -0.473 1.678
 -0.043 -0.474 1.682
 -0.033 -0.476 1.685
 -0.023 -0.476 1.688
 -0.013 -0.478 1.692
 -0.003 -0.478 1.695
 0.006 -0.479 1.697
 0.016 -0.48 1.699
 0.026 -0.48 1.702
 0.036 -0.481 1.704
 0.046 -0.482 1.706
 0.056 -0.483 1.709
 0.067 -0.483 1.711
 0.077 -0.484 1.712
 0.087 -0.484 1.713
 0.097 -0.484 1.713
 0.107 -0.485 1.714
 0.117 -0.485 1.713
 0.127 -0.485 1.711
 0.137 -0.484 1.708
 0.147 -0.483 1.703
 0.156 -0.48 1.693
 0.165 -0.477 1.681
 0.174 -0.473 1.666
 0.182 -0.469 1.652
 0.19 -0.465 1.635
 0.198 -0.461 1.619
 0.205 -0.457 1.604
 0.213 -0.453 1.588
 0.221 -0.45 1.577
 0.227 -0.443 1.552
 0.234 -0.44 1.539
 0.244 -0.441 1.541
 0.254 -0.443 1.546
 0.264 -0.444 1.551
 0.277 -0.45 1.571
 0.288 -0.453 1.578
 0.297 -0.453 1.575
 0.305 -0.45 1.565
 0.312 -0.447 1.553
 0.319 -0.443 1.537
 0.324 -0.438 1.518
 0.328 -0.431 1.49
 0.332 -0.426 1.47
 0.335 -0.417 1.44
 0.338 -0.411 1.416
 0.341 -0.404 1.391
 0.339 -0.392 1.346
 0 0 0
 0 0 0
 0 0 0
 0 0 0
 0 0 0
 0 0 0
 0 0 0
 0 0 0
 0 0 0
 0 0 0
 0 0 0
 0 0 0
 0 0 0
 0 0 0
 0 0 0
 0 0 0
 0 0 0
 0 0 0
 0 0 0
 0.325 -0.256 0.841
 0.329 -0.255 0.837
 0.337 -0.257 0.842
 0.34 -0.255 0.833
 0.341 -0.252 0.822
 0.339 -0.248 0.804
 0.341 -0.245 0.793
 0.342 -0.242 0.782
 0.344 -0.24 0.775
 0.347 -0.239 0.768
 0.35 -0.238 0.761
 0.354 -0.237 0.756
 0.354 -0.234 0.745
 0.355 -0.231 0.734
 0.357 -0.23 0.726
 0.36 -0.229 0.721
 0.362 -0.227 0.714
 0.366 -0.227 0.71
 0.369 -0.225 0.705
 0.372 -0.224 0.699
 0.374 -0.223 0.693
 0.376 -0.222 0.686
 0.379 -0.221 0.681
 0.383 -0.22 0.677
 0.385 -0.219 0.671
 0.388 -0.218 0.666
 0.374 -0.208 0.632
 0.387 -0.213 0.644
 -0.321 -0.174 0.55
 -0.321 -0.176 0.558
 -0.324 -0.179 0.571
 -0.324 -0.181 0.581
 -0.324 -0.184 0.59
 -0.323 -0.185 0.598
 -0.321 -0.187 0.603
 -0.319 -0.188 0.608
 -0.317 -0.189 0.614
 -0.315 -0.19 0.621
 -0.314 -0.192 0.629
 -0.313 -0.194 0.636
 -0.311 -0.195 0.642
 -0.308 -0.196 0.648
 -0.305 -0.197 0.651
 -0.301 -0.197 0.653
 -0.296 -0.197 0.653
 -0.291 -0.196 0.653
 -0.286 -0.196 0.653
 -0.282 -0.196 0.655
 -0.28 -0.197 0.662
 -0.29 -0.207 0.698
 -0.321 -0.233 0.787
 -0.365 -0.269 0.915
 -0.411 -0.307 1.051
 -0.457 -0.347 1.191
 -0.496 -0.383 1.319
 -0.516 -0.405 1.397
 -0.52 -0.415 1.436
 -0.521 -0.423 1.466
 -0.518 -0.428 1.488
 -0.51 -0.429 1.494
 -0.501 -0.43 1.499
 -0.493 -0.431 1.503
 -0.484 -0.431 1.507
 -0.475 -0.431 1.511
 -0.466 -0.432 1.515
 -0.457 -0.432 1.517
 -0.448 -0.433 1.521
 -0.439 -0.433 1.524
 -0.431 -0.433 1.529
 -0.421 -0.434 1.532
 -0.413 -0.434 1.536
 -0.404 -0.435 1.539
 -0.395 -0.435 1.542
 -0.386 -0.435 1.546
 -0.377 -0.436 1.549
 -0.368 -0.436 1.553
 -0.359 -0.437 1.556
 -0.35 -0.438 1.56
 -0.341 -0.438 1.563
 -0.332 -0.439 1.567
 -0.323 -0.439 1.57
 -0.314 -0.44 1.574
 -0.305 -0.441 1.578
 -0.296 -0.441 1.581
 -0.287 -0.442 1.584
 -0.278 -0.443 1.589
 -0.269 -0.443 1.592
 -0.259 -0.444 1.596
 -0.25 -0.445 1.6
 -0.241 -0.445 1.604
 -0.232 -0.446 1.607
 -0.223 -0.447 1.611
 -0.214 -0.448 1.614
 -0.204 -0.448 1.618
 -0.195 -0.449 1.622
 -0.186 -0.45 1.625
 -0.177 -0.451 1.629
 -0.167 -0.452 1.633
 -0.158 -0.453 1.637
 -0.148 -0.454 1.64
 -0.139 -0.454 1.644
 -0.13 -0.455 1.648
 -0.12 -0.456 1.652
 -0.111 -0.457 1.656
 -0.101 -0.458 1.66
 -0.091 -0.459 1.664
 -0.082 -0.46 1.667
 -0.072 -0.461 1.671
 -0.062 -0.462 1.674
 -0.052 -0.463 1.677
 -0.043 -0.464 1.681
 -0.033 -0.465 1.685
 -0.023 -0.466 1.688
 -0.013 -0.467 1.692
 -0.003 -0.468 1.694
 0.006 -0.468 1.697
 0.016 -0.469 1.699
 0.026 -0.47 1.702
 0.036 -0.47 1.704
 0.046 -0.471 1.706
 0.056 -0.472 1.709
 0.066 -0.473 1.711
 0.077 -0.473 1.712
 0.087 -0.473 1.713
 0.097 -0.474 1.713
 0.107 -0.474 1.713
 0.117 -0.474 1.713
 0.127 -0.474 1.711
 0.137 -0.473 1.708
 0.147 -0.472 1.702
 0.156 -0.469 1.692
 0.165 -0.466 1.679
 0.173 -0.462 1.665
 0.181 -0.458 1.65
 0.19 -0.454 1.634
 0.197 -0.45 1.618
 0.205 -0.446 1.603
 0.213 -0.442 1.586
 0.221 -0.44 1.576
 0.227 -0.433 1.552
 0.234 -0.43 1.537
 0.244 -0.431 1.541
 0.254 -0.433 1.546
 0.264 -0.434 1.549
 0.277 -0.44 1.568
 0.288 -0.443 1.577
 0.297 -0.442 1.572
 0.305 -0.44 1.564
 0.312 -0.438 1.554
 0.319 -0.434 1.539
 0.325 -0.43 1.522
 0.328 -0.422 1.493
 0.332 -0.416 1.47
 0.333 -0.407 1.435
 0.336 -0.4 1.408
 0.339 -0.393 1.383
 0.34 -0.386 1.355
 0.343 -0.38 1.331
 0 0 0
 0 0 0
 0 0 0
 0 0 0
 0 0 0
 0 0 0
 0 0 0
 0 0 0
 0 0 0
 0 0 0
 0 0 0
 0 0 0
 0 0 0
 0 0 0
 0 0 0
 0 0 0
 0.326 -0.26 0.878
 0.325 -0.255 0.86
 0.325 -0.251 0.843
 0.329 -0.25 0.839
 0.335 -0.25 0.837
 0.338 -0.248 0.83
 0.34 -0.246 0.82
 0.34 -0.243 0.806
 0.34 -0.239 0.793
 0.343 -0.238 0.786
 0.347 -0.237 0.781
 0.349 -0.236 0.774
 0.35 -0.232 0.761
 0.354 -0.232 0.758
 0.354 -0.229 0.746
 0.354 -0.226 0.735
 0.356 -0.225 0.727
 0.359 -0.223 0.721
 0.362 -0.222 0.714
 0.364 -0.221 0.708
 0.367 -0.22 0.702
 0.368 -0.218 0.694
 0.371 -0.217 0.688
 0.372 -0.215 0.68
 0.375 -0.214 0.675
 0.379 -0.214 0.671
 0.383 -0.213 0.668
 0.386 -0.213 0.664
 0.399 -0.217 0.675
 0.389 -0.21 0.649
 -0.321 -0.17 0.551
 -0.319 -0.171 0.555
 -0.323 -0.175 0.571
 -0.323 -0.177 0.581
 -0.324 -0.18 0.591
 -0.324 -0.182 0.6
 -0.322 -0.183 0.606
 -0.32 -0.184 0.612
 -0.319 -0.186 0.619
 -0.319 -0.188 0.628
 -0.318 -0.191 0.638
 -0.318 -0.193 0.648
 -0.317 -0.195 0.657
 -0.315 -0.196 0.664
 -0.311 -0.197 0.667
 -0.307 -0.197 0.668
 -0.302 -0.196 0.668
 -0.296 -0.195 0.667
 -0.292 -0.195 0.667
 -0.288 -0.195 0.67
 -0.285 -0.196 0.675
 -0.303 -0.212 0.732
 -0.343 -0.244 0.845
 -0.391 -0.282 0.982
 -0.438 -0.32 1.122
 -0.477 -0.355 1.246
 -0.508 -0.384 1.353
 -0.519 -0.399 1.409
 -0.521 -0.407 1.441
 -0.521 -0.414 1.469
 -0.518 -0.419 1.489
 -0.509 -0.42 1.494
 -0.501 -0.42 1.499
 -0.492 -0.421 1.503
 -0.483 -0.421 1.507
 -0.474 -0.421 1.511
 -0.465 -0.422 1.514
 -0.456 -0.422 1.517
 -0.448 -0.423 1.521
 -0.439 -0.423 1.524
 -0.43 -0.423 1.528
 -0.421 -0.424 1.531
 -0.412 -0.424 1.535
 -0.403 -0.425 1.538
 -0.394 -0.425 1.542
 -0.385 -0.425 1.545
 -0.376 -0.426 1.549
 -0.367 -0.426 1.552
 -0.358 -0.427 1.555
 -0.349 -0.428 1.559
 -0.34 -0.428 1.563
 -0.331 -0.429 1.566
 -0.322 -0.429 1.57
 -0.313 -0.43 1.573
 -0.304 -0.43 1.577
 -0.295 -0.431 1.581
 -0.286 -0.432 1.584
 -0.277 -0.432 1.588
 -0.268 -0.433 1.592
 -0.259 -0.434 1.596
 -0.25 -0.434 1.599
 -0.241 -0.435 1.603
 -0.232 -0.436 1.607
 -0.222 -0.437 1.61
 -0.213 -0.437 1.614
 -0.204 -0.438 1.617
 -0.195 -0.439 1.621
 -0.185 -0.44 1.624
 -0.176 -0.441 1.629
 -0.167 -0.441 1.633
 -0.158 -0.442 1.636
 -0.148 -0.443 1.64
 -0.139 -0.444 1.644
 -0.129 -0.445 1.648
 -0.12 -0.446 1.652
 -0.11 -0.447 1.655
 -0.101 -0.448 1.66
 -0.091 -0.449 1.663
 -0.081 -0.449 1.666
 -0.072 -0.45 1.67
 -0.062 -0.451 1.673
 -0.052 -0.452 1.677
 -0.043 -0.453 1.68
 -0.033 -0.454 1.684
 -0.023 -0.455 1.687
 -0.013 -0.456 1.691
 -0.003 -0.457 1.693
 0.006 -0.457 1.696
 0.016 -0.458 1.698
 0.026 -0.459 1.702
 0.036 -0.46 1.703
 0.046 -0.46 1.706
 0.056 -0.461 1.709
 0.066 -0.462 1.711
 0.077 -0.462 1.712
 0.087 -0.463 1.713
 0.097 -0.463 1.713
 0.107 -0.463 1.713
 0.117 -0.463 1.713
 0.127 -0.463 1.711
 0.137 -0.462 1.707
 0.147 -0.461 1.701
 0.156 -0.459 1.692
 0.165 -0.455 1.679
 0.173 -0.452 1.665
 0.181 -0.448 1.649
 0.189 -0.444 1.633
 0.197 -0.44 1.618
 0.205 -0.436 1.602
 0.212 -0.432 1.586
 0.22 -0.429 1.575
 0.227 -0.424 1.554
 0.234 -0.421 1.54
 0.244 -0.422 1.543
 0.254 -0.424 1.548
 0.264 -0.425 1.551
 0.276 -0.43 1.569
 0.287 -0.433 1.577
 0.296 -0.432 1.572
 0.305 -0.43 1.565
 0.312 -0.428 1.554
 0.318 -0.424 1.538
 0.324 -0.42 1.522
 0.328 -0.413 1.497
 0.331 -0.406 1.468
 0.333 -0.397 1.434
 0.335 -0.39 1.406
 0.338 -0.384 1.382
 0.34 -0.378 1.357
 0.344 -0.372 1.336
 0 0 0
 0 0 0
 0 0 0
 0 0 0
 0 0 0
 0 0 0
 0 0 0
 0 0 0
 0 0 0
 0 0 0
 0 0 0
 0 0 0
 0 0 0
 0 0 0
 0 0 0
 0.33 -0.262 0.908
 0.33 -0.257 0.889
 0.333 -0.256 0.883
 0.33 -0.249 0.858
 0.332 -0.246 0.846
 0.336 -0.246 0.843
 0.338 -0.243 0.832
 0.338 -0.24 0.817
 0.338 -0.236 0.803
 0.339 -0.233 0.791
 0.341 -0.232 0.783
 0.346 -0.231 0.781
 0.349 -0.23 0.774
 0.35 -0.228 0.763
 0.353 -0.226 0.757
 0.354 -0.224 0.747
 0.354 -0.221 0.735
 0.356 -0.22 0.727
 0.358 -0.218 0.721
 0.36 -0.217 0.713
 0.363 -0.215 0.707
 0.366 -0.215 0.702
 0.369 -0.214 0.696
 0.372 -0.213 0.691
 0.375 -0.212 0.686
 0.377 -0.211 0.68
 0.381 -0.21 0.676
 0.383 -0.209 0.67
 0.386 -0.208 0.664
 0.393 -0.21 0.667
 0.405 -0.213 0.676
 -0.319 -0.165 0.547
 -0.32 -0.168 0.558
 -0.322 -0.171 0.57
 -0.323 -0.173 0.581
 -0.324 -0.176 0.592
 -0.324 -0.178 0.602
 -0.323 -0.18 0.61
 -0.322 -0.181 0.616
 -0.321 -0.183 0.624
 -0.32 -0.185 0.632
 -0.317 -0.185 0.636
 -0.314 -0.186 0.642
 -0.311 -0.187 0.646
 -0.308 -0.188 0.649
