 -1.104 -1.619 4.1
 -1.082 -1.624 4.118
 -1.055 -1.622 4.119
 -1.019 -1.606 4.082
 -0.999 -1.614 4.108
 -0.978 -1.622 4.134
 -0.949 -1.616 4.123
 -0.924 -1.616 4.128
 -0.905 -1.628 4.163
 -0.865 -1.603 4.102
 -0.85 -1.622 4.155
 -0.818 -1.609 4.126
 -0.786 -1.595 4.094
 -0.77 -1.614 4.147
 -0.743 -1.611 4.142
 -0.718 -1.611 4.148
 -0.692 -1.611 4.151
 -0.663 -1.602 4.13
 -0.64 -1.607 4.146
 -0.612 -1.601 4.132
 -0.593 -1.618 4.179
 -0.563 -1.605 4.15
 -0.539 -1.609 4.162
 -0.517 -1.617 4.186
 -0.488 -1.607 4.162
 -0.462 -1.604 4.155
 -0.434 -1.595 4.135
 -0.41 -1.6 4.149
 -0.386 -1.604 4.161
 -0.364 -1.618 4.199
 -0.337 -1.609 4.177
 -0.313 -1.617 4.2
 -0.286 -1.608 4.178
 -0.26 -1.602 4.162
 -0.236 -1.612 4.189
 -0.21 -1.602 4.163
 -0.185 -1.61 4.187
 -0.161 -1.619 4.209
 -0.135 -1.616 4.203
 -0.11 -1.612 4.193
 -0.084 -1.607 4.18
 -0.059 -1.618 4.209
 -0.034 -1.626 4.23
 -0.009 -1.603 4.17
 0.016 -1.627 4.231
 0.041 -1.61 4.185
 0.066 -1.608 4.179
 0.091 -1.611 4.188
 0.118 -1.631 4.239
 0.144 -1.631 4.237
 0.167 -1.613 4.19
 0.193 -1.62 4.207
 0.216 -1.598 4.147
 0.241 -1.598 4.145
 0.268 -1.611 4.177
 0.294 -1.614 4.185
 0.319 -1.616 4.188
 0.344 -1.615 4.184
 0.369 -1.612 4.174
 0.392 -1.605 4.153
 0.422 -1.623 4.197
 0.442 -1.603 4.143
 0.468 -1.606 4.149
 0.497 -1.617 4.175
 0.523 -1.62 4.18
 0.54 -1.597 4.116
 0.572 -1.617 4.163
 0.6 -1.625 4.181
 0.623 -1.617 4.158
 0.651 -1.626 4.177
 0.673 -1.617 4.15
 0.7 -1.62 4.154
 0.728 -1.627 4.169
 0.755 -1.631 4.174
 0.772 -1.613 4.124
 0.802 -1.622 4.143
 0.828 -1.624 4.143
 0.855 -1.627 4.145
 0.873 -1.613 4.105
 0.901 -1.618 4.113
 0.922 -1.612 4.092
 0.95 -1.617 4.099
 0.981 -1.626 4.118
 1.006 -1.625 4.109
 1.026 -1.617 4.082
 1.062 -1.633 4.117
 1.082 -1.626 4.093
 1.113 -1.634 4.106
 1.138 -1.633 4.098
 1.151 -1.616 4.049
 1.183 -1.625 4.064
 1.22 -1.641 4.099
 1.227 -1.617 4.031
 1.253 -1.618 4.027
 1.294 -1.638 4.068
 1.314 -1.632 4.046
 1.34 -1.632 4.039
 1.364 -1.631 4.027
 1.389 -1.63 4.018
 1.418 -1.634 4.019
 1.449 -1.64 4.026
 1.476 -1.642 4.022
 1.488 -1.627 3.977
 1.525 -1.64 4
 1.553 -1.642 3.997
 1.569 -1.633 3.964
 1.599 -1.638 3.966
 1.606 -1.619 3.912
 1.641 -1.629 3.926
 1.67 -1.632 3.924
 1.685 -1.623 3.892
 1.722 -1.634 3.909
 1.744 -1.631 3.89
 1.758 -1.62 3.855
 1.784 -1.621 3.847
 1.805 -1.617 3.826
 1.837 -1.624 3.831
 1.849 -1.612 3.792
 1.861 -1.601 3.754
 1.88 -1.596 3.732
 1.873 -1.57 3.659
 1.868 -1.546 3.591
 1.903 -1.554 3.6
 1.885 -1.521 3.511
 1.887 -1.504 3.46
 1.876 -1.477 3.386
 0 0 0
 0 0 0
 1.825 -1.386 3.144
 1.85 -1.389 3.139
 1.874 -1.391 3.132
 1.853 -1.359 3.05
 1.839 -1.334 2.982
 -2.261 -1.632 3.806
 -2.214 -1.617 3.784
 -2.194 -1.622 3.808
 -2.162 -1.617 3.809
 -2.143 -1.623 3.836
 -2.131 -1.634 3.873
 -2.084 -1.618 3.847
 -2.065 -1.624 3.873
 -2.021 -1.609 3.85
 -2.017 -1.627 3.905
 -2.005 -1.638 3.944
 -1.955 -1.619 3.909
 -1.921 -1.612 3.903
 -1.909 -1.624 3.942
 -1.879 -1.621 3.945
 -1.848 -1.616 3.944
 -1.84 -1.633 3.995
 -1.795 -1.616 3.964
 -1.793 -1.638 4.028
 -1.758 -1.63 4.019
 -1.728 -1.626 4.018
 -1.706 -1.63 4.037
 -1.674 -1.625 4.033
 -1.636 -1.614 4.014
 -1.616 -1.619 4.038
 -1.598 -1.628 4.068
 -1.58 -1.636 4.097
 -1.528 -1.609 4.036
 -1.516 -1.623 4.081
 -1.484 -1.618 4.075
 -1.453 -1.612 4.07
 -1.436 -1.622 4.103
 -1.401 -1.611 4.082
 -1.364 -1.598 4.056
 -1.353 -1.616 4.108
 -1.318 -1.605 4.087
 -1.309 -1.626 4.147
 -1.28 -1.622 4.145
 -1.247 -1.614 4.13
 -1.226 -1.619 4.151
 -1.188 -1.604 4.118
 -1.168 -1.612 4.143
 -1.138 -1.606 4.135
 -1.122 -1.62 4.176
 -1.101 -1.627 4.199
 -1.065 -1.612 4.167
 -1.041 -1.616 4.182
 -1.01 -1.606 4.163
 -0.986 -1.609 4.176
 -0.957 -1.605 4.17
 -0.935 -1.611 4.191
 -0.903 -1.599 4.163
 -0.876 -1.598 4.164
 -0.861 -1.616 4.217
 -0.832 -1.611 4.207
 -0.805 -1.609 4.204
 -0.777 -1.605 4.198
 -0.75 -1.601 4.191
 -0.723 -1.598 4.187
 -0.708 -1.623 4.255
 -0.672 -1.6 4.199
 -0.647 -1.6 4.201
 -0.627 -1.616 4.247
 -0.6 -1.612 4.239
 -0.568 -1.594 4.196
 -0.546 -1.605 4.227
 -0.523 -1.611 4.246
 -0.495 -1.606 4.234
 -0.469 -1.603 4.227
 -0.444 -1.606 4.238
 -0.414 -1.588 4.192
 -0.394 -1.61 4.252
 -0.367 -1.604 4.237
 -0.339 -1.596 4.218
 -0.315 -1.603 4.237
 -0.29 -1.605 4.243
 -0.264 -1.601 4.235
 -0.24 -1.614 4.27
 -0.213 -1.607 4.252
 -0.187 -1.603 4.241
 -0.161 -1.591 4.212
 -0.135 -1.589 4.207
 -0.111 -1.608 4.256
 -0.085 -1.598 4.23
 -0.06 -1.604 4.248
 -0.034 -1.608 4.258
 -0.009 -1.598 4.231
 0.016 -1.588 4.202
 0.041 -1.598 4.229
 0.067 -1.608 4.255
 0.092 -1.6 4.233
 0.118 -1.604 4.243
 0.143 -1.595 4.219
 0.168 -1.592 4.208
 0.194 -1.595 4.217
 0.219 -1.597 4.22
 0.245 -1.601 4.229
 0.271 -1.601 4.226
 0.297 -1.603 4.232
 0.322 -1.605 4.233
 0.345 -1.592 4.199
 0.372 -1.601 4.22
 0.398 -1.601 4.218
 0.423 -1.599 4.209
 0.451 -1.608 4.23
 0.474 -1.599 4.205
 0.503 -1.611 4.234
 0.526 -1.604 4.212
 0.548 -1.595 4.184
 0.579 -1.609 4.218
 0.601 -1.599 4.19
 0.632 -1.615 4.226
 0.656 -1.612 4.215
 0.679 -1.604 4.192
 0.702 -1.6 4.178
 0.734 -1.614 4.211
 0.757 -1.609 4.193
 0.775 -1.594 4.148
 0.809 -1.61 4.187
 0.842 -1.626 4.222
 0.866 -1.622 4.208
 0.879 -1.599 4.143
 0.914 -1.616 4.181
 0.931 -1.601 4.137
 0.962 -1.611 4.158
 0.996 -1.624 4.186
 1.018 -1.619 4.169
 1.049 -1.626 4.181
 1.066 -1.614 4.143
 1.1 -1.626 4.168
 1.122 -1.62 4.147
 1.154 -1.63 4.166
 1.174 -1.622 4.139
 1.202 -1.626 4.141
 1.226 -1.623 4.126
 1.246 -1.616 4.102
 1.28 -1.627 4.122
 1.301 -1.621 4.099
 1.334 -1.63 4.114
 1.353 -1.622 4.086
 1.381 -1.625 4.086
 1.411 -1.63 4.09
 1.431 -1.623 4.065
 1.46 -1.627 4.067
 1.482 -1.623 4.048
 1.513 -1.628 4.052
 1.531 -1.62 4.025
 1.574 -1.638 4.059
 1.593 -1.631 4.034
 1.614 -1.626 4.012
 1.635 -1.622 3.992
 1.675 -1.636 4.017
 1.697 -1.632 3.997
 1.703 -1.614 3.941
 1.739 -1.624 3.956
 1.761 -1.621 3.938
 1.796 -1.629 3.947
 1.816 -1.624 3.925
 1.845 -1.627 3.921
 1.854 -1.613 3.875
 1.881 -1.614 3.867
 1.888 -1.598 3.818
 1.89 -1.579 3.76
 1.891 -1.559 3.702
 1.86 -1.515 3.584
 1.883 -1.514 3.571
 1.896 -1.506 3.54
 1.863 -1.461 3.424
 0 0 0
 0 0 0
 0 0 0
 1.797 -1.343 3.103
 1.856 -1.371 3.157
 1.843 -1.346 3.088
 1.833 -1.324 3.025
 1.828 -1.306 2.972
 -2.286 -1.624 3.86
 -2.286 -1.643 3.917
 -2.234 -1.625 3.887
 -2.183 -1.607 3.858
 -2.179 -1.624 3.91
 -2.155 -1.625 3.926
 -2.112 -1.613 3.909
 -2.076 -1.606 3.903
 -2.072 -1.624 3.958
 -2.056 -1.631 3.989
 -2.019 -1.623 3.981
 -2.003 -1.633 4.015
 -1.963 -1.621 3.998
 -1.938 -1.622 4.012
 -1.921 -1.631 4.044
 -1.876 -1.615 4.014
 -1.847 -1.613 4.021
 -1.838 -1.628 4.069
 -1.816 -1.633 4.09
 -1.78 -1.624 4.077
 -1.749 -1.62 4.078
 -1.7 -1.598 4.033
 -1.705 -1.629 4.119
 -1.663 -1.614 4.09
 -1.648 -1.624 4.126
 -1.605 -1.608 4.094
 -1.587 -1.617 4.125
 -1.562 -1.619 4.137
 -1.534 -1.617 4.142
 -1.507 -1.616 4.146
 -1.472 -1.607 4.132
 -1.462 -1.625 4.185
 -1.419 -1.606 4.144
 -1.4 -1.615 4.175
 -1.371 -1.612 4.174
 -1.346 -1.613 4.184
 -1.319 -1.612 4.189
 -1.274 -1.589 4.136
 -1.257 -1.601 4.173
 -1.239 -1.611 4.206
 -1.202 -1.597 4.175
 -1.181 -1.603 4.198
 -1.162 -1.613 4.23
 -1.111 -1.579 4.145
 -1.102 -1.603 4.214
 -1.075 -1.602 4.218
 -1.044 -1.593 4.2
 -1.032 -1.616 4.265
 -0.997 -1.602 4.234
 -0.973 -1.606 4.248
 -0.94 -1.593 4.22
 -0.911 -1.588 4.209
 -0.887 -1.591 4.223
 -0.864 -1.597 4.242
 -0.833 -1.588 4.222
 -0.816 -1.604 4.27
 -0.783 -1.592 4.24
 -0.76 -1.596 4.257
 -0.724 -1.576 4.205
 -0.705 -1.59 4.246
 -0.678 -1.588 4.244
 -0.65 -1.581 4.228
 -0.633 -1.605 4.295
 -0.605 -1.6 4.286
 -0.57 -1.575 4.22
 -0.543 -1.571 4.213
 -0.522 -1.585 4.252
 -0.497 -1.584 4.253
 -0.47 -1.581 4.247
 -0.445 -1.585 4.258
 -0.423 -1.598 4.296
 -0.396 -1.592 4.281
 -0.367 -1.579 4.248
 -0.341 -1.577 4.242
 -0.316 -1.584 4.263
 -0.291 -1.583 4.262
 -0.264 -1.58 4.256
 -0.239 -1.583 4.264
 -0.213 -1.578 4.253
 -0.187 -1.575 4.244
 -0.161 -1.575 4.244
 -0.137 -1.582 4.265
 -0.11 -1.574 4.244
 -0.084 -1.563 4.213
 -0.059 -1.576 4.247
 -0.034 -1.57 4.232
 -0.008 -1.575 4.246
 0.016 -1.58 4.259
 0.042 -1.574 4.242
 0.067 -1.568 4.225
 0.092 -1.567 4.221
 0.118 -1.577 4.248
 0.143 -1.569 4.225
 0.169 -1.574 4.236
 0.195 -1.58 4.251
 0.22 -1.573 4.231
 0.245 -1.574 4.234
 0.271 -1.579 4.246
 0.298 -1.586 4.263
 0.322 -1.578 4.239
 0.347 -1.577 4.233
 0.374 -1.583 4.249
 0.399 -1.578 4.231
 0.423 -1.574 4.219
 0.447 -1.57 4.206
 0.475 -1.577 4.223
 0.501 -1.58 4.228
 0.523 -1.57 4.198
 0.552 -1.579 4.22
 0.582 -1.591 4.247
 0.609 -1.595 4.255
 0.631 -1.587 4.229
 0.655 -1.583 4.214
 0.684 -1.59 4.231
 0.706 -1.583 4.208
 0.737 -1.594 4.234
 0.762 -1.593 4.226
 0.788 -1.595 4.226
 0.814 -1.594 4.22
 0.837 -1.589 4.203
 0.864 -1.591 4.203
 0.89 -1.593 4.202
 0.919 -1.599 4.214
 0.944 -1.598 4.205
 0.964 -1.588 4.174
 1.001 -1.606 4.216
 1.027 -1.607 4.213
 1.055 -1.61 4.215
 1.075 -1.601 4.185
 1.099 -1.599 4.174
 1.137 -1.616 4.211
 1.151 -1.6 4.164
 1.184 -1.61 4.183
 1.21 -1.61 4.176
 1.236 -1.61 4.168
 1.264 -1.612 4.167
 1.291 -1.615 4.167
 1.317 -1.614 4.158
 1.345 -1.616 4.156
 1.373 -1.62 4.156
 1.392 -1.611 4.128
 1.418 -1.612 4.12
 1.445 -1.612 4.113
 1.473 -1.615 4.111
 1.498 -1.614 4.099
 1.528 -1.618 4.103
 1.557 -1.622 4.103
 1.591 -1.63 4.114
 1.62 -1.633 4.112
 1.639 -1.626 4.084
 1.666 -1.627 4.077
 1.689 -1.623 4.059
 1.72 -1.628 4.06
 1.731 -1.614 4.016
 1.767 -1.623 4.028
 1.785 -1.616 3.999
 1.815 -1.62 3.999
 1.85 -1.628 4.007
 1.871 -1.623 3.985
 1.874 -1.604 3.925
 1.868 -1.577 3.848
 1.883 -1.569 3.817
 1.879 -1.545 3.748
 1.908 -1.549 3.745
 1.913 -1.533 3.696
 1.907 -1.509 3.626
 0 0 0
 0 0 0
 0 0 0
 0 0 0
 0 0 0
 1.782 -1.311 3.085
 1.851 -1.346 3.157
 1.862 -1.338 3.128
 1.852 -1.316 3.065
 1.831 -1.287 2.984
 -2.305 -1.611 3.901
 -2.273 -1.607 3.905
 -2.252 -1.611 3.929
 -2.238 -1.621 3.965
 -2.201 -1.613 3.959
 -2.171 -1.611 3.966
 -2.156 -1.62 4.001
 -2.11 -1.605 3.976
 -2.094 -1.614 4.01
 -2.064 -1.612 4.016
 -2.059 -1.628 4.07
 -2.023 -1.622 4.065
 -1.995 -1.621 4.073
 -1.966 -1.62 4.081
 -1.94 -1.62 4.093
 -1.897 -1.607 4.071
 -1.887 -1.621 4.118
 -1.854 -1.616 4.114
 -1.814 -1.604 4.095
 -1.794 -1.61 4.12
 -1.775 -1.617 4.147
 -1.74 -1.609 4.138
 -1.708 -1.605 4.135
 -1.685 -1.609 4.154
 -1.672 -1.621 4.197
 -1.625 -1.602 4.154
 -1.596 -1.6 4.158
 -1.57 -1.6 4.168
 -1.553 -1.61 4.203
 -1.519 -1.602 4.189
 -1.491 -1.601 4.193
 -1.469 -1.606 4.214
 -1.442 -1.606 4.223
 -1.41 -1.6 4.215
 -1.385 -1.602 4.226
 -1.369 -1.614 4.265
 -1.334 -1.604 4.247
 -1.298 -1.592 4.221
 -1.277 -1.599 4.247
 -1.243 -1.589 4.228
 -1.215 -1.588 4.229
 -1.196 -1.597 4.261
 -1.173 -1.603 4.282
 -1.14 -1.593 4.262
 -1.105 -1.581 4.235
 -1.084 -1.589 4.26
 -1.056 -1.586 4.258
 -1.026 -1.581 4.251
 -1 -1.58 4.253
 -0.978 -1.587 4.277
 -0.944 -1.574 4.246
 -0.916 -1.571 4.243
 -0.898 -1.586 4.288
 -0.872 -1.587 4.293
 -0.84 -1.575 4.265
 -0.811 -1.569 4.252
 -0.785 -1.57 4.26
 -0.765 -1.581 4.294
 -0.728 -1.558 4.236
 -0.707 -1.568 4.266
 -0.678 -1.561 4.25
 -0.654 -1.566 4.267
 -0.627 -1.565 4.265
 -0.6 -1.56 4.255
 -0.572 -1.554 4.242
 -0.551 -1.569 4.285
 -0.523 -1.561 4.267
 -0.497 -1.562 4.27
 -0.473 -1.567 4.286
 -0.445 -1.56 4.268
 -0.42 -1.562 4.277
 -0.393 -1.556 4.262
 -0.367 -1.557 4.265
 -0.341 -1.555 4.263
 -0.316 -1.557 4.269
 -0.29 -1.555 4.265
 -0.264 -1.553 4.259
 -0.24 -1.561 4.282
 -0.212 -1.547 4.245
 -0.188 -1.558 4.276
 -0.162 -1.557 4.274
 -0.136 -1.552 4.259
 -0.111 -1.555 4.268
 -0.085 -1.55 4.254
 -0.059 -1.548 4.251
 -0.034 -1.548 4.248
 -0.008 -1.549 4.251
 0.016 -1.548 4.249
 0.042 -1.546 4.242
 0.067 -1.553 4.261
 0.093 -1.547 4.245
 0.119 -1.557 4.27
 0.144 -1.554 4.261
 0.169 -1.547 4.243
 0.196 -1.559 4.272
 0.219 -1.542 4.225
 0.246 -1.555 4.26
 0.269 -1.539 4.215
 0.297 -1.554 4.254
 0.323 -1.554 4.252
 0.348 -1.555 4.251
 0.376 -1.563 4.271
 0.4 -1.556 4.251
 0.426 -1.558 4.253
 0.447 -1.543 4.21
 0.475 -1.552 4.232
 0.502 -1.558 4.245
 0.53 -1.565 4.26
 0.554 -1.558 4.24
 0.581 -1.564 4.253
 0.606 -1.561 4.241
 0.631 -1.561 4.238
 0.657 -1.562 4.237
 0.68 -1.556 4.216
 0.71 -1.564 4.235
 0.738 -1.571 4.248
 0.759 -1.561 4.216
 0.79 -1.572 4.242
 0.818 -1.576 4.249
 0.843 -1.575 4.242
 0.868 -1.573 4.232
 0.895 -1.575 4.233
 0.919 -1.572 4.218
 0.951 -1.583 4.244
 0.973 -1.577 4.221
 1.003 -1.584 4.235
 1.028 -1.582 4.225
 1.055 -1.583 4.221
 1.085 -1.589 4.231
 1.103 -1.579 4.197
 1.133 -1.585 4.207
 1.161 -1.586 4.205
 1.187 -1.587 4.199
 1.218 -1.594 4.211
 1.252 -1.603 4.23
 1.272 -1.597 4.205
 1.29 -1.587 4.17
 1.335 -1.609 4.223
 1.366 -1.615 4.229
 1.375 -1.595 4.17
 1.405 -1.6 4.174
 1.438 -1.607 4.185
 1.466 -1.609 4.181
 1.484 -1.601 4.152
 1.527 -1.618 4.189
 1.565 -1.63 4.21
 1.59 -1.628 4.196
 1.599 -1.611 4.142
 1.626 -1.612 4.134
 1.658 -1.618 4.141
 1.67 -1.604 4.095
 1.711 -1.618 4.12
 1.736 -1.617 4.109
 1.755 -1.61 4.081
 1.788 -1.616 4.086
 1.814 -1.616 4.073
 1.842 -1.618 4.068
 1.858 -1.609 4.034
 1.876 -1.602 4.005
 1.871 -1.575 3.928
 1.896 -1.575 3.916
 1.889 -1.549 3.839
 1.888 -1.527 3.774
 1.893 -1.512 3.725
 1.917 -1.511 3.712
 0 0 0
 0 0 0
 0 0 0
 0 0 0
 0 0 0
 0 0 0
 0 0 0
 1.812 -1.296 3.097
 1.846 -1.306 3.109
 1.862 -1.302 3.088
 1.839 -1.272 3.005
 -2.352 -1.617 3.991
 -2.295 -1.596 3.953
 -2.311 -1.626 4.041
 -2.258 -1.608 4.01
 -2.249 -1.621 4.057
 -2.21 -1.613 4.047
 -2.184 -1.614 4.063
 -2.158 -1.615 4.077
 -2.119 -1.606 4.067
 -2.105 -1.616 4.105
 -2.075 -1.615 4.113
 -2.043 -1.61 4.114
 -2.028 -1.62 4.151
 -2.003 -1.622 4.167
 -1.974 -1.621 4.176
 -1.921 -1.6 4.132
 -1.903 -1.608 4.162
 -1.871 -1.604 4.162
 -1.845 -1.604 4.174
 -1.819 -1.605 4.187
 -1.781 -1.596 4.173
 -1.758 -1.6 4.192
 -1.742 -1.609 4.227
 -1.718 -1.613 4.246
 -1.679 -1.602 4.226
 -1.65 -1.6 4.23
 -1.619 -1.595 4.226
 -1.586 -1.59 4.22
 -1.558 -1.588 4.224
 -1.535 -1.593 4.244
 -1.503 -1.588 4.239
 -1.475 -1.586 4.243
 -1.451 -1.589 4.258
 -1.429 -1.595 4.28
 -1.398 -1.59 4.276
 -1.379 -1.599 4.308
 -1.341 -1.586 4.277
 -1.313 -1.585 4.282
 -1.279 -1.576 4.264
 -1.256 -1.58 4.282
 -1.223 -1.571 4.265
 -1.197 -1.573 4.276
 -1.166 -1.567 4.264
 -1.145 -1.574 4.289
 -1.107 -1.558 4.253
 -1.079 -1.556 4.252
 -1.067 -1.576 4.312
 -1.039 -1.574 4.312
 -1.006 -1.564 4.29
 -0.974 -1.555 4.269
 -0.954 -1.565 4.301
 -0.927 -1.564 4.303
 -0.893 -1.55 4.269
 -0.874 -1.564 4.312
 -0.838 -1.546 4.265
 -0.816 -1.553 4.289
 -0.79 -1.554 4.295
 -0.763 -1.553 4.295
 -0.733 -1.543 4.273
 -0.702 -1.533 4.249
 -0.682 -1.546 4.288
 -0.65 -1.531 4.248
 -0.63 -1.545 4.29
 -0.601 -1.538 4.273
 -0.578 -1.545 4.294
 -0.55 -1.54 4.285
 -0.524 -1.539 4.284
 -0.497 -1.535 4.276
 -0.47 -1.532 4.268
 -0.442 -1.525 4.251
 -0.417 -1.527 4.258
 -0.393 -1.531 4.27
 -0.367 -1.532 4.275
 -0.34 -1.522 4.25
 -0.315 -1.525 4.259
 -0.288 -1.517 4.239
 -0.263 -1.524 4.257
 -0.237 -1.522 4.253
 -0.213 -1.531 4.28
 -0.188 -1.531 4.28
 -0.161 -1.525 4.263
 -0.136 -1.531 4.28
 -0.11 -1.523 4.259
 -0.084 -1.522 4.255
 -0.059 -1.523 4.259
 -0.034 -1.522 4.255
 -0.008 -1.529 4.275
 0.016 -1.521 4.253
 0.042 -1.519 4.245
 0.067 -1.525 4.264
 0.093 -1.524 4.258
 0.118 -1.523 4.256
 0.144 -1.521 4.249
 0.169 -1.522 4.249
 0.194 -1.519 4.242
 0.221 -1.528 4.265
 0.247 -1.531 4.271
 0.271 -1.526 4.255
 0.297 -1.526 4.254
 0.323 -1.528 4.259
 0.347 -1.522 4.239
 0.376 -1.535 4.274
 0.398 -1.525 4.243
 0.426 -1.534 4.266
 0.45 -1.527 4.245
 0.476 -1.528 4.242
 0.506 -1.543 4.282
 0.528 -1.533 4.251
 0.555 -1.537 4.26
 0.58 -1.535 4.252
 0.605 -1.532 4.239
 0.626 -1.523 4.21
 0.659 -1.539 4.252
 0.684 -1.538 4.244
 0.71 -1.54 4.246
 0.733 -1.533 4.224
 0.763 -1.542 4.244
 0.783 -1.533 4.214
 0.81 -1.534 4.213
 0.843 -1.549 4.249
 0.868 -1.547 4.24
 0.895 -1.549 4.241
 0.917 -1.543 4.219
 0.951 -1.556 4.25
 0.972 -1.549 4.226
 0.998 -1.549 4.219
 1.025 -1.551 4.219
 1.06 -1.565 4.252
 1.082 -1.559 4.229
 1.112 -1.564 4.236
 1.14 -1.567 4.239
 1.165 -1.567 4.231
 1.187 -1.561 4.209
 1.218 -1.567 4.219
 1.247 -1.571 4.222
 1.266 -1.562 4.192
 1.3 -1.572 4.21
 1.334 -1.582 4.229
 1.366 -1.589 4.239
 1.389 -1.585 4.221
 1.409 -1.578 4.194
 1.439 -1.582 4.198
 1.465 -1.582 4.188
 1.502 -1.593 4.208
 1.521 -1.585 4.181
 1.561 -1.599 4.209
 1.581 -1.593 4.182
 1.601 -1.587 4.158
 1.64 -1.599 4.181
 1.682 -1.614 4.208
 1.691 -1.597 4.155
 1.72 -1.599 4.151
 1.75 -1.603 4.15
 1.775 -1.601 4.136
 1.792 -1.593 4.103
 1.824 -1.598 4.106
 1.847 -1.595 4.086
 1.872 -1.594 4.074
 1.879 -1.577 4.02
 1.9 -1.574 3.999
 1.894 -1.548 3.921
 1.899 -1.531 3.867
 1.908 -1.518 3.823
 1.914 -1.503 3.774
 1.917 -1.486 3.719
 0 0 0
 0 0 0
 0 0 0
 0 0 0
 0 0 0
 0 0 0
 0 0 0
 1.86 -1.309 3.188
 1.855 -1.29 3.131
 1.831 -1.259 3.044
 1.84 -1.251 3.014
 0 0 0
 -2.34 -1.6 4.041
 -2.325 -1.608 4.076
 -2.291 -1.604 4.078
 -2.269 -1.608 4.102
 -2.257 -1.619 4.144
 -2.204 -1.601 4.111
 -2.181 -1.605 4.132
 -2.16 -1.61 4.156
 -2.128 -1.606 4.16
 -2.099 -1.606 4.17
 -2.071 -1.605 4.181
 -2.054 -1.613 4.214
 -1.999 -1.592 4.169
 -1.996 -1.612 4.233
 -1.951 -1.598 4.207
 -1.922 -1.596 4.213
 -1.898 -1.599 4.231
 -1.861 -1.591 4.22
 -1.845 -1.601 4.256
 -1.799 -1.585 4.224
 -1.784 -1.596 4.263
 -1.752 -1.592 4.261
 -1.732 -1.598 4.289
 -1.682 -1.578 4.242
 -1.654 -1.576 4.248
 -1.63 -1.58 4.266
 -1.6 -1.577 4.266
 -1.571 -1.575 4.27
 -1.531 -1.562 4.241
 -1.517 -1.576 4.287
 -1.498 -1.584 4.318
 -1.447 -1.559 4.257
 -1.44 -1.579 4.321
 -1.394 -1.559 4.273
 -1.368 -1.56 4.282
 -1.351 -1.571 4.321
 -1.319 -1.565 4.31
 -1.28 -1.551 4.278
 -1.259 -1.558 4.302
 -1.227 -1.551 4.289
 -1.195 -1.544 4.278
 -1.163 -1.536 4.26
 -1.143 -1.545 4.292
 -1.125 -1.557 4.331
 -1.084 -1.537 4.28
 -1.058 -1.537 4.284
 -1.028 -1.532 4.275
 -1.003 -1.534 4.286
 -0.979 -1.536 4.298
 -0.949 -1.531 4.289
 -0.921 -1.528 4.284
 -0.891 -1.522 4.271
 -0.867 -1.525 4.283
 -0.842 -1.527 4.294
 -0.814 -1.524 4.289
 -0.793 -1.533 4.318
 -0.756 -1.513 4.265
 -0.736 -1.524 4.3
 -0.706 -1.517 4.282
 -0.68 -1.515 4.281
 -0.654 -1.515 4.283
 -0.629 -1.518 4.296
 -0.599 -1.507 4.267
 -0.574 -1.508 4.274
 -0.55 -1.514 4.292
 -0.518 -1.496 4.242
 -0.498 -1.515 4.298
 -0.473 -1.514 4.3
 -0.443 -1.502 4.265
 -0.418 -1.506 4.278
 -0.391 -1.499 4.262
 -0.369 -1.513 4.303
 -0.343 -1.512 4.301
 -0.317 -1.513 4.306
 -0.289 -1.501 4.273
 -0.265 -1.507 4.29
 -0.238 -1.502 4.278
 -0.212 -1.498 4.265
 -0.185 -1.486 4.234
 -0.162 -1.504 4.284
 -0.136 -1.501 4.277
 -0.11 -1.498 4.268
 -0.084 -1.495 4.26
 -0.059 -1.501 4.278
 -0.033 -1.499 4.27
 -0.008 -1.499 4.27
 0.017 -1.503 4.28
 0.042 -1.5 4.271
 0.067 -1.479 4.212
 0.093 -1.496 4.261
 0.118 -1.497 4.261
 0.144 -1.503 4.277
 0.169 -1.498 4.262
 0.196 -1.503 4.276
 0.22 -1.497 4.256
 0.247 -1.503 4.274
 0.272 -1.501 4.265
 0.296 -1.493 4.241
 0.325 -1.51 4.288
 0.349 -1.505 4.27
 0.373 -1.499 4.252
 0.402 -1.51 4.281
 0.425 -1.504 4.26
 0.451 -1.503 4.255
 0.477 -1.507 4.264
 0.501 -1.502 4.248
 0.528 -1.506 4.257
 0.553 -1.503 4.245
 0.579 -1.505 4.248
 0.607 -1.513 4.265
 0.63 -1.506 4.242
 0.654 -1.503 4.23
 0.686 -1.517 4.267
 0.709 -1.511 4.246
 0.734 -1.511 4.241
 0.763 -1.517 4.256
 0.788 -1.515 4.244
 0.816 -1.52 4.254
 0.837 -1.511 4.225
 0.867 -1.519 4.242
 0.895 -1.522 4.246
 0.921 -1.524 4.246
 0.948 -1.525 4.244
 0.964 -1.51 4.197
 0.999 -1.525 4.233
 1.021 -1.519 4.209
 1.059 -1.536 4.253
 1.078 -1.527 4.222
 1.112 -1.538 4.245
 1.135 -1.535 4.23
 1.164 -1.538 4.231
 1.197 -1.547 4.251
 1.219 -1.542 4.23
 1.246 -1.543 4.227
 1.273 -1.545 4.223
 1.306 -1.553 4.239
 1.322 -1.541 4.199
 1.358 -1.553 4.223
 1.39 -1.558 4.23
 1.423 -1.566 4.244
 1.446 -1.562 4.225
 1.472 -1.562 4.217
 1.499 -1.563 4.21
 1.535 -1.573 4.226
 1.558 -1.57 4.209
 1.585 -1.57 4.2
 1.619 -1.577 4.211
 1.641 -1.573 4.191
 1.684 -1.588 4.221
 1.698 -1.577 4.181
 1.738 -1.589 4.205
 1.761 -1.586 4.184
 1.785 -1.583 4.168
 1.819 -1.589 4.173
 1.828 -1.574 4.123
 1.86 -1.579 4.124
 1.868 -1.563 4.073
 1.886 -1.557 4.044
 1.892 -1.54 3.989
 1.899 -1.525 3.939
 1.918 -1.52 3.914
 1.901 -1.487 3.817
 0 0 0
 0 0 0
 0 0 0
 0 0 0
 0 0 0
 0 0 0
 0 0 0
 0 0 0
 0 0 0
 1.887 -1.306 3.242
 1.851 -1.266 3.131
 1.868 -1.263 3.114
 1.839 -1.23 3.02
 -2.428 -1.612 4.14
 -2.39 -1.606 4.138
 -2.366 -1.608 4.158
 -2.298 -1.582 4.102
 -2.305 -1.605 4.177
 -2.261 -1.594 4.162
 -2.24 -1.6 4.188
 -2.205 -1.595 4.187
 -2.174 -1.592 4.193
 -2.133 -1.583 4.181
 -2.139 -1.608 4.26
 -2.077 -1.582 4.202
 -2.064 -1.593 4.244
 -2.025 -1.585 4.233
 -2.019 -1.602 4.291
 -1.971 -1.587 4.259
 -1.949 -1.591 4.283
 -1.918 -1.588 4.285
 -1.893 -1.591 4.303
 -1.854 -1.582 4.288
 -1.825 -1.58 4.295
 -1.8 -1.583 4.311
 -1.776 -1.586 4.33
 -1.732 -1.572 4.3
 -1.693 -1.56 4.278
 -1.661 -1.557 4.277
 -1.638 -1.56 4.295
 -1.61 -1.56 4.303
 -1.582 -1.559 4.31
 -1.551 -1.556 4.308
 -1.525 -1.557 4.319
 -1.487 -1.545 4.295
 -1.464 -1.55 4.316
 -1.433 -1.545 4.31
 -1.404 -1.543 4.311
 -1.367 -1.532 4.287
 -1.345 -1.537 4.309
 -1.311 -1.529 4.291
 -1.285 -1.53 4.301
 -1.257 -1.528 4.303
 -1.225 -1.521 4.29
 -1.199 -1.522 4.298
 -1.17 -1.52 4.298
 -1.145 -1.521 4.308
 -1.108 -1.508 4.274
 -1.086 -1.514 4.296
 -1.055 -1.507 4.283
 -1.034 -1.514 4.308
 -0.997 -1.498 4.268
 -0.973 -1.501 4.281
 -0.947 -1.502 4.287
 -0.923 -1.506 4.303
 -0.895 -1.503 4.299
 -0.868 -1.501 4.299
 -0.84 -1.497 4.291
 -0.814 -1.497 4.296
 -0.792 -1.505 4.32
 -0.76 -1.494 4.293
 -0.735 -1.496 4.302
 -0.705 -1.489 4.284
 -0.68 -1.49 4.292
 -0.651 -1.483 4.273
 -0.627 -1.487 4.288
 -0.6 -1.484 4.281
 -0.574 -1.484 4.284
 -0.548 -1.484 4.288
 -0.524 -1.488 4.3
 -0.499 -1.491 4.312
 -0.468 -1.475 4.267
 -0.444 -1.481 4.288
 -0.419 -1.481 4.289
 -0.394 -1.483 4.297
 -0.367 -1.48 4.29
 -0.342 -1.481 4.294
 -0.314 -1.475 4.276
 -0.289 -1.476 4.28
 -0.263 -1.472 4.269
 -0.239 -1.48 4.295
 -0.213 -1.479 4.292
 -0.187 -1.476 4.283
 -0.161 -1.472 4.272
 -0.135 -1.471 4.272
 -0.11 -1.473 4.278
 -0.084 -1.469 4.265
 -0.058 -1.46 4.241
 -0.033 -1.479 4.293
 -0.008 -1.471 4.27
 0.017 -1.463 4.248
 0.042 -1.475 4.28
 0.067 -1.46 4.237
 0.093 -1.475 4.28
 0.118 -1.466 4.253
 0.143 -1.462 4.24
 0.17 -1.475 4.277
 0.195 -1.474 4.273
 0.22 -1.472 4.266
 0.246 -1.471 4.262
 0.274 -1.484 4.299
 0.298 -1.477 4.276
 0.323 -1.478 4.276
 0.349 -1.476 4.27
 0.375 -1.48 4.277
 0.4 -1.479 4.273
 0.423 -1.468 4.24
 0.449 -1.471 4.246
 0.476 -1.477 4.261
 0.501 -1.475 4.251
 0.528 -1.479 4.261
 0.556 -1.486 4.278
 0.58 -1.482 4.263
 0.604 -1.479 4.251
 0.631 -1.481 4.252
 0.659 -1.487 4.265
 0.685 -1.489 4.267
 0.713 -1.492 4.274
 0.736 -1.488 4.257
 0.761 -1.487 4.249
 0.79 -1.493 4.264
 0.811 -1.485 4.235
 0.843 -1.496 4.263
 0.867 -1.493 4.248
 0.895 -1.497 4.256
 0.916 -1.489 4.227
 0.942 -1.49 4.224
 0.973 -1.497 4.241
 0.998 -1.497 4.234
 1.028 -1.503 4.245
 1.058 -1.509 4.258
 1.08 -1.504 4.237
 1.11 -1.51 4.247
 1.138 -1.512 4.247
 1.164 -1.511 4.239
 1.194 -1.517 4.248
 1.223 -1.521 4.252
 1.239 -1.509 4.211
 1.269 -1.514 4.218
 1.299 -1.518 4.223
 1.33 -1.524 4.233
 1.358 -1.526 4.23
 1.389 -1.531 4.235
 1.413 -1.529 4.221
 1.438 -1.528 4.211
 1.464 -1.528 4.202
 1.503 -1.54 4.228
 1.53 -1.54 4.221
 1.554 -1.539 4.206
 1.581 -1.539 4.199
 1.613 -1.545 4.205
 1.64 -1.545 4.196
 1.675 -1.553 4.209
 1.7 -1.552 4.195
 1.728 -1.553 4.188
 1.756 -1.554 4.18
 1.788 -1.559 4.183
 1.813 -1.557 4.169
 1.834 -1.553 4.145
 1.845 -1.54 4.1
 1.872 -1.54 4.089
 1.875 -1.521 4.028
 1.894 -1.516 4.002
 1.91 -1.508 3.971
 1.905 -1.484 3.897
 0 0 0
 0 0 0
 0 0 0
 0 0 0
 0 0 0
 0 0 0
 0 0 0
 0 0 0
 0 0 0
 0 0 0
 1.822 -1.239 3.136
 1.886 -1.267 3.198
 1.88 -1.25 3.141
 1.852 -1.217 3.047
 -2.45 -1.599 4.189
 -2.444 -1.614 4.242
 -2.396 -1.601 4.221
 -2.378 -1.608 4.254
 -2.319 -1.587 4.213
 -2.292 -1.588 4.228
 -2.299 -1.613 4.308
 -2.262 -1.607 4.304
 -2.221 -1.599 4.295
 -2.191 -1.597 4.303
 -2.145 -1.585 4.282
 -2.121 -1.587 4.301
 -2.081 -1.579 4.29
 -2.068 -1.59 4.332
 -2.025 -1.579 4.314
 -1.986 -1.571 4.301
 -1.976 -1.585 4.352
 -1.925 -1.566 4.311
 -1.895 -1.565 4.318
 -1.854 -1.554 4.297
 -1.83 -1.557 4.316
 -1.795 -1.551 4.309
 -1.765 -1.549 4.311
 -1.743 -1.554 4.336
 -1.7 -1.54 4.305
 -1.664 -1.532 4.292
 -1.645 -1.54 4.324
 -1.602 -1.525 4.291
 -1.578 -1.528 4.306
 -1.556 -1.533 4.331
 -1.531 -1.535 4.344
 -1.486 -1.518 4.302
 -1.458 -1.516 4.305
 -1.428 -1.513 4.304
 -1.402 -1.515 4.315
 -1.365 -1.503 4.289
 -1.339 -1.504 4.298
 -1.319 -1.512 4.328
 -1.29 -1.51 4.328
 -1.254 -1.499 4.303
 -1.228 -1.498 4.309
 -1.2 -1.497 4.311
 -1.167 -1.489 4.292
 -1.14 -1.489 4.299
 -1.114 -1.489 4.304
 -1.082 -1.482 4.29
 -1.05 -1.474 4.271
 -1.03 -1.482 4.299
 -1.003 -1.482 4.305
 -0.972 -1.474 4.287
 -0.945 -1.473 4.287
 -0.924 -1.481 4.315
 -0.888 -1.465 4.272
 -0.868 -1.474 4.304
 -0.838 -1.468 4.291
 -0.813 -1.471 4.302
 -0.788 -1.472 4.31
 -0.752 -1.453 4.257
 -0.735 -1.471 4.312
 -0.706 -1.465 4.299
 -0.678 -1.46 4.287
 -0.652 -1.459 4.287
 -0.626 -1.46 4.291
 -0.602 -1.464 4.307
 -0.575 -1.461 4.301
 -0.546 -1.452 4.277
 -0.522 -1.458 4.297
 -0.497 -1.458 4.3
 -0.47 -1.457 4.298
 -0.443 -1.45 4.279
 -0.418 -1.453 4.289
 -0.388 -1.439 4.25
 -0.365 -1.446 4.273
 -0.339 -1.445 4.271
 -0.314 -1.448 4.28
 -0.288 -1.446 4.275
 -0.264 -1.452 4.295
 -0.236 -1.441 4.263
 -0.211 -1.443 4.271
 -0.187 -1.456 4.308
 -0.161 -1.449 4.287
 -0.134 -1.439 4.259
 -0.11 -1.448 4.286
 -0.084 -1.44 4.262
 -0.058 -1.439 4.258
 -0.033 -1.436 4.249
 -0.008 -1.436 4.251
 0.017 -1.44 4.26
 0.042 -1.446 4.279
 0.068 -1.446 4.279
 0.093 -1.443 4.268
 0.119 -1.446 4.276
 0.144 -1.449 4.284
 0.168 -1.433 4.234
 0.194 -1.442 4.26
 0.22 -1.446 4.271
 0.246 -1.445 4.267
 0.272 -1.448 4.274
 0.297 -1.445 4.265
 0.321 -1.442 4.254
 0.347 -1.443 4.254
 0.374 -1.449 4.269
 0.399 -1.447 4.261
 0.424 -1.447 4.26
 0.448 -1.443 4.244
 0.475 -1.447 4.253
 0.501 -1.45 4.259
 0.529 -1.457 4.278
 0.553 -1.452 4.259
 0.576 -1.446 4.238
 0.604 -1.452 4.254
 0.629 -1.452 4.249
 0.659 -1.461 4.272
 0.684 -1.461 4.268
 0.709 -1.459 4.258
 0.734 -1.458 4.252
 0.762 -1.463 4.262
 0.795 -1.475 4.294
 0.815 -1.466 4.263
 0.839 -1.463 4.25
 0.863 -1.46 4.237
 0.893 -1.468 4.254
 0.917 -1.465 4.24
 0.944 -1.467 4.242
 0.975 -1.475 4.26
 0.993 -1.464 4.221
 1.024 -1.471 4.238
 1.054 -1.476 4.247
 1.075 -1.47 4.222
 1.106 -1.477 4.236
 1.131 -1.476 4.227
 1.158 -1.478 4.225
 1.184 -1.478 4.22
 1.212 -1.481 4.221
 1.24 -1.483 4.221
 1.276 -1.495 4.247
 1.3 -1.492 4.232
 1.33 -1.498 4.24
 1.366 -1.508 4.262
 1.385 -1.5 4.23
 1.408 -1.497 4.215
 1.442 -1.505 4.23
 1.468 -1.505 4.22
 1.502 -1.512 4.233
 1.529 -1.513 4.226
 1.555 -1.513 4.217
 1.586 -1.517 4.22
 1.616 -1.52 4.22
 1.64 -1.518 4.204
 1.672 -1.523 4.209
 1.697 -1.522 4.196
 1.726 -1.525 4.193
 1.765 -1.535 4.212
 1.784 -1.528 4.182
 1.818 -1.535 4.19
 1.837 -1.528 4.16
 1.852 -1.519 4.124
 1.878 -1.519 4.113
 1.88 -1.499 4.048
 1.887 -1.484 3.996
 1.881 -1.459 3.919
 0 0 0
 0 0 0
 0 0 0
 0 0 0
 0 0 0
 0 0 0
 0 0 0
 0 0 0
 0 0 0
 0 0 0
 0 0 0
 0 0 0
 1.858 -1.227 3.158
 1.877 -1.226 3.142
 1.86 -1.201 3.067
 -2.483 -1.591 4.254
 -2.484 -1.611 4.322
 -2.392 -1.569 4.224
 -2.313 -1.536 4.147
 -2.373 -1.595 4.322
 -2.35 -1.599 4.345
 -2.298 -1.583 4.315
 -2.285 -1.594 4.358
 -2.224 -1.572 4.31
 -2.211 -1.583 4.352
 -2.163 -1.569 4.326
 -2.144 -1.576 4.358
 -2.078 -1.548 4.292
 -2.065 -1.56 4.336
 -2.028 -1.554 4.33
 -2.004 -1.557 4.349
 -1.95 -1.536 4.302
 -1.932 -1.544 4.336
 -1.894 -1.536 4.323
 -1.867 -1.537 4.336
 -1.839 -1.537 4.346
 -1.794 -1.523 4.315
 -1.777 -1.532 4.351
 -1.729 -1.514 4.309
 -1.691 -1.505 4.293
 -1.677 -1.517 4.336
 -1.628 -1.497 4.287
 -1.609 -1.504 4.316
 -1.581 -1.504 4.325
 -1.549 -1.499 4.318
 -1.511 -1.488 4.295
 -1.483 -1.487 4.301
 -1.452 -1.484 4.297
 -1.429 -1.488 4.316
 -1.389 -1.473 4.281
 -1.37 -1.482 4.315
 -1.351 -1.491 4.346
 -1.307 -1.472 4.297
 -1.286 -1.479 4.324
 -1.251 -1.468 4.298
 -1.226 -1.47 4.312
 -1.2 -1.471 4.319
 -1.167 -1.462 4.301
 -1.144 -1.467 4.321
 -1.116 -1.466 4.323
 -1.085 -1.46 4.309
 -1.053 -1.451 4.289
 -1.028 -1.453 4.299
 -0.999 -1.449 4.293
 -0.972 -1.448 4.295
 -0.944 -1.446 4.291
 -0.916 -1.442 4.285
 -0.891 -1.445 4.297
 -0.866 -1.445 4.303
 -0.836 -1.44 4.291
 -0.81 -1.438 4.29
 -0.779 -1.429 4.266
 -0.755 -1.434 4.283
 -0.73 -1.435 4.291
 -0.707 -1.441 4.312
 -0.677 -1.432 4.289
 -0.649 -1.427 4.276
 -0.628 -1.437 4.309
 -0.599 -1.431 4.293
 -0.573 -1.43 4.294
 -0.548 -1.431 4.298
 -0.523 -1.435 4.313
 -0.493 -1.424 4.28
 -0.466 -1.417 4.261
 -0.447 -1.439 4.33
 -0.417 -1.426 4.293
 -0.389 -1.417 4.266
 -0.366 -1.426 4.296
 -0.339 -1.421 4.283
 -0.316 -1.43 4.312
 -0.289 -1.423 4.291
 -0.263 -1.422 4.289
 -0.237 -1.42 4.282
 -0.21 -1.409 4.251
 -0.186 -1.418 4.278
 -0.159 -1.405 4.24
 -0.135 -1.422 4.291
 -0.11 -1.422 4.293
 -0.084 -1.425 4.3
 -0.058 -1.421 4.29
 -0.033 -1.413 4.266
 -0.007 -1.419 4.281
 0.017 -1.421 4.289
 0.042 -1.417 4.275
 0.068 -1.415 4.269
 0.093 -1.42 4.282
 0.119 -1.417 4.274
 0.145 -1.428 4.305
 0.168 -1.41 4.25
 0.195 -1.418 4.273
 0.22 -1.417 4.267
 0.245 -1.416 4.264
 0.269 -1.41 4.244
 0.296 -1.416 4.26
 0.321 -1.415 4.256
 0.348 -1.423 4.277
 0.373 -1.42 4.265
 0.399 -1.422 4.271
 0.421 -1.411 4.236
 0.449 -1.421 4.262
 0.475 -1.421 4.259
 0.501 -1.422 4.261
 0.524 -1.417 4.242
 0.552 -1.424 4.259
 0.58 -1.43 4.274
 0.6 -1.418 4.236
 0.631 -1.429 4.265
 0.654 -1.425 4.248
 0.684 -1.435 4.275
 0.705 -1.424 4.239
 0.738 -1.439 4.28
 0.761 -1.434 4.261
 0.787 -1.436 4.262
 0.817 -1.442 4.277
 0.837 -1.432 4.243
 0.858 -1.426 4.22
 0.888 -1.433 4.237
 0.92 -1.443 4.26
 0.939 -1.433 4.226
 0.973 -1.445 4.254
 0.994 -1.438 4.23
 1.029 -1.452 4.264
 1.052 -1.448 4.246
 1.082 -1.453 4.257
 1.107 -1.453 4.249
 1.132 -1.451 4.237
 1.164 -1.459 4.255
 1.19 -1.46 4.25
 1.22 -1.464 4.255
 1.241 -1.458 4.232
 1.263 -1.453 4.211
 1.299 -1.465 4.237
 1.326 -1.466 4.232
 1.352 -1.466 4.225
 1.386 -1.475 4.244
 1.406 -1.468 4.216
 1.433 -1.469 4.21
 1.47 -1.48 4.234
 1.492 -1.476 4.215
 1.525 -1.482 4.223
 1.549 -1.48 4.208
 1.582 -1.487 4.219
 1.62 -1.497 4.238
 1.636 -1.488 4.203
 1.667 -1.492 4.204
 1.702 -1.499 4.216
 1.731 -1.502 4.212
 1.749 -1.495 4.182
 1.79 -1.506 4.204
 1.805 -1.496 4.166
 1.837 -1.501 4.168
 1.859 -1.498 4.148
 1.868 -1.483 4.097
 1.886 -1.478 4.07
 1.905 -1.472 4.043
 0 0 0
 0 0 0
 0 0 0
 0 0 0
 0 0 0
 0 0 0
 0 0 0
 0 0 0
 0 0 0
 0 0 0
 0 0 0
 0 0 0
 1.803 -1.183 3.117
 1.864 -1.21 3.175
 1.882 -1.207 3.158
 1.842 -1.169 3.046
 -2.523 -1.588 4.333
 -2.504 -1.594 4.366
 -2.43 -1.565 4.301
 -2.382 -1.553 4.28
 -2.387 -1.576 4.356
 -2.336 -1.561 4.329
 -2.297 -1.554 4.324
 -2.267 -1.554 4.334
 -2.224 -1.544 4.32
 -2.202 -1.549 4.345
 -2.157 -1.537 4.324
 -2.138 -1.543 4.355
 -2.106 -1.541 4.361
 -2.069 -1.535 4.355
 -2.029 -1.526 4.339
 -2.004 -1.529 4.359
 -1.958 -1.515 4.33
 -1.928 -1.514 4.337
 -1.893 -1.508 4.33
 -1.868 -1.51 4.347
 -1.822 -1.496 4.315
 -1.776 -1.48 4.279
 -1.758 -1.488 4.314
 -1.734 -1.491 4.33
 -1.708 -1.492 4.343
 -1.672 -1.485 4.331
 -1.651 -1.491 4.357
 -1.604 -1.473 4.313
 -1.585 -1.48 4.342
 -1.546 -1.469 4.318
 -1.515 -1.466 4.316
 -1.485 -1.463 4.317
 -1.451 -1.456 4.303
 -1.427 -1.459 4.319
 -1.393 -1.451 4.303
 -1.371 -1.456 4.325
 -1.348 -1.461 4.345
 -1.306 -1.444 4.303
 -1.279 -1.443 4.305
 -1.258 -1.45 4.334
 -1.223 -1.44 4.309
 -1.195 -1.439 4.312
 -1.166 -1.435 4.305
 -1.137 -1.432 4.302
 -1.111 -1.432 4.308
 -1.082 -1.43 4.306
 -1.056 -1.429 4.31
 -1.031 -1.432 4.322
 -1.003 -1.43 4.32
 -0.973 -1.423 4.306
 -0.942 -1.417 4.291
 -0.916 -1.417 4.295
 -0.89 -1.417 4.299
 -0.866 -1.42 4.312
 -0.838 -1.417 4.308
 -0.808 -1.41 4.291
 -0.786 -1.417 4.315
 -0.757 -1.412 4.304
 -0.729 -1.407 4.29
 -0.701 -1.403 4.281
 -0.678 -1.408 4.3
 -0.648 -1.399 4.276
 -0.624 -1.404 4.295
 -0.598 -1.403 4.294
 -0.575 -1.409 4.315
 -0.545 -1.399 4.286
 -0.521 -1.403 4.301
 -0.492 -1.394 4.276
 -0.466 -1.394 4.277
 -0.441 -1.394 4.28
 -0.415 -1.393 4.277
 -0.39 -1.395 4.286
 -0.365 -1.398 4.297
 -0.342 -1.406 4.321
 -0.315 -1.403 4.315
 -0.286 -1.387 4.266
 -0.263 -1.398 4.3
 -0.237 -1.393 4.287
 -0.211 -1.396 4.296
 -0.186 -1.395 4.293
 -0.16 -1.394 4.29
 -0.135 -1.393 4.286
 -0.109 -1.397 4.302
 -0.083 -1.381 4.253
 -0.058 -1.391 4.282
 -0.033 -1.4 4.311
 -0.007 -1.388 4.272
 0.017 -1.396 4.296
 0.042 -1.391 4.281
 0.068 -1.387 4.266
 0.093 -1.392 4.282
 0.119 -1.39 4.275
 0.144 -1.395 4.288
 0.169 -1.384 4.256
 0.194 -1.388 4.265
 0.219 -1.381 4.243
 0.247 -1.397 4.29
 0.27 -1.385 4.252
 0.296 -1.39 4.266
 0.322 -1.391 4.266
 0.345 -1.384 4.244
 0.373 -1.393 4.268
 0.397 -1.387 4.25
 0.422 -1.389 4.251
 0.449 -1.395 4.267
 0.476 -1.399 4.278
 0.501 -1.397 4.268
 0.523 -1.388 4.237
 0.548 -1.387 4.232
 0.578 -1.399 4.265
 0.604 -1.401 4.268
 0.626 -1.393 4.24
 0.652 -1.394 4.239
 0.679 -1.398 4.248
 0.704 -1.396 4.238
 0.737 -1.411 4.28
 0.761 -1.407 4.266
 0.787 -1.41 4.268
 0.809 -1.403 4.244
 0.842 -1.416 4.279
 0.86 -1.403 4.234
 0.895 -1.418 4.275
 0.918 -1.414 4.257
 0.947 -1.419 4.268
 0.971 -1.416 4.254
 0.993 -1.411 4.233
 1.019 -1.411 4.228
 1.052 -1.422 4.256
 1.072 -1.415 4.226
 1.104 -1.422 4.244
 1.132 -1.425 4.245
 1.156 -1.423 4.232
 1.185 -1.427 4.238
 1.216 -1.433 4.248
 1.243 -1.434 4.245
 1.27 -1.435 4.242
 1.302 -1.442 4.257
 1.329 -1.443 4.252
 1.351 -1.438 4.229
 1.373 -1.435 4.211
 1.412 -1.448 4.242
 1.433 -1.443 4.219
 1.468 -1.451 4.236
 1.495 -1.452 4.23
 1.522 -1.453 4.222
 1.554 -1.458 4.23
 1.587 -1.464 4.238
 1.619 -1.469 4.243
 1.638 -1.463 4.215
 1.671 -1.469 4.223
 1.7 -1.471 4.219
 1.73 -1.473 4.216
 1.76 -1.476 4.215
 1.784 -1.474 4.198
 1.802 -1.468 4.169
 1.831 -1.469 4.163
 1.858 -1.47 4.154
 1.892 -1.475 4.158
 1.908 -1.468 4.126
 0 0 0
 0 0 0
 0 0 0
 0 0 0
 0 0 0
 0 0 0
 0 0 0
 0 0 0
 0 0 0
 0 0 0
 0 0 0
 0 0 0
 0 0 0
 0 0 0
 1.876 -1.195 3.202
 1.864 -1.174 3.134
 1.883 -1.173 3.12
 -2.519 -1.556 4.337
 -2.49 -1.556 4.351
 -2.47 -1.562 4.381
 -2.429 -1.555 4.376
 -2.373 -1.538 4.341
 -2.317 -1.52 4.303
 -2.297 -1.525 4.332
 -2.268 -1.526 4.345
 -2.23 -1.52 4.341
 -2.199 -1.518 4.349
 -2.146 -1.5 4.31
 -2.118 -1.501 4.324
 -2.097 -1.506 4.35
 -2.063 -1.502 4.351
 -2.029 -1.498 4.349
 -1.99 -1.49 4.337
 -1.965 -1.492 4.354
 -1.929 -1.486 4.347
 -1.87 -1.462 4.288
 -1.854 -1.471 4.323
 -1.827 -1.472 4.336
 -1.793 -1.467 4.33
 -1.759 -1.461 4.323
 -1.738 -1.467 4.349
 -1.689 -1.448 4.303
 -1.675 -1.46 4.346
 -1.636 -1.45 4.325
 -1.609 -1.45 4.334
 -1.578 -1.447 4.333
 -1.546 -1.442 4.327
 -1.509 -1.433 4.308
 -1.478 -1.429 4.303
 -1.455 -1.433 4.322
 -1.424 -1.429 4.316
 -1.39 -1.422 4.303
 -1.372 -1.431 4.338
 -1.336 -1.422 4.316
 -1.307 -1.419 4.313
 -1.283 -1.422 4.33
 -1.248 -1.412 4.306
 -1.221 -1.412 4.311
 -1.191 -1.407 4.302
 -1.166 -1.41 4.316
 -1.14 -1.41 4.322
 -1.106 -1.401 4.3
 -1.077 -1.397 4.294
 -1.052 -1.398 4.301
 -1.024 -1.396 4.3
 -0.991 -1.387 4.276
 -0.971 -1.395 4.306
 -0.949 -1.401 4.329
 -0.917 -1.393 4.309
 -0.887 -1.386 4.292
 -0.864 -1.39 4.309
 -0.831 -1.379 4.279
 -0.81 -1.387 4.308
 -0.781 -1.383 4.297
 -0.756 -1.384 4.304
 -0.726 -1.377 4.285
 -0.701 -1.378 4.29
 -0.675 -1.378 4.294
 -0.642 -1.362 4.247
 -0.619 -1.368 4.267
 -0.598 -1.377 4.301
 -0.565 -1.36 4.249
 -0.552 -1.391 4.347
 -0.518 -1.369 4.282
 -0.486 -1.353 4.235
 -0.465 -1.365 4.273
 -0.442 -1.372 4.297
 0 0 0
 0 0 0
 0 0 0
 0 0 0
 0 0 0
 -0.285 -1.357 4.258
 -0.261 -1.362 4.274
 -0.236 -1.368 4.294
 -0.211 -1.366 4.288
 -0.185 -1.363 4.279
 -0.16 -1.368 4.297
 -0.133 -1.356 4.26
 -0.108 -1.358 4.265
 -0.084 -1.367 4.295
 -0.058 -1.365 4.288
 -0.033 -1.363 4.281
 -0.007 -1.355 4.255
 0.017 -1.373 4.311
 0.042 -1.353 4.249
 0.067 -1.341 4.211
 0 0 0
 0 0 0
 0 0 0
 0 0 0
 0 0 0
 0.217 -1.348 4.226
 0.249 -1.387 4.345
 0.271 -1.368 4.285
 0.294 -1.356 4.244
 0.323 -1.372 4.294
 0.347 -1.365 4.27
 0.369 -1.354 4.232
 0.393 -1.351 4.222
 0.416 -1.342 4.19
 0.445 -1.355 4.231
 0.474 -1.368 4.267
 0.498 -1.362 4.246
 0.529 -1.379 4.295
 0.556 -1.382 4.304
 0.572 -1.36 4.23
 0.603 -1.371 4.262
 0.619 -1.353 4.201
 0.652 -1.369 4.248
 0.679 -1.372 4.256
 0.707 -1.376 4.264
 0.738 -1.388 4.295
 0.76 -1.381 4.271
 0.783 -1.376 4.251
 0.816 -1.388 4.285
 0.827 -1.365 4.208
 0.867 -1.389 4.277
 0.893 -1.388 4.271
 0.914 -1.382 4.245
 0.94 -1.382 4.242
 0.969 -1.388 4.253
 0.996 -1.389 4.252
 1.018 -1.384 4.231
 1.05 -1.392 4.25
 1.072 -1.389 4.233
 1.099 -1.39 4.232
 1.129 -1.395 4.242
 1.15 -1.39 4.218
 1.185 -1.4 4.243
 1.209 -1.399 4.232
 1.236 -1.4 4.23
 1.263 -1.401 4.227
 1.299 -1.412 4.253
 1.323 -1.41 4.239
 1.348 -1.409 4.228
 1.385 -1.42 4.255
 1.405 -1.414 4.227
 1.436 -1.42 4.236
 1.462 -1.419 4.226
 1.501 -1.431 4.255
 1.527 -1.431 4.245
 1.551 -1.429 4.229
 1.578 -1.43 4.223
 1.611 -1.435 4.23
 1.638 -1.436 4.224
 1.661 -1.433 4.205
 1.694 -1.439 4.212
 1.727 -1.444 4.218
 1.755 -1.445 4.21
 1.781 -1.445 4.199
 1.818 -1.453 4.213
 1.826 -1.438 4.159
 1.846 -1.434 4.135
 1.896 -1.451 4.175
 0 0 0
 0 0 0
 0 0 0
 0 0 0
 0 0 0
 0 0 0
 0 0 0
 0 0 0
 0 0 0
 0 0 0
 0 0 0
 0 0 0
 0 0 0
 0 0 0
 0 0 0
 1.894 -1.185 3.24
 1.899 -1.174 3.2
 1.894 -1.158 3.144
 -2.542 -1.541 4.386
 -2.464 -1.511 4.315
 -2.453 -1.522 4.362
 -2.416 -1.518 4.362
 -2.376 -1.511 4.355
 -2.354 -1.515 4.382
 -2.3 -1.499 4.349
 -2.265 -1.495 4.349
 -2.244 -1.5 4.376
 -2.198 -1.489 4.355
 -2.164 -1.485 4.357
 -2.122 -1.476 4.341
 -2.107 -1.485 4.381
 -2.042 -1.459 4.314
 -2.016 -1.46 4.33
 -1.971 -1.448 4.303
 -1.966 -1.465 4.365
 -1.926 -1.456 4.348
 -1.895 -1.454 4.353
 -1.862 -1.45 4.351
 -1.817 -1.436 4.32
 -1.797 -1.442 4.348
 -1.768 -1.441 4.354
 -1.729 -1.432 4.336
 -1.7 -1.431 4.341
 -1.664 -1.423 4.327
 -1.643 -1.429 4.353
 -1.616 -1.429 4.362
 -1.571 -1.414 4.323
 -1.543 -1.413 4.329
 -1.513 -1.41 4.326
 -1.479 -1.404 4.315
 -1.459 -1.41 4.343
 -1.417 -1.395 4.304
 -1.385 -1.39 4.294
 -1.366 -1.398 4.326
 -1.336 -1.395 4.324
 -1.302 -1.387 4.305
 -1.288 -1.401 4.355
 -1.245 -1.383 4.305
 -1.221 -1.386 4.319
 -1.192 -1.382 4.314
 -1.175 -1.394 4.356
 -1.139 -1.383 4.328
 -1.106 -1.374 4.304
 -1.082 -1.377 4.32
 -1.053 -1.373 4.312
 -1.017 -1.361 4.28
 -1.009 -1.384 4.359
 -0.974 -1.373 4.326
 -0.954 -1.382 4.36
 0 0 0
 0 0 0
 0 0 0
 0 0 0
 0 0 0
 0 0 0
 0 0 0
 0 0 0
 0 0 0
 0 0 0
 0 0 0
 0 0 0
 0 0 0
 0 0 0
 0 0 0
 0 0 0
 0 0 0
 0 0 0
 0 0 0
 0 0 0
 0 0 0
 0 0 0
 0 0 0
 0 0 0
 -0.286 -1.338 4.285
 -0.26 -1.332 4.267
 -0.235 -1.332 4.269
 -0.21 -1.335 4.276
 -0.184 -1.336 4.281
 -0.159 -1.336 4.282
 -0.134 -1.334 4.277
 -0.108 -1.331 4.268
 -0.083 -1.331 4.266
 -0.058 -1.341 4.298
 -0.032 -1.331 4.265
 -0.007 -1.328 4.255
 0 0 0
 0 0 0
 0 0 0
 0 0 0
 0 0 0
 0 0 0
 0 0 0
 0 0 0
 0 0 0
 0 0 0
 0 0 0
 0 0 0
 0 0 0
 0 0 0
 0 0 0
 0 0 0
 0 0 0
 0 0 0
 0 0 0
 0 0 0
 0 0 0
 0 0 0
 0 0 0
 0 0 0
 0 0 0
 0 0 0
 0 0 0
 0 0 0
 0 0 0
 0 0 0
 0 0 0
 0 0 0
 0 0 0
 0 0 0
 0 0 0
 0 0 0
 0 0 0
 0 0 0
 0 0 0
 1.024 -1.366 4.261
 1.051 -1.368 4.261
 1.074 -1.365 4.247
 1.107 -1.373 4.267
 1.13 -1.371 4.254
 1.152 -1.366 4.232
 1.187 -1.377 4.26
 1.208 -1.372 4.236
 1.24 -1.379 4.251
 1.267 -1.379 4.246
 1.287 -1.373 4.22
 1.323 -1.384 4.246
 1.351 -1.386 4.245
 1.38 -1.389 4.246
 1.414 -1.396 4.261
 1.43 -1.387 4.224
 1.459 -1.389 4.223
 1.489 -1.393 4.227
 1.518 -1.396 4.226
 1.551 -1.402 4.236
 1.565 -1.391 4.195
 1.602 -1.401 4.215
 1.637 -1.409 4.229
 1.655 -1.401 4.196
 1.694 -1.412 4.22
 1.725 -1.415 4.22
 1.744 -1.409 4.191
 1.779 -1.416 4.203
 1.808 -1.418 4.198
 1.847 -1.428 4.216
 1.849 -1.409 4.149
 0 0 0
 0 0 0
 0 0 0
 0 0 0
 0 0 0
 0 0 0
 0 0 0
 0 0 0
 0 0 0
 0 0 0
 0 0 0
 0 0 0
 0 0 0
 0 0 0
 0 0 0
 0 0 0
 1.873 -1.15 3.21
 1.862 -1.13 3.144
 1.855 -1.114 3.086
 -2.53 -1.504 4.373
 -2.509 -1.509 4.402
 -2.461 -1.498 4.384
 -2.425 -1.494 4.387
 -2.379 -1.484 4.37
 -2.339 -1.476 4.362
 -2.297 -1.468 4.35
 -2.253 -1.458 4.334
 -2.221 -1.456 4.34
 -2.193 -1.457 4.354
 -2.169 -1.46 4.376
 -2.114 -1.442 4.333
 -2.091 -1.446 4.356
 -2.049 -1.436 4.337
 -2.009 -1.428 4.324
 -1.983 -1.429 4.338
 -1.957 -1.43 4.354
 -1.936 -1.436 4.38
 -1.878 -1.413 4.322
 -1.855 -1.417 4.343
 -1.832 -1.421 4.364
 -1.791 -1.41 4.342
 -1.766 -1.412 4.358
 -1.722 -1.399 4.327
 -1.71 -1.412 4.374
 -1.668 -1.4 4.346
 -1.636 -1.396 4.343
 -1.599 -1.388 4.326
 -1.564 -1.381 4.312
 -1.548 -1.39 4.349
 -1.513 -1.383 4.335
 -1.485 -1.382 4.339
 -1.458 -1.382 4.347
 -1.426 -1.378 4.339
 -1.389 -1.368 4.316
 -1.364 -1.369 4.326
 -1.335 -1.367 4.326
 0 0 0
 0 0 0
 0 0 0
 0 0 0
 0 0 0
 0 0 0
 0 0 0
 0 0 0
 0 0 0
 0 0 0
 0 0 0
 0 0 0
 0 0 0
 0 0 0
 0 0 0
 0 0 0
 0 0 0
 0 0 0
 0 0 0
 0 0 0
 0 0 0
 0 0 0
 0 0 0
 0 0 0
 0 0 0
 0 0 0
 0 0 0
 0 0 0
 0 0 0
 0 0 0
 0 0 0
 0 0 0
 0 0 0
 0 0 0
 0 0 0
 0 0 0
 0 0 0
 0 0 0
 -0.285 -1.308 4.278
 -0.258 -1.299 4.249
 -0.236 -1.314 4.298
 -0.21 -1.31 4.285
 -0.184 -1.31 4.285
 -0.159 -1.309 4.284
 -0.133 -1.305 4.27
 -0.109 -1.322 4.325
 -0.083 -1.306 4.272
 -0.057 -1.309 4.282
 -0.032 -1.305 4.269
 -0.007 -1.296 4.24
 0 0 0
 0 0 0
 0 0 0
 0 0 0
 0 0 0
 0 0 0
 0 0 0
 0 0 0
 0 0 0
 0 0 0
 0 0 0
 0 0 0
 0 0 0
 0 0 0
 0 0 0
 0 0 0
 0 0 0
 0 0 0
 0 0 0
 0 0 0
 0 0 0
 0 0 0
 0 0 0
 0 0 0
 0 0 0
 0 0 0
 0 0 0
 0 0 0
 0 0 0
 0 0 0
 0 0 0
 0 0 0
 0 0 0
 0 0 0
 0 0 0
 0 0 0
 0 0 0
 0 0 0
 0 0 0
 1.029 -1.347 4.292
 1.044 -1.334 4.243
 1.071 -1.335 4.241
 1.104 -1.344 4.263
 1.125 -1.338 4.24
 1.15 -1.337 4.23
 1.185 -1.348 4.259
 1.204 -1.341 4.228
 1.234 -1.345 4.236
 1.264 -1.35 4.243
 1.295 -1.355 4.253
 1.319 -1.354 4.241
 1.345 -1.353 4.231
 1.376 -1.358 4.24
 1.416 -1.371 4.274
 1.43 -1.36 4.23
 1.469 -1.373 4.261
 1.48 -1.359 4.21
 1.515 -1.367 4.225
 1.54 -1.366 4.214
 1.575 -1.373 4.228
 1.599 -1.371 4.213
 1.625 -1.372 4.205
 1.661 -1.379 4.219
 1.686 -1.378 4.206
 1.715 -1.381 4.204
 1.747 -1.385 4.206
 1.772 -1.384 4.192
 1.808 -1.391 4.205
 1.841 -1.396 4.21
 0 0 0
 0 0 0
 0 0 0
 0 0 0
 0 0 0
 0 0 0
 0 0 0
 0 0 0
 0 0 0
 0 0 0
 0 0 0
 0 0 0
 0 0 0
 0 0 0
 0 0 0
 0 0 0
 0 0 0
 1.836 -1.106 3.154
 1.892 -1.126 3.201
 1.886 -1.11 3.144
 -2.52 -1.469 4.366
 -2.494 -1.471 4.386
 -2.443 -1.458 4.361
 -2.441 -1.474 4.424
 -2.364 -1.445 4.351
 -2.318 -1.435 4.333
 -2.304 -1.444 4.373
 -2.265 -1.438 4.366
 -2.211 -1.421 4.329
 -2.182 -1.421 4.341
 -2.143 -1.414 4.331
 -2.113 -1.413 4.34
 -2.094 -1.42 4.371
 -2.057 -1.414 4.364
 -2.009 -1.4 4.333
 -1.998 -1.412 4.38
 -1.945 -1.394 4.335
 -1.92 -1.396 4.353
 -1.879 -1.387 4.333
 -1.848 -1.385 4.336
 -1.818 -1.382 4.339
 -1.78 -1.374 4.323
 -1.766 -1.385 4.366
 -1.715 -1.367 4.318
 -1.694 -1.371 4.341
 -1.657 -1.364 4.326
 -1.635 -1.368 4.347
 -1.596 -1.358 4.323
 -1.568 -1.358 4.331
 -1.532 -1.349 4.311
 -1.51 -1.354 4.335
 -1.484 -1.355 4.346
 -1.446 -1.344 4.319
 -1.42 -1.345 4.329
 -1.388 -1.34 4.32
 -1.363 -1.342 4.333
 -1.316 -1.321 4.271
 0 0 0
 0 0 0
 0 0 0
 0 0 0
 0 0 0
 0 0 0
 0 0 0
 0 0 0
 0 0 0
 0 0 0
 0 0 0
 0 0 0
 0 0 0
 0 0 0
 0 0 0
 0 0 0
 0 0 0
 0 0 0
 0 0 0
 0 0 0
 0 0 0
 0 0 0
 0 0 0
 0 0 0
 0 0 0
 0 0 0
 0 0 0
 0 0 0
 0 0 0
 0 0 0
 0 0 0
 0 0 0
 0 0 0
 0 0 0
 0 0 0
 0 0 0
 0 0 0
 0 0 0
 -0.285 -1.284 4.289
 -0.26 -1.282 4.281
 -0.234 -1.28 4.275
 -0.208 -1.275 4.26
 -0.183 -1.276 4.262
 -0.159 -1.285 4.294
 -0.132 -1.275 4.262
 -0.107 -1.278 4.272
 -0.083 -1.286 4.298
 -0.057 -1.284 4.29
 -0.032 -1.281 4.28
 -0.007 -1.271 4.247
 0 0 0
 0 0 0
 0 0 0
 0 0 0
 0 0 0
 0 0 0
 0 0 0
 0 0 0
 0 0 0
 0 0 0
 0 0 0
 0 0 0
 0 0 0
 0 0 0
 0 0 0
 0 0 0
 0 0 0
 0 0 0
 0 0 0
 0 0 0
 0 0 0
 0 0 0
 0 0 0
 0 0 0
 0 0 0
 0 0 0
 0 0 0
 0 0 0
 0 0 0
 0 0 0
 0 0 0
 0 0 0
 0 0 0
 0 0 0
 0 0 0
 0 0 0
 0 0 0
 0 0 0
 0 0 0
 0 0 0
 1.045 -1.309 4.252
 1.071 -1.308 4.246
 1.103 -1.317 4.267
 1.124 -1.311 4.242
 1.156 -1.319 4.261
 1.184 -1.32 4.259
 1.207 -1.317 4.243
 1.231 -1.316 4.232
 1.264 -1.324 4.251
 1.289 -1.322 4.238
 1.322 -1.329 4.254
 1.349 -1.331 4.252
 1.376 -1.332 4.247
 1.405 -1.334 4.247
 1.428 -1.332 4.231
 1.461 -1.338 4.243
 1.492 -1.343 4.251
 1.518 -1.343 4.24
 1.542 -1.341 4.227
 1.579 -1.35 4.246
 1.592 -1.339 4.201
 1.625 -1.345 4.21
 1.666 -1.357 4.239
 1.69 -1.355 4.223
 1.721 -1.358 4.225
 1.748 -1.359 4.217
 1.774 -1.359 4.206
 1.811 -1.366 4.219
 1.847 -1.374 4.231
 0 0 0
 0 0 0
 0 0 0
 0 0 0
 0 0 0
 0 0 0
 0 0 0
 0 0 0
 0 0 0
 0 0 0
 0 0 0
 0 0 0
 0 0 0
 0 0 0
 0 0 0
 0 0 0
 0 0 0
 1.833 -1.083 3.155
 1.873 -1.094 3.175
 1.863 -1.076 3.113
 -2.522 -1.441 4.378
 -2.486 -1.437 4.38
 -2.449 -1.432 4.381
 -2.405 -1.424 4.367
 -2.363 -1.416 4.357
 -2.352 -1.427 4.406
 -2.291 -1.407 4.357
 -2.249 -1.399 4.345
 -2.208 -1.391 4.331
 -2.194 -1.4 4.372
 -2.137 -1.382 4.328
 -2.105 -1.38 4.331
 -2.079 -1.382 4.348
 -2.055 -1.384 4.368
 -2.009 -1.372 4.34
 -1.97 -1.365 4.327
 -1.943 -1.365 4.341
 -1.921 -1.369 4.363
 -1.886 -1.364 4.358
 -1.855 -1.362 4.36
 -1.821 -1.357 4.355
 -1.779 -1.346 4.329
 -1.756 -1.349 4.348
 -1.716 -1.34 4.328
 -1.696 -1.346 4.356
 -1.662 -1.341 4.346
 -1.631 -1.338 4.346
 -1.592 -1.328 4.322
 -1.562 -1.325 4.321
 -1.532 -1.323 4.32
 -1.493 -1.312 4.292
 -1.468 -1.314 4.306
 -1.452 -1.323 4.344
 -1.406 -1.305 4.293
 -1.39 -1.315 4.333
 -1.354 -1.306 4.31
 0 0 0
 0 0 0
 0 0 0
 0 0 0
 0 0 0
 0 0 0
 0 0 0
 0 0 0
 0 0 0
 0 0 0
 0 0 0
 0 0 0
 0 0 0
 0 0 0
 0 0 0
 0 0 0
 0 0 0
 0 0 0
 0 0 0
 0 0 0
 0 0 0
 0 0 0
 0 0 0
 0 0 0
 0 0 0
 0 0 0
 0 0 0
 0 0 0
 0 0 0
 0 0 0
 0 0 0
 0 0 0
 0 0 0
 0 0 0
 0 0 0
 0 0 0
 0 0 0
 0 0 0
 -0.304 -1.231 4.198
 -0.286 -1.261 4.302
 -0.26 -1.26 4.298
 -0.234 -1.254 4.281
 -0.208 -1.253 4.277
 -0.183 -1.252 4.275
 -0.158 -1.251 4.27
 -0.132 -1.249 4.264
 -0.108 -1.257 4.291
 -0.082 -1.257 4.292
 -0.057 -1.255 4.283
 -0.032 -1.246 4.254
 -0.006 -1.244 4.246
 0 0 0
 0 0 0
 0 0 0
 0 0 0
 0 0 0
 0 0 0
 0 0 0
 0 0 0
 0 0 0
 0 0 0
 0 0 0
 0 0 0
 0 0 0
 0 0 0
 0 0 0
 0 0 0
 0 0 0
 0 0 0
 0 0 0
 0 0 0
 0 0 0
 0 0 0
 0 0 0
 0 0 0
 0 0 0
 0 0 0
 0 0 0
 0 0 0
 0 0 0
 0 0 0
 0 0 0
 0 0 0
 0 0 0
 0 0 0
 0 0 0
 0 0 0
 0 0 0
 0 0 0
 0 0 0
 0 0 0
 1.045 -1.283 4.258
 1.075 -1.287 4.268
 1.101 -1.288 4.264
 1.124 -1.285 4.247
 1.149 -1.284 4.238
 1.169 -1.278 4.211
 1.202 -1.286 4.232
 1.228 -1.287 4.228
 1.263 -1.296 4.252
 1.289 -1.296 4.245
 1.316 -1.298 4.243
 1.346 -1.301 4.247
 1.359 -1.29 4.201
 1.393 -1.298 4.22
 1.428 -1.306 4.239
 1.455 -1.306 4.232
 1.479 -1.305 4.219
 1.514 -1.313 4.237
 1.539 -1.312 4.225
 1.554 -1.302 4.185
 1.592 -1.312 4.209
 1.621 -1.315 4.207
 1.656 -1.322 4.22
 1.678 -1.319 4.202
 1.706 -1.32 4.195
 1.746 -1.331 4.219
 1.768 -1.327 4.199
 1.797 -1.33 4.195
 1.825 -1.33 4.187
 0 0 0
 0 0 0
 0 0 0
 0 0 0
 0 0 0
 0 0 0
 0 0 0
 0 0 0
 0 0 0
 0 0 0
 0 0 0
 0 0 0
 0 0 0
 0 0 0
 0 0 0
 0 0 0
 0 0 0
 1.832 -1.061 3.159
 1.856 -1.062 3.152
 1.886 -1.068 3.156
 -2.522 -1.411 4.386
 -2.476 -1.402 4.373
 -2.437 -1.397 4.368
 -2.418 -1.403 4.401
 -2.369 -1.391 4.378
 -2.333 -1.387 4.377
 -2.276 -1.37 4.337
 -2.265 -1.381 4.384
 -2.21 -1.365 4.345
 -2.192 -1.371 4.377
 -2.152 -1.364 4.367
 -2.131 -1.369 4.393
 -2.065 -1.344 4.327
 -2.041 -1.347 4.345
 -2.013 -1.347 4.356
 -1.969 -1.336 4.334
 -1.939 -1.335 4.339
 -1.894 -1.322 4.309
 -1.88 -1.333 4.352
 -1.873 -1.347 4.411
 -1.818 -1.327 4.354
 -1.781 -1.32 4.341
 -1.769 -1.332 4.39
 -1.714 -1.311 4.329
 -1.684 -1.309 4.331
 -1.651 -1.305 4.325
 -1.63 -1.309 4.349
 -1.593 -1.301 4.33
 -1.572 -1.307 4.356
 -1.532 -1.296 4.328
 -1.494 -1.286 4.304
 -1.475 -1.293 4.333
 -1.434 -1.281 4.299
 -1.406 -1.279 4.3
 -1.373 -1.273 4.289
 -1.349 -1.275 4.301
 0 0 0
 0 0 0
 0 0 0
 0 0 0
 0 0 0
 0 0 0
 0 0 0
 0 0 0
 0 0 0
 0 0 0
 0 0 0
 0 0 0
 0 0 0
 0 0 0
 0 0 0
 0 0 0
 0 0 0
 0 0 0
 0 0 0
 0 0 0
 0 0 0
 0 0 0
 0 0 0
 0 0 0
 0 0 0
 -0.656 -1.262 4.376
 0 0 0
 0 0 0
 0 0 0
 0 0 0
 0 0 0
 -0.505 -1.275 4.433
 0 0 0
 0 0 0
 0 0 0
 0 0 0
 0 0 0
 0 0 0
 -0.311 -1.234 4.302
 -0.286 -1.235 4.306
 -0.257 -1.221 4.258
 -0.234 -1.23 4.289
 -0.207 -1.222 4.264
 -0.184 -1.233 4.3
 -0.158 -1.233 4.301
 -0.132 -1.222 4.265
 -0.107 -1.23 4.293
 -0.082 -1.228 4.284
 -0.057 -1.234 4.306
 -0.032 -1.227 4.28
 -0.006 -1.221 4.259
 0 0 0
 0 0 0
 0 0 0
 0 0 0
 0 0 0
 0 0 0
 0 0 0
 0 0 0
 0 0 0
 0 0 0
 0 0 0
 0 0 0
 0 0 0
 0 0 0
 0 0 0
 0 0 0
 0 0 0
 0 0 0
 0 0 0
 0 0 0
 0 0 0
 0 0 0
 0 0 0
 0 0 0
 0 0 0
 0 0 0
 0 0 0
 0 0 0
 0 0 0
 0 0 0
 0 0 0
 0 0 0
 0 0 0
 0 0 0
 0 0 0
 0 0 0
 0 0 0
 0 0 0
 0 0 0
 0 0 0
 1.045 -1.256 4.262
 1.07 -1.256 4.257
 1.096 -1.257 4.252
 1.12 -1.255 4.24
 1.152 -1.262 4.257
 1.186 -1.271 4.28
 1.206 -1.264 4.253
 1.232 -1.265 4.249
