 1.745 -1.63 3.971
 1.764 -1.623 3.943
 1.783 -1.618 3.92
 1.802 -1.612 3.895
 1.815 -1.601 3.857
 1.825 -1.588 3.815
 1.833 -1.573 3.768
 1.836 -1.555 3.713
 1.839 -1.537 3.66
 1.844 -1.521 3.611
 1.847 -1.504 3.558
 1.853 -1.49 3.514
 1.846 -1.466 3.446
 1.778 -1.395 3.268
 1.762 -1.365 3.187
 1.754 -1.343 3.124
 1.764 -1.334 3.093
 1.771 -1.324 3.059
 1.774 -1.311 3.017
 1.771 -1.294 2.967
 1.782 -1.287 2.941
 1.772 -1.265 2.88
 -2.264 -1.608 3.821
 -2.246 -1.614 3.849
 -2.228 -1.621 3.877
 -2.204 -1.622 3.894
 -2.172 -1.619 3.898
 -2.148 -1.62 3.914
 -2.122 -1.621 3.928
 -2.094 -1.62 3.938
 -2.066 -1.618 3.945
 -2.041 -1.62 3.961
 -2.015 -1.62 3.974
 -1.988 -1.62 3.984
 -1.959 -1.618 3.99
 -1.934 -1.619 4.005
 -1.908 -1.62 4.016
 -1.88 -1.618 4.023
 -1.855 -1.619 4.037
 -1.828 -1.619 4.046
 -1.799 -1.618 4.052
 -1.773 -1.618 4.062
 -1.747 -1.618 4.072
 -1.718 -1.616 4.077
 -1.693 -1.617 4.088
 -1.666 -1.617 4.098
 -1.639 -1.616 4.106
 -1.61 -1.614 4.108
 -1.585 -1.615 4.119
 -1.557 -1.613 4.124
 -1.528 -1.61 4.124
 -1.5 -1.609 4.129
 -1.475 -1.61 4.139
 -1.447 -1.608 4.141
 -1.42 -1.608 4.149
 -1.395 -1.609 4.16
 -1.367 -1.607 4.163
 -1.341 -1.607 4.168
 -1.313 -1.605 4.172
 -1.288 -1.606 4.18
 -1.261 -1.606 4.187
 -1.236 -1.607 4.196
 -1.209 -1.606 4.199
 -1.182 -1.605 4.202
 -1.153 -1.602 4.2
 -1.126 -1.6 4.2
 -1.099 -1.598 4.202
 -1.071 -1.595 4.2
 -1.045 -1.595 4.204
 -1.019 -1.595 4.211
 -0.994 -1.598 4.222
 -0.969 -1.599 4.229
 -0.944 -1.6 4.238
 -0.918 -1.6 4.243
 -0.891 -1.599 4.244
 -0.864 -1.597 4.243
 -0.837 -1.595 4.243
 -0.811 -1.595 4.244
 -0.785 -1.594 4.247
 -0.758 -1.592 4.245
 -0.731 -1.591 4.245
 -0.706 -1.591 4.25
 -0.679 -1.59 4.25
 -0.653 -1.589 4.25
 -0.628 -1.591 4.258
 -0.602 -1.591 4.261
 -0.575 -1.589 4.258
 -0.549 -1.589 4.26
 -0.523 -1.588 4.26
 -0.498 -1.588 4.262
 -0.472 -1.587 4.263
 -0.445 -1.586 4.26
 -0.42 -1.586 4.263
 -0.394 -1.586 4.264
 -0.368 -1.584 4.262
 -0.342 -1.584 4.263
 -0.317 -1.585 4.266
 -0.291 -1.583 4.264
 -0.265 -1.583 4.264
 -0.239 -1.583 4.265
 -0.213 -1.582 4.263
 -0.188 -1.582 4.264
 -0.162 -1.583 4.265
 -0.136 -1.581 4.263
 -0.111 -1.581 4.261
 -0.085 -1.58 4.258
 -0.06 -1.581 4.262
 -0.034 -1.58 4.259
 -0.008 -1.581 4.26
 0.016 -1.581 4.26
 0.042 -1.581 4.262
 0.067 -1.58 4.257
 0.093 -1.581 4.26
 0.119 -1.582 4.26
 0.144 -1.581 4.258
 0.17 -1.58 4.254
 0.195 -1.58 4.253
 0.221 -1.58 4.251
 0.246 -1.579 4.247
 0.271 -1.579 4.246
 0.298 -1.582 4.252
 0.323 -1.584 4.254
 0.349 -1.584 4.253
 0.375 -1.585 4.255
 0.4 -1.585 4.251
 0.426 -1.585 4.248
 0.452 -1.586 4.248
 0.478 -1.586 4.247
 0.504 -1.588 4.248
 0.53 -1.589 4.248
 0.555 -1.589 4.246
 0.581 -1.588 4.24
 0.606 -1.587 4.232
 0.631 -1.587 4.229
 0.657 -1.587 4.227
 0.683 -1.588 4.225
 0.709 -1.59 4.227
 0.736 -1.591 4.226
 0.762 -1.593 4.225
 0.788 -1.593 4.222
 0.813 -1.592 4.216
 0.839 -1.593 4.213
 0.865 -1.595 4.212
 0.891 -1.595 4.207
 0.918 -1.596 4.206
 0.943 -1.596 4.2
 0.969 -1.597 4.197
 0.997 -1.599 4.198
 1.023 -1.6 4.194
 1.05 -1.602 4.193
 1.078 -1.605 4.196
 1.104 -1.606 4.192
 1.131 -1.607 4.189
 1.158 -1.609 4.187
 1.184 -1.61 4.183
 1.211 -1.612 4.18
 1.239 -1.614 4.179
 1.264 -1.613 4.17
 1.291 -1.614 4.165
 1.317 -1.614 4.158
 1.344 -1.615 4.154
 1.369 -1.615 4.145
 1.398 -1.617 4.143
 1.425 -1.619 4.139
 1.453 -1.622 4.138
 1.481 -1.623 4.132
 1.507 -1.624 4.126
 1.533 -1.624 4.117
 1.559 -1.623 4.106
 1.585 -1.624 4.098
 1.609 -1.622 4.084
 1.637 -1.623 4.078
 1.665 -1.625 4.074
 1.692 -1.626 4.066
 1.716 -1.624 4.051
 1.742 -1.624 4.041
 1.765 -1.621 4.023
 1.783 -1.614 3.995
 1.8 -1.607 3.966
 1.816 -1.598 3.934
 1.826 -1.584 3.889
 1.837 -1.572 3.848
 1.843 -1.556 3.797
 1.846 -1.538 3.741
 1.851 -1.522 3.692
 1.856 -1.506 3.642
 1.85 -1.483 3.574
 1.856 -1.469 3.529
 1.874 -1.465 3.508
 1.762 -1.36 3.245
 1.747 -1.332 3.167
 1.751 -1.319 3.127
 1.76 -1.311 3.095
 1.77 -1.303 3.065
 1.776 -1.291 3.028
 1.775 -1.276 2.981
 1.769 -1.258 2.927
 1.757 -1.235 2.864
 -2.287 -1.598 3.87
 -2.296 -1.624 3.946
 -2.262 -1.618 3.946
 -2.237 -1.62 3.962
 -2.208 -1.618 3.972
 -2.181 -1.619 3.985
 -2.154 -1.618 3.997
 -2.124 -1.617 4.004
 -2.095 -1.614 4.011
 -2.069 -1.616 4.026
 -2.044 -1.617 4.04
 -2.015 -1.615 4.048
 -1.986 -1.614 4.056
 -1.962 -1.616 4.072
 -1.936 -1.617 4.085
 -1.907 -1.615 4.091
 -1.883 -1.617 4.108
 -1.857 -1.618 4.121
 -1.827 -1.616 4.125
 -1.799 -1.615 4.131
 -1.772 -1.614 4.141
 -1.742 -1.612 4.144
 -1.715 -1.611 4.151
 -1.687 -1.611 4.16
 -1.66 -1.61 4.166
 -1.631 -1.608 4.169
 -1.605 -1.608 4.18
 -1.577 -1.607 4.186
 -1.55 -1.607 4.193
 -1.522 -1.606 4.2
 -1.496 -1.606 4.208
 -1.469 -1.606 4.214
 -1.441 -1.604 4.219
 -1.413 -1.603 4.223
 -1.385 -1.601 4.225
 -1.357 -1.6 4.23
 -1.328 -1.596 4.226
 -1.301 -1.596 4.232
 -1.274 -1.596 4.238
 -1.248 -1.596 4.244
 -1.22 -1.594 4.246
 -1.193 -1.594 4.251
 -1.165 -1.591 4.251
 -1.137 -1.589 4.25
 -1.109 -1.587 4.252
 -1.081 -1.585 4.25
 -1.055 -1.585 4.256
 -1.029 -1.585 4.262
 -1.003 -1.586 4.269
 -0.978 -1.587 4.276
 -0.952 -1.587 4.282
 -0.924 -1.585 4.281
 -0.897 -1.584 4.281
 -0.869 -1.581 4.279
 -0.842 -1.579 4.277
 -0.816 -1.578 4.279
 -0.789 -1.578 4.281
 -0.762 -1.575 4.277
 -0.735 -1.574 4.278
 -0.709 -1.573 4.279
 -0.682 -1.572 4.279
 -0.656 -1.571 4.28
 -0.631 -1.572 4.286
 -0.605 -1.573 4.29
 -0.578 -1.571 4.287
 -0.552 -1.569 4.286
 -0.525 -1.569 4.286
 -0.499 -1.568 4.287
 -0.473 -1.566 4.284
 -0.447 -1.566 4.284
 -0.421 -1.566 4.287
 -0.395 -1.566 4.288
 -0.369 -1.566 4.289
 -0.344 -1.567 4.294
 -0.318 -1.567 4.295
 -0.292 -1.565 4.291
 -0.266 -1.565 4.292
 -0.24 -1.563 4.288
 -0.214 -1.561 4.284
 -0.188 -1.561 4.284
 -0.162 -1.561 4.284
 -0.137 -1.558 4.276
 -0.111 -1.559 4.28
 -0.085 -1.559 4.28
 -0.06 -1.56 4.282
 -0.034 -1.56 4.283
 -0.008 -1.561 4.285
 0.016 -1.56 4.281
 0.042 -1.559 4.279
 0.068 -1.558 4.275
 0.093 -1.559 4.278
 0.119 -1.561 4.282
 0.145 -1.56 4.278
 0.17 -1.56 4.277
 0.196 -1.56 4.276
 0.222 -1.56 4.275
 0.247 -1.559 4.269
 0.273 -1.56 4.272
 0.299 -1.562 4.275
 0.325 -1.563 4.276
 0.35 -1.563 4.273
 0.376 -1.564 4.275
 0.402 -1.564 4.271
 0.428 -1.564 4.27
 0.453 -1.565 4.269
 0.479 -1.566 4.27
 0.505 -1.567 4.27
 0.532 -1.568 4.271
 0.557 -1.568 4.266
 0.583 -1.567 4.262
 0.607 -1.565 4.252
 0.633 -1.565 4.248
 0.659 -1.566 4.246
 0.685 -1.567 4.247
 0.712 -1.57 4.25
 0.739 -1.572 4.25
 0.765 -1.573 4.249
 0.791 -1.574 4.248
 0.817 -1.574 4.243
 0.843 -1.574 4.238
 0.869 -1.575 4.237
 0.896 -1.576 4.236
 0.921 -1.577 4.231
 0.947 -1.576 4.225
 0.974 -1.578 4.225
 1.001 -1.581 4.226
 1.028 -1.581 4.223
 1.055 -1.584 4.223
 1.084 -1.588 4.228
 1.11 -1.588 4.222
 1.137 -1.589 4.219
 1.163 -1.59 4.214
 1.19 -1.591 4.211
 1.217 -1.593 4.208
 1.245 -1.595 4.207
 1.271 -1.596 4.202
 1.299 -1.597 4.199
 1.325 -1.598 4.192
 1.353 -1.599 4.189
 1.38 -1.6 4.184
 1.408 -1.602 4.181
 1.435 -1.604 4.178
 1.464 -1.607 4.176
 1.492 -1.608 4.172
 1.518 -1.609 4.164
 1.545 -1.609 4.156
 1.572 -1.61 4.15
 1.6 -1.612 4.144
 1.625 -1.611 4.132
 1.652 -1.612 4.126
 1.681 -1.615 4.123
 1.708 -1.615 4.114
 1.732 -1.613 4.098
 1.758 -1.613 4.087
 1.781 -1.609 4.069
 1.798 -1.602 4.039
 1.814 -1.593 4.005
 1.827 -1.582 3.966
 1.834 -1.566 3.915
 1.843 -1.552 3.87
 1.849 -1.536 3.818
 1.854 -1.519 3.766
 1.861 -1.505 3.72
 1.871 -1.494 3.681
 1.87 -1.474 3.62
 0 0 0
 0 0 0
 0 0 0
 1.727 -1.296 3.139
 1.751 -1.298 3.133
 1.763 -1.291 3.106
 1.772 -1.282 3.075
 1.777 -1.271 3.038
 1.777 -1.257 2.992
 1.76 -1.231 2.919
 1.78 -1.231 2.909
 -2.356 -1.619 3.998
 -2.326 -1.617 4.007
 -2.294 -1.614 4.012
 -2.269 -1.616 4.029
 -2.24 -1.615 4.041
 -2.214 -1.615 4.054
 -2.184 -1.614 4.063
 -2.156 -1.613 4.073
 -2.128 -1.613 4.084
 -2.101 -1.613 4.098
 -2.074 -1.613 4.11
 -2.046 -1.613 4.12
 -2.016 -1.611 4.126
 -1.989 -1.611 4.138
 -1.961 -1.611 4.149
 -1.932 -1.609 4.155
 -1.907 -1.611 4.17
 -1.882 -1.613 4.186
 -1.853 -1.611 4.192
 -1.824 -1.61 4.199
 -1.796 -1.61 4.208
 -1.767 -1.607 4.212
 -1.738 -1.606 4.217
 -1.709 -1.604 4.223
 -1.68 -1.602 4.227
 -1.65 -1.6 4.228
 -1.622 -1.599 4.236
 -1.594 -1.597 4.24
 -1.566 -1.597 4.246
 -1.539 -1.596 4.254
 -1.511 -1.596 4.261
 -1.484 -1.595 4.267
 -1.455 -1.594 4.271
 -1.427 -1.592 4.272
 -1.398 -1.59 4.275
 -1.37 -1.589 4.279
 -1.34 -1.585 4.275
 -1.312 -1.584 4.28
 -1.285 -1.583 4.285
 -1.258 -1.582 4.288
 -1.229 -1.579 4.287
 -1.201 -1.578 4.29
 -1.172 -1.575 4.287
 -1.144 -1.573 4.286
 -1.116 -1.57 4.285
 -1.088 -1.568 4.285
 -1.061 -1.568 4.29
 -1.035 -1.569 4.297
 -1.009 -1.569 4.302
 -0.983 -1.569 4.308
 -0.957 -1.569 4.314
 -0.929 -1.567 4.312
 -0.901 -1.564 4.308
 -0.873 -1.562 4.306
 -0.846 -1.56 4.304
 -0.818 -1.558 4.302
 -0.792 -1.557 4.303
 -0.765 -1.555 4.302
 -0.738 -1.553 4.301
 -0.711 -1.552 4.302
 -0.684 -1.551 4.301
 -0.658 -1.55 4.3
 -0.632 -1.55 4.306
 -0.606 -1.551 4.309
 -0.58 -1.55 4.309
 -0.553 -1.548 4.306
 -0.527 -1.547 4.307
 -0.501 -1.546 4.307
 -0.474 -1.544 4.301
 -0.447 -1.542 4.299
 -0.422 -1.542 4.3
 -0.395 -1.54 4.297
 -0.369 -1.54 4.299
 -0.344 -1.541 4.302
 -0.318 -1.541 4.305
 -0.292 -1.54 4.301
 -0.266 -1.54 4.303
 -0.24 -1.538 4.298
 -0.214 -1.537 4.295
 -0.188 -1.536 4.294
 -0.162 -1.536 4.294
 -0.137 -1.534 4.289
 -0.111 -1.535 4.291
 -0.085 -1.534 4.291
 -0.059 -1.534 4.291
 -0.034 -1.535 4.292
 -0.008 -1.535 4.293
 0.017 -1.535 4.29
 0.042 -1.534 4.289
 0.068 -1.534 4.289
 0.094 -1.536 4.291
 0.119 -1.537 4.294
 0.145 -1.536 4.291
 0.171 -1.536 4.291
 0.196 -1.535 4.286
 0.222 -1.535 4.284
 0.247 -1.533 4.278
 0.273 -1.534 4.279
 0.299 -1.535 4.28
 0.325 -1.536 4.281
 0.35 -1.536 4.28
 0.376 -1.538 4.282
 0.402 -1.538 4.279
 0.427 -1.537 4.275
 0.453 -1.538 4.275
 0.479 -1.539 4.275
 0.505 -1.54 4.275
 0.531 -1.542 4.276
 0.557 -1.542 4.273
 0.583 -1.541 4.268
 0.608 -1.54 4.26
 0.633 -1.54 4.258
 0.66 -1.541 4.258
 0.686 -1.542 4.257
 0.712 -1.544 4.259
 0.739 -1.546 4.259
 0.765 -1.547 4.258
 0.792 -1.549 4.26
 0.818 -1.55 4.259
 0.845 -1.551 4.257
 0.871 -1.552 4.254
 0.898 -1.553 4.253
 0.923 -1.554 4.248
 0.949 -1.553 4.241
 0.976 -1.555 4.242
 1.004 -1.559 4.246
 1.031 -1.56 4.244
 1.058 -1.561 4.241
 1.086 -1.565 4.246
 1.112 -1.565 4.239
 1.139 -1.566 4.235
 1.165 -1.566 4.23
 1.193 -1.568 4.228
 1.22 -1.57 4.225
 1.248 -1.572 4.226
 1.275 -1.574 4.222
 1.303 -1.576 4.22
 1.33 -1.577 4.215
 1.357 -1.578 4.212
 1.386 -1.581 4.21
 1.414 -1.583 4.207
 1.442 -1.584 4.204
 1.47 -1.587 4.203
 1.499 -1.59 4.201
 1.526 -1.591 4.195
 1.554 -1.592 4.189
 1.582 -1.594 4.184
 1.611 -1.596 4.182
 1.637 -1.596 4.171
 1.664 -1.597 4.164
 1.694 -1.6 4.162
 1.72 -1.6 4.152
 1.745 -1.598 4.137
 1.77 -1.597 4.124
 1.792 -1.593 4.104
 1.807 -1.583 4.068
 1.822 -1.573 4.032
 1.834 -1.562 3.991
 1.842 -1.546 3.941
 1.851 -1.533 3.896
 1.86 -1.52 3.851
 1.867 -1.505 3.803
 1.873 -1.49 3.752
 1.884 -1.48 3.715
 0 0 0
 0 0 0
 0 0 0
 0 0 0
 1.729 -1.275 3.149
 1.753 -1.278 3.145
 1.763 -1.27 3.115
 1.773 -1.262 3.084
 1.778 -1.251 3.046
 1.777 -1.236 2.999
 1.775 -1.22 2.95
 1.763 -1.199 2.887
 -2.391 -1.616 4.068
 -2.339 -1.599 4.04
 -1.855 -1.283 3.249
 -1.834 -1.285 3.264
 -1.809 -1.282 3.268
 -1.786 -1.282 3.277
 -1.763 -1.281 3.286
 -1.83 -1.346 3.464
 -1.892 -1.41 3.64
 -1.868 -1.41 3.65
 -1.928 -1.475 3.829
 -1.988 -1.541 4.013
 -1.875 -1.473 3.846
 -1.849 -1.473 3.855
 -1.906 -1.539 4.04
 -1.878 -1.538 4.047
 -1.85 -1.537 4.056
 -1.903 -1.604 4.244
 -1.875 -1.603 4.253
 -1.845 -1.601 4.257
 -1.816 -1.6 4.265
 -1.788 -1.599 4.272
 -1.757 -1.596 4.273
 -1.728 -1.595 4.28
 -1.697 -1.591 4.279
 -1.666 -1.588 4.28
 -1.636 -1.586 4.282
 -1.607 -1.584 4.286
 -1.578 -1.582 4.288
 -1.55 -1.582 4.296
 -1.523 -1.581 4.303
 -1.495 -1.581 4.31
 -1.466 -1.579 4.312
 -1.437 -1.577 4.314
 -1.409 -1.575 4.317
 -1.379 -1.572 4.316
 -1.348 -1.568 4.31
 -1.32 -1.567 4.314
 -1.291 -1.564 4.314
 -1.263 -1.562 4.314
 -1.234 -1.56 4.315
 -1.206 -1.558 4.316
 -1.177 -1.555 4.313
 -1.149 -1.553 4.312
 -1.12 -1.55 4.311
 -1.092 -1.548 4.311
 -1.066 -1.548 4.317
 -1.039 -1.548 4.321
 -1.012 -1.548 4.325
 -0.986 -1.548 4.331
 -0.959 -1.548 4.335
 -0.931 -1.544 4.33
 -0.903 -1.541 4.326
 -0.875 -1.539 4.325
 -0.847 -1.537 4.321
 -0.819 -1.534 4.317
 -0.793 -1.533 4.317
 -0.766 -1.531 4.316
 -0.738 -1.529 4.313
 -0.711 -1.526 4.309
 -0.684 -1.525 4.309
 -0.658 -1.524 4.31
 -0.632 -1.524 4.311
 -0.606 -1.524 4.314
 -0.58 -1.524 4.317
 -0.553 -1.523 4.316
 -0.526 -1.521 4.313
 -0.5 -1.52 4.313
 -0.474 -1.517 4.308
 -0.447 -1.516 4.306
 -0.421 -1.515 4.306
 -0.395 -1.514 4.305
 -0.369 -1.514 4.307
 -0.344 -1.516 4.312
 -0.318 -1.517 4.316
 -0.292 -1.514 4.31
 -0.266 -1.515 4.314
 -0.24 -1.513 4.308
 -0.214 -1.511 4.303
 -0.188 -1.51 4.3
 -0.162 -1.511 4.304
 -0.136 -1.508 4.296
 -0.111 -1.509 4.299
 -0.085 -1.509 4.299
 -0.059 -1.509 4.299
 -0.034 -1.509 4.298
 -0.008 -1.51 4.301
 0.017 -1.509 4.3
 0.042 -1.508 4.297
 0.068 -1.508 4.294
 0.094 -1.508 4.294
 0.119 -1.508 4.294
 0.145 -1.507 4.29
 0.17 -1.508 4.291
 0.196 -1.507 4.288
 0.222 -1.508 4.288
 0.247 -1.507 4.284
 0.273 -1.508 4.284
 0.299 -1.508 4.284
 0.324 -1.509 4.283
 0.35 -1.508 4.281
 0.376 -1.51 4.282
 0.402 -1.51 4.282
 0.427 -1.511 4.281
 0.453 -1.512 4.283
 0.479 -1.513 4.283
 0.505 -1.514 4.282
 0.531 -1.516 4.283
 0.557 -1.515 4.279
 0.583 -1.515 4.275
 0.608 -1.515 4.271
 0.634 -1.514 4.266
 0.66 -1.515 4.264
 0.686 -1.516 4.265
 0.712 -1.518 4.265
 0.738 -1.519 4.263
 0.765 -1.521 4.265
 0.792 -1.523 4.266
 0.819 -1.525 4.267
 0.845 -1.525 4.265
 0.871 -1.526 4.262
 0.898 -1.528 4.261
 0.924 -1.528 4.256
 0.949 -1.527 4.249
 0.976 -1.529 4.25
 1.004 -1.532 4.253
 1.031 -1.534 4.252
 1.058 -1.535 4.25
 1.087 -1.54 4.256
 1.113 -1.54 4.251
 1.14 -1.541 4.248
 1.167 -1.542 4.244
 1.195 -1.545 4.244
 1.223 -1.547 4.243
 1.251 -1.549 4.242
 1.278 -1.551 4.24
 1.306 -1.553 4.238
 1.333 -1.554 4.233
 1.36 -1.555 4.229
 1.389 -1.557 4.227
 1.417 -1.56 4.226
 1.445 -1.561 4.222
 1.473 -1.564 4.22
 1.502 -1.566 4.218
 1.53 -1.568 4.214
 1.558 -1.569 4.209
 1.587 -1.572 4.208
 1.617 -1.575 4.207
 1.644 -1.576 4.199
 1.672 -1.577 4.193
 1.701 -1.579 4.189
 1.728 -1.58 4.179
 1.754 -1.579 4.168
 1.78 -1.579 4.156
 1.802 -1.575 4.135
 1.818 -1.566 4.101
 1.833 -1.556 4.064
 1.845 -1.545 4.024
 1.852 -1.529 3.972
 1.865 -1.518 3.933
 1.873 -1.504 3.885
 1.883 -1.492 3.843
 1.887 -1.476 3.788
 0 0 0
 0 0 0
 0 0 0
 0 0 0
 0 0 0
 1.737 -1.26 3.172
 1.756 -1.259 3.158
 1.768 -1.252 3.131
 1.776 -1.243 3.097
 1.781 -1.232 3.058
 1.777 -1.216 3.007
 1.735 -1.173 2.891
 1.777 -1.189 2.918
 -2.394 -1.59 4.083
 -2.384 -1.602 4.128
 -1.472 -1.001 2.582
 -1.455 -1.002 2.592
 -1.433 -0.999 2.593
 -1.45 -1.023 2.664
 -1.432 -1.023 2.672
 -1.502 -1.086 2.847
 -1.568 -1.149 3.02
 -1.546 -1.147 3.025
 -1.526 -1.147 3.034
 -1.589 -1.211 3.212
 -1.48 -1.143 3.041
 -1.541 -1.207 3.218
 -1.684 -1.337 3.576
 -1.739 -1.4 3.756
 -1.791 -1.462 3.934
 -1.922 -1.592 4.295
 -1.892 -1.59 4.301
 -1.861 -1.587 4.303
 -1.83 -1.585 4.307
 -1.801 -1.584 4.314
 -1.769 -1.58 4.312
 -1.74 -1.578 4.318
 -1.708 -1.574 4.316
 -1.677 -1.572 4.318
 -1.646 -1.568 4.318
 -1.617 -1.567 4.322
 -1.586 -1.563 4.321
 -1.558 -1.562 4.326
 -1.53 -1.561 4.331
 -1.502 -1.561 4.338
 -1.473 -1.559 4.34
 -1.443 -1.556 4.341
 -1.414 -1.555 4.344
 -1.384 -1.551 4.339
 -1.353 -1.546 4.334
 -1.324 -1.544 4.335
 -1.295 -1.541 4.334
 -1.265 -1.538 4.331
 -1.236 -1.536 4.331
 -1.208 -1.534 4.332
 -1.179 -1.531 4.328
 -1.15 -1.528 4.327
 -1.122 -1.526 4.327
 -1.094 -1.525 4.328
 -1.067 -1.523 4.329
 -1.04 -1.522 4.332
 -1.012 -1.521 4.334
 -0.985 -1.521 4.337
 -0.958 -1.519 4.338
 -0.93 -1.517 4.335
 -0.902 -1.514 4.331
 -0.875 -1.512 4.331
 -0.847 -1.51 4.328
 -0.819 -1.508 4.325
 -0.792 -1.506 4.325
 -0.765 -1.505 4.324
 -0.738 -1.503 4.321
 -0.711 -1.499 4.316
 -0.684 -1.498 4.315
 -0.657 -1.497 4.314
 -0.63 -1.495 4.312
 -0.604 -1.495 4.314
 -0.578 -1.495 4.317
 -0.552 -1.494 4.315
 -0.526 -1.492 4.314
 -0.5 -1.493 4.317
 -0.473 -1.491 4.315
 -0.447 -1.49 4.314
 -0.421 -1.49 4.314
 -0.395 -1.488 4.312
 -0.369 -1.488 4.313
 -0.343 -1.489 4.317
 -0.318 -1.489 4.318
 -0.291 -1.487 4.313
 -0.266 -1.488 4.318
 -0.239 -1.485 4.311
 -0.213 -1.484 4.306
 -0.188 -1.483 4.304
 -0.162 -1.484 4.307
 -0.136 -1.481 4.299
 -0.11 -1.482 4.302
 -0.085 -1.481 4.301
 -0.059 -1.481 4.301
 -0.033 -1.481 4.299
 -0.008 -1.482 4.304
 0.017 -1.482 4.302
 0.042 -1.481 4.298
 0.068 -1.48 4.296
 0.094 -1.48 4.295
 0.119 -1.48 4.294
 0.145 -1.479 4.29
 0.17 -1.48 4.292
 0.196 -1.48 4.289
 0.222 -1.481 4.291
 0.247 -1.479 4.286
 0.273 -1.48 4.286
 0.298 -1.48 4.285
 0.324 -1.481 4.284
 0.349 -1.48 4.28
 0.375 -1.482 4.283
 0.401 -1.483 4.284
 0.427 -1.484 4.285
 0.453 -1.485 4.286
 0.479 -1.486 4.287
 0.505 -1.487 4.287
 0.531 -1.488 4.285
 0.556 -1.487 4.281
 0.582 -1.488 4.279
 0.608 -1.487 4.274
 0.633 -1.487 4.27
 0.659 -1.488 4.27
 0.686 -1.489 4.269
 0.712 -1.491 4.269
 0.738 -1.492 4.269
 0.765 -1.494 4.269
 0.791 -1.496 4.271
 0.818 -1.497 4.27
 0.844 -1.498 4.268
 0.87 -1.499 4.266
 0.897 -1.5 4.264
 0.923 -1.499 4.258
 0.949 -1.5 4.255
 0.976 -1.503 4.257
 1.004 -1.505 4.258
 1.031 -1.507 4.259
 1.058 -1.509 4.258
 1.086 -1.512 4.261
 1.113 -1.513 4.257
 1.14 -1.515 4.255
 1.167 -1.515 4.25
 1.195 -1.518 4.252
 1.223 -1.521 4.252
 1.251 -1.523 4.25
 1.278 -1.525 4.248
 1.307 -1.527 4.249
 1.334 -1.528 4.243
 1.36 -1.528 4.236
 1.388 -1.53 4.233
 1.417 -1.533 4.233
 1.445 -1.535 4.23
 1.474 -1.537 4.228
 1.503 -1.541 4.229
 1.532 -1.542 4.226
 1.561 -1.545 4.225
 1.589 -1.547 4.221
 1.619 -1.55 4.22
 1.647 -1.552 4.215
 1.676 -1.554 4.211
 1.704 -1.555 4.204
 1.731 -1.555 4.195
 1.758 -1.556 4.186
 1.785 -1.556 4.175
 1.806 -1.552 4.153
 1.823 -1.544 4.122
 1.84 -1.536 4.09
 1.853 -1.524 4.048
 1.858 -1.508 3.993
 1.873 -1.499 3.96
 1.887 -1.49 3.923
 1.899 -1.479 3.884
 0 0 0
 0 0 0
 0 0 0
 0 0 0
 0 0 0
 0 0 0
 1.445 -1.031 2.644
 1.596 -1.125 2.876
 1.768 -1.231 3.137
 1.775 -1.221 3.103
 1.781 -1.211 3.065
 1.777 -1.195 3.014
 1.762 -1.171 2.943
 1.757 -1.155 2.891
 -0.025 -0.017 0.029
 -0.081 -0.055 0.129
 -1.011 -0.676 1.774
 -0.997 -0.675 1.777
 -0.982 -0.673 1.777
 -1.021 -0.708 1.877
 -1.004 -0.705 1.875
 -1.082 -0.77 2.053
 -1.154 -0.831 2.225
 -1.135 -0.828 2.223
 -1.119 -0.827 2.226
 -1.27 -0.951 2.57
 -1.164 -0.884 2.394
 -1.228 -0.945 2.568
 -1.455 -1.135 3.096
 -1.592 -1.259 3.446
 -1.645 -1.32 3.621
 -1.855 -1.51 4.154
 -1.903 -1.571 4.335
 -1.871 -1.568 4.336
 -1.84 -1.566 4.339
 -1.811 -1.564 4.346
 -1.778 -1.56 4.343
 -1.747 -1.557 4.345
 -1.714 -1.553 4.342
 -1.684 -1.55 4.343
 -1.653 -1.547 4.343
 -1.622 -1.544 4.345
 -1.593 -1.542 4.347
 -1.564 -1.541 4.352
 -1.535 -1.539 4.355
 -1.507 -1.539 4.361
 -1.477 -1.536 4.363
 -1.446 -1.533 4.36
 -1.417 -1.531 4.361
 -1.386 -1.526 4.355
 -1.354 -1.521 4.346
 -1.325 -1.519 4.347
 -1.295 -1.515 4.345
 -1.265 -1.512 4.341
 -1.237 -1.509 4.34
 -1.208 -1.508 4.342
 -1.179 -1.504 4.337
 -1.15 -1.502 4.336
 -1.122 -1.499 4.335
 -1.094 -1.498 4.336
 -1.066 -1.496 4.336
 -1.039 -1.496 4.34
 -1.012 -1.494 4.34
 -0.985 -1.494 4.343
 -0.957 -1.492 4.344
 -0.929 -1.489 4.338
 -0.901 -1.486 4.335
 -0.874 -1.485 4.335
 -0.846 -1.482 4.332
 -0.818 -1.48 4.328
 -0.792 -1.479 4.33
 -0.765 -1.478 4.329
 -0.737 -1.475 4.325
 -0.71 -1.472 4.32
 -0.684 -1.472 4.321
 -0.657 -1.471 4.323
 -0.63 -1.469 4.318
 -0.604 -1.468 4.32
 -0.578 -1.469 4.323
 -0.551 -1.466 4.318
 -0.524 -1.464 4.314
 -0.499 -1.465 4.318
 -0.473 -1.464 4.317
 -0.446 -1.462 4.315
 -0.42 -1.462 4.317
 -0.394 -1.461 4.316
 -0.368 -1.461 4.316
 -0.343 -1.461 4.319
 -0.317 -1.461 4.32
 -0.291 -1.46 4.316
 -0.265 -1.461 4.32
 -0.239 -1.458 4.313
 -0.213 -1.456 4.308
 -0.187 -1.456 4.308
 -0.162 -1.456 4.309
 -0.136 -1.453 4.301
 -0.11 -1.455 4.306
 -0.085 -1.455 4.305
 -0.059 -1.454 4.303
 -0.033 -1.454 4.303
 -0.008 -1.455 4.308
 0.017 -1.454 4.303
 0.043 -1.453 4.299
 0.068 -1.453 4.299
 0.094 -1.452 4.297
 0.119 -1.453 4.296
 0.145 -1.453 4.296
 0.17 -1.454 4.297
 0.196 -1.452 4.292
 0.222 -1.454 4.296
 0.247 -1.453 4.29
 0.273 -1.453 4.289
 0.298 -1.453 4.288
 0.324 -1.453 4.287
 0.349 -1.453 4.284
 0.375 -1.455 4.287
 0.401 -1.456 4.287
 0.427 -1.457 4.288
 0.453 -1.458 4.29
 0.479 -1.458 4.287
 0.504 -1.459 4.286
 0.53 -1.46 4.285
 0.556 -1.459 4.281
 0.581 -1.459 4.279
 0.607 -1.459 4.275
 0.633 -1.46 4.272
 0.659 -1.46 4.27
 0.685 -1.461 4.269
 0.711 -1.462 4.268
 0.737 -1.464 4.27
 0.764 -1.465 4.27
 0.79 -1.468 4.272
 0.817 -1.469 4.272
 0.844 -1.471 4.273
 0.87 -1.472 4.271
 0.897 -1.473 4.27
 0.923 -1.474 4.266
 0.949 -1.474 4.263
 0.976 -1.477 4.264
 1.003 -1.478 4.264
 1.031 -1.48 4.264
 1.057 -1.482 4.261
 1.086 -1.485 4.265
 1.112 -1.486 4.261
 1.139 -1.487 4.259
 1.166 -1.488 4.255
 1.194 -1.491 4.256
 1.222 -1.492 4.255
 1.249 -1.494 4.253
 1.277 -1.496 4.252
 1.306 -1.499 4.252
 1.333 -1.501 4.249
 1.36 -1.502 4.244
 1.389 -1.504 4.243
 1.417 -1.506 4.241
 1.445 -1.508 4.238
 1.472 -1.509 4.233
 1.502 -1.512 4.233
 1.531 -1.515 4.231
 1.56 -1.517 4.23
 1.589 -1.52 4.228
 1.619 -1.524 4.229
 1.648 -1.525 4.225
 1.676 -1.527 4.22
 1.705 -1.529 4.214
 1.732 -1.53 4.207
 1.76 -1.53 4.198
 1.786 -1.53 4.187
 1.807 -1.525 4.164
 1.826 -1.519 4.137
 1.844 -1.512 4.106
 1.859 -1.503 4.07
 1.866 -1.488 4.018
 1.881 -1.479 3.984
 1.893 -1.469 3.944
 0 0 0
 0 0 0
 0 0 0
 0 0 0
 0 0 0
 0 0 0
 0 0 0
 1.251 -0.878 2.293
 1.468 -1.017 2.651
 1.767 -1.209 3.143
 1.774 -1.199 3.107
 1.78 -1.189 3.07
 1.776 -1.173 3.018
 1.758 -1.149 2.944
 1.742 -1.125 2.872
 -0.058 -0.039 0.087
 -0.07 -0.047 0.109
 -0.544 -0.358 0.952
 -0.536 -0.357 0.951
 -0.524 -0.353 0.944
 -0.587 -0.4 1.075
 -0.575 -0.397 1.07
 -0.657 -0.459 1.244
 -0.733 -0.519 1.412
 -0.718 -0.515 1.405
 -0.705 -0.512 1.4
 -0.86 -0.633 1.74
 -0.842 -0.628 1.732
 -0.991 -0.75 2.075
 -1.301 -0.997 2.773
 -1.521 -1.182 3.299
 -1.654 -1.303 3.648
 -1.862 -1.489 4.179
 -1.91 -1.549 4.36
 -1.879 -1.547 4.363
 -1.847 -1.544 4.366
 -1.818 -1.543 4.373
 -1.785 -1.538 4.369
 -1.753 -1.535 4.37
 -1.72 -1.531 4.366
 -1.688 -1.527 4.365
 -1.656 -1.523 4.362
 -1.626 -1.52 4.362
 -1.593 -1.516 4.358
 -1.564 -1.514 4.361
 -1.534 -1.512 4.363
 -1.505 -1.51 4.365
 -1.476 -1.508 4.367
 -1.447 -1.506 4.37
 -1.417 -1.503 4.369
 -1.386 -1.499 4.364
 -1.355 -1.495 4.358
 -1.325 -1.492 4.357
 -1.295 -1.488 4.351
 -1.265 -1.485 4.348
 -1.236 -1.482 4.346
 -1.208 -1.48 4.347
 -1.178 -1.477 4.343
 -1.15 -1.475 4.343
 -1.121 -1.472 4.341
 -1.094 -1.471 4.342
 -1.065 -1.468 4.338
 -1.038 -1.467 4.342
 -1.01 -1.466 4.343
 -0.983 -1.464 4.343
 -0.956 -1.463 4.343
 -0.927 -1.46 4.339
 -0.899 -1.457 4.335
 -0.872 -1.456 4.335
 -0.845 -1.454 4.332
 -0.817 -1.451 4.328
 -0.791 -1.452 4.334
 -0.764 -1.45 4.333
 -0.736 -1.447 4.328
 -0.71 -1.446 4.326
 -0.683 -1.445 4.328
 -0.656 -1.443 4.325
 -0.63 -1.442 4.323
 -0.603 -1.441 4.324
 -0.577 -1.44 4.324
 -0.551 -1.439 4.323
 -0.524 -1.438 4.32
 -0.498 -1.438 4.322
 -0.472 -1.437 4.324
 -0.446 -1.437 4.323
 -0.42 -1.435 4.32
 -0.394 -1.434 4.319
 -0.368 -1.433 4.317
 -0.342 -1.433 4.318
 -0.316 -1.433 4.319
 -0.29 -1.432 4.318
 -0.265 -1.433 4.321
 -0.239 -1.431 4.316
 -0.213 -1.43 4.313
 -0.187 -1.429 4.311
 -0.161 -1.429 4.311
 -0.135 -1.426 4.305
 -0.11 -1.427 4.308
 -0.084 -1.426 4.305
 -0.059 -1.426 4.305
 -0.033 -1.426 4.303
 -0.008 -1.427 4.307
 0.017 -1.425 4.301
 0.043 -1.424 4.298
 0.068 -1.424 4.297
 0.094 -1.423 4.292
 0.119 -1.423 4.293
 0.145 -1.425 4.295
 0.17 -1.425 4.297
 0.196 -1.424 4.291
 0.221 -1.426 4.296
 0.247 -1.424 4.288
 0.272 -1.423 4.283
 0.298 -1.425 4.287
 0.323 -1.425 4.286
 0.349 -1.425 4.284
 0.375 -1.426 4.286
 0.4 -1.427 4.285
 0.426 -1.426 4.281
 0.452 -1.428 4.283
 0.477 -1.427 4.278
 0.503 -1.428 4.279
 0.529 -1.429 4.278
 0.554 -1.43 4.278
 0.58 -1.43 4.276
 0.606 -1.431 4.274
 0.631 -1.431 4.271
 0.658 -1.433 4.272
 0.684 -1.434 4.272
 0.71 -1.435 4.271
 0.736 -1.436 4.272
 0.763 -1.438 4.274
 0.79 -1.441 4.276
 0.816 -1.442 4.275
 0.843 -1.443 4.275
 0.87 -1.445 4.275
 0.896 -1.446 4.274
 0.922 -1.446 4.268
 0.949 -1.448 4.268
 0.975 -1.449 4.267
 1.002 -1.451 4.266
 1.029 -1.452 4.266
 1.056 -1.454 4.265
 1.084 -1.456 4.265
 1.111 -1.458 4.263
 1.138 -1.459 4.261
 1.165 -1.46 4.259
 1.193 -1.463 4.26
 1.221 -1.466 4.261
 1.249 -1.467 4.259
 1.277 -1.469 4.258
 1.305 -1.472 4.258
 1.333 -1.474 4.256
 1.36 -1.475 4.251
 1.388 -1.476 4.248
 1.416 -1.479 4.247
 1.444 -1.48 4.243
 1.471 -1.482 4.238
 1.501 -1.484 4.238
 1.53 -1.487 4.237
 1.559 -1.49 4.236
 1.588 -1.492 4.234
 1.618 -1.496 4.234
 1.647 -1.498 4.231
 1.676 -1.5 4.226
 1.704 -1.501 4.22
 1.732 -1.502 4.213
 1.76 -1.503 4.207
 1.787 -1.503 4.197
 1.808 -1.5 4.175
 1.829 -1.494 4.15
 1.848 -1.489 4.124
 1.864 -1.48 4.089
 1.878 -1.471 4.051
 1.898 -1.466 4.028
 0 0 0
 0 0 0
 0 0 0
 0 0 0
 0 0 0
 0 0 0
 0 0 0
 0 0 0
 1.262 -0.87 2.318
 1.475 -1.004 2.669
 1.771 -1.19 3.157
 1.777 -1.181 3.12
 1.784 -1.171 3.085
 1.778 -1.154 3.028
 1.766 -1.133 2.963
 1.748 -1.109 2.889
 -0.104 -0.067 0.166
 -0.076 -0.05 0.121
 -0.075 -0.05 0.121
 -0.069 -0.047 0.112
 -0.061 -0.042 0.098
 -0.147 -0.099 0.26
 -0.139 -0.096 0.25
 -0.224 -0.155 0.417
 -0.303 -0.212 0.578
 -0.292 -0.207 0.565
 -0.284 -0.204 0.558
 -0.444 -0.322 0.895
 -0.517 -0.379 1.059
 -0.753 -0.56 1.577
 -1.147 -0.864 2.449
 -1.448 -1.105 3.146
 -1.66 -1.284 3.668
 -1.867 -1.465 4.198
 -1.912 -1.523 4.375
 -1.88 -1.52 4.376
 -1.848 -1.517 4.376
 -1.818 -1.515 4.383
 -1.785 -1.511 4.378
 -1.754 -1.508 4.38
 -1.721 -1.504 4.378
 -1.69 -1.501 4.377
 -1.657 -1.496 4.372
 -1.626 -1.493 4.372
 -1.594 -1.489 4.367
 -1.563 -1.486 4.367
 -1.532 -1.482 4.366
 -1.502 -1.48 4.366
 -1.473 -1.477 4.366
 -1.444 -1.476 4.37
 -1.414 -1.474 4.37
 -1.384 -1.47 4.366
 -1.354 -1.467 4.363
 -1.325 -1.465 4.363
 -1.294 -1.46 4.357
 -1.265 -1.458 4.355
 -1.235 -1.455 4.353
 -1.206 -1.452 4.352
 -1.178 -1.45 4.35
 -1.149 -1.448 4.349
 -1.121 -1.446 4.349
 -1.094 -1.445 4.351
 -1.065 -1.442 4.347
 -1.037 -1.44 4.347
 -1.01 -1.439 4.348
 -0.982 -1.436 4.345
 -0.954 -1.435 4.345
 -0.926 -1.431 4.339
 -0.898 -1.429 4.337
 -0.871 -1.427 4.335
 -0.843 -1.426 4.335
 -0.816 -1.424 4.333
 -0.791 -1.425 4.34
 -0.764 -1.424 4.34
 -0.736 -1.422 4.336
 -0.71 -1.42 4.334
 -0.683 -1.419 4.335
 -0.656 -1.417 4.331
 -0.629 -1.415 4.329
 -0.603 -1.415 4.329
 -0.576 -1.413 4.327
 -0.55 -1.413 4.328
 -0.524 -1.411 4.325
 -0.498 -1.411 4.327
 -0.472 -1.411 4.33
 -0.446 -1.41 4.33
 -0.42 -1.408 4.325
 -0.393 -1.407 4.322
 -0.367 -1.405 4.318
 -0.341 -1.405 4.318
 -0.315 -1.404 4.317
 -0.29 -1.404 4.317
 -0.264 -1.405 4.321
 -0.238 -1.403 4.317
 -0.212 -1.403 4.316
 -0.187 -1.401 4.313
 -0.161 -1.401 4.313
 -0.135 -1.4 4.308
 -0.11 -1.401 4.312
 -0.084 -1.399 4.306
 -0.058 -1.4 4.308
 -0.033 -1.399 4.307
 -0.007 -1.4 4.309
 0.017 -1.398 4.302
 0.043 -1.397 4.301
 0.068 -1.398 4.301
 0.094 -1.396 4.294
 0.119 -1.396 4.295
 0.145 -1.398 4.298
 0.17 -1.398 4.298
 0.196 -1.396 4.292
 0.221 -1.399 4.299
 0.247 -1.397 4.291
 0.272 -1.396 4.287
 0.298 -1.398 4.292
 0.323 -1.398 4.289
 0.349 -1.398 4.288
 0.374 -1.399 4.287
 0.4 -1.4 4.287
 0.425 -1.399 4.283
 0.452 -1.401 4.287
 0.477 -1.401 4.284
 0.503 -1.403 4.286
 0.529 -1.403 4.285
 0.555 -1.404 4.285
 0.58 -1.405 4.283
 0.606 -1.405 4.279
 0.631 -1.404 4.274
 0.657 -1.406 4.275
 0.683 -1.407 4.275
 0.71 -1.408 4.274
 0.736 -1.41 4.276
 0.763 -1.412 4.279
 0.79 -1.414 4.282
 0.816 -1.415 4.279
 0.842 -1.416 4.279
 0.869 -1.418 4.279
 0.896 -1.42 4.279
 0.921 -1.419 4.272
 0.949 -1.421 4.274
 0.975 -1.423 4.273
 1.002 -1.424 4.271
 1.028 -1.424 4.267
 1.055 -1.426 4.267
 1.082 -1.427 4.265
 1.109 -1.429 4.263
 1.136 -1.43 4.262
 1.164 -1.433 4.262
 1.192 -1.435 4.261
 1.22 -1.437 4.262
 1.247 -1.439 4.261
 1.275 -1.441 4.259
 1.303 -1.443 4.258
 1.331 -1.445 4.258
 1.359 -1.447 4.254
 1.386 -1.448 4.251
 1.414 -1.45 4.249
 1.443 -1.453 4.248
 1.47 -1.454 4.243
 1.499 -1.456 4.241
 1.528 -1.458 4.239
 1.558 -1.462 4.24
 1.586 -1.464 4.236
 1.615 -1.466 4.234
 1.645 -1.469 4.232
 1.674 -1.471 4.229
 1.701 -1.472 4.221
 1.729 -1.473 4.215
 1.758 -1.475 4.21
 1.785 -1.475 4.201
 1.808 -1.472 4.182
 1.831 -1.47 4.164
 1.854 -1.466 4.144
 1.871 -1.459 4.113
 1.886 -1.451 4.077
 0 0 0
 0 0 0
 0 0 0
 0 0 0
 0 0 0
 0 0 0
 0 0 0
 0 0 0
 0 0 0
 1.18 -0.799 2.171
 1.448 -0.967 2.624
 1.77 -1.168 3.162
 1.775 -1.158 3.123
 1.784 -1.15 3.091
 1.78 -1.134 3.037
 1.777 -1.12 2.989
 1.77 -1.103 2.933
 -0.091 -0.058 0.144
 -0.127 -0.081 0.21
 -0.092 -0.059 0.15
 -0.084 -0.055 0.138
 -0.077 -0.051 0.128
 -0.162 -0.107 0.288
 -0.152 -0.102 0.274
 -0.144 -0.098 0.265
 -0.135 -0.093 0.25
 -0.123 -0.086 0.23
 -0.029 -0.022 0.046
 -0.107 -0.077 0.206
 -0.267 -0.193 0.542
 -0.59 -0.431 1.235
 -0.986 -0.729 2.106
 -1.369 -1.025 2.98
 -1.661 -1.262 3.679
 -1.868 -1.439 4.209
 -1.913 -1.496 4.386
 -1.881 -1.493 4.388
 -1.848 -1.489 4.386
 -1.818 -1.487 4.391
 -1.784 -1.482 4.385
 -1.751 -1.478 4.383
 -1.719 -1.475 4.382
 -1.688 -1.472 4.381
 -1.656 -1.468 4.378
 -1.626 -1.465 4.38
 -1.593 -1.461 4.375
 -1.562 -1.458 4.374
 -1.531 -1.454 4.372
 -1.501 -1.451 4.369
 -1.471 -1.449 4.369
 -1.443 -1.448 4.374
 -1.412 -1.444 4.371
 -1.383 -1.442 4.37
 -1.353 -1.439 4.369
 -1.323 -1.436 4.367
 -1.293 -1.432 4.361
 -1.265 -1.431 4.365
 -1.235 -1.427 4.358
 -1.206 -1.425 4.358
 -1.178 -1.423 4.358
 -1.15 -1.422 4.359
 -1.121 -1.419 4.355
 -1.094 -1.418 4.359
 -1.065 -1.415 4.355
 -1.037 -1.414 4.355
 -1.009 -1.412 4.354
 -0.981 -1.409 4.349
 -0.953 -1.407 4.348
 -0.924 -1.404 4.342
 -0.897 -1.402 4.34
 -0.87 -1.4 4.339
 -0.843 -1.399 4.339
 -0.816 -1.397 4.339
 -0.79 -1.399 4.347
 -0.763 -1.397 4.345
 -0.736 -1.395 4.342
 -0.709 -1.394 4.342
 -0.683 -1.392 4.34
 -0.655 -1.39 4.336
 -0.629 -1.389 4.336
 -0.602 -1.388 4.333
 -0.576 -1.386 4.331
 -0.55 -1.386 4.331
 -0.523 -1.384 4.33
 -0.498 -1.384 4.332
 -0.472 -1.384 4.334
 -0.446 -1.384 4.335
 -0.419 -1.381 4.329
 -0.392 -1.378 4.319
 -0.366 -1.376 4.314
 -0.34 -1.375 4.313
 -0.314 -1.374 4.312
 -0.289 -1.374 4.311
 -0.263 -1.376 4.318
 -0.238 -1.375 4.315
 -0.212 -1.375 4.318
 -0.186 -1.374 4.316
 -0.161 -1.373 4.313
 -0.135 -1.372 4.31
 -0.109 -1.373 4.311
 -0.084 -1.37 4.303
 -0.058 -1.371 4.305
 -0.033 -1.371 4.307
 -0.007 -1.372 4.308
 0.017 -1.37 4.303
 0.043 -1.371 4.304
 0.068 -1.371 4.305
 0.094 -1.37 4.299
 0.119 -1.37 4.301
 0.145 -1.372 4.306
 0.17 -1.373 4.305
 0.196 -1.371 4.298
 0.222 -1.373 4.304
 0.247 -1.37 4.294
 0.272 -1.369 4.288
 0.298 -1.372 4.295
 0.323 -1.372 4.293
 0.349 -1.372 4.292
 0.374 -1.373 4.292
 0.4 -1.374 4.293
 0.425 -1.372 4.286
 0.451 -1.374 4.288
 0.476 -1.373 4.284
 0.503 -1.375 4.287
 0.528 -1.375 4.285
 0.554 -1.377 4.288
 0.58 -1.378 4.287
 0.605 -1.378 4.282
 0.631 -1.378 4.279
 0.658 -1.38 4.284
 0.684 -1.381 4.282
 0.71 -1.382 4.281
 0.736 -1.384 4.284
 0.763 -1.385 4.284
 0.79 -1.388 4.287
 0.815 -1.388 4.283
 0.842 -1.39 4.284
 0.869 -1.392 4.285
 0.896 -1.393 4.285
 0.921 -1.392 4.278
 0.949 -1.396 4.285
 0.975 -1.397 4.28
 1.001 -1.397 4.276
 1.027 -1.397 4.271
 1.054 -1.399 4.27
 1.08 -1.399 4.264
 1.107 -1.4 4.263
 1.134 -1.402 4.262
 1.162 -1.404 4.262
 1.19 -1.406 4.262
 1.218 -1.408 4.262
 1.245 -1.41 4.26
 1.273 -1.412 4.259
 1.301 -1.415 4.26
 1.33 -1.417 4.26
 1.357 -1.419 4.258
 1.385 -1.421 4.255
 1.413 -1.422 4.251
 1.441 -1.424 4.25
 1.468 -1.425 4.244
 1.496 -1.427 4.24
 1.525 -1.429 4.238
 1.555 -1.432 4.24
 1.583 -1.434 4.236
 1.612 -1.437 4.234
 1.642 -1.44 4.234
 1.671 -1.442 4.23
 1.699 -1.443 4.224
 1.726 -1.444 4.216
 1.755 -1.445 4.211
 1.781 -1.445 4.2
 1.806 -1.444 4.185
 1.83 -1.442 4.169
 1.854 -1.44 4.153
 1.87 -1.432 4.118
 0 0 0
 0 0 0
 0 0 0
 0 0 0
 0 0 0
 0 0 0
 0 0 0
 0 0 0
 0 0 0
 0 0 0
 1.065 -0.708 1.963
 1.414 -0.927 2.568
 1.767 -1.145 3.164
 1.774 -1.136 3.128
 1.783 -1.128 3.096
 1.781 -1.115 3.047
 1.784 -1.103 3.005
 1.78 -1.089 2.955
 -0.134 -0.083 0.22
 -0.116 -0.073 0.192
 -0.099 -0.063 0.163
 -0.088 -0.057 0.147
 -0.082 -0.053 0.137
 -0.076 -0.051 0.13
 -0.065 -0.044 0.111
 -0.058 -0.04 0.099
 -0.049 -0.034 0.083
 -0.039 -0.028 0.064
 -0.031 -0.022 0.049
 -0.108 -0.077 0.209
 -0.35 -0.248 0.718
 -0.672 -0.481 1.411
 -1.065 -0.772 2.281
 -1.447 -1.063 3.156
 -1.738 -1.296 3.859
 -1.867 -1.411 4.215
 -1.912 -1.467 4.393
 -1.88 -1.464 4.394
 -1.847 -1.46 4.392
 -1.817 -1.459 4.397
 -1.783 -1.454 4.392
 -1.75 -1.449 4.387
 -1.718 -1.446 4.385
 -1.686 -1.442 4.384
 -1.653 -1.438 4.379
 -1.622 -1.435 4.379
 -1.591 -1.431 4.376
 -1.56 -1.429 4.377
 -1.53 -1.425 4.374
 -1.498 -1.421 4.37
 -1.468 -1.419 4.37
 -1.44 -1.418 4.373
 -1.41 -1.415 4.372
 -1.381 -1.414 4.374
 -1.352 -1.411 4.375
 -1.323 -1.409 4.373
 -1.292 -1.405 4.367
 -1.264 -1.404 4.371
 -1.233 -1.399 4.361
 -1.205 -1.397 4.361
 -1.177 -1.396 4.363
 -1.15 -1.395 4.366
 -1.12 -1.391 4.36
 -1.094 -1.392 4.366
 -1.065 -1.389 4.364
 -1.037 -1.387 4.362
 -1.009 -1.385 4.359
 -0.98 -1.382 4.356
 -0.952 -1.38 4.353
 -0.923 -1.376 4.345
 -0.896 -1.374 4.343
 -0.869 -1.372 4.342
 -0.842 -1.371 4.341
 -0.815 -1.37 4.343
 -0.79 -1.373 4.354
 -0.763 -1.371 4.351
 -0.736 -1.369 4.348
 -0.709 -1.368 4.349
 -0.683 -1.367 4.348
 -0.656 -1.365 4.344
 -0.63 -1.365 4.35
 -0.603 -1.364 4.346
 -0.576 -1.36 4.338
 -0.55 -1.36 4.339
 -0.523 -1.358 4.334
 -0.496 -1.356 4.33
 -0.47 -1.355 4.331
 -0.445 -1.356 4.335
 -0.418 -1.353 4.327
 -0.391 -1.348 4.313
 -0.365 -1.346 4.309
 -0.339 -1.346 4.31
 -0.314 -1.346 4.31
 -0.288 -1.345 4.308
 -0.263 -1.347 4.316
 -0.237 -1.347 4.316
 -0.212 -1.347 4.317
 -0.186 -1.346 4.314
 -0.16 -1.346 4.313
 -0.135 -1.345 4.312
 -0.109 -1.345 4.31
 -0.083 -1.343 4.304
 -0.058 -1.344 4.307
 -0.033 -1.344 4.309
 -0.007 -1.344 4.308
 0.017 -1.343 4.304
 0.043 -1.345 4.309
 0.068 -1.345 4.31
 0.094 -1.343 4.303
 0.119 -1.345 4.307
 0.145 -1.348 4.316
 0.171 -1.348 4.314
 0.196 -1.346 4.308
 0.222 -1.349 4.317
 0.247 -1.346 4.305
 0.272 -1.344 4.295
 0.298 -1.347 4.303
 0.323 -1.346 4.301
 0.349 -1.347 4.299
 0.374 -1.347 4.297
 0.4 -1.347 4.297
 0.425 -1.345 4.287
 0.451 -1.346 4.288
 0.475 -1.345 4.281
 0.502 -1.347 4.285
 0.527 -1.348 4.285
 0.554 -1.35 4.288
 0.58 -1.351 4.288
 0.605 -1.351 4.286
 0.63 -1.35 4.281
 0.657 -1.353 4.287
 0.684 -1.355 4.288
 0.71 -1.356 4.286
 0.736 -1.357 4.288
 0.763 -1.359 4.289
 0.79 -1.362 4.294
 0.816 -1.362 4.29
 0.843 -1.364 4.292
 0.87 -1.366 4.294
 0.897 -1.368 4.296
 0.922 -1.368 4.289
 0.948 -1.368 4.285
 0.974 -1.368 4.28
 1 -1.369 4.277
 1.026 -1.369 4.271
 1.052 -1.37 4.268
 1.08 -1.372 4.268
 1.107 -1.374 4.268
 1.134 -1.375 4.267
 1.162 -1.378 4.268
 1.189 -1.379 4.267
 1.217 -1.381 4.265
 1.243 -1.381 4.26
 1.271 -1.384 4.26
 1.299 -1.385 4.258
 1.327 -1.388 4.259
 1.356 -1.39 4.259
 1.384 -1.393 4.259
 1.411 -1.393 4.252
 1.44 -1.396 4.252
 1.466 -1.397 4.245
 1.494 -1.398 4.242
 1.523 -1.4 4.24
 1.553 -1.403 4.241
 1.581 -1.405 4.237
 1.61 -1.408 4.236
 1.639 -1.41 4.233
 1.668 -1.412 4.229
 1.696 -1.414 4.224
 1.724 -1.415 4.218
 1.752 -1.416 4.211
 1.778 -1.416 4.2
 1.804 -1.415 4.188
 1.829 -1.414 4.174
 1.852 -1.411 4.155
 0 0 0
 0 0 0
 0 0 0
 0 0 0
 0 0 0
 0 0 0
 0 0 0
 0 0 0
 0 0 0
 0 0 0
 0 0 0
 0 0 0
 1.546 -0.995 2.815
 1.769 -1.125 3.172
 1.774 -1.115 3.134
 1.783 -1.107 3.102
 1.783 -1.095 3.056
 1.8 -1.093 3.04
 1.762 -1.058 2.932
 -0.13 -0.079 0.213
 -0.126 -0.077 0.209
 -0.102 -0.063 0.169
 -0.093 -0.059 0.156
 -0.085 -0.055 0.145
 -0.078 -0.051 0.134
 -0.066 -0.044 0.113
 -0.056 -0.038 0.095
 -0.044 -0.03 0.074
 -0.034 -0.024 0.054
 -0.112 -0.077 0.214
 -0.106 -0.074 0.205
 -0.434 -0.301 0.893
 -0.838 -0.588 1.765
 -1.228 -0.873 2.638
 -1.527 -1.101 3.338
 -1.896 -1.386 4.217
 -1.943 -1.441 4.396
 -1.91 -1.437 4.395
 -1.878 -1.434 4.397
 -1.845 -1.431 4.395
 -1.815 -1.429 4.4
 -1.781 -1.425 4.396
 -1.748 -1.42 4.391
 -1.715 -1.416 4.387
 -1.683 -1.412 4.385
 -1.651 -1.408 4.381
 -1.62 -1.406 4.382
 -1.589 -1.403 4.381
 -1.559 -1.4 4.38
 -1.528 -1.397 4.377
 -1.496 -1.392 4.372
 -1.466 -1.39 4.371
 -1.437 -1.388 4.372
 -1.407 -1.385 4.371
 -1.38 -1.385 4.377
 -1.351 -1.384 4.38
 -1.322 -1.381 4.378
 -1.292 -1.378 4.374
 -1.265 -1.378 4.381
 -1.234 -1.373 4.371
 -1.205 -1.371 4.369
 -1.178 -1.37 4.374
 -1.15 -1.369 4.375
 -1.12 -1.365 4.367
 -1.094 -1.365 4.374
 -1.065 -1.363 4.372
 -1.036 -1.36 4.366
 -1.008 -1.358 4.365
 -0.979 -1.354 4.358
 -0.951 -1.352 4.355
 -0.922 -1.348 4.347
 -0.895 -1.346 4.344
 -0.867 -1.345 4.343
 -0.841 -1.344 4.345
 -0.814 -1.343 4.345
 -0.789 -1.345 4.356
 -0.762 -1.343 4.354
 -0.735 -1.341 4.349
 -0.708 -1.34 4.35
 -0.681 -1.337 4.344
 -0.653 -1.334 4.337
 -0.629 -1.337 4.349
 -0.602 -1.335 4.343
 -0.574 -1.33 4.33
 -0.549 -1.333 4.343
 -0.523 -1.332 4.342
 -0.495 -1.328 4.33
 -0.47 -1.328 4.333
 -0.445 -1.33 4.339
 -0.417 -1.323 4.32
 -0.389 -1.316 4.298
 -0.363 -1.316 4.299
 -0.338 -1.317 4.303
 -0.313 -1.317 4.304
 -0.287 -1.316 4.304
 -0.262 -1.319 4.313
 -0.237 -1.319 4.314
 -0.211 -1.319 4.315
 -0.185 -1.318 4.313
 -0.16 -1.318 4.314
 -0.134 -1.318 4.314
 -0.109 -1.318 4.313
 -0.083 -1.316 4.308
 -0.058 -1.317 4.311
 -0.032 -1.318 4.312
 -0.007 -1.316 4.305
 0.018 -1.314 4.299
 0.043 -1.315 4.303
 0.068 -1.317 4.307
 0.094 -1.314 4.296
 0.12 -1.319 4.314
 0.145 -1.322 4.322
 0.171 -1.323 4.324
 0.196 -1.321 4.314
 0.222 -1.325 4.329
 0.247 -1.319 4.308
 0.272 -1.317 4.298
 0.298 -1.321 4.309
 0.323 -1.32 4.305
 0.349 -1.319 4.301
 0.374 -1.318 4.294
 0.399 -1.318 4.293
 0.424 -1.315 4.28
 0.449 -1.316 4.281
 0.474 -1.315 4.274
 0.501 -1.319 4.285
 0.526 -1.319 4.282
 0.553 -1.321 4.285
 0.579 -1.323 4.289
 0.604 -1.323 4.286
 0.629 -1.321 4.275
 0.657 -1.327 4.293
 0.684 -1.329 4.295
 0.71 -1.33 4.294
 0.736 -1.332 4.295
 0.764 -1.335 4.3
 0.791 -1.338 4.307
 0.817 -1.338 4.301
 0.842 -1.338 4.297
 0.869 -1.34 4.299
 0.897 -1.343 4.303
 0.921 -1.34 4.29
 0.946 -1.34 4.283
 0.972 -1.34 4.278
 0.999 -1.341 4.276
 1.024 -1.34 4.27
 1.051 -1.342 4.268
 1.078 -1.344 4.27
 1.106 -1.346 4.271
 1.133 -1.348 4.271
 1.161 -1.35 4.272
 1.188 -1.351 4.268
 1.215 -1.353 4.267
 1.242 -1.354 4.262
 1.269 -1.355 4.26
 1.297 -1.357 4.259
 1.325 -1.36 4.26
 1.353 -1.362 4.258
 1.381 -1.364 4.257
 1.408 -1.364 4.252
 1.437 -1.367 4.251
 1.464 -1.368 4.245
 1.493 -1.37 4.244
 1.521 -1.372 4.241
 1.55 -1.375 4.242
 1.578 -1.376 4.237
 1.607 -1.379 4.235
 1.635 -1.38 4.231
 1.665 -1.382 4.228
 1.693 -1.384 4.225
 1.721 -1.386 4.219
 1.75 -1.388 4.215
 1.777 -1.388 4.206
 1.805 -1.389 4.199
 1.832 -1.389 4.188
 1.861 -1.391 4.184
 0 0 0
 0 0 0
 0 0 0
 0 0 0
 0 0 0
 0 0 0
 0 0 0
 0 0 0
 0 0 0
 0 0 0
 0 0 0
 0 0 0
 1.753 -1.106 3.198
 1.768 -1.103 3.177
 1.775 -1.094 3.141
 1.783 -1.087 3.109
 1.785 -1.075 3.066
 1.772 -1.055 2.998
 1.751 -1.032 2.919
 -0.137 -0.081 0.225
 -0.091 -0.055 0.148
 -0.105 -0.064 0.175
 -0.094 -0.058 0.159
 -0.086 -0.054 0.146
 -0.078 -0.049 0.132
 -0.064 -0.042 0.109
 -0.055 -0.037 0.094
 -0.131 -0.085 0.244
 -0.206 -0.136 0.398
 -0.283 -0.188 0.561
 -0.36 -0.242 0.728
 -0.682 -0.463 1.415
 -1.001 -0.689 2.117
 -1.308 -0.912 2.816
 -1.605 -1.134 3.515
 -1.892 -1.356 4.218
 -1.94 -1.411 4.399
 -1.907 -1.407 4.397
 -1.874 -1.404 4.397
 -1.842 -1.4 4.396
 -1.811 -1.398 4.399
 -1.778 -1.394 4.395
 -1.744 -1.389 4.389
 -1.711 -1.385 4.384
 -1.68 -1.382 4.385
 -1.647 -1.378 4.38
 -1.616 -1.375 4.378
 -1.586 -1.373 4.379
 -1.556 -1.371 4.381
 -1.525 -1.367 4.378
 -1.494 -1.364 4.375
 -1.464 -1.361 4.373
 -1.434 -1.359 4.372
 -1.405 -1.356 4.372
 -1.377 -1.356 4.378
 -1.349 -1.355 4.38
 -1.321 -1.353 4.383
 -1.292 -1.351 4.383
 -1.266 -1.353 4.393
 -1.234 -1.347 4.38
 -1.205 -1.344 4.377
 -1.178 -1.344 4.384
 -1.15 -1.342 4.382
 -1.119 -1.338 4.372
 -1.093 -1.338 4.38
 -1.066 -1.338 4.384
 -1.036 -1.333 4.372
 -1.008 -1.331 4.37
 -0.978 -1.326 4.359
 -0.95 -1.324 4.356
 -0.921 -1.32 4.346
 -0.894 -1.319 4.348
 -0.868 -1.319 4.354
 -0.841 -1.319 4.355
 -0.815 -1.319 4.36
 -0.791 -1.322 4.373
 0 0 0
 0 0 0
 0 0 0
 0 0 0
 0 0 0
 0 0 0
 0 0 0
 0 0 0
 0 0 0
 0 0 0
 0 0 0
 0 0 0
 0 0 0
 0 0 0
 -0.386 -1.281 4.274
 -0.362 -1.287 4.293
 -0.337 -1.289 4.302
 -0.312 -1.289 4.305
 -0.287 -1.289 4.306
 -0.262 -1.292 4.315
 -0.236 -1.292 4.314
 -0.21 -1.291 4.313
 -0.185 -1.291 4.313
 -0.159 -1.29 4.312
 -0.134 -1.291 4.315
 -0.109 -1.291 4.314
 -0.083 -1.29 4.31
 -0.058 -1.29 4.312
 -0.032 -1.291 4.315
 -0.007 -1.288 4.303
 0.018 -1.286 4.295
 0 0 0
 0 0 0
 0 0 0
 0 0 0
 0 0 0
 0 0 0
 0 0 0
 0 0 0
 0 0 0
 0 0 0
 0 0 0
 0 0 0
 0 0 0
 0 0 0
 0 0 0
 0 0 0
 0 0 0
 0 0 0
 0 0 0
 0 0 0
 0 0 0
 0 0 0
 0 0 0
 0 0 0
 0 0 0
 0 0 0
 0 0 0
 0 0 0
 0 0 0
 0 0 0
 0 0 0
 0 0 0
 0 0 0
 0 0 0
 0 0 0
 0.944 -1.31 4.279
 0.971 -1.312 4.278
 0.997 -1.312 4.274
 1.023 -1.312 4.27
 1.049 -1.313 4.268
 1.077 -1.316 4.271
 1.104 -1.318 4.271
 1.132 -1.32 4.272
 1.16 -1.322 4.273
 1.186 -1.323 4.269
 1.213 -1.324 4.265
 1.24 -1.325 4.261
 1.267 -1.327 4.26
 1.294 -1.328 4.257
 1.323 -1.33 4.257
 1.351 -1.333 4.258
 1.379 -1.335 4.257
 1.406 -1.336 4.252
 1.434 -1.338 4.25
 1.461 -1.339 4.245
 1.489 -1.34 4.242
 1.517 -1.342 4.239
 1.546 -1.345 4.238
 1.575 -1.347 4.235
 1.603 -1.348 4.232
 1.631 -1.35 4.227
 1.66 -1.352 4.224
 1.689 -1.354 4.222
 1.718 -1.356 4.217
 1.748 -1.359 4.216
 1.776 -1.36 4.21
 1.804 -1.361 4.203
 1.831 -1.362 4.194
 1.862 -1.365 4.194
 0 0 0
 0 0 0
 0 0 0
 0 0 0
 0 0 0
 0 0 0
 0 0 0
 0 0 0
 0 0 0
 0 0 0
 0 0 0
 0 0 0
 1.729 -1.071 3.162
 1.754 -1.073 3.157
 1.765 -1.067 3.131
 1.775 -1.061 3.101
 1.782 -1.053 3.067
 1.781 -1.04 3.019
 1.779 -1.028 2.971
 -0.121 -0.071 0.199
 -0.103 -0.061 0.17
 -0.104 -0.062 0.173
 -0.093 -0.056 0.156
 -0.083 -0.051 0.14
 -0.074 -0.047 0.127
 -0.06 -0.038 0.101
 -0.052 -0.033 0.087
 -0.128 -0.082 0.238
 -0.204 -0.131 0.394
 -0.365 -0.238 0.729
 -0.525 -0.345 1.07
 -0.846 -0.563 1.761
 -1.162 -0.783 2.464
 -1.467 -1.002 3.166
 -1.683 -1.166 3.694
 -1.89 -1.328 4.221
 -1.937 -1.38 4.399
 -1.903 -1.376 4.397
 -1.87 -1.373 4.396
 -1.837 -1.369 4.392
 -1.806 -1.367 4.394
 -1.774 -1.363 4.393
 -1.74 -1.359 4.388
 -1.707 -1.355 4.383
 -1.676 -1.352 4.383
 -1.645 -1.349 4.381
 -1.614 -1.346 4.38
 -1.584 -1.343 4.381
 -1.555 -1.342 4.384
 -1.525 -1.34 4.384
 -1.494 -1.336 4.381
 -1.463 -1.333 4.379
 -1.434 -1.332 4.379
 -1.404 -1.329 4.377
 -1.377 -1.328 4.383
 -1.348 -1.327 4.385
 -1.321 -1.326 4.389
 -1.29 -1.322 4.382
 -1.266 -1.326 4.401
 -1.232 -1.318 4.382
 -1.206 -1.319 4.389
 0 0 0
 0 0 0
 0 0 0
 0 0 0
 0 0 0
 0 0 0
 0 0 0
 0 0 0
 0 0 0
 0 0 0
 0 0 0
 0 0 0
 0 0 0
 0 0 0
 0 0 0
 0 0 0
 0 0 0
 0 0 0
 0 0 0
 0 0 0
 0 0 0
 0 0 0
 0 0 0
 0 0 0
 0 0 0
 0 0 0
 0 0 0
 0 0 0
 0 0 0
 -0.387 -1.258 4.287
 -0.362 -1.263 4.304
 -0.337 -1.264 4.309
 -0.312 -1.264 4.311
 -0.286 -1.263 4.31
 -0.261 -1.265 4.316
 -0.236 -1.264 4.314
 -0.21 -1.263 4.312
 -0.184 -1.263 4.312
 -0.159 -1.263 4.311
 -0.134 -1.263 4.312
 -0.108 -1.263 4.312
 -0.083 -1.262 4.309
 -0.057 -1.262 4.309
 -0.032 -1.263 4.312
 -0.007 -1.261 4.306
 0.018 -1.26 4.3
 0 0 0
 0 0 0
 0 0 0
 0 0 0
 0 0 0
 0 0 0
 0 0 0
 0 0 0
 0 0 0
 0 0 0
 0 0 0
 0 0 0
 0 0 0
 0 0 0
 0 0 0
 0 0 0
 0 0 0
 0 0 0
 0 0 0
 0 0 0
 0 0 0
 0 0 0
 0 0 0
 0 0 0
 0 0 0
 0 0 0
 0 0 0
 0 0 0
 0 0 0
 0 0 0
 0 0 0
 0 0 0
 0 0 0
 0 0 0
 0 0 0
 0.939 -1.277 4.26
 0.968 -1.282 4.271
 0.994 -1.282 4.268
 1.021 -1.284 4.269
 1.048 -1.286 4.268
 1.076 -1.289 4.272
 1.103 -1.29 4.271
 1.13 -1.292 4.272
 1.158 -1.294 4.271
 1.184 -1.295 4.268
 1.211 -1.296 4.265
 1.238 -1.297 4.262
 1.265 -1.299 4.261
 1.293 -1.301 4.259
 1.322 -1.303 4.261
 1.35 -1.305 4.26
 1.378 -1.307 4.259
 1.405 -1.309 4.256
 1.433 -1.31 4.252
 1.459 -1.31 4.245
 1.487 -1.312 4.243
 1.516 -1.314 4.241
 1.545 -1.316 4.24
 1.573 -1.318 4.236
 1.601 -1.32 4.233
 1.628 -1.321 4.226
 1.658 -1.324 4.226
 1.687 -1.326 4.224
 1.716 -1.328 4.22
 1.746 -1.331 4.22
 1.776 -1.333 4.216
 1.802 -1.333 4.207
 1.83 -1.334 4.198
 1.86 -1.336 4.195
 0 0 0
 0 0 0
 0 0 0
 0 0 0
 0 0 0
 0 0 0
 0 0 0
 0 0 0
 0 0 0
 0 0 0
 0 0 0
 0 0 0
 1.725 -1.047 3.16
 1.752 -1.051 3.161
 1.766 -1.047 3.138
 1.775 -1.04 3.107
 1.783 -1.032 3.073
 1.789 -1.024 3.038
 1.792 -1.015 3
 -0.124 -0.071 0.204
 -0.138 -0.079 0.231
 -0.102 -0.06 0.171
 -0.091 -0.054 0.153
 -0.079 -0.048 0.133
 -0.068 -0.042 0.116
 -0.054 -0.034 0.091
 -0.136 -0.084 0.25
 -0.299 -0.186 0.576
 -0.462 -0.29 0.912
 -0.621 -0.394 1.25
 -0.777 -0.5 1.593
 -1.094 -0.713 2.285
 -1.323 -0.874 2.813
 -1.546 -1.035 3.343
 -1.759 -1.194 3.87
 -1.965 -1.353 4.397
 -1.934 -1.351 4.402
 -1.901 -1.347 4.4
 -1.867 -1.343 4.395
 -1.834 -1.339 4.393
 -1.803 -1.337 4.395
 -1.77 -1.333 4.393
 -1.738 -1.329 4.389
 -1.705 -1.325 4.385
 -1.673 -1.322 4.383
 -1.642 -1.319 4.381
 -1.61 -1.316 4.379
 -1.581 -1.314 4.381
 -1.552 -1.313 4.384
 -1.523 -1.311 4.386
 -1.492 -1.308 4.383
 -1.461 -1.304 4.379
 -1.432 -1.303 4.38
 -1.403 -1.301 4.381
 -1.374 -1.299 4.383
 -1.347 -1.299 4.388
 -1.324 -1.303 4.408
 0 0 0
 0 0 0
 0 0 0
 0 0 0
 0 0 0
 0 0 0
 0 0 0
 0 0 0
 0 0 0
 0 0 0
 0 0 0
 0 0 0
 0 0 0
 0 0 0
 0 0 0
 0 0 0
 0 0 0
 0 0 0
 0 0 0
 0 0 0
 0 0 0
 0 0 0
 0 0 0
 0 0 0
 0 0 0
 0 0 0
 0 0 0
 0 0 0
 0 0 0
 0 0 0
 0 0 0
 0 0 0
 0 0 0
 -0.387 -1.233 4.296
 -0.362 -1.237 4.309
 -0.337 -1.238 4.313
 -0.311 -1.236 4.31
 -0.286 -1.236 4.309
 -0.26 -1.237 4.312
 -0.235 -1.236 4.311
 -0.209 -1.235 4.309
 -0.184 -1.236 4.311
 -0.159 -1.236 4.312
 -0.133 -1.236 4.312
 -0.108 -1.235 4.311
 -0.082 -1.235 4.308
 -0.057 -1.235 4.308
 -0.032 -1.235 4.308
 -0.006 -1.234 4.305
 0.018 -1.232 4.296
 0 0 0
 0 0 0
 0 0 0
 0 0 0
 0 0 0
 0 0 0
 0 0 0
 0 0 0
 0 0 0
 0 0 0
 0 0 0
 0 0 0
 0 0 0
 0 0 0
 0 0 0
 0 0 0
 0 0 0
 0 0 0
 0 0 0
 0 0 0
 0 0 0
 0 0 0
 0 0 0
 0 0 0
 0 0 0
 0 0 0
 0 0 0
 0 0 0
 0 0 0
 0 0 0
 0 0 0
 0 0 0
 0 0 0
 0 0 0
 0 0 0
 0.936 -1.248 4.255
 0.965 -1.252 4.263
 0.992 -1.253 4.264
 1.019 -1.256 4.267
 1.046 -1.257 4.266
 1.074 -1.261 4.271
 1.102 -1.263 4.273
 1.129 -1.264 4.271
 1.155 -1.265 4.268
 1.182 -1.266 4.266
 1.209 -1.268 4.264
 1.236 -1.268 4.26
 1.263 -1.27 4.26
 1.291 -1.272 4.258
 1.319 -1.274 4.259
 1.347 -1.277 4.258
 1.375 -1.279 4.258
 1.403 -1.28 4.255
 1.43 -1.281 4.252
 1.457 -1.282 4.246
 1.486 -1.284 4.245
 1.514 -1.286 4.241
 1.542 -1.288 4.24
 1.57 -1.29 4.237
 1.599 -1.292 4.234
 1.625 -1.292 4.225
 1.656 -1.295 4.226
 1.684 -1.297 4.223
 1.714 -1.299 4.222
 1.745 -1.303 4.222
 1.774 -1.305 4.22
 1.801 -1.305 4.21
 1.829 -1.307 4.203
 1.86 -1.309 4.202
 0 0 0
 0 0 0
 0 0 0
 0 0 0
 0 0 0
 0 0 0
 0 0 0
 0 0 0
 0 0 0
 0 0 0
 0 0 0
 0 0 0
 1.727 -1.027 3.17
 1.748 -1.027 3.158
 1.762 -1.024 3.137
 1.774 -1.018 3.11
 1.782 -1.012 3.079
 1.769 -0.993 3.01
 1.768 -0.981 2.964
 -0.121 -0.068 0.199
 -0.117 -0.066 0.195
 -0.101 -0.058 0.169
 -0.09 -0.052 0.151
 -0.077 -0.046 0.13
 -0.067 -0.041 0.114
 -0.053 -0.033 0.089
 -0.134 -0.081 0.247
 -0.296 -0.18 0.572
 -0.459 -0.282 0.908
 -0.703 -0.437 1.419
 -0.943 -0.594 1.94
 -1.259 -0.803 2.637
 -1.487 -0.961 3.168
 -1.707 -1.119 3.699
 -1.838 -1.222 4.051
 -1.964 -1.324 4.402
 -1.933 -1.322 4.407
 -1.899 -1.318 4.404
 -1.865 -1.314 4.399
 -1.83 -1.309 4.393
 -1.798 -1.306 4.392
 -1.766 -1.303 4.39
 -1.734 -1.299 4.389
 -1.701 -1.295 4.383
 -1.669 -1.292 4.38
 -1.639 -1.289 4.38
 -1.607 -1.286 4.377
 -1.577 -1.284 4.377
 -1.547 -1.282 4.378
 -1.519 -1.281 4.383
 -1.488 -1.278 4.38
 -1.459 -1.276 4.38
 -1.43 -1.274 4.382
 -1.402 -1.273 4.385
 -1.373 -1.271 4.385
 -1.345 -1.27 4.389
 -1.321 -1.273 4.405
 0 0 0
 0 0 0
 0 0 0
 0 0 0
 0 0 0
 0 0 0
 0 0 0
 0 0 0
 0 0 0
 0 0 0
 0 0 0
 0 0 0
 0 0 0
 0 0 0
 0 0 0
 0 0 0
 0 0 0
 0 0 0
 0 0 0
 0 0 0
 0 0 0
 0 0 0
 0 0 0
 0 0 0
 -0.182 -0.357 1.252
 -0.174 -0.356 1.252
 -0.167 -0.356 1.253
 -0.158 -0.355 1.248
 0 0 0
 0 0 0
 0 0 0
 0 0 0
 0 0 0
 -0.386 -1.207 4.298
 -0.362 -1.211 4.314
 -0.336 -1.21 4.311
 -0.311 -1.209 4.309
 -0.285 -1.209 4.311
 -0.26 -1.209 4.312
 -0.234 -1.208 4.309
 -0.209 -1.209 4.312
 -0.184 -1.209 4.314
 -0.158 -1.209 4.313
 -0.133 -1.209 4.313
 -0.108 -1.209 4.314
 -0.082 -1.208 4.309
 -0.057 -1.208 4.308
 -0.032 -1.207 4.307
 -0.006 -1.207 4.306
 0.018 -1.204 4.293
 0 0 0
 0 0 0
 0 0 0
 0 0 0
 0 0 0
 0 0 0
 0 0 0
 0 0 0
 0 0 0
 0 0 0
 0 0 0
 0 0 0
 0 0 0
 0 0 0
 0 0 0
 0 0 0
 0 0 0
 0 0 0
 0 0 0
 0 0 0
 0 0 0
 0 0 0
 0 0 0
 0 0 0
 0 0 0
 0 0 0
 0 0 0
 0 0 0
 0 0 0
 0 0 0
 0 0 0
 0 0 0
 0 0 0
 0 0 0
