 0.259 -1.637 4.03
 0.28 -1.614 3.972
 0.307 -1.631 4.012
 0.326 -1.604 3.943
 0.357 -1.634 4.015
 0.381 -1.634 4.013
 0.402 -1.62 3.976
 0.43 -1.636 4.012
 0.447 -1.61 3.947
 0.475 -1.621 3.971
 0.498 -1.618 3.96
 0.528 -1.635 3.999
 0.551 -1.631 3.987
 0.576 -1.633 3.988
 0.599 -1.629 3.975
 0.621 -1.625 3.961
 0.648 -1.63 3.971
 0.672 -1.63 3.967
 0.698 -1.634 3.97
 0.721 -1.631 3.959
 0.75 -1.642 3.984
 0.777 -1.647 3.99
 0.8 -1.644 3.98
 0.82 -1.635 3.952
 0.844 -1.635 3.947
 0.874 -1.644 3.965
 0.892 -1.633 3.932
 0.918 -1.635 3.934
 0.942 -1.636 3.929
 0.956 -1.619 3.883
 0.994 -1.641 3.931
 1.027 -1.656 3.96
 1.036 -1.631 3.894
 1.071 -1.647 3.926
 1.083 -1.629 3.878
 1.116 -1.641 3.9
 1.129 -1.625 3.855
 1.163 -1.639 3.881
 1.187 -1.639 3.874
 1.213 -1.64 3.871
 1.247 -1.654 3.896
 1.252 -1.628 3.828
 1.277 -1.628 3.822
 1.328 -1.662 3.894
 1.334 -1.639 3.832
 1.357 -1.638 3.821
 1.391 -1.649 3.839
 1.408 -1.641 3.812
 1.448 -1.658 3.844
 1.458 -1.642 3.797
 1.468 -1.626 3.752
 1.523 -1.66 3.822
 1.525 -1.636 3.757
 1.552 -1.639 3.755
 1.575 -1.638 3.742
 1.594 -1.632 3.719
 1.618 -1.632 3.709
 1.653 -1.643 3.724
 1.668 -1.633 3.693
 1.688 -1.63 3.675
 1.727 -1.643 3.696
 1.731 -1.625 3.643
 1.75 -1.62 3.621
 1.784 -1.629 3.631
 1.829 -1.648 3.663
 1.832 -1.629 3.609
 1.866 -1.637 3.617
 1.88 -1.629 3.586
 1.864 -1.594 3.499
 1.851 -1.564 3.42
 1.855 -1.548 3.374
 1.883 -1.552 3.372
 1.842 -1.5 3.247
 1.888 -1.519 3.278
 1.86 -1.48 3.18
 1.849 -1.454 3.113
 1.854 -1.44 3.073
 1.852 -1.423 3.024
 1.826 -1.387 2.938
 -2.148 -1.626 3.587
 -2.14 -1.638 3.627
 -2.137 -1.656 3.679
 -2.085 -1.635 3.644
 -2.06 -1.636 3.657
 -2.025 -1.627 3.65
 -1.997 -1.625 3.657
 -1.972 -1.625 3.668
 -1.953 -1.63 3.691
 -1.937 -1.638 3.72
 -1.916 -1.641 3.739
 -1.906 -1.654 3.779
 -1.84 -1.619 3.71
 -1.848 -1.648 3.787
 -1.834 -1.658 3.821
 -1.792 -1.643 3.796
 -1.76 -1.636 3.791
 -1.739 -1.641 3.81
 -1.7 -1.627 3.789
 -1.681 -1.634 3.814
 -1.656 -1.634 3.823
 -1.646 -1.649 3.867
 -1.614 -1.642 3.86
 -1.572 -1.624 3.828
 -1.566 -1.644 3.883
 -1.523 -1.625 3.847
 -1.518 -1.647 3.907
 -1.469 -1.62 3.851
 -1.453 -1.631 3.884
 -1.426 -1.629 3.887
 -1.403 -1.631 3.901
 -1.375 -1.627 3.899
 -1.357 -1.636 3.927
 -1.326 -1.628 3.915
 -1.309 -1.638 3.946
 -1.272 -1.623 3.917
 -1.246 -1.621 3.919
 -1.218 -1.618 3.918
 -1.192 -1.616 3.919
 -1.171 -1.621 3.938
 -1.158 -1.637 3.984
 -1.136 -1.642 4.001
 -1.097 -1.621 3.956
 -1.076 -1.628 3.977
 -1.04 -1.611 3.94
 -1.022 -1.621 3.971
 -1.006 -1.635 4.012
 -0.982 -1.636 4.019
 -0.947 -1.62 3.985
 -0.922 -1.619 3.986
 -0.907 -1.637 4.035
 -0.868 -1.611 3.976
 -0.845 -1.614 3.986
 -0.824 -1.622 4.01
 -0.8 -1.624 4.019
 -0.774 -1.62 4.015
 -0.753 -1.628 4.038
 -0.727 -1.626 4.037
 -0.704 -1.63 4.049
 -0.678 -1.628 4.047
 -0.654 -1.631 4.057
 -0.632 -1.638 4.08
 -0.599 -1.616 4.028
 -0.579 -1.628 4.059
 -0.557 -1.636 4.084
 -0.535 -1.646 4.111
 -0.499 -1.612 4.027
 -0.478 -1.623 4.058
 -0.453 -1.622 4.056
 -0.428 -1.62 4.055
 -0.404 -1.623 4.063
 -0.382 -1.634 4.092
 -0.358 -1.639 4.106
 -0.329 -1.619 4.057
 -0.305 -1.624 4.071
 -0.281 -1.624 4.074
 -0.257 -1.635 4.101
 -0.232 -1.631 4.092
 -0.204 -1.608 4.036
 -0.182 -1.631 4.094
 -0.156 -1.62 4.066
 -0.132 -1.62 4.066
 -0.106 -1.608 4.038
 -0.083 -1.624 4.077
 -0.058 -1.631 4.095
 -0.033 -1.622 4.073
 -0.009 -1.619 4.065
 0.015 -1.61 4.041
 0.039 -1.614 4.052
 0.063 -1.6 4.015
 0.089 -1.633 4.098
 0.114 -1.637 4.107
 0.137 -1.614 4.049
 0.161 -1.606 4.027
 0.188 -1.631 4.088
 0.212 -1.622 4.064
 0.237 -1.623 4.065
 0.259 -1.609 4.029
 0.285 -1.619 4.052
 0.308 -1.608 4.022
 0.333 -1.615 4.038
 0.361 -1.63 4.075
 0.386 -1.632 4.076
 0.407 -1.616 4.036
 0.431 -1.615 4.03
 0.456 -1.617 4.032
 0.48 -1.614 4.021
 0.506 -1.62 4.034
 0.531 -1.622 4.036
 0.554 -1.616 4.018
 0.577 -1.613 4.006
 0.606 -1.623 4.029
 0.63 -1.622 4.022
 0.652 -1.616 4.005
 0.683 -1.631 4.037
 0.708 -1.632 4.036
 0.739 -1.646 4.068
 0.747 -1.611 3.975
 0.78 -1.628 4.014
 0.802 -1.624 3.998
 0.83 -1.631 4.011
 0.858 -1.636 4.019
 0.877 -1.626 3.989
 0.908 -1.637 4.011
 0.923 -1.62 3.964
 0.947 -1.619 3.958
 0.975 -1.626 3.969
 1.004 -1.633 3.979
 1.033 -1.639 3.989
 1.062 -1.647 4.001
 1.083 -1.641 3.981
 1.11 -1.644 3.982
 1.137 -1.646 3.982
 1.142 -1.619 3.909
 1.177 -1.634 3.938
 1.211 -1.646 3.962
 1.221 -1.627 3.907
 1.251 -1.633 3.916
 1.283 -1.643 3.932
 1.303 -1.637 3.91
 1.33 -1.639 3.908
 1.352 -1.636 3.892
 1.371 -1.63 3.869
 1.4 -1.635 3.874
 1.431 -1.642 3.882
 1.448 -1.634 3.854
 1.468 -1.629 3.833
 1.509 -1.646 3.865
 1.524 -1.636 3.833
 1.551 -1.639 3.829
 1.585 -1.648 3.843
 1.584 -1.622 3.772
 1.631 -1.645 3.816
 1.647 -1.636 3.786
 1.668 -1.632 3.766
 1.675 -1.616 3.719
 1.707 -1.623 3.726
 1.742 -1.633 3.737
 1.772 -1.638 3.739
 1.81 -1.65 3.755
 1.816 -1.634 3.707
 1.832 -1.626 3.679
 1.861 -1.63 3.676
 1.868 -1.615 3.631
 1.837 -1.568 3.514
 1.872 -1.577 3.524
 1.893 -1.575 3.508
 1.873 -1.539 3.416
 1.866 -1.515 3.35
 1.863 -1.494 3.293
 1.877 -1.488 3.268
 1.83 -1.434 3.137
 1.865 -1.444 3.148
 1.859 -1.423 3.091
 1.82 -1.378 2.981
 1.843 -1.379 2.973
 -2.182 -1.626 3.654
 -2.155 -1.625 3.664
 -2.12 -1.618 3.66
 -2.122 -1.639 3.72
 -2.064 -1.613 3.673
 -2.036 -1.611 3.68
 -2.04 -1.634 3.745
 -2.025 -1.643 3.778
 -1.971 -1.62 3.736
 -1.958 -1.63 3.771
 -1.946 -1.641 3.807
 -1.895 -1.62 3.769
 -1.888 -1.635 3.815
 -1.853 -1.627 3.807
 -1.814 -1.615 3.79
 -1.802 -1.627 3.828
 -1.775 -1.626 3.834
 -1.761 -1.637 3.87
 -1.725 -1.627 3.856
 -1.719 -1.645 3.908
 -1.679 -1.631 3.885
 -1.635 -1.612 3.85
 -1.611 -1.614 3.862
 -1.605 -1.633 3.918
 -1.568 -1.622 3.899
 -1.546 -1.625 3.915
 -1.531 -1.636 3.949
 -1.486 -1.614 3.906
 -1.494 -1.651 4.004
 -1.447 -1.627 3.953
 -1.421 -1.627 3.96
 -1.397 -1.628 3.972
 -1.371 -1.627 3.975
 -1.339 -1.619 3.963
 -1.328 -1.636 4.013
 -1.284 -1.614 3.965
 -1.27 -1.627 4.005
 -1.241 -1.623 3.999
 -1.207 -1.611 3.978
 -1.199 -1.635 4.042
 -1.153 -1.607 3.978
 -1.148 -1.634 4.053
 -1.118 -1.627 4.041
 -1.084 -1.614 4.015
 -1.057 -1.611 4.013
 -1.038 -1.621 4.043
 -1.005 -1.608 4.015
 -0.981 -1.611 4.028
 -0.96 -1.616 4.046
 -0.933 -1.614 4.045
 -0.912 -1.622 4.069
 -0.88 -1.609 4.042
 -0.863 -1.623 4.081
 -0.836 -1.62 4.078
 -0.805 -1.608 4.051
 -0.789 -1.628 4.105
 -0.759 -1.617 4.083
 -0.739 -1.628 4.112
 -0.706 -1.611 4.073
 -0.69 -1.632 4.13
 -0.659 -1.617 4.095
 -0.637 -1.625 4.119
 -0.609 -1.617 4.1
 -0.587 -1.626 4.126
 -0.558 -1.616 4.104
 -0.539 -1.632 4.148
 -0.511 -1.624 4.129
 -0.485 -1.621 4.123
 -0.462 -1.629 4.148
 -0.435 -1.622 4.129
 -0.408 -1.615 4.113
 -0.387 -1.632 4.159
 -0.357 -1.611 4.107
 -0.338 -1.637 4.175
 -0.309 -1.62 4.133
 -0.283 -1.613 4.116
 -0.259 -1.62 4.136
 -0.233 -1.612 4.117
 -0.209 -1.619 4.135
 -0.182 -1.604 4.097
 -0.159 -1.62 4.137
 -0.134 -1.624 4.15
 -0.108 -1.613 4.121
 -0.083 -1.606 4.103
 -0.059 -1.624 4.15
 -0.034 -1.612 4.119
 -0.009 -1.608 4.109
 0.015 -1.613 4.121
 0.04 -1.617 4.131
 0.065 -1.604 4.095
 0.09 -1.608 4.106
 0.115 -1.622 4.141
 0.14 -1.612 4.115
 0.166 -1.628 4.153
 0.19 -1.616 4.122
 0.213 -1.604 4.091
 0.239 -1.615 4.118
 0.265 -1.618 4.124
 0.29 -1.621 4.129
 0.316 -1.626 4.141
 0.338 -1.612 4.102
 0.367 -1.631 4.149
 0.388 -1.613 4.101
 0.417 -1.629 4.138
 0.439 -1.616 4.104
 0.467 -1.628 4.131
 0.49 -1.623 4.116
 0.517 -1.629 4.129
 0.536 -1.61 4.077
 0.563 -1.615 4.087
 0.589 -1.621 4.097
 0.611 -1.611 4.07
 0.642 -1.628 4.108
 0.666 -1.625 4.098
 0.693 -1.631 4.109
 0.717 -1.628 4.098
 0.75 -1.644 4.135
 0.761 -1.614 4.054
 0.789 -1.621 4.067
 0.813 -1.621 4.062
 0.846 -1.635 4.093
 0.868 -1.63 4.076
 0.894 -1.632 4.074
 0.911 -1.617 4.032
 0.937 -1.62 4.034
 0.97 -1.633 4.062
 0.996 -1.635 4.062
 1.015 -1.625 4.03
 1.045 -1.633 4.045
 1.067 -1.629 4.028
 1.091 -1.626 4.016
 1.116 -1.628 4.013
 1.142 -1.629 4.01
 1.173 -1.636 4.021
 1.201 -1.641 4.025
 1.225 -1.64 4.017
 1.237 -1.623 3.966
 1.267 -1.629 3.976
 1.291 -1.627 3.964
 1.318 -1.63 3.963
 1.343 -1.63 3.956
 1.391 -1.658 4.015
 1.406 -1.646 3.977
 1.406 -1.616 3.898
 1.448 -1.637 3.939
 1.475 -1.639 3.934
 1.5 -1.639 3.926
 1.523 -1.636 3.911
 1.548 -1.636 3.902
 1.57 -1.633 3.885
 1.585 -1.623 3.852
 1.62 -1.633 3.867
 1.649 -1.637 3.867
 1.672 -1.635 3.852
 1.702 -1.64 3.853
 1.711 -1.625 3.807
 1.756 -1.644 3.841
 1.763 -1.627 3.792
 1.8 -1.638 3.807
 1.814 -1.629 3.774
 1.846 -1.635 3.777
 1.859 -1.624 3.741
 1.874 -1.616 3.711
 1.875 -1.596 3.653
 1.856 -1.56 3.56
 1.908 -1.583 3.601
 1.885 -1.545 3.502
 1.882 -1.523 3.441
 1.893 -1.513 3.408
 1.899 -1.5 3.365
 1.841 -1.437 3.212
 1.85 -1.427 3.179
 1.841 -1.404 3.116
 1.868 -1.408 3.114
 1.834 -1.367 3.012
 1.827 -1.346 2.955
 -2.203 -1.616 3.699
 -2.219 -1.647 3.783
 -2.169 -1.629 3.754
 -2.137 -1.624 3.755
 -2.114 -1.627 3.774
 -2.094 -1.631 3.796
 -2.055 -1.621 3.784
 -2.053 -1.64 3.841
 -2.005 -1.622 3.809
 -1.993 -1.633 3.847
 -1.963 -1.63 3.852
 -1.924 -1.619 3.835
 -1.898 -1.619 3.846
 -1.889 -1.633 3.891
 -1.861 -1.631 3.897
 -1.838 -1.634 3.914
 -1.824 -1.644 3.95
 -1.801 -1.647 3.967
 -1.74 -1.615 3.899
 -1.718 -1.618 3.916
 -1.691 -1.617 3.923
 -1.677 -1.628 3.96
 -1.65 -1.628 3.967
 -1.626 -1.629 3.979
 -1.604 -1.633 3.998
 -1.573 -1.627 3.992
 -1.547 -1.627 4.001
 -1.519 -1.625 4.003
 -1.497 -1.629 4.023
 -1.46 -1.617 3.999
 -1.432 -1.614 4.001
 -1.404 -1.611 4.001
 -1.391 -1.626 4.045
 -1.358 -1.617 4.03
 -1.327 -1.611 4.021
 -1.313 -1.624 4.062
 -1.283 -1.619 4.056
 -1.262 -1.625 4.078
 -1.225 -1.61 4.046
 -1.207 -1.62 4.077
 -1.189 -1.631 4.111
 -1.141 -1.6 4.039
 -1.122 -1.608 4.066
 -1.108 -1.625 4.115
 -1.071 -1.609 4.078
 -1.048 -1.611 4.09
 -1.033 -1.629 4.141
 -1.005 -1.624 4.133
 -0.968 -1.606 4.092
 -0.952 -1.621 4.135
 -0.92 -1.61 4.112
 -0.905 -1.628 4.163
 -0.869 -1.61 4.12
 -0.848 -1.618 4.146
 -0.82 -1.613 4.138
 -0.796 -1.616 4.149
 -0.768 -1.61 4.136
 -0.744 -1.613 4.148
 -0.722 -1.621 4.172
 -0.693 -1.612 4.153
 -0.667 -1.612 4.157
 -0.64 -1.607 4.145
 -0.618 -1.615 4.17
 -0.588 -1.604 4.142
 -0.563 -1.605 4.148
 -0.542 -1.618 4.186
 -0.521 -1.633 4.225
 -0.491 -1.618 4.19
 -0.464 -1.61 4.17
 -0.44 -1.615 4.187
 -0.41 -1.597 4.141
 -0.388 -1.611 4.18
 -0.364 -1.619 4.202
 -0.336 -1.604 4.164
 -0.311 -1.606 4.171
 -0.283 -1.593 4.137
 -0.261 -1.61 4.184
 -0.237 -1.619 4.208
 -0.213 -1.629 4.235
 -0.186 -1.614 4.197
 -0.161 -1.62 4.213
 -0.135 -1.606 4.176
 -0.11 -1.623 4.221
 -0.085 -1.615 4.199
 -0.059 -1.612 4.192
 -0.034 -1.616 4.203
 -0.009 -1.607 4.179
 0.016 -1.613 4.195
 0.041 -1.618 4.206
 0.066 -1.607 4.178
 0.092 -1.622 4.215
 0.116 -1.604 4.168
 0.141 -1.605 4.17
 0.168 -1.616 4.196
 0.193 -1.62 4.207
 0.216 -1.6 4.153
 0.244 -1.619 4.201
 0.27 -1.625 4.214
 0.294 -1.616 4.19
 0.319 -1.616 4.188
 0.344 -1.612 4.175
 0.368 -1.61 4.167
 0.392 -1.604 4.149
 0.424 -1.629 4.214
 0.448 -1.625 4.2
 0.47 -1.614 4.167
 0.496 -1.615 4.168
 0.521 -1.614 4.163
 0.548 -1.621 4.177
 0.57 -1.611 4.148
 0.591 -1.601 4.12
 0.624 -1.621 4.167
 0.651 -1.626 4.176
 0.675 -1.622 4.162
 0.696 -1.612 4.134
 0.728 -1.626 4.166
 0.745 -1.609 4.117
 0.769 -1.608 4.109
 0.797 -1.612 4.118
 0.833 -1.635 4.17
 0.852 -1.622 4.133
 0.872 -1.612 4.103
 0.902 -1.621 4.12
 0.925 -1.617 4.104
 0.947 -1.611 4.085
 0.971 -1.61 4.076
 1.005 -1.623 4.105
 1.031 -1.624 4.101
 1.047 -1.611 4.061
 1.078 -1.62 4.077
 1.102 -1.618 4.067
 1.129 -1.62 4.065
 1.162 -1.631 4.087
 1.182 -1.623 4.061
 1.211 -1.628 4.067
 1.229 -1.619 4.036
 1.257 -1.623 4.04
 1.303 -1.649 4.095
 1.31 -1.626 4.031
 1.341 -1.634 4.043
 1.368 -1.634 4.037
 1.401 -1.644 4.052
 1.398 -1.611 3.963
 1.438 -1.628 3.995
 1.469 -1.634 4.003
 1.508 -1.649 4.032
 1.511 -1.625 3.962
 1.535 -1.624 3.951
 1.575 -1.639 3.98
 1.589 -1.627 3.941
 1.623 -1.636 3.953
 1.635 -1.623 3.911
 1.669 -1.631 3.922
 1.687 -1.624 3.896
 1.71 -1.623 3.882
 1.753 -1.639 3.911
 1.75 -1.613 3.838
 1.788 -1.624 3.854
 1.812 -1.623 3.841
 1.845 -1.631 3.847
 1.856 -1.618 3.806
 1.846 -1.588 3.724
 1.876 -1.593 3.725
 1.891 -1.585 3.694
 1.882 -1.557 3.618
 1.893 -1.546 3.581
 1.878 -1.515 3.497
 1.864 -1.485 3.416
 1.885 -1.484 3.403
 0 0 0
 0 0 0
 1.826 -1.387 3.147
 1.835 -1.377 3.113
 1.854 -1.376 3.099
 1.858 -1.363 3.058
 1.841 -1.336 2.985
 -2.265 -1.635 3.813
 -2.217 -1.619 3.789
 -2.197 -1.624 3.814
 -2.158 -1.615 3.803
 -2.129 -1.613 3.811
 -2.124 -1.628 3.86
 -2.083 -1.617 3.845
 -2.084 -1.638 3.908
 -2.048 -1.631 3.902
 -2.01 -1.621 3.891
 -1.985 -1.623 3.905
 -1.95 -1.615 3.898
 -1.947 -1.634 3.955
 -1.925 -1.638 3.975
 -1.875 -1.618 3.938
 -1.857 -1.625 3.964
 -1.83 -1.624 3.973
 -1.825 -1.643 4.03
 -1.802 -1.647 4.049
 -1.753 -1.625 4.006
 -1.736 -1.634 4.038
 -1.712 -1.636 4.052
 -1.669 -1.62 4.02
 -1.646 -1.623 4.038
 -1.613 -1.616 4.029
 -1.587 -1.616 4.037
 -1.55 -1.605 4.02
 -1.537 -1.618 4.061
 -1.519 -1.627 4.092
 -1.474 -1.606 4.047
 -1.463 -1.622 4.096
 -1.431 -1.617 4.089
 -1.408 -1.62 4.103
 -1.378 -1.615 4.098
 -1.361 -1.625 4.133
 -1.323 -1.611 4.102
 -1.292 -1.605 4.096
 -1.274 -1.615 4.127
 -1.239 -1.603 4.103
 -1.225 -1.619 4.149
 -1.195 -1.613 4.141
 -1.182 -1.63 4.192
 -1.145 -1.616 4.161
 -1.115 -1.61 4.151
 -1.087 -1.606 4.147
 -1.063 -1.608 4.158
 -1.033 -1.602 4.146
 -1.015 -1.615 4.186
 -0.982 -1.602 4.158
 -0.95 -1.593 4.137
 -0.943 -1.624 4.223
 -0.908 -1.609 4.188
 -0.881 -1.606 4.185
 -0.854 -1.604 4.185
 -0.831 -1.609 4.202
 -0.807 -1.613 4.216
 -0.778 -1.606 4.2
 -0.753 -1.607 4.209
 -0.727 -1.606 4.209
 -0.698 -1.6 4.197
 -0.672 -1.598 4.195
 -0.645 -1.595 4.19
 -0.62 -1.597 4.198
 -0.602 -1.616 4.251
 -0.571 -1.603 4.218
 -0.546 -1.603 4.222
 -0.52 -1.601 4.219
 -0.493 -1.599 4.214
 -0.467 -1.595 4.208
 -0.442 -1.599 4.219
 -0.416 -1.598 4.218
 -0.394 -1.611 4.254
 -0.371 -1.623 4.289
 -0.34 -1.601 4.232
 -0.314 -1.598 4.225
 -0.292 -1.614 4.267
 -0.263 -1.599 4.229
 -0.237 -1.591 4.21
 -0.211 -1.591 4.211
 -0.188 -1.607 4.252
 -0.161 -1.596 4.223
 -0.136 -1.605 4.248
 -0.11 -1.596 4.225
 -0.086 -1.61 4.262
 -0.059 -1.599 4.233
 -0.034 -1.601 4.238
 -0.009 -1.587 4.202
 0.016 -1.588 4.202
 0.042 -1.605 4.247
 0.067 -1.605 4.247
 0.092 -1.601 4.236
 0.117 -1.595 4.219
 0.143 -1.597 4.224
 0.169 -1.604 4.24
 0.194 -1.599 4.225
 0.219 -1.596 4.218
 0.244 -1.59 4.2
 0.269 -1.592 4.202
 0.296 -1.6 4.222
 0.322 -1.603 4.229
 0.347 -1.599 4.217
 0.369 -1.588 4.185
 0.399 -1.604 4.225
 0.424 -1.604 4.224
 0.448 -1.6 4.208
 0.477 -1.609 4.231
 0.498 -1.597 4.197
 0.525 -1.601 4.204
 0.555 -1.614 4.235
 0.576 -1.603 4.203
 0.598 -1.592 4.171
 0.625 -1.597 4.181
 0.65 -1.595 4.172
 0.682 -1.611 4.21
 0.7 -1.594 4.162
 0.734 -1.614 4.209
 0.76 -1.615 4.207
 0.782 -1.607 4.182
 0.812 -1.617 4.203
 0.836 -1.613 4.189
 0.867 -1.624 4.214
 0.888 -1.616 4.186
 0.908 -1.606 4.156
 0.942 -1.62 4.187
 0.956 -1.601 4.133
 0.995 -1.622 4.182
 1.019 -1.62 4.171
 1.036 -1.606 4.13
 1.063 -1.61 4.132
 1.091 -1.612 4.133
 1.124 -1.624 4.158
 1.151 -1.626 4.154
 1.167 -1.612 4.112
 1.206 -1.631 4.153
 1.218 -1.613 4.101
 1.246 -1.616 4.101
 1.284 -1.631 4.133
 1.309 -1.63 4.124
 1.329 -1.624 4.099
 1.354 -1.622 4.088
 1.38 -1.623 4.081
 1.402 -1.619 4.063
 1.442 -1.635 4.096
 1.462 -1.629 4.072
 1.486 -1.628 4.06
 1.524 -1.641 4.084
 1.54 -1.63 4.047
 1.564 -1.628 4.034
 1.578 -1.616 3.995
 1.625 -1.638 4.04
 1.643 -1.63 4.011
 1.684 -1.645 4.037
 1.708 -1.643 4.024
 1.716 -1.626 3.972
 1.75 -1.634 3.981
 1.749 -1.61 3.911
 1.79 -1.624 3.934
 1.809 -1.618 3.91
 1.843 -1.626 3.917
 1.862 -1.619 3.891
 1.885 -1.617 3.875
 1.874 -1.587 3.791
 1.896 -1.584 3.772
 1.888 -1.557 3.696
 1.877 -1.528 3.616
 1.894 -1.523 3.592
 1.891 -1.501 3.529
 0 0 0
 0 0 0
 0 0 0
 0 0 0
 1.843 -1.378 3.184
 1.872 -1.383 3.185
 1.882 -1.375 3.153
 1.854 -1.339 3.06
 1.851 -1.322 3.009
 -2.339 -1.661 3.948
 -2.261 -1.625 3.875
 -2.234 -1.625 3.888
 -2.202 -1.621 3.891
 -2.187 -1.63 3.924
 -2.148 -1.62 3.914
 -2.118 -1.618 3.92
 -2.097 -1.622 3.943
 -2.076 -1.627 3.966
 -2.032 -1.613 3.944
 -2.02 -1.624 3.983
 -1.983 -1.616 3.975
 -1.955 -1.615 3.983
 -1.934 -1.62 4.005
 -1.902 -1.615 4.004
 -1.88 -1.618 4.023
 -1.876 -1.639 4.084
 -1.837 -1.628 4.067
 -1.8 -1.618 4.054
 -1.781 -1.625 4.08
 -1.741 -1.613 4.059
 -1.701 -1.6 4.037
 -1.702 -1.626 4.112
 -1.674 -1.624 4.116
 -1.636 -1.613 4.098
 -1.612 -1.616 4.112
 -1.577 -1.606 4.098
 -1.552 -1.608 4.111
 -1.531 -1.613 4.132
 -1.497 -1.605 4.119
 -1.469 -1.603 4.122
 -1.446 -1.607 4.14
 -1.414 -1.6 4.13
 -1.41 -1.626 4.205
 -1.374 -1.615 4.183
 -1.346 -1.613 4.183
 -1.313 -1.605 4.169
 -1.288 -1.606 4.18
 -1.253 -1.595 4.157
 -1.237 -1.608 4.199
 -1.205 -1.601 4.185
 -1.188 -1.613 4.225
 -1.152 -1.6 4.195
 -1.129 -1.604 4.212
 -1.099 -1.598 4.203
 -1.069 -1.592 4.192
 -1.052 -1.606 4.235
 -1.025 -1.605 4.236
 -1 -1.607 4.247
 -0.968 -1.597 4.224
 -0.944 -1.6 4.238
 -0.914 -1.593 4.224
 -0.889 -1.596 4.236
 -0.865 -1.599 4.249
 -0.831 -1.584 4.212
 -0.812 -1.596 4.249
 -0.786 -1.597 4.254
 -0.756 -1.589 4.238
 -0.732 -1.592 4.247
 -0.698 -1.574 4.203
 -0.682 -1.597 4.269
 -0.655 -1.595 4.266
 -0.629 -1.594 4.265
 -0.599 -1.582 4.237
 -0.576 -1.591 4.263
 -0.553 -1.6 4.289
 -0.526 -1.596 4.282
 -0.499 -1.594 4.278
 -0.47 -1.582 4.248
 -0.445 -1.585 4.257
 -0.421 -1.592 4.28
 -0.394 -1.587 4.269
 -0.367 -1.58 4.249
 -0.341 -1.578 4.246
 -0.315 -1.579 4.25
 -0.292 -1.592 4.286
 -0.263 -1.571 4.23
 -0.239 -1.58 4.255
 -0.212 -1.571 4.234
 -0.188 -1.585 4.27
 -0.162 -1.579 4.254
 -0.136 -1.572 4.238
 -0.11 -1.573 4.241
 -0.084 -1.565 4.219
 -0.06 -1.578 4.254
 -0.034 -1.575 4.245
 -0.008 -1.568 4.228
 0.016 -1.571 4.234
 0.042 -1.579 4.256
 0.067 -1.576 4.247
 0.092 -1.571 4.232
 0.118 -1.573 4.237
 0.144 -1.584 4.266
 0.17 -1.585 4.268
 0.195 -1.579 4.249
 0.22 -1.578 4.246
 0.246 -1.577 4.241
 0.27 -1.569 4.217
 0.295 -1.57 4.219
 0.322 -1.578 4.24
 0.346 -1.572 4.222
 0.374 -1.582 4.246
 0.402 -1.59 4.265
 0.424 -1.577 4.228
 0.451 -1.583 4.242
 0.476 -1.58 4.229
 0.5 -1.577 4.219
 0.53 -1.591 4.252
 0.558 -1.597 4.267
 0.582 -1.591 4.248
 0.606 -1.587 4.232
 0.632 -1.589 4.234
 0.656 -1.586 4.222
 0.685 -1.594 4.24
 0.709 -1.589 4.224
 0.731 -1.581 4.199
 0.763 -1.594 4.229
 0.789 -1.596 4.231
 0.818 -1.602 4.242
 0.832 -1.581 4.18
 0.867 -1.598 4.22
 0.901 -1.612 4.252
 0.924 -1.608 4.236
 0.947 -1.603 4.219
 0.972 -1.601 4.208
 0.999 -1.603 4.209
 1.021 -1.597 4.187
 1.053 -1.606 4.205
 1.081 -1.61 4.21
 1.106 -1.608 4.198
 1.13 -1.606 4.185
 1.163 -1.616 4.204
 1.184 -1.609 4.181
 1.21 -1.61 4.176
 1.241 -1.616 4.185
 1.269 -1.619 4.185
 1.296 -1.62 4.181
 1.325 -1.623 4.182
 1.356 -1.63 4.192
 1.365 -1.61 4.131
 1.408 -1.629 4.173
 1.428 -1.623 4.149
 1.445 -1.613 4.114
 1.474 -1.616 4.114
 1.5 -1.616 4.105
 1.531 -1.621 4.11
 1.572 -1.637 4.142
 1.581 -1.619 4.087
 1.599 -1.611 4.058
 1.634 -1.62 4.071
 1.66 -1.621 4.062
 1.686 -1.621 4.053
 1.719 -1.628 4.059
 1.745 -1.627 4.048
 1.768 -1.625 4.031
 1.782 -1.613 3.993
 1.794 -1.601 3.952
 1.837 -1.617 3.979
 1.847 -1.603 3.935
 1.869 -1.6 3.916
 1.87 -1.579 3.853
 1.879 -1.565 3.809
 1.891 -1.555 3.772
 1.905 -1.546 3.74
 1.894 -1.518 3.659
 1.908 -1.51 3.627
 1.887 -1.474 3.531
 0 0 0
 0 0 0
 0 0 0
 0 0 0
 0 0 0
 1.842 -1.339 3.141
 1.866 -1.341 3.134
 1.853 -1.317 3.065
 1.856 -1.305 3.026
 -2.314 -1.617 3.917
 -2.3 -1.626 3.952
 -2.269 -1.624 3.959
 -2.232 -1.616 3.954
 -2.206 -1.617 3.969
 -2.194 -1.628 4.009
 -2.139 -1.607 3.968
 -2.103 -1.6 3.964
 -2.101 -1.619 4.022
 -2.065 -1.612 4.017
 -2.035 -1.61 4.023
 -2.008 -1.609 4.033
 -1.998 -1.624 4.081
 -1.956 -1.611 4.06
 -1.937 -1.618 4.088
 -1.904 -1.613 4.086
 -1.887 -1.621 4.117
 -1.863 -1.624 4.135
 -1.824 -1.613 4.117
 -1.8 -1.615 4.133
 -1.778 -1.62 4.156
 -1.741 -1.61 4.14
 -1.717 -1.614 4.158
 -1.679 -1.603 4.138
 -1.659 -1.609 4.165
 -1.611 -1.588 4.119
 -1.605 -1.609 4.181
 -1.577 -1.608 4.187
 -1.556 -1.613 4.21
 -1.521 -1.605 4.197
 -1.491 -1.602 4.196
 -1.447 -1.582 4.152
 -1.443 -1.607 4.224
 -1.403 -1.592 4.193
 -1.391 -1.609 4.245
 -1.358 -1.601 4.232
 -1.325 -1.593 4.217
 -1.293 -1.586 4.206
 -1.266 -1.586 4.213
 -1.249 -1.597 4.248
 -1.222 -1.597 4.254
 -1.194 -1.595 4.255
 -1.177 -1.608 4.295
 -1.142 -1.596 4.27
 -1.118 -1.6 4.286
 -1.085 -1.59 4.265
 -1.064 -1.598 4.291
 -1.033 -1.591 4.278
 -1.004 -1.587 4.272
 -0.981 -1.593 4.293
 -0.953 -1.59 4.29
 -0.917 -1.572 4.246
 -0.893 -1.577 4.262
 -0.865 -1.573 4.257
 -0.841 -1.577 4.272
 -0.813 -1.573 4.265
 -0.788 -1.576 4.277
 -0.764 -1.579 4.289
 -0.734 -1.571 4.27
 -0.712 -1.579 4.295
 -0.676 -1.558 4.24
 -0.655 -1.568 4.272
 -0.631 -1.573 4.287
 -0.6 -1.56 4.255
 -0.574 -1.559 4.255
 -0.55 -1.565 4.275
 -0.524 -1.563 4.271
 -0.493 -1.549 4.235
 -0.473 -1.566 4.284
 -0.446 -1.561 4.272
 -0.419 -1.558 4.266
 -0.394 -1.562 4.279
 -0.368 -1.56 4.275
 -0.34 -1.55 4.248
 -0.314 -1.546 4.238
 -0.29 -1.555 4.265
 -0.266 -1.566 4.295
 -0.239 -1.555 4.265
 -0.212 -1.549 4.251
 -0.188 -1.557 4.272
 -0.162 -1.557 4.275
 -0.136 -1.548 4.249
 -0.11 -1.55 4.254
 -0.085 -1.555 4.269
 -0.059 -1.547 4.246
 -0.034 -1.552 4.26
 -0.008 -1.547 4.247
 0.016 -1.556 4.271
 0.041 -1.54 4.226
 0.067 -1.549 4.249
 0.093 -1.552 4.258
 0.118 -1.545 4.237
 0.144 -1.552 4.257
 0.17 -1.555 4.264
 0.194 -1.546 4.237
 0.22 -1.552 4.252
 0.246 -1.552 4.252
 0.271 -1.549 4.241
 0.298 -1.56 4.268
 0.322 -1.549 4.239
 0.35 -1.561 4.269
 0.373 -1.551 4.238
 0.402 -1.563 4.27
 0.424 -1.552 4.237
 0.451 -1.558 4.251
 0.478 -1.561 4.255
 0.504 -1.561 4.255
 0.529 -1.561 4.249
 0.555 -1.563 4.253
 0.582 -1.566 4.257
 0.6 -1.547 4.202
 0.635 -1.571 4.265
 0.66 -1.567 4.251
 0.684 -1.565 4.242
 0.712 -1.57 4.25
 0.731 -1.555 4.205
 0.766 -1.575 4.256
 0.79 -1.572 4.242
 0.816 -1.571 4.236
 0.838 -1.565 4.214
 0.866 -1.569 4.222
 0.899 -1.581 4.25
 0.917 -1.568 4.209
 0.945 -1.572 4.215
 0.97 -1.572 4.209
 0.997 -1.574 4.207
 1.03 -1.584 4.23
 1.051 -1.578 4.208
 1.073 -1.572 4.187
 1.112 -1.591 4.23
 1.135 -1.587 4.214
 1.166 -1.594 4.225
 1.189 -1.589 4.206
 1.219 -1.595 4.215
 1.246 -1.597 4.211
 1.268 -1.591 4.19
 1.302 -1.601 4.207
 1.321 -1.593 4.179
 1.36 -1.608 4.211
 1.379 -1.6 4.183
 1.398 -1.591 4.152
 1.447 -1.617 4.21
 1.454 -1.596 4.147
 1.499 -1.617 4.194
 1.519 -1.609 4.165
 1.547 -1.611 4.162
 1.569 -1.608 4.143
 1.594 -1.606 4.13
 1.628 -1.614 4.14
 1.661 -1.62 4.147
 1.681 -1.614 4.122
 1.711 -1.618 4.121
 1.731 -1.612 4.096
 1.76 -1.614 4.091
 1.788 -1.616 4.086
 1.803 -1.606 4.05
 1.841 -1.616 4.065
 1.852 -1.603 4.02
 1.865 -1.592 3.981
 1.877 -1.581 3.942
 1.884 -1.565 3.892
 1.9 -1.557 3.86
 1.893 -1.531 3.784
 1.904 -1.52 3.746
 1.894 -1.493 3.666
 1.872 -1.457 3.566
 0 0 0
 0 0 0
 0 0 0
 0 0 0
 0 0 0
 0 0 0
 1.869 -1.337 3.196
 1.884 -1.332 3.172
 1.83 -1.279 3.035
 1.857 -1.284 3.034
 -2.334 -1.604 3.961
 -2.332 -1.622 4.017
 -2.297 -1.616 4.017
 -2.271 -1.617 4.033
 -2.237 -1.613 4.035
 -2.21 -1.613 4.047
 -2.163 -1.598 4.023
 -2.168 -1.622 4.097
 -2.124 -1.61 4.078
 -2.095 -1.609 4.086
 -2.076 -1.615 4.113
 -2.046 -1.613 4.12
 -2.014 -1.609 4.122
 -1.99 -1.612 4.141
 -1.96 -1.61 4.145
 -1.948 -1.623 4.19
 -1.915 -1.618 4.188
 -1.866 -1.599 4.151
 -1.85 -1.609 4.186
 -1.806 -1.594 4.158
 -1.788 -1.602 4.189
 -1.773 -1.613 4.228
 -1.732 -1.6 4.203
 -1.713 -1.608 4.233
 -1.673 -1.596 4.209
 -1.648 -1.598 4.224
 -1.625 -1.601 4.242
 -1.597 -1.601 4.25
 -1.553 -1.584 4.213
 -1.549 -1.607 4.282
 -1.509 -1.594 4.256
 -1.482 -1.593 4.262
 -1.46 -1.599 4.286
 -1.438 -1.605 4.308
 -1.411 -1.604 4.314
 -1.364 -1.582 4.26
 -1.336 -1.58 4.262
 -1.311 -1.583 4.276
 -1.279 -1.576 4.265
 -1.257 -1.581 4.284
 -1.233 -1.585 4.301
 -1.206 -1.584 4.305
 -1.165 -1.566 4.262
 -1.139 -1.566 4.269
 -1.109 -1.56 4.258
 -1.085 -1.564 4.273
 -1.063 -1.57 4.295
 -1.021 -1.546 4.235
 -1.005 -1.562 4.285
 -0.971 -1.55 4.256
 -0.949 -1.558 4.281
 -0.924 -1.559 4.29
 -0.899 -1.561 4.298
 -0.872 -1.561 4.303
 -0.842 -1.552 4.283
 -0.818 -1.556 4.298
 -0.792 -1.557 4.304
 -0.759 -1.544 4.271
 -0.736 -1.55 4.291
 -0.708 -1.546 4.285
 -0.679 -1.538 4.266
 -0.653 -1.539 4.27
 -0.627 -1.538 4.271
 -0.602 -1.539 4.278
 -0.576 -1.539 4.28
 -0.548 -1.532 4.263
 -0.526 -1.544 4.297
 -0.497 -1.536 4.277
 -0.469 -1.527 4.253
 -0.441 -1.522 4.242
 -0.42 -1.536 4.283
 -0.394 -1.535 4.282
 -0.364 -1.52 4.242
 -0.341 -1.529 4.27
 -0.315 -1.529 4.271
 -0.29 -1.529 4.271
 -0.264 -1.526 4.264
 -0.238 -1.527 4.266
 -0.213 -1.527 4.268
 -0.187 -1.525 4.263
 -0.162 -1.533 4.287
 -0.136 -1.527 4.269
 -0.11 -1.524 4.261
 -0.085 -1.532 4.285
 -0.059 -1.532 4.284
 -0.034 -1.525 4.264
 -0.008 -1.52 4.25
 0.016 -1.529 4.275
 0.042 -1.527 4.269
 0.068 -1.531 4.28
 0.092 -1.512 4.226
 0.119 -1.53 4.275
 0.143 -1.516 4.234
 0.169 -1.521 4.247
 0.195 -1.523 4.252
 0.219 -1.519 4.239
 0.244 -1.515 4.227
 0.272 -1.527 4.259
 0.297 -1.529 4.262
 0.32 -1.516 4.225
 0.346 -1.516 4.223
 0.373 -1.526 4.248
 0.4 -1.53 4.258
 0.425 -1.529 4.25
 0.452 -1.534 4.263
 0.478 -1.536 4.266
 0.504 -1.537 4.267
 0.528 -1.533 4.252
 0.551 -1.526 4.228
 0.577 -1.527 4.23
 0.61 -1.545 4.276
 0.63 -1.533 4.238
 0.659 -1.541 4.257
 0.685 -1.541 4.254
 0.706 -1.531 4.223
 0.738 -1.544 4.253
 0.761 -1.538 4.233
 0.785 -1.536 4.223
 0.814 -1.543 4.238
 0.841 -1.544 4.236
 0.869 -1.548 4.243
 0.896 -1.55 4.243
 0.922 -1.552 4.242
 0.951 -1.556 4.248
 0.97 -1.546 4.215
 0.992 -1.539 4.193
 1.026 -1.552 4.221
 1.059 -1.563 4.247
 1.078 -1.553 4.213
 1.109 -1.56 4.226
 1.138 -1.564 4.23
 1.159 -1.558 4.207
 1.187 -1.561 4.21
 1.215 -1.563 4.208
 1.241 -1.564 4.202
 1.268 -1.565 4.198
 1.295 -1.566 4.195
 1.326 -1.572 4.202
 1.358 -1.579 4.213
 1.386 -1.581 4.212
 1.407 -1.575 4.187
 1.45 -1.594 4.23
 1.472 -1.589 4.209
 1.505 -1.596 4.218
 1.534 -1.599 4.216
 1.552 -1.59 4.183
 1.576 -1.588 4.17
 1.606 -1.591 4.169
 1.642 -1.601 4.184
 1.67 -1.603 4.18
 1.702 -1.608 4.183
 1.715 -1.595 4.139
 1.745 -1.598 4.137
 1.772 -1.599 4.129
 1.8 -1.6 4.121
 1.811 -1.587 4.077
 1.846 -1.594 4.086
 1.841 -1.568 4.006
 1.888 -1.585 4.039
 1.878 -1.555 3.953
 1.879 -1.535 3.889
 1.891 -1.524 3.851
 1.904 -1.515 3.816
 1.886 -1.481 3.718
 0 0 0
 0 0 0
 0 0 0
 0 0 0
 0 0 0
 0 0 0
 0 0 0
 0 0 0
 1.849 -1.301 3.169
 1.89 -1.315 3.191
 1.862 -1.281 3.097
 1.876 -1.275 3.073
 -2.369 -1.6 4.029
 -2.34 -1.599 4.04
 -2.316 -1.602 4.06
 -2.299 -1.61 4.094
 -2.284 -1.619 4.13
 -2.236 -1.605 4.106
 -2.224 -1.615 4.147
 -2.179 -1.603 4.127
 -2.157 -1.607 4.15
 -2.126 -1.605 4.156
 -2.104 -1.609 4.179
 -2.083 -1.615 4.205
 -2.055 -1.614 4.216
 -2.019 -1.608 4.211
 -1.996 -1.612 4.232
 -1.968 -1.611 4.242
 -1.912 -1.588 4.191
 -1.908 -1.607 4.253
 -1.876 -1.604 4.254
 -1.843 -1.599 4.252
 -1.82 -1.603 4.272
 -1.791 -1.602 4.279
 -1.767 -1.605 4.298
 -1.725 -1.592 4.271
 -1.691 -1.586 4.265
 -1.656 -1.578 4.252
 -1.631 -1.581 4.268
 -1.604 -1.581 4.278
 -1.564 -1.568 4.249
 -1.552 -1.583 4.3
 -1.519 -1.577 4.291
 -1.489 -1.574 4.29
 -1.457 -1.568 4.283
 -1.431 -1.57 4.297
 -1.403 -1.569 4.299
 -1.365 -1.556 4.27
 -1.339 -1.557 4.282
 -1.309 -1.553 4.278
 -1.284 -1.555 4.289
 -1.251 -1.548 4.275
 -1.227 -1.551 4.289
 -1.203 -1.554 4.306
 -1.169 -1.544 4.284
 -1.143 -1.545 4.292
 -1.11 -1.536 4.271
 -1.092 -1.548 4.31
 -1.057 -1.536 4.282
 -1.034 -1.54 4.3
 -1.008 -1.541 4.307
 -0.979 -1.537 4.3
 -0.952 -1.535 4.3
 -0.917 -1.521 4.266
 -0.891 -1.522 4.272
 -0.875 -1.539 4.324
 -0.843 -1.529 4.301
 -0.821 -1.537 4.326
 -0.788 -1.523 4.291
 -0.759 -1.518 4.278
 -0.733 -1.517 4.281
 -0.707 -1.517 4.283
 -0.683 -1.523 4.304
 -0.654 -1.515 4.283
 -0.628 -1.514 4.284
 -0.605 -1.521 4.308
 -0.572 -1.504 4.262
 -0.55 -1.513 4.29
 -0.521 -1.505 4.267
 -0.493 -1.498 4.252
 -0.469 -1.503 4.266
 -0.446 -1.51 4.29
 -0.422 -1.517 4.311
 -0.394 -1.509 4.289
 -0.369 -1.512 4.3
 -0.342 -1.509 4.291
 -0.315 -1.503 4.276
 -0.288 -1.496 4.257
 -0.265 -1.507 4.289
 -0.237 -1.496 4.259
 -0.212 -1.498 4.266
 -0.187 -1.504 4.284
 -0.162 -1.506 4.289
 -0.135 -1.497 4.264
 -0.11 -1.503 4.281
 -0.084 -1.495 4.26
 -0.059 -1.506 4.29
 -0.033 -1.496 4.263
 -0.008 -1.504 4.285
 0.016 -1.492 4.249
 0.042 -1.494 4.254
 0.068 -1.501 4.273
 0.093 -1.499 4.269
 0.118 -1.493 4.251
 0.145 -1.51 4.297
 0.17 -1.502 4.273
 0.195 -1.496 4.256
 0.222 -1.507 4.285
 0.247 -1.509 4.288
 0.27 -1.493 4.243
 0.298 -1.504 4.271
 0.322 -1.5 4.258
 0.347 -1.495 4.242
 0.374 -1.501 4.258
 0.401 -1.506 4.27
 0.425 -1.504 4.262
 0.45 -1.5 4.246
 0.478 -1.508 4.268
 0.502 -1.506 4.258
 0.526 -1.499 4.237
 0.554 -1.507 4.257
 0.579 -1.506 4.251
 0.606 -1.509 4.253
 0.632 -1.509 4.253
 0.658 -1.511 4.254
 0.683 -1.51 4.248
 0.709 -1.511 4.246
 0.73 -1.501 4.214
 0.76 -1.51 4.235
 0.786 -1.512 4.237
 0.813 -1.514 4.237
 0.845 -1.525 4.265
 0.865 -1.516 4.234
 0.895 -1.523 4.247
 0.922 -1.524 4.246
 0.947 -1.524 4.241
 0.978 -1.532 4.258
 0.998 -1.522 4.225
 1.032 -1.536 4.257
 1.05 -1.524 4.219
 1.084 -1.535 4.243
 1.11 -1.536 4.238
 1.134 -1.533 4.225
 1.163 -1.538 4.231
 1.194 -1.544 4.242
 1.217 -1.54 4.224
 1.236 -1.531 4.192
 1.275 -1.547 4.23
 1.298 -1.544 4.213
 1.328 -1.547 4.216
 1.365 -1.56 4.243
 1.388 -1.557 4.226
 1.413 -1.555 4.213
 1.437 -1.553 4.2
 1.466 -1.555 4.197
 1.5 -1.564 4.212
 1.519 -1.557 4.183
 1.555 -1.567 4.202
 1.579 -1.564 4.185
 1.616 -1.574 4.203
 1.637 -1.569 4.181
 1.682 -1.587 4.217
 1.703 -1.581 4.193
 1.725 -1.577 4.173
 1.761 -1.585 4.184
 1.793 -1.591 4.187
 1.812 -1.584 4.158
 1.834 -1.58 4.137
 1.857 -1.576 4.117
 1.876 -1.57 4.09
 1.887 -1.558 4.047
 1.892 -1.54 3.989
 1.901 -1.527 3.944
 1.899 -1.505 3.876
 1.89 -1.478 3.796
 0 0 0
 0 0 0
 0 0 0
 0 0 0
 0 0 0
 0 0 0
 0 0 0
 0 0 0
 0 0 0
 1.852 -1.281 3.181
 1.875 -1.282 3.172
 1.866 -1.261 3.109
 1.84 -1.231 3.022
 -2.396 -1.591 4.086
 -2.378 -1.597 4.116
 -2.349 -1.597 4.129
 -2.329 -1.603 4.157
 -2.288 -1.593 4.146
 -2.259 -1.593 4.157
 -2.235 -1.596 4.179
 -2.195 -1.588 4.168
 -2.177 -1.594 4.199
 -2.176 -1.614 4.264
 -2.145 -1.612 4.271
 -2.13 -1.623 4.31
 -2.068 -1.597 4.253
 -2.041 -1.597 4.266
 -2.02 -1.603 4.294
 -1.976 -1.59 4.269
 -1.939 -1.583 4.261
 -1.922 -1.592 4.295
 -1.884 -1.584 4.283
 -1.871 -1.596 4.328
 -1.83 -1.585 4.307
 -1.799 -1.582 4.308
 -1.759 -1.571 4.289
 -1.736 -1.575 4.309
 -1.704 -1.571 4.307
 -1.668 -1.563 4.294
 -1.652 -1.574 4.333
 -1.613 -1.562 4.309
 -1.584 -1.561 4.315
 -1.543 -1.547 4.285
 -1.524 -1.556 4.317
 -1.493 -1.551 4.312
 -1.467 -1.552 4.322
 -1.433 -1.546 4.311
 -1.391 -1.529 4.272
 -1.366 -1.531 4.285
 -1.34 -1.532 4.294
 -1.312 -1.53 4.296
 -1.284 -1.529 4.298
 -1.257 -1.528 4.303
 -1.225 -1.522 4.292
 -1.201 -1.525 4.305
 -1.169 -1.519 4.294
 -1.138 -1.512 4.281
 -1.118 -1.521 4.313
 -1.088 -1.516 4.303
 -1.058 -1.511 4.296
 -1.029 -1.507 4.288
 -0.997 -1.499 4.27
 -0.972 -1.5 4.278
 -0.952 -1.51 4.312
 -0.923 -1.505 4.301
 -0.897 -1.505 4.306
 -0.867 -1.5 4.294
 -0.843 -1.504 4.309
 -0.819 -1.506 4.321
 -0.783 -1.489 4.275
 -0.76 -1.494 4.292
 -0.73 -1.487 4.276
 -0.704 -1.485 4.274
 -0.677 -1.483 4.272
 -0.659 -1.501 4.326
 -0.627 -1.486 4.287
 -0.601 -1.486 4.288
 -0.577 -1.492 4.307
 -0.547 -1.481 4.279
 -0.521 -1.479 4.275
 -0.491 -1.468 4.245
 -0.471 -1.483 4.292
 -0.445 -1.482 4.289
 -0.418 -1.48 4.287
 -0.393 -1.482 4.294
 -0.366 -1.477 4.28
 -0.339 -1.469 4.26
 -0.315 -1.477 4.282
 -0.289 -1.474 4.277
 -0.264 -1.476 4.282
 -0.238 -1.477 4.285
 -0.213 -1.479 4.293
 -0.186 -1.469 4.263
 -0.161 -1.476 4.286
 -0.136 -1.475 4.283
 -0.11 -1.475 4.282
 -0.084 -1.475 4.282
 -0.059 -1.478 4.292
 -0.033 -1.47 4.268
 -0.008 -1.469 4.265
 0.017 -1.466 4.257
 0.042 -1.473 4.276
 0.068 -1.469 4.264
 0.092 -1.461 4.24
 0.119 -1.473 4.272
 0.144 -1.469 4.262
 0.169 -1.468 4.257
 0.194 -1.466 4.251
 0.22 -1.471 4.264
 0.245 -1.469 4.255
 0.272 -1.475 4.273
 0.297 -1.472 4.26
 0.323 -1.475 4.269
 0.35 -1.48 4.282
 0.374 -1.478 4.272
 0.4 -1.477 4.267
 0.422 -1.467 4.237
 0.452 -1.482 4.278
 0.474 -1.471 4.243
 0.501 -1.476 4.254
 0.524 -1.467 4.225
 0.551 -1.472 4.237
 0.579 -1.48 4.256
 0.603 -1.477 4.243
 0.628 -1.474 4.233
 0.655 -1.478 4.24
 0.686 -1.49 4.27
 0.712 -1.492 4.272
 0.74 -1.495 4.277
 0.76 -1.484 4.241
 0.788 -1.489 4.251
 0.807 -1.477 4.212
 0.843 -1.495 4.26
 0.867 -1.493 4.249
 0.89 -1.488 4.231
 0.923 -1.501 4.261
 0.946 -1.496 4.244
 0.971 -1.494 4.232
 1 -1.5 4.243
 1.031 -1.507 4.257
 1.052 -1.5 4.231
 1.086 -1.511 4.258
 1.111 -1.511 4.251
 1.132 -1.504 4.225
 1.156 -1.501 4.211
 1.191 -1.513 4.236
 1.217 -1.514 4.232
 1.248 -1.52 4.242
 1.269 -1.514 4.218
 1.3 -1.519 4.225
 1.326 -1.519 4.218
 1.357 -1.524 4.225
 1.394 -1.536 4.251
 1.416 -1.532 4.231
 1.448 -1.538 4.24
 1.474 -1.538 4.23
 1.502 -1.539 4.225
 1.531 -1.542 4.224
 1.554 -1.539 4.208
 1.589 -1.547 4.22
 1.613 -1.545 4.206
 1.631 -1.537 4.174
 1.676 -1.554 4.212
 1.694 -1.546 4.18
 1.734 -1.558 4.203
 1.756 -1.554 4.182
 1.79 -1.561 4.189
 1.806 -1.552 4.154
 1.859 -1.574 4.203
 1.851 -1.545 4.113
 1.871 -1.539 4.087
 1.884 -1.528 4.047
 1.887 -1.51 3.989
 1.873 -1.479 3.894
 1.923 -1.498 3.932
 0 0 0
 0 0 0
 0 0 0
 0 0 0
 0 0 0
 0 0 0
 0 0 0
 0 0 0
 0 0 0
 0 0 0
 0 0 0
 1.872 -1.258 3.175
 1.862 -1.238 3.111
 1.862 -1.224 3.064
 -2.438 -1.591 4.168
 -2.42 -1.597 4.199
 -2.374 -1.586 4.183
 -2.357 -1.594 4.217
 -2.333 -1.596 4.237
 -2.267 -1.571 4.183
 -2.264 -1.588 4.242
 -2.223 -1.579 4.231
 -2.219 -1.597 4.291
 -2.183 -1.591 4.288
 -2.146 -1.585 4.284
 -2.131 -1.595 4.321
 -2.089 -1.585 4.306
 -2.057 -1.582 4.309
 -2.022 -1.576 4.306
 -1.995 -1.578 4.321
 -1.951 -1.565 4.295
 -1.924 -1.566 4.31
 -1.887 -1.558 4.299
 -1.85 -1.551 4.287
 -1.831 -1.558 4.319
 -1.792 -1.549 4.302
 -1.768 -1.551 4.319
 -1.732 -1.544 4.309
 -1.704 -1.543 4.315
 -1.676 -1.543 4.323
 -1.637 -1.532 4.303
 -1.611 -1.533 4.313
 -1.585 -1.534 4.325
 -1.54 -1.517 4.284
 -1.517 -1.521 4.303
 -1.489 -1.521 4.311
 -1.45 -1.508 4.282
 -1.435 -1.521 4.326
 -1.4 -1.512 4.308
 -1.377 -1.517 4.328
 -1.352 -1.519 4.342
 -1.32 -1.513 4.331
 -1.281 -1.499 4.298
 -1.252 -1.496 4.295
 -1.231 -1.503 4.321
 -1.199 -1.496 4.306
 -1.172 -1.496 4.314
 -1.145 -1.495 4.317
 -1.119 -1.496 4.324
 -1.094 -1.498 4.336
 -1.057 -1.484 4.3
 -1.03 -1.482 4.299
 -0.998 -1.473 4.279
 -0.974 -1.477 4.295
 -0.946 -1.475 4.292
 -0.921 -1.477 4.303
 -0.89 -1.468 4.282
 -0.865 -1.469 4.29
 -0.837 -1.467 4.288
 -0.812 -1.468 4.293
 -0.785 -1.466 4.291
 -0.757 -1.462 4.284
 -0.733 -1.466 4.298
 -0.703 -1.457 4.276
 -0.68 -1.463 4.297
 -0.652 -1.459 4.288
 -0.626 -1.459 4.291
 -0.599 -1.456 4.282
 -0.571 -1.45 4.268
 -0.543 -1.445 4.257
 -0.523 -1.459 4.299
 -0.495 -1.453 4.284
 -0.472 -1.461 4.309
 -0.445 -1.456 4.298
 -0.418 -1.452 4.287
 -0.391 -1.449 4.28
 -0.366 -1.449 4.281
 -0.338 -1.441 4.259
 -0.315 -1.452 4.293
 -0.288 -1.447 4.278
 -0.262 -1.441 4.261
 -0.238 -1.449 4.287
 -0.212 -1.449 4.288
 -0.186 -1.448 4.285
 -0.162 -1.457 4.311
 -0.135 -1.444 4.273
 -0.11 -1.447 4.282
 -0.084 -1.442 4.268
 -0.058 -1.437 4.253
 -0.033 -1.448 4.286
 -0.008 -1.438 4.257
 0.017 -1.44 4.262
 0.042 -1.438 4.256
 0.068 -1.444 4.271
 0.093 -1.44 4.259
 0.119 -1.444 4.271
 0.144 -1.445 4.273
 0.17 -1.448 4.28
 0.193 -1.433 4.235
 0.22 -1.441 4.256
 0.247 -1.453 4.291
 0.269 -1.436 4.239
 0.297 -1.449 4.276
 0.323 -1.451 4.28
 0.347 -1.444 4.257
 0.375 -1.453 4.281
 0.399 -1.449 4.267
 0.421 -1.437 4.231
 0.449 -1.444 4.249
 0.475 -1.448 4.255
 0.498 -1.441 4.235
 0.53 -1.46 4.287
 0.552 -1.45 4.253
 0.58 -1.455 4.266
 0.601 -1.445 4.234
 0.632 -1.458 4.266
 0.66 -1.463 4.279
 0.681 -1.453 4.246
 0.708 -1.457 4.254
 0.734 -1.457 4.249
 0.761 -1.461 4.257
 0.789 -1.466 4.266
 0.814 -1.464 4.257
 0.833 -1.452 4.217
 0.864 -1.461 4.24
 0.89 -1.462 4.237
 0.919 -1.467 4.247
 0.946 -1.469 4.249
 0.977 -1.478 4.268
 0.997 -1.469 4.238
 1.026 -1.474 4.246
 1.055 -1.478 4.253
 1.086 -1.485 4.265
 1.109 -1.481 4.248
 1.126 -1.47 4.21
 1.161 -1.482 4.237
 1.187 -1.482 4.232
 1.209 -1.477 4.211
 1.244 -1.488 4.234
 1.28 -1.5 4.261
 1.301 -1.494 4.237
 1.327 -1.494 4.229
 1.364 -1.506 4.257
 1.381 -1.496 4.22
 1.413 -1.502 4.229
 1.438 -1.501 4.217
 1.476 -1.513 4.244
 1.505 -1.516 4.244
 1.519 -1.503 4.2
 1.558 -1.515 4.224
 1.59 -1.521 4.23
 1.612 -1.517 4.21
 1.65 -1.527 4.23
 1.676 -1.527 4.22
 1.697 -1.522 4.196
 1.732 -1.529 4.206
 1.76 -1.53 4.199
 1.782 -1.527 4.178
 1.818 -1.534 4.188
 1.834 -1.526 4.154
 1.854 -1.521 4.129
 1.87 -1.512 4.095
 1.888 -1.505 4.064
 1.912 -1.503 4.049
 1.907 -1.479 3.973
 0 0 0
 0 0 0
 0 0 0
 0 0 0
 0 0 0
 0 0 0
 0 0 0
 0 0 0
 0 0 0
 0 0 0
 0 0 0
 0 0 0
 1.844 -1.218 3.133
 1.869 -1.221 3.129
 1.857 -1.199 3.063
 -2.524 -1.618 4.325
 -2.45 -1.589 4.263
 -2.451 -1.608 4.329
 -2.411 -1.601 4.323
 -2.364 -1.589 4.305
 -2.339 -1.592 4.325
 -2.292 -1.579 4.304
 -2.274 -1.587 4.338
 -2.217 -1.567 4.296
 -2.189 -1.567 4.309
 -2.163 -1.569 4.326
 -2.112 -1.553 4.293
 -2.087 -1.555 4.31
 -2.043 -1.543 4.29
 -2.045 -1.566 4.365
 -1.992 -1.547 4.323
 -1.974 -1.555 4.356
 -1.919 -1.534 4.308
 -1.893 -1.535 4.321
 -1.862 -1.533 4.324
 -1.821 -1.522 4.304
 -1.808 -1.534 4.349
 -1.773 -1.528 4.341
 -1.73 -1.515 4.311
 -1.705 -1.517 4.327
 -1.663 -1.504 4.299
 -1.641 -1.509 4.322
 -1.62 -1.514 4.346
 -1.576 -1.499 4.311
 -1.545 -1.495 4.307
 -1.517 -1.494 4.312
 -1.495 -1.5 4.336
 -1.456 -1.488 4.309
 -1.427 -1.486 4.311
 -1.409 -1.495 4.345
 -1.363 -1.475 4.293
 -1.348 -1.487 4.337
 -1.316 -1.481 4.325
 -1.282 -1.474 4.31
 -1.255 -1.473 4.313
 -1.23 -1.475 4.327
 -1.193 -1.462 4.294
 -1.165 -1.46 4.295
 -1.139 -1.461 4.303
 -1.103 -1.449 4.271
 -1.084 -1.458 4.304
 -1.062 -1.463 4.325
 -1.028 -1.454 4.302
 -1 -1.451 4.298
 -0.978 -1.457 4.32
 -0.947 -1.449 4.302
 -0.922 -1.452 4.314
 -0.897 -1.454 4.325
 -0.86 -1.435 4.273
 -0.836 -1.439 4.29
 -0.812 -1.442 4.301
 -0.781 -1.434 4.281
 -0.759 -1.44 4.304
 -0.734 -1.444 4.316
 -0.708 -1.442 4.315
 -0.679 -1.437 4.303
 -0.649 -1.427 4.275
 -0.632 -1.448 4.342
 -0.599 -1.431 4.293
 -0.575 -1.434 4.306
 -0.548 -1.432 4.302
 -0.52 -1.426 4.286
 -0.493 -1.423 4.277
 -0.466 -1.419 4.267
 -0.446 -1.434 4.317
 -0.417 -1.426 4.294
 -0.391 -1.422 4.282
 -0.365 -1.423 4.287
 -0.339 -1.419 4.276
 -0.315 -1.428 4.304
 -0.287 -1.415 4.267
 -0.261 -1.412 4.258
 -0.236 -1.418 4.276
 -0.212 -1.421 4.287
 -0.186 -1.42 4.284
 -0.16 -1.421 4.289
 -0.134 -1.415 4.269
 -0.11 -1.423 4.294
 -0.084 -1.417 4.276
 -0.058 -1.417 4.276
 -0.033 -1.407 4.246
 -0.008 -1.426 4.304
 0.017 -1.422 4.29
 0.042 -1.416 4.271
 0.068 -1.423 4.293
 0.093 -1.413 4.261
 0.119 -1.423 4.292
 0.144 -1.419 4.278
 0.169 -1.418 4.273
 0.194 -1.413 4.259
 0.22 -1.417 4.268
 0.246 -1.42 4.276
 0.273 -1.43 4.303
 0.296 -1.417 4.264
 0.323 -1.423 4.279
 0.347 -1.419 4.266
 0.376 -1.431 4.3
 0.398 -1.419 4.262
 0.422 -1.416 4.248
 0.45 -1.422 4.267
 0.476 -1.426 4.273
 0.502 -1.425 4.268
 0.528 -1.427 4.271
 0.548 -1.412 4.225
 0.577 -1.424 4.255
 0.607 -1.433 4.28
 0.631 -1.429 4.265
 0.655 -1.426 4.252
 0.683 -1.431 4.264
 0.708 -1.431 4.259
 0.738 -1.44 4.282
 0.757 -1.427 4.239
 0.785 -1.431 4.247
 0.809 -1.429 4.238
 0.84 -1.438 4.26
 0.864 -1.436 4.248
 0.892 -1.439 4.253
 0.926 -1.452 4.286
 0.95 -1.45 4.275
 0.972 -1.444 4.252
 0.998 -1.445 4.25
 1.024 -1.444 4.242
 1.044 -1.437 4.216
 1.079 -1.45 4.246
 1.107 -1.452 4.247
 1.128 -1.446 4.224
 1.158 -1.451 4.232
 1.189 -1.459 4.247
 1.221 -1.465 4.26
 1.244 -1.462 4.243
 1.268 -1.46 4.23
 1.298 -1.464 4.235
 1.339 -1.481 4.277
 1.364 -1.479 4.263
 1.392 -1.48 4.259
 1.417 -1.48 4.25
 1.425 -1.461 4.187
 1.472 -1.482 4.239
 1.501 -1.485 4.24
 1.519 -1.477 4.208
 1.556 -1.487 4.227
 1.578 -1.482 4.206
 1.602 -1.481 4.192
 1.636 -1.488 4.202
 1.661 -1.487 4.19
 1.689 -1.488 4.184
 1.723 -1.495 4.193
 1.752 -1.497 4.188
 1.775 -1.494 4.17
 1.814 -1.504 4.187
 1.834 -1.498 4.161
 1.86 -1.498 4.15
 1.882 -1.495 4.128
 1.904 -1.492 4.109
 1.895 -1.464 4.021
 0 0 0
 0 0 0
 0 0 0
 0 0 0
 0 0 0
 0 0 0
 0 0 0
 0 0 0
 0 0 0
 0 0 0
 0 0 0
 0 0 0
 0 0 0
 1.823 -1.183 3.106
 1.888 -1.211 3.168
 1.859 -1.179 3.073
 0 0 0
 -2.48 -1.579 4.324
 -2.455 -1.581 4.345
 -2.407 -1.57 4.326
 -2.361 -1.559 4.309
 -2.335 -1.561 4.328
 -2.292 -1.551 4.314
 -2.252 -1.543 4.306
 -2.237 -1.552 4.344
 -2.19 -1.54 4.32
 -2.167 -1.544 4.345
 -2.134 -1.541 4.347
 -2.093 -1.532 4.334
 -2.074 -1.539 4.365
 -2.034 -1.53 4.352
 -1.997 -1.523 4.342
 -1.957 -1.514 4.329
 -1.949 -1.529 4.383
 -1.889 -1.505 4.322
 -1.866 -1.509 4.343
 -1.823 -1.496 4.317
 -1.795 -1.496 4.327
 -1.758 -1.488 4.312
 -1.726 -1.484 4.31
 -1.71 -1.494 4.348
 -1.661 -1.475 4.302
 -1.645 -1.485 4.341
 -1.616 -1.483 4.344
 -1.572 -1.468 4.307
 -1.548 -1.471 4.324
 -1.526 -1.477 4.349
 -1.494 -1.471 4.341
 -1.469 -1.474 4.357
 -1.43 -1.462 4.327
 -1.403 -1.461 4.333
 -1.369 -1.454 4.32
 -1.34 -1.452 4.318
 -1.308 -1.447 4.309
 -1.281 -1.446 4.315
 -1.264 -1.457 4.355
 -1.216 -1.432 4.284
 -1.199 -1.444 4.325
 -1.169 -1.439 4.318
 -1.136 -1.431 4.297
 -1.104 -1.423 4.281
 -1.089 -1.439 4.332
 -1.06 -1.435 4.328
 -1.031 -1.432 4.323
 -0.999 -1.423 4.301
 -0.977 -1.429 4.324
 -0.944 -1.42 4.3
 -0.918 -1.42 4.304
 -0.886 -1.411 4.281
 -0.864 -1.417 4.303
 -0.839 -1.418 4.311
 -0.81 -1.414 4.302
 -0.782 -1.41 4.293
 -0.754 -1.406 4.284
 -0.73 -1.408 4.296
 -0.704 -1.409 4.302
 -0.679 -1.41 4.308
 -0.654 -1.412 4.315
 -0.625 -1.406 4.302
 -0.598 -1.402 4.29
 -0.573 -1.404 4.298
 -0.544 -1.398 4.282
 -0.515 -1.386 4.249
 -0.497 -1.409 4.32
 -0.468 -1.398 4.289
 -0.444 -1.404 4.311
 -0.414 -1.39 4.269
 -0.392 -1.402 4.306
 -0.365 -1.397 4.294
 -0.339 -1.394 4.286
 -0.313 -1.391 4.278
 -0.285 -1.381 4.247
 -0.263 -1.399 4.303
 -0.236 -1.39 4.278
 -0.211 -1.391 4.279
 -0.186 -1.395 4.293
 -0.16 -1.388 4.273
 -0.135 -1.393 4.288
 -0.109 -1.389 4.274
 -0.084 -1.398 4.303
 -0.058 -1.39 4.279
 -0.033 -1.395 4.295
 -0.007 -1.388 4.273
 0.017 -1.391 4.282
 0.043 -1.399 4.306
 0.068 -1.396 4.295
 0.093 -1.392 4.283
 0.119 -1.395 4.29
 0.144 -1.388 4.269
 0.17 -1.396 4.293
 0.195 -1.395 4.286
 0.22 -1.391 4.272
 0.245 -1.389 4.266
 0.273 -1.4 4.298
 0.295 -1.387 4.257
 0.318 -1.375 4.218
 0.347 -1.393 4.27
 0.373 -1.395 4.275
 0.398 -1.393 4.267
 0.42 -1.383 4.234
 0.451 -1.399 4.28
 0.472 -1.388 4.242
 0.498 -1.388 4.242
 0.526 -1.396 4.263
 0.551 -1.394 4.255
 0.578 -1.398 4.262
 0.602 -1.395 4.25
 0.628 -1.396 4.25
 0.656 -1.403 4.267
 0.685 -1.411 4.287
 0.71 -1.408 4.276
 0.735 -1.408 4.271
 0.759 -1.404 4.255
 0.788 -1.41 4.271
 0.812 -1.408 4.259
 0.836 -1.405 4.244
 0.867 -1.414 4.268
 0.891 -1.411 4.255
 0.921 -1.418 4.27
 0.944 -1.415 4.255
 0.968 -1.412 4.24
 0.997 -1.416 4.248
 1.022 -1.416 4.242
 1.051 -1.421 4.251
 1.075 -1.418 4.237
 1.104 -1.422 4.244
 1.129 -1.421 4.233
 1.168 -1.438 4.277
 1.183 -1.425 4.232
 1.214 -1.431 4.244
 1.243 -1.434 4.245
 1.272 -1.437 4.248
 1.297 -1.437 4.239
 1.33 -1.444 4.255
 1.357 -1.445 4.25
 1.385 -1.447 4.247
 1.415 -1.451 4.251
 1.441 -1.45 4.241
 1.466 -1.449 4.23
 1.485 -1.442 4.201
 1.53 -1.46 4.245
 1.544 -1.449 4.202
 1.586 -1.463 4.235
 1.611 -1.462 4.223
 1.635 -1.46 4.206
 1.671 -1.468 4.222
 1.702 -1.473 4.225
 1.741 -1.483 4.245
 1.751 -1.469 4.194
 1.782 -1.473 4.195
 1.808 -1.473 4.183
 1.848 -1.483 4.201
 1.856 -1.468 4.15
 1.877 -1.464 4.127
 1.882 -1.447 4.068
 0 0 0
 0 0 0
 0 0 0
 0 0 0
 0 0 0
 0 0 0
 0 0 0
 0 0 0
 0 0 0
 2.319 -1.566 4.273
 0 0 0
 0 0 0
 0 0 0
 0 0 0
 1.859 -1.185 3.173
 1.873 -1.18 3.15
 1.855 -1.156 3.074
 -2.532 -1.564 4.358
 -2.475 -1.547 4.324
 -2.447 -1.547 4.341
 -2.434 -1.558 4.383
 -2.38 -1.542 4.353
 -2.323 -1.524 4.315
 -2.314 -1.537 4.364
 -2.262 -1.521 4.334
 -2.229 -1.519 4.339
 -2.2 -1.519 4.351
 -2.169 -1.517 4.357
 -2.139 -1.516 4.367
 -2.081 -1.495 4.317
 -2.059 -1.5 4.343
 -2.026 -1.496 4.343
 -1.982 -1.484 4.319
 -1.95 -1.481 4.32
 -1.925 -1.483 4.339
 -1.873 -1.465 4.295
 -1.859 -1.475 4.335
 -1.812 -1.46 4.3
 -1.785 -1.46 4.311
 -1.75 -1.454 4.302
 -1.729 -1.459 4.326
 -1.702 -1.46 4.337
 -1.667 -1.453 4.327
 -1.639 -1.452 4.332
 -1.612 -1.453 4.343
 -1.585 -1.453 4.352
 -1.545 -1.442 4.325
 -1.512 -1.436 4.315
 -1.49 -1.44 4.337
 -1.454 -1.433 4.321
 -1.428 -1.433 4.33
 -1.393 -1.425 4.311
 -1.36 -1.418 4.297
 -1.339 -1.424 4.323
 -1.309 -1.421 4.32
 -1.272 -1.41 4.292
 -1.253 -1.417 4.322
 -1.221 -1.411 4.309
 -1.188 -1.404 4.292
 -1.172 -1.417 4.337
 -1.136 -1.405 4.307
 -1.117 -1.414 4.342
 -1.083 -1.404 4.315
 -1.059 -1.407 4.331
 -1.027 -1.4 4.313
 -1.004 -1.404 4.329
 -0.964 -1.384 4.274
 -0.946 -1.396 4.315
 -0.916 -1.39 4.3
 -0.886 -1.385 4.288
 -0.863 -1.39 4.307
 -0.836 -1.387 4.304
 -0.808 -1.384 4.298
 -0.784 -1.388 4.314
 -0.749 -1.37 4.262
 -0.728 -1.38 4.296
 -0.701 -1.377 4.288
 -0.672 -1.371 4.274
 -0.644 -1.365 4.257
 -0.622 -1.374 4.289
 -0.597 -1.376 4.298
 -0.573 -1.379 4.31
 -0.544 -1.371 4.287
 -0.522 -1.382 4.322
 -0.49 -1.365 4.27
 -0.475 -1.394 4.366
 -0.441 -1.371 4.292
 0 0 0
 0 0 0
 0 0 0
 0 0 0
 -0.316 -1.382 4.336
 -0.284 -1.352 4.243
 -0.261 -1.364 4.281
 -0.236 -1.366 4.287
 -0.21 -1.36 4.271
 -0.186 -1.369 4.298
 -0.159 -1.364 4.283
 -0.134 -1.366 4.289
 -0.109 -1.371 4.307
 -0.083 -1.359 4.269
 -0.057 -1.341 4.213
 -0.033 -1.367 4.293
 -0.007 -1.357 4.262
 0.017 -1.379 4.332
 0 0 0
 0.068 -1.374 4.314
 0.092 -1.352 4.243
 0 0 0
 0 0 0
 0.17 -1.368 4.291
 0.197 -1.381 4.33
 0.217 -1.346 4.218
 0.244 -1.355 4.246
 0.271 -1.368 4.284
 0.295 -1.358 4.25
 0.324 -1.374 4.3
 0.349 -1.372 4.292
 0.367 -1.348 4.213
 0.4 -1.372 4.289
 0.429 -1.385 4.324
 0.451 -1.374 4.29
 0.471 -1.359 4.239
 0.496 -1.358 4.235
 0.523 -1.362 4.243
 0.553 -1.373 4.274
 0.578 -1.373 4.271
 0.599 -1.362 4.235
 0.627 -1.369 4.251
 0.65 -1.363 4.231
 0.681 -1.376 4.267
 0.701 -1.366 4.231
 0.731 -1.375 4.255
 0.762 -1.384 4.28
 0.785 -1.379 4.259
 0.81 -1.379 4.255
 0.835 -1.377 4.245
 0.861 -1.379 4.246
 0.89 -1.384 4.257
 0.916 -1.385 4.255
 0.943 -1.386 4.254
 0.981 -1.404 4.304
 0.996 -1.39 4.254
 1.023 -1.391 4.251
 1.046 -1.387 4.235
 1.08 -1.398 4.262
 1.107 -1.4 4.261
 1.126 -1.391 4.229
 1.157 -1.398 4.242
 1.179 -1.394 4.225
 1.213 -1.404 4.247
 1.241 -1.406 4.248
 1.27 -1.409 4.249
 1.295 -1.408 4.239
 1.326 -1.413 4.247
 1.353 -1.414 4.244
 1.38 -1.416 4.24
 1.409 -1.418 4.239
 1.439 -1.422 4.244
 1.462 -1.419 4.226
 1.486 -1.417 4.211
 1.524 -1.428 4.235
 1.548 -1.426 4.221
 1.576 -1.428 4.217
 1.612 -1.437 4.234
 1.636 -1.434 4.217
 1.669 -1.44 4.225
 1.692 -1.437 4.205
 1.729 -1.446 4.223
 1.751 -1.442 4.201
 1.783 -1.446 4.204
 1.801 -1.44 4.174
 1.841 -1.45 4.194
 1.873 -1.455 4.196
 1.881 -1.44 4.144
 0 0 0
 0 0 0
 0 0 0
 0 0 0
 0 0 0
 0 0 0
 0 0 0
 0 0 0
 0 0 0
 0 0 0
 0 0 0
 0 0 0
 0 0 0
 0 0 0
 0 0 0
 1.875 -1.173 3.208
 1.896 -1.173 3.196
 1.848 -1.13 3.068
 -2.506 -1.519 4.323
 -2.5 -1.533 4.379
 -2.443 -1.516 4.343
 -2.404 -1.51 4.339
 -2.38 -1.513 4.362
 -2.331 -1.5 4.338
 -2.308 -1.504 4.363
 -2.275 -1.501 4.368
 -2.242 -1.499 4.372
 -2.202 -1.491 4.363
 -2.167 -1.487 4.363
 -2.121 -1.475 4.338
 -2.107 -1.485 4.381
 -2.059 -1.471 4.351
 -2.025 -1.467 4.349
 -1.975 -1.451 4.312
 -1.962 -1.462 4.357
 -1.926 -1.456 4.349
 -1.885 -1.446 4.33
 -1.855 -1.445 4.336
 -1.831 -1.448 4.354
 -1.791 -1.437 4.333
 -1.75 -1.427 4.31
 -1.721 -1.425 4.314
 -1.693 -1.425 4.324
 -1.682 -1.439 4.373
 -1.633 -1.42 4.326
 -1.599 -1.415 4.317
 -1.565 -1.408 4.304
 -1.539 -1.409 4.317
 -1.502 -1.4 4.296
 -1.483 -1.407 4.325
 -1.453 -1.404 4.325
 -1.426 -1.404 4.332
 -1.398 -1.403 4.336
 -1.369 -1.401 4.335
 -1.335 -1.394 4.32
 -1.311 -1.397 4.335
 -1.272 -1.384 4.301
 -1.248 -1.385 4.313
 -1.222 -1.386 4.321
 -1.183 -1.372 4.282
 -1.164 -1.381 4.315
 -1.148 -1.393 4.36
 -1.102 -1.369 4.29
 -1.085 -1.381 4.332
 -1.048 -1.367 4.294
 -1.018 -1.361 4.28
 -1.005 -1.38 4.345
 -0.977 -1.377 4.34
 0 0 0
 0 0 0
 0 0 0
 0 0 0
 0 0 0
 0 0 0
 0 0 0
 0 0 0
 0 0 0
 0 0 0
 0 0 0
 0 0 0
 0 0 0
 0 0 0
 0 0 0
 0 0 0
 0 0 0
 0 0 0
 0 0 0
 0 0 0
 0 0 0
 0 0 0
 0 0 0
 0 0 0
 0 0 0
 -0.286 -1.337 4.281
 -0.26 -1.333 4.269
 -0.236 -1.341 4.296
 -0.21 -1.335 4.279
 -0.185 -1.339 4.291
 -0.16 -1.34 4.296
 -0.134 -1.34 4.295
 -0.109 -1.339 4.292
 -0.083 -1.332 4.269
 -0.057 -1.329 4.26
 -0.032 -1.338 4.289
 -0.007 -1.332 4.269
 0 0 0
 0 0 0
 0 0 0
 0 0 0
 0 0 0
 0 0 0
 0 0 0
 0 0 0
 0 0 0
 0 0 0
 0 0 0
 0 0 0
 0 0 0
 0 0 0
 0 0 0
 0 0 0
 0 0 0
 0 0 0
 0 0 0
 0 0 0
 0 0 0
 0 0 0
 0 0 0
 0 0 0
 0 0 0
 0 0 0
 0 0 0
