 1.891 -1.482 3.615
 1.883 -1.467 3.571
 0 0 0
 0 0 0
 0 0 0
 0 0 0
 0 0 0
 0 0 0
 0 0 0
 0 0 0
 0 0 0
 0 0 0
 1.808 -1.318 3.149
 1.826 -1.323 3.155
 1.836 -1.323 3.149
 1.844 -1.32 3.138
 1.852 -1.319 3.128
 1.85 -1.31 3.102
 1.845 -1.299 3.07
 1.839 -1.287 3.037
 1.849 -1.287 3.03
 1.795 -1.243 2.92
 -2.299 -1.595 3.879
 0 0 0
 -2.294 -1.611 3.93
 -2.28 -1.61 3.935
 -2.267 -1.611 3.943
 -2.252 -1.61 3.946
 -2.237 -1.608 3.95
 -2.226 -1.61 3.961
 -2.214 -1.611 3.97
 -2.201 -1.612 3.978
 -2.194 -1.616 3.995
 -2.181 -1.617 4.003
 -2.172 -1.62 4.018
 -2.16 -1.621 4.026
 -2.143 -1.619 4.027
 -2.124 -1.615 4.022
 -2.111 -1.615 4.03
 -2.096 -1.614 4.032
 -2.08 -1.612 4.034
 -2.07 -1.614 4.045
 -2.057 -1.615 4.053
 -2.044 -1.616 4.06
 -2.032 -1.617 4.069
 -2.019 -1.617 4.075
 -2.005 -1.617 4.08
 -1.991 -1.617 4.086
 -1.977 -1.616 4.089
 -1.963 -1.616 4.094
 -1.951 -1.617 4.102
 -1.94 -1.619 4.114
 -1.926 -1.618 4.117
 -1.911 -1.617 4.119
 -1.895 -1.615 4.119
 -1.879 -1.613 4.119
 -1.86 -1.609 4.113
 -1.85 -1.612 4.126
 -1.836 -1.611 4.13
 -1.827 -1.615 4.145
 -1.815 -1.616 4.153
 -1.805 -1.619 4.166
 -1.789 -1.617 4.165
 -1.775 -1.616 4.168
 -1.758 -1.614 4.166
 -1.744 -1.613 4.169
 -1.728 -1.611 4.168
 -1.712 -1.608 4.166
 -1.696 -1.606 4.165
 -1.683 -1.607 4.171
 -1.67 -1.606 4.175
 -1.654 -1.604 4.173
 -1.64 -1.604 4.177
 -1.63 -1.607 4.19
 -1.614 -1.604 4.187
 -1.598 -1.602 4.185
 -1.589 -1.606 4.2
 -1.576 -1.607 4.207
 -1.562 -1.606 4.208
 -1.549 -1.606 4.212
 -1.538 -1.609 4.224
 -1.522 -1.606 4.22
 -1.508 -1.605 4.224
 -1.492 -1.603 4.22
 -1.476 -1.6 4.218
 -1.463 -1.6 4.221
 -1.45 -1.6 4.226
 -1.435 -1.599 4.226
 -1.423 -1.601 4.234
 -1.41 -1.6 4.236
 -1.396 -1.6 4.241
 -1.383 -1.601 4.246
 -1.369 -1.6 4.246
 -1.355 -1.599 4.248
 -1.343 -1.6 4.255
 -1.325 -1.595 4.243
 -1.311 -1.593 4.243
 -1.298 -1.594 4.248
 -1.283 -1.592 4.246
 -1.268 -1.59 4.245
 -1.256 -1.592 4.252
 -1.24 -1.588 4.245
 -1.226 -1.587 4.246
 -1.215 -1.589 4.255
 -1.199 -1.586 4.25
 -1.186 -1.587 4.254
 -1.174 -1.588 4.262
 -1.16 -1.587 4.26
 -1.145 -1.584 4.257
 -1.132 -1.585 4.262
 -1.118 -1.583 4.258
 -1.102 -1.58 4.254
 -1.087 -1.577 4.248
 -1.073 -1.576 4.248
 -1.06 -1.576 4.249
 -1.046 -1.574 4.248
 -1.032 -1.573 4.249
 -1.02 -1.575 4.256
 -1.005 -1.572 4.251
 -0.993 -1.574 4.258
 -0.981 -1.575 4.263
 -0.969 -1.577 4.271
 -0.957 -1.578 4.276
 -0.945 -1.58 4.284
 -0.93 -1.578 4.28
 -0.916 -1.576 4.276
 -0.901 -1.573 4.27
 -0.888 -1.572 4.271
 -0.875 -1.573 4.274
 -0.861 -1.571 4.272
 -0.848 -1.572 4.276
 -0.835 -1.572 4.279
 -0.821 -1.569 4.273
 -0.807 -1.567 4.269
 -0.794 -1.567 4.271
 -0.78 -1.566 4.27
 -0.767 -1.565 4.269
 -0.753 -1.564 4.268
 -0.74 -1.563 4.267
 -0.725 -1.56 4.26
 -0.712 -1.56 4.262
 -0.698 -1.558 4.258
 -0.685 -1.556 4.255
 -0.672 -1.556 4.255
 -0.66 -1.558 4.262
 -0.646 -1.557 4.262
 -0.634 -1.558 4.265
 -0.621 -1.559 4.271
 -0.609 -1.56 4.275
 -0.595 -1.558 4.271
 -0.582 -1.556 4.267
 -0.569 -1.557 4.269
 -0.556 -1.557 4.271
 -0.542 -1.553 4.261
 -0.529 -1.553 4.261
 -0.515 -1.552 4.26
 -0.502 -1.55 4.256
 -0.488 -1.547 4.25
 -0.476 -1.549 4.256
 -0.464 -1.55 4.261
 -0.451 -1.552 4.267
 -0.439 -1.553 4.269
 -0.426 -1.553 4.27
 -0.412 -1.551 4.267
 -0.399 -1.549 4.261
 -0.386 -1.548 4.259
 -0.373 -1.549 4.263
 -0.36 -1.548 4.262
 -0.347 -1.548 4.261
 -0.334 -1.547 4.259
 -0.322 -1.548 4.262
 -0.309 -1.546 4.257
 -0.296 -1.547 4.262
 -0.283 -1.547 4.263
 -0.271 -1.549 4.269
 -0.258 -1.547 4.264
 -0.245 -1.547 4.265
 -0.232 -1.547 4.264
 -0.219 -1.546 4.262
 -0.206 -1.545 4.259
 -0.194 -1.546 4.262
 -0.181 -1.546 4.262
 -0.168 -1.544 4.258
 -0.155 -1.546 4.262
 -0.142 -1.545 4.261
 -0.129 -1.543 4.255
 -0.117 -1.543 4.254
 -0.104 -1.541 4.251
 -0.091 -1.54 4.248
 -0.078 -1.541 4.249
 -0.066 -1.542 4.253
 -0.053 -1.542 4.253
 -0.04 -1.543 4.256
 -0.027 -1.545 4.26
 -0.015 -1.544 4.258
 -0.002 -1.544 4.258
 0.01 -1.545 4.261
 0.023 -1.546 4.263
 0.035 -1.544 4.256
 0.048 -1.543 4.254
 0.061 -1.541 4.249
 0.073 -1.54 4.244
 0.086 -1.538 4.24
 0.099 -1.54 4.244
 0.112 -1.541 4.246
 0.124 -1.54 4.244
 0.137 -1.54 4.244
 0.15 -1.541 4.244
 0.162 -1.54 4.241
 0.175 -1.539 4.239
 0.188 -1.54 4.24
 0.201 -1.541 4.242
 0.214 -1.542 4.246
 0.226 -1.543 4.247
 0.239 -1.544 4.249
 0.252 -1.544 4.248
 0.265 -1.544 4.247
 0.277 -1.543 4.243
 0.29 -1.543 4.243
 0.303 -1.542 4.239
 0.315 -1.542 4.238
 0.328 -1.542 4.237
 0.341 -1.543 4.238
 0.354 -1.543 4.239
 0.367 -1.544 4.241
 0.38 -1.546 4.244
 0.393 -1.548 4.247
 0.406 -1.548 4.247
 0.418 -1.547 4.242
 0.431 -1.547 4.243
 0.444 -1.548 4.242
 0.456 -1.547 4.239
 0.469 -1.547 4.238
 0.482 -1.548 4.24
 0.495 -1.549 4.24
 0.508 -1.549 4.238
 0.521 -1.549 4.237
 0.534 -1.549 4.238
 0.547 -1.55 4.237
 0.56 -1.55 4.237
 0.572 -1.55 4.234
 0.585 -1.55 4.232
 0.597 -1.549 4.229
 0.61 -1.55 4.229
 0.623 -1.55 4.228
 0.636 -1.55 4.227
 0.649 -1.55 4.225
 0.661 -1.549 4.22
 0.674 -1.55 4.221
 0.688 -1.552 4.224
 0.701 -1.552 4.222
 0.715 -1.555 4.228
 0.728 -1.557 4.232
 0.742 -1.558 4.232
 0.755 -1.558 4.231
 0.769 -1.561 4.236
 0.782 -1.561 4.235
 0.794 -1.561 4.231
 0.806 -1.559 4.225
 0.819 -1.559 4.223
 0.832 -1.559 4.221
 0.844 -1.558 4.215
 0.858 -1.561 4.219
 0.872 -1.562 4.221
 0.884 -1.56 4.213
 0.897 -1.561 4.212
 0.911 -1.563 4.215
 0.924 -1.563 4.214
 0.938 -1.566 4.218
 0.952 -1.568 4.221
 0.966 -1.569 4.221
 0.979 -1.569 4.217
 0.992 -1.57 4.218
 1.003 -1.567 4.207
 1.017 -1.569 4.209
 1.03 -1.569 4.206
 1.044 -1.57 4.206
 1.056 -1.569 4.201
 1.072 -1.574 4.212
 1.086 -1.575 4.212
 1.1 -1.576 4.211
 1.113 -1.577 4.21
 1.126 -1.577 4.208
 1.138 -1.575 4.2
 1.15 -1.575 4.195
 1.163 -1.575 4.191
 1.177 -1.577 4.193
 1.193 -1.58 4.199
 1.206 -1.58 4.197
 1.22 -1.581 4.195
 1.234 -1.583 4.197
 1.249 -1.585 4.198
 1.261 -1.584 4.192
 1.274 -1.585 4.19
 1.288 -1.585 4.187
 1.301 -1.586 4.186
 1.313 -1.584 4.179
 1.328 -1.587 4.182
 1.344 -1.59 4.185
 1.359 -1.592 4.188
 1.373 -1.593 4.186
 1.388 -1.596 4.19
 1.401 -1.596 4.185
 1.414 -1.596 4.181
 1.427 -1.595 4.176
 1.441 -1.597 4.176
 1.456 -1.599 4.176
 1.469 -1.598 4.171
 1.481 -1.598 4.165
 1.495 -1.599 4.164
 1.508 -1.599 4.16
 1.521 -1.598 4.153
 1.534 -1.599 4.151
 1.55 -1.601 4.152
 1.565 -1.603 4.153
 1.579 -1.604 4.15
 1.593 -1.605 4.149
 1.608 -1.607 4.149
 1.622 -1.608 4.148
 1.635 -1.608 4.142
 1.649 -1.609 4.139
 1.662 -1.608 4.133
 1.676 -1.609 4.13
 1.686 -1.606 4.118
 1.698 -1.605 4.111
 1.71 -1.605 4.104
 1.723 -1.604 4.098
 1.735 -1.603 4.09
 1.75 -1.605 4.09
 1.765 -1.607 4.089
 1.779 -1.607 4.085
 1.79 -1.605 4.075
 1.801 -1.603 4.064
 1.811 -1.601 4.052
 1.822 -1.599 4.043
 1.832 -1.597 4.031
 1.842 -1.594 4.018
 1.848 -1.588 3.998
 1.853 -1.581 3.975
 1.858 -1.574 3.953
 1.865 -1.569 3.934
 1.871 -1.564 3.915
 1.875 -1.557 3.892
 1.883 -1.552 3.875
 1.885 -1.543 3.847
 1.884 -1.533 3.815
 1.888 -1.526 3.793
 1.897 -1.523 3.78
 1.901 -1.516 3.757
 1.903 -1.508 3.731
 1.911 -1.505 3.717
 1.915 -1.498 3.694
 1.913 -1.487 3.662
 0 0 0
 0 0 0
 0 0 0
 0 0 0
 0 0 0
 0 0 0
 0 0 0
 0 0 0
 0 0 0
 0 0 0
 0 0 0
 1.806 -1.305 3.148
 1.824 -1.311 3.156
 1.835 -1.311 3.151
 1.843 -1.309 3.141
 1.849 -1.306 3.127
 1.85 -1.299 3.105
 1.847 -1.29 3.077
 1.84 -1.277 3.041
 1.828 -1.262 3
 1.835 -1.26 2.989
 0 0 0
 -2.335 -1.616 3.974
 -2.311 -1.609 3.964
 -2.297 -1.609 3.97
 -2.281 -1.607 3.973
 -2.261 -1.602 3.967
 -2.25 -1.604 3.979
 -2.243 -1.609 3.996
 -2.232 -1.611 4.008
 -2.223 -1.614 4.022
 -2.215 -1.619 4.039
 -2.201 -1.618 4.045
 -2.193 -1.622 4.061
 -2.177 -1.621 4.064
 -2.158 -1.616 4.059
 -2.141 -1.614 4.058
 -2.128 -1.614 4.066
 -2.11 -1.611 4.064
 -2.095 -1.61 4.066
 -2.084 -1.612 4.079
 -2.07 -1.612 4.084
 -2.057 -1.612 4.09
 -2.045 -1.613 4.099
 -2.034 -1.616 4.111
 -2.02 -1.616 4.116
 -2.008 -1.617 4.125
 -1.993 -1.615 4.127
 -1.978 -1.615 4.131
 -1.964 -1.614 4.135
 -1.952 -1.616 4.144
 -1.937 -1.614 4.146
 -1.922 -1.613 4.149
 -1.905 -1.611 4.147
 -1.889 -1.609 4.147
 -1.873 -1.606 4.146
 -1.86 -1.607 4.153
 -1.847 -1.607 4.159
 -1.839 -1.612 4.176
 -1.828 -1.614 4.186
 -1.815 -1.615 4.194
 -1.802 -1.615 4.2
 -1.787 -1.614 4.202
 -1.77 -1.611 4.198
 -1.754 -1.609 4.198
 -1.739 -1.608 4.2
 -1.724 -1.606 4.201
 -1.709 -1.605 4.201
 -1.696 -1.605 4.207
 -1.682 -1.605 4.21
 -1.664 -1.6 4.203
 -1.65 -1.6 4.207
 -1.639 -1.603 4.219
 -1.625 -1.602 4.22
 -1.607 -1.598 4.214
 -1.599 -1.603 4.231
 -1.585 -1.603 4.235
 -1.57 -1.601 4.234
 -1.555 -1.6 4.236
 -1.546 -1.604 4.252
 -1.531 -1.602 4.252
 -1.516 -1.601 4.252
 -1.5 -1.598 4.247
 -1.484 -1.596 4.245
 -1.47 -1.594 4.246
 -1.457 -1.595 4.251
 -1.443 -1.594 4.254
 -1.431 -1.596 4.262
 -1.417 -1.595 4.264
 -1.403 -1.595 4.265
 -1.388 -1.592 4.263
 -1.373 -1.591 4.262
 -1.358 -1.589 4.262
 -1.345 -1.59 4.267
 -1.328 -1.585 4.257
 -1.314 -1.584 4.258
 -1.3 -1.584 4.261
 -1.286 -1.582 4.26
 -1.271 -1.581 4.259
 -1.259 -1.582 4.264
 -1.243 -1.579 4.261
 -1.229 -1.578 4.262
 -1.217 -1.58 4.269
 -1.202 -1.577 4.264
 -1.188 -1.577 4.266
 -1.176 -1.577 4.271
 -1.162 -1.577 4.273
 -1.147 -1.575 4.27
 -1.136 -1.577 4.279
 -1.122 -1.576 4.28
 -1.108 -1.575 4.28
 -1.092 -1.572 4.273
 -1.079 -1.571 4.275
 -1.064 -1.569 4.271
 -1.049 -1.566 4.265
 -1.034 -1.563 4.261
 -1.021 -1.564 4.264
 -1.006 -1.561 4.26
 -0.994 -1.563 4.266
 -0.982 -1.564 4.271
 -0.97 -1.566 4.279
 -0.957 -1.566 4.283
 -0.945 -1.568 4.291
 -0.931 -1.567 4.29
 -0.918 -1.566 4.289
 -0.902 -1.562 4.28
 -0.889 -1.561 4.281
 -0.875 -1.56 4.278
 -0.861 -1.558 4.276
 -0.848 -1.558 4.278
 -0.836 -1.56 4.284
 -0.821 -1.558 4.281
 -0.808 -1.556 4.28
 -0.795 -1.557 4.283
 -0.782 -1.557 4.284
 -0.768 -1.555 4.282
 -0.754 -1.554 4.28
 -0.741 -1.553 4.278
 -0.726 -1.55 4.271
 -0.713 -1.549 4.271
 -0.699 -1.547 4.266
 -0.685 -1.544 4.26
 -0.672 -1.544 4.262
 -0.659 -1.544 4.265
 -0.646 -1.543 4.262
 -0.633 -1.544 4.268
 -0.621 -1.546 4.274
 -0.609 -1.547 4.277
 -0.595 -1.545 4.273
 -0.582 -1.544 4.273
 -0.569 -1.544 4.274
 -0.556 -1.544 4.276
 -0.542 -1.54 4.266
 -0.529 -1.541 4.269
 -0.516 -1.54 4.266
 -0.502 -1.537 4.261
 -0.489 -1.535 4.257
 -0.476 -1.537 4.262
 -0.464 -1.538 4.267
 -0.451 -1.54 4.272
 -0.439 -1.541 4.276
 -0.426 -1.54 4.274
 -0.412 -1.538 4.27
 -0.399 -1.536 4.264
 -0.386 -1.534 4.26
 -0.373 -1.533 4.259
 -0.36 -1.533 4.26
 -0.347 -1.534 4.262
 -0.334 -1.533 4.259
 -0.322 -1.534 4.264
 -0.308 -1.532 4.258
 -0.296 -1.533 4.261
 -0.283 -1.534 4.264
 -0.271 -1.535 4.27
 -0.258 -1.534 4.266
 -0.245 -1.535 4.269
 -0.232 -1.535 4.271
 -0.219 -1.533 4.265
 -0.206 -1.533 4.265
 -0.193 -1.533 4.265
 -0.181 -1.532 4.264
 -0.168 -1.531 4.26
 -0.155 -1.533 4.265
 -0.142 -1.531 4.261
 -0.129 -1.529 4.256
 -0.116 -1.53 4.258
 -0.104 -1.529 4.255
 -0.091 -1.528 4.254
 -0.078 -1.529 4.256
 -0.066 -1.53 4.26
 -0.053 -1.53 4.257
 -0.04 -1.53 4.258
 -0.027 -1.53 4.259
 -0.015 -1.529 4.257
 -0.002 -1.529 4.256
 0.01 -1.531 4.26
 0.023 -1.532 4.264
 0.035 -1.531 4.26
 0.048 -1.531 4.261
 0.061 -1.531 4.26
 0.074 -1.529 4.255
 0.086 -1.529 4.254
 0.099 -1.531 4.257
 0.112 -1.53 4.255
 0.124 -1.528 4.249
 0.137 -1.528 4.249
 0.15 -1.526 4.242
 0.162 -1.523 4.235
 0.175 -1.524 4.235
 0.188 -1.524 4.235
 0.2 -1.525 4.237
 0.213 -1.528 4.244
 0.226 -1.529 4.247
 0.239 -1.53 4.248
 0.252 -1.531 4.25
 0.265 -1.53 4.247
 0.277 -1.529 4.244
 0.29 -1.529 4.244
 0.302 -1.528 4.241
 0.315 -1.528 4.239
 0.328 -1.529 4.239
 0.341 -1.529 4.241
 0.354 -1.53 4.241
 0.367 -1.532 4.245
 0.38 -1.534 4.249
 0.393 -1.535 4.251
 0.406 -1.535 4.249
 0.418 -1.534 4.247
 0.431 -1.534 4.246
 0.444 -1.534 4.244
 0.456 -1.534 4.243
 0.47 -1.535 4.245
 0.482 -1.535 4.244
 0.495 -1.536 4.243
 0.508 -1.535 4.241
 0.521 -1.536 4.24
 0.533 -1.536 4.239
 0.546 -1.536 4.238
 0.559 -1.536 4.238
 0.573 -1.538 4.24
 0.585 -1.538 4.239
 0.598 -1.538 4.236
 0.611 -1.538 4.237
 0.624 -1.54 4.238
 0.637 -1.539 4.234
 0.65 -1.54 4.235
 0.662 -1.539 4.23
 0.675 -1.539 4.229
 0.688 -1.54 4.229
 0.701 -1.54 4.228
 0.714 -1.541 4.228
 0.728 -1.544 4.235
 0.742 -1.546 4.237
 0.754 -1.545 4.234
 0.769 -1.548 4.239
 0.781 -1.548 4.237
 0.794 -1.547 4.233
 0.806 -1.545 4.224
 0.818 -1.545 4.222
 0.832 -1.545 4.222
 0.844 -1.545 4.218
 0.858 -1.546 4.22
 0.872 -1.549 4.225
 0.885 -1.549 4.222
 0.898 -1.549 4.22
 0.912 -1.551 4.222
 0.925 -1.552 4.221
 0.938 -1.553 4.222
 0.952 -1.553 4.221
 0.965 -1.554 4.22
 0.979 -1.555 4.221
 0.992 -1.557 4.222
 1.005 -1.556 4.216
 1.018 -1.557 4.218
 1.031 -1.556 4.212
 1.044 -1.557 4.211
 1.056 -1.556 4.206
 1.072 -1.561 4.216
 1.086 -1.562 4.216
 1.1 -1.564 4.217
 1.113 -1.564 4.214
 1.126 -1.564 4.212
 1.138 -1.562 4.204
 1.152 -1.563 4.204
 1.165 -1.564 4.202
 1.179 -1.566 4.204
 1.194 -1.569 4.208
 1.207 -1.569 4.204
 1.221 -1.569 4.202
 1.235 -1.57 4.202
 1.249 -1.572 4.203
 1.261 -1.571 4.198
 1.275 -1.573 4.197
 1.288 -1.572 4.192
 1.303 -1.574 4.194
 1.315 -1.573 4.188
 1.329 -1.575 4.189
 1.345 -1.578 4.193
 1.361 -1.581 4.198
 1.373 -1.581 4.192
 1.389 -1.584 4.197
 1.402 -1.584 4.193
 1.416 -1.584 4.19
 1.429 -1.584 4.186
 1.445 -1.587 4.19
 1.459 -1.589 4.189
 1.472 -1.588 4.184
 1.484 -1.588 4.179
 1.498 -1.588 4.175
 1.511 -1.588 4.171
 1.525 -1.589 4.168
 1.539 -1.59 4.167
 1.555 -1.593 4.17
 1.57 -1.595 4.171
 1.583 -1.595 4.167
 1.598 -1.596 4.165
 1.613 -1.598 4.165
 1.626 -1.598 4.161
 1.64 -1.599 4.158
 1.654 -1.6 4.155
 1.666 -1.599 4.149
 1.681 -1.6 4.146
 1.692 -1.598 4.137
 1.704 -1.598 4.13
 1.717 -1.597 4.124
 1.731 -1.598 4.12
 1.744 -1.598 4.114
 1.759 -1.6 4.114
 1.774 -1.601 4.114
 1.789 -1.603 4.113
 1.801 -1.602 4.105
 1.81 -1.598 4.09
 1.82 -1.595 4.077
 1.828 -1.591 4.061
 1.837 -1.587 4.045
 1.844 -1.582 4.027
 1.851 -1.577 4.009
 1.856 -1.57 3.985
 1.862 -1.565 3.966
 1.867 -1.558 3.944
 1.874 -1.553 3.925
 1.877 -1.545 3.899
 1.887 -1.543 3.888
 1.889 -1.534 3.86
 1.888 -1.523 3.827
 1.891 -1.516 3.803
 1.9 -1.513 3.789
 1.899 -1.503 3.758
 1.899 -1.493 3.727
 1.908 -1.49 3.715
 1.91 -1.482 3.69
 0 0 0
 0 0 0
 0 0 0
 0 0 0
 0 0 0
 0 0 0
 0 0 0
 0 0 0
 0 0 0
 0 0 0
 0 0 0
 0 0 0
 1.815 -1.301 3.168
 1.833 -1.307 3.176
 1.842 -1.305 3.167
 1.847 -1.301 3.151
 1.85 -1.295 3.132
 1.852 -1.29 3.112
 1.848 -1.28 3.082
 1.841 -1.268 3.047
 1.838 -1.259 3.021
 1.792 -1.22 2.922
 -2.361 -1.611 3.994
 0 0 0
 -2.322 -1.603 3.987
 -2.314 -1.607 4.005
 -2.293 -1.602 3.997
 -2.276 -1.6 3.999
 -2.263 -1.6 4.007
 -2.254 -1.603 4.021
 -2.238 -1.601 4.023
 -2.235 -1.609 4.049
 -2.226 -1.613 4.064
 -2.216 -1.615 4.077
 -2.21 -1.621 4.097
 -2.197 -1.621 4.105
 -2.175 -1.616 4.096
 -2.159 -1.614 4.098
 -2.146 -1.614 4.106
 -2.126 -1.61 4.1
 -2.111 -1.609 4.103
 -2.099 -1.61 4.113
 -2.086 -1.61 4.119
 -2.072 -1.611 4.126
 -2.061 -1.613 4.137
 -2.048 -1.613 4.145
 -2.034 -1.613 4.149
 -2.021 -1.613 4.156
 -2.004 -1.611 4.155
 -1.988 -1.609 4.156
 -1.976 -1.611 4.166
 -1.964 -1.612 4.175
 -1.95 -1.611 4.178
 -1.936 -1.612 4.185
 -1.92 -1.609 4.184
 -1.903 -1.607 4.183
 -1.888 -1.605 4.183
 -1.87 -1.602 4.181
 -1.857 -1.602 4.185
 -1.848 -1.606 4.202
 -1.836 -1.608 4.211
 -1.823 -1.609 4.218
 -1.813 -1.611 4.23
 -1.796 -1.609 4.228
 -1.779 -1.605 4.224
 -1.762 -1.602 4.221
 -1.747 -1.601 4.222
 -1.731 -1.599 4.222
 -1.716 -1.598 4.223
 -1.704 -1.599 4.231
 -1.691 -1.6 4.238
 -1.672 -1.595 4.229
 -1.657 -1.594 4.23
 -1.647 -1.597 4.243
 -1.632 -1.595 4.243
 -1.616 -1.592 4.24
 -1.607 -1.597 4.258
 -1.595 -1.599 4.265
 -1.579 -1.597 4.265
 -1.565 -1.596 4.266
 -1.554 -1.598 4.277
 -1.537 -1.595 4.273
 -1.521 -1.593 4.27
 -1.503 -1.588 4.262
 -1.489 -1.587 4.262
 -1.474 -1.586 4.264
 -1.462 -1.587 4.269
 -1.448 -1.587 4.274
 -1.436 -1.588 4.282
 -1.423 -1.588 4.286
 -1.408 -1.587 4.286
 -1.393 -1.585 4.285
 -1.377 -1.582 4.28
 -1.363 -1.581 4.281
 -1.349 -1.58 4.282
 -1.331 -1.575 4.271
 -1.316 -1.573 4.269
 -1.302 -1.573 4.271
 -1.287 -1.57 4.268
 -1.272 -1.569 4.267
 -1.26 -1.57 4.274
 -1.246 -1.569 4.273
 -1.232 -1.569 4.276
 -1.22 -1.57 4.282
 -1.204 -1.567 4.277
 -1.19 -1.566 4.278
 -1.177 -1.566 4.28
 -1.164 -1.566 4.285
 -1.149 -1.564 4.282
 -1.137 -1.566 4.289
 -1.123 -1.564 4.288
 -1.11 -1.565 4.291
 -1.094 -1.56 4.283
 -1.08 -1.56 4.284
 -1.065 -1.557 4.28
 -1.051 -1.556 4.279
 -1.036 -1.554 4.275
 -1.023 -1.554 4.277
 -1.009 -1.552 4.274
 -0.996 -1.553 4.28
 -0.982 -1.551 4.277
 -0.97 -1.552 4.283
 -0.956 -1.552 4.284
 -0.944 -1.553 4.289
 -0.931 -1.553 4.291
 -0.917 -1.553 4.293
 -0.901 -1.548 4.281
 -0.888 -1.547 4.282
 -0.874 -1.545 4.28
 -0.859 -1.542 4.273
 -0.846 -1.542 4.274
 -0.834 -1.545 4.283
 -0.821 -1.544 4.283
 -0.807 -1.543 4.282
 -0.795 -1.543 4.285
 -0.782 -1.543 4.287
 -0.767 -1.541 4.282
 -0.753 -1.539 4.279
 -0.74 -1.537 4.276
 -0.726 -1.535 4.272
 -0.712 -1.534 4.27
 -0.698 -1.533 4.267
 -0.685 -1.53 4.263
 -0.672 -1.531 4.267
 -0.659 -1.531 4.267
 -0.646 -1.53 4.267
 -0.633 -1.531 4.271
 -0.621 -1.533 4.277
 -0.608 -1.532 4.276
 -0.594 -1.531 4.274
 -0.581 -1.53 4.273
 -0.568 -1.53 4.275
 -0.555 -1.529 4.272
 -0.541 -1.525 4.263
 -0.528 -1.526 4.266
 -0.514 -1.524 4.261
 -0.501 -1.523 4.26
 -0.489 -1.523 4.261
 -0.477 -1.525 4.269
 -0.464 -1.526 4.272
 -0.451 -1.527 4.277
 -0.439 -1.528 4.279
 -0.425 -1.527 4.277
 -0.412 -1.523 4.269
 -0.398 -1.522 4.264
 -0.385 -1.52 4.26
 -0.372 -1.519 4.258
 -0.359 -1.518 4.256
 -0.347 -1.519 4.26
 -0.334 -1.519 4.26
 -0.321 -1.521 4.266
 -0.308 -1.518 4.26
 -0.295 -1.519 4.263
 -0.283 -1.521 4.269
 -0.27 -1.522 4.271
 -0.257 -1.521 4.269
 -0.245 -1.523 4.276
 -0.232 -1.523 4.276
 -0.219 -1.52 4.269
 -0.206 -1.521 4.27
 -0.193 -1.52 4.268
 -0.18 -1.519 4.265
 -0.168 -1.519 4.266
 -0.155 -1.52 4.269
 -0.142 -1.518 4.263
 -0.129 -1.516 4.259
 -0.116 -1.517 4.261
 -0.104 -1.515 4.256
 -0.091 -1.515 4.256
 -0.078 -1.516 4.259
 -0.065 -1.518 4.263
 -0.053 -1.516 4.259
 -0.04 -1.516 4.259
 -0.027 -1.516 4.257
 -0.014 -1.515 4.256
 -0.002 -1.515 4.257
 0.01 -1.517 4.261
 0.023 -1.518 4.265
 0.036 -1.518 4.264
 0.048 -1.518 4.263
 0.061 -1.518 4.264
 0.074 -1.516 4.258
 0.087 -1.517 4.26
 0.099 -1.518 4.261
 0.112 -1.516 4.257
 0.124 -1.514 4.249
 0.137 -1.515 4.251
 0.15 -1.511 4.24
 0.162 -1.508 4.232
 0.175 -1.51 4.236
 0.188 -1.511 4.238
 0.2 -1.512 4.239
 0.213 -1.515 4.248
 0.227 -1.517 4.253
 0.239 -1.517 4.252
 0.252 -1.517 4.251
 0.265 -1.517 4.25
 0.277 -1.516 4.247
 0.29 -1.516 4.247
 0.302 -1.516 4.244
 0.315 -1.516 4.245
 0.328 -1.517 4.245
 0.341 -1.516 4.244
 0.354 -1.517 4.244
 0.367 -1.519 4.25
 0.38 -1.521 4.253
 0.393 -1.521 4.251
 0.406 -1.521 4.252
 0.418 -1.522 4.251
 0.431 -1.521 4.249
 0.444 -1.521 4.246
 0.457 -1.521 4.247
 0.47 -1.522 4.247
 0.482 -1.522 4.245
 0.495 -1.521 4.243
 0.508 -1.522 4.244
 0.521 -1.523 4.244
 0.534 -1.523 4.243
 0.547 -1.524 4.245
 0.56 -1.526 4.249
 0.573 -1.527 4.251
 0.586 -1.526 4.245
 0.599 -1.527 4.245
 0.611 -1.526 4.242
 0.624 -1.526 4.24
 0.636 -1.525 4.236
 0.65 -1.526 4.237
 0.662 -1.525 4.231
 0.674 -1.525 4.229
 0.688 -1.526 4.23
 0.701 -1.526 4.229
 0.714 -1.526 4.228
 0.727 -1.529 4.233
 0.741 -1.531 4.238
 0.754 -1.532 4.237
 0.768 -1.534 4.241
 0.781 -1.534 4.239
 0.794 -1.534 4.236
 0.806 -1.532 4.229
 0.818 -1.531 4.223
 0.831 -1.532 4.224
 0.844 -1.533 4.223
 0.858 -1.535 4.227
 0.873 -1.537 4.231
 0.886 -1.538 4.232
 0.899 -1.539 4.231
 0.913 -1.54 4.231
 0.925 -1.538 4.224
 0.938 -1.539 4.224
 0.951 -1.539 4.22
 0.964 -1.539 4.218
 0.978 -1.541 4.222
 0.992 -1.543 4.223
 1.004 -1.542 4.219
 1.019 -1.545 4.224
 1.032 -1.546 4.223
 1.045 -1.546 4.221
 1.059 -1.547 4.221
 1.074 -1.551 4.227
 1.087 -1.55 4.224
 1.101 -1.551 4.223
 1.113 -1.551 4.219
 1.126 -1.551 4.216
 1.139 -1.551 4.213
 1.154 -1.553 4.214
 1.167 -1.554 4.214
 1.182 -1.556 4.216
 1.196 -1.558 4.219
 1.21 -1.558 4.216
 1.223 -1.558 4.212
 1.235 -1.558 4.207
 1.249 -1.559 4.207
 1.262 -1.559 4.203
 1.275 -1.559 4.201
 1.288 -1.559 4.197
 1.303 -1.562 4.201
 1.316 -1.561 4.195
 1.331 -1.563 4.197
 1.346 -1.566 4.199
 1.361 -1.568 4.203
 1.374 -1.568 4.197
 1.39 -1.571 4.202
 1.403 -1.572 4.2
 1.417 -1.573 4.198
 1.431 -1.573 4.197
 1.446 -1.576 4.198
 1.46 -1.577 4.197
 1.472 -1.576 4.19
 1.486 -1.576 4.186
 1.499 -1.576 4.183
 1.514 -1.578 4.183
 1.527 -1.578 4.179
 1.542 -1.58 4.179
 1.557 -1.582 4.18
 1.573 -1.584 4.182
 1.585 -1.584 4.177
 1.601 -1.586 4.178
 1.615 -1.587 4.176
 1.629 -1.588 4.174
 1.643 -1.588 4.17
 1.657 -1.59 4.168
 1.669 -1.589 4.16
 1.685 -1.591 4.162
 1.696 -1.589 4.152
 1.71 -1.589 4.147
 1.722 -1.589 4.141
 1.736 -1.589 4.136
 1.749 -1.589 4.132
 1.767 -1.593 4.136
 1.782 -1.595 4.137
 1.799 -1.598 4.139
 1.811 -1.597 4.132
 1.819 -1.593 4.115
 1.828 -1.589 4.1
 1.836 -1.584 4.081
 1.842 -1.579 4.061
 1.851 -1.575 4.046
 1.858 -1.57 4.028
 1.862 -1.562 4.003
 1.869 -1.557 3.984
 1.87 -1.548 3.954
 1.875 -1.541 3.932
 1.879 -1.534 3.908
 1.887 -1.53 3.892
 1.889 -1.521 3.864
 1.893 -1.514 3.841
 1.895 -1.506 3.814
 1.903 -1.503 3.799
 1.903 -1.493 3.77
 1.91 -1.488 3.752
 1.924 -1.49 3.751
 0 0 0
 0 0 0
 0 0 0
 0 0 0
 0 0 0
 0 0 0
 0 0 0
 0 0 0
 0 0 0
 0 0 0
 0 0 0
 0 0 0
 0 0 0
 1.815 -1.291 3.172
 1.833 -1.295 3.178
 1.842 -1.294 3.17
 1.848 -1.291 3.157
 1.851 -1.286 3.138
 1.855 -1.281 3.121
 1.851 -1.271 3.091
 1.845 -1.26 3.058
 1.861 -1.264 3.062
 1.805 -1.219 2.947
 -2.342 -1.584 3.966
 -2.362 -1.607 4.03
 -2.335 -1.598 4.014
 -2.33 -1.605 4.037
 -2.312 -1.601 4.036
 -2.302 -1.604 4.049
 -2.288 -1.604 4.055
 -2.276 -1.606 4.066
 -2.259 -1.603 4.065
 -2.255 -1.61 4.091
 -2.242 -1.611 4.099
 -2.234 -1.615 4.115
 -2.223 -1.617 4.127
 -2.211 -1.618 4.137
 -2.192 -1.615 4.134
 -2.175 -1.612 4.133
 -2.16 -1.612 4.139
 -2.145 -1.611 4.142
 -2.129 -1.609 4.144
 -2.113 -1.607 4.145
 -2.102 -1.609 4.156
 -2.088 -1.609 4.162
 -2.076 -1.611 4.172
 -2.063 -1.612 4.18
 -2.049 -1.611 4.184
 -2.034 -1.61 4.188
 -2.019 -1.609 4.191
 -2.001 -1.606 4.189
 -1.99 -1.608 4.2
 -1.981 -1.612 4.215
 -1.967 -1.612 4.219
 -1.951 -1.61 4.222
 -1.934 -1.608 4.22
 -1.916 -1.604 4.215
 -1.898 -1.6 4.212
 -1.881 -1.597 4.209
 -1.866 -1.596 4.21
 -1.857 -1.601 4.227
 -1.844 -1.601 4.234
 -1.831 -1.602 4.241
 -1.82 -1.604 4.251
 -1.804 -1.602 4.253
 -1.788 -1.6 4.251
 -1.771 -1.597 4.249
 -1.756 -1.596 4.25
 -1.743 -1.596 4.255
 -1.727 -1.594 4.254
 -1.713 -1.594 4.259
 -1.699 -1.594 4.263
 -1.682 -1.59 4.258
 -1.666 -1.588 4.256
 -1.655 -1.591 4.269
 -1.639 -1.589 4.267
 -1.623 -1.587 4.266
 -1.614 -1.59 4.28
 -1.6 -1.59 4.284
 -1.583 -1.587 4.279
 -1.568 -1.585 4.279
 -1.556 -1.587 4.288
 -1.54 -1.585 4.285
 -1.523 -1.582 4.281
 -1.507 -1.578 4.277
 -1.493 -1.578 4.278
 -1.478 -1.576 4.279
 -1.464 -1.575 4.28
 -1.451 -1.576 4.286
 -1.439 -1.578 4.294
 -1.425 -1.577 4.296
 -1.41 -1.576 4.297
 -1.396 -1.575 4.297
 -1.379 -1.572 4.292
 -1.364 -1.57 4.29
 -1.349 -1.568 4.289
 -1.334 -1.565 4.285
 -1.318 -1.563 4.282
 -1.305 -1.563 4.286
 -1.29 -1.561 4.284
 -1.276 -1.56 4.283
 -1.262 -1.56 4.286
 -1.247 -1.558 4.284
 -1.232 -1.556 4.281
 -1.219 -1.556 4.285
 -1.206 -1.555 4.286
 -1.192 -1.555 4.287
 -1.178 -1.554 4.289
 -1.165 -1.554 4.292
 -1.15 -1.552 4.288
 -1.136 -1.551 4.288
 -1.121 -1.549 4.286
 -1.109 -1.55 4.291
 -1.095 -1.549 4.291
 -1.081 -1.548 4.293
 -1.067 -1.547 4.292
 -1.053 -1.546 4.291
 -1.038 -1.543 4.285
 -1.023 -1.54 4.28
 -1.008 -1.538 4.277
 -0.995 -1.538 4.28
 -0.981 -1.536 4.277
 -0.967 -1.536 4.277
 -0.954 -1.535 4.278
 -0.942 -1.537 4.285
 -0.929 -1.536 4.286
 -0.915 -1.535 4.284
 -0.9 -1.533 4.28
 -0.887 -1.532 4.28
 -0.873 -1.53 4.277
 -0.858 -1.527 4.271
 -0.845 -1.528 4.274
 -0.834 -1.53 4.283
 -0.82 -1.53 4.285
 -0.807 -1.529 4.284
 -0.794 -1.529 4.287
 -0.781 -1.53 4.29
 -0.767 -1.527 4.283
 -0.753 -1.526 4.281
 -0.739 -1.524 4.278
 -0.725 -1.522 4.275
 -0.712 -1.521 4.272
 -0.698 -1.519 4.268
 -0.684 -1.517 4.264
 -0.672 -1.518 4.27
 -0.658 -1.517 4.268
 -0.645 -1.516 4.267
 -0.633 -1.517 4.272
 -0.621 -1.52 4.28
 -0.608 -1.519 4.279
 -0.594 -1.517 4.275
 -0.581 -1.517 4.277
 -0.568 -1.517 4.277
 -0.554 -1.514 4.271
 -0.54 -1.511 4.265
 -0.528 -1.513 4.271
 -0.515 -1.512 4.269
 -0.502 -1.511 4.266
 -0.489 -1.511 4.267
 -0.477 -1.513 4.276
 -0.464 -1.513 4.277
 -0.451 -1.514 4.279
 -0.439 -1.515 4.283
 -0.426 -1.514 4.282
 -0.412 -1.51 4.272
 -0.398 -1.509 4.269
 -0.385 -1.507 4.264
 -0.372 -1.507 4.266
 -0.359 -1.505 4.26
 -0.347 -1.506 4.264
 -0.334 -1.507 4.266
 -0.321 -1.507 4.268
 -0.308 -1.505 4.262
 -0.296 -1.507 4.269
 -0.283 -1.509 4.276
 -0.27 -1.509 4.275
 -0.258 -1.509 4.276
 -0.245 -1.511 4.282
 -0.232 -1.51 4.28
 -0.219 -1.507 4.273
 -0.206 -1.508 4.275
 -0.193 -1.508 4.274
 -0.18 -1.506 4.269
 -0.168 -1.506 4.27
 -0.155 -1.507 4.272
 -0.142 -1.504 4.264
 -0.129 -1.502 4.258
 -0.116 -1.502 4.258
 -0.103 -1.5 4.254
 -0.091 -1.502 4.259
 -0.078 -1.503 4.261
 -0.065 -1.504 4.266
 -0.053 -1.503 4.261
 -0.04 -1.502 4.259
 -0.027 -1.501 4.257
 -0.014 -1.501 4.256
 -0.002 -1.501 4.257
 0.01 -1.504 4.264
 0.023 -1.505 4.268
 0.036 -1.504 4.264
 0.048 -1.505 4.265
 0.061 -1.504 4.264
 0.074 -1.502 4.256
 0.087 -1.504 4.262
 0.099 -1.505 4.265
 0.112 -1.504 4.261
 0.124 -1.501 4.253
 0.137 -1.502 4.255
 0.15 -1.499 4.245
 0.162 -1.497 4.238
 0.175 -1.498 4.243
 0.188 -1.499 4.245
 0.201 -1.5 4.247
 0.214 -1.503 4.254
 0.227 -1.504 4.258
 0.239 -1.504 4.255
 0.252 -1.504 4.255
 0.265 -1.503 4.251
 0.277 -1.502 4.246
 0.29 -1.501 4.244
 0.302 -1.501 4.243
 0.315 -1.501 4.242
 0.328 -1.503 4.246
 0.341 -1.502 4.244
 0.354 -1.503 4.246
 0.367 -1.505 4.249
 0.38 -1.506 4.252
 0.392 -1.505 4.247
 0.405 -1.506 4.248
 0.418 -1.505 4.246
 0.43 -1.505 4.245
 0.443 -1.505 4.243
 0.456 -1.507 4.248
 0.469 -1.508 4.249
 0.482 -1.508 4.246
 0.494 -1.507 4.242
 0.507 -1.507 4.242
 0.52 -1.508 4.241
 0.533 -1.509 4.243
 0.546 -1.51 4.244
 0.56 -1.512 4.25
 0.573 -1.513 4.25
 0.585 -1.512 4.246
 0.598 -1.512 4.244
 0.611 -1.512 4.242
 0.623 -1.512 4.239
 0.637 -1.513 4.241
 0.65 -1.513 4.24
 0.662 -1.512 4.236
 0.675 -1.513 4.235
 0.688 -1.513 4.236
 0.701 -1.514 4.234
 0.714 -1.515 4.236
 0.728 -1.517 4.241
 0.742 -1.519 4.243
 0.755 -1.52 4.243
 0.768 -1.52 4.243
 0.781 -1.52 4.239
 0.793 -1.519 4.236
 0.806 -1.519 4.232
 0.818 -1.518 4.227
 0.832 -1.521 4.232
 0.846 -1.522 4.232
 0.86 -1.524 4.237
 0.874 -1.526 4.241
 0.887 -1.528 4.242
 0.9 -1.527 4.239
 0.914 -1.529 4.24
 0.925 -1.526 4.231
 0.939 -1.527 4.23
 0.951 -1.526 4.226
 0.963 -1.526 4.221
 0.977 -1.527 4.223
 0.991 -1.529 4.225
 1.003 -1.528 4.218
 1.019 -1.532 4.227
 1.032 -1.533 4.227
 1.046 -1.534 4.227
 1.06 -1.536 4.229
 1.075 -1.538 4.233
 1.087 -1.537 4.226
 1.101 -1.538 4.227
 1.113 -1.538 4.223
 1.127 -1.538 4.221
 1.14 -1.539 4.219
 1.155 -1.541 4.222
 1.169 -1.543 4.223
 1.183 -1.544 4.223
 1.197 -1.545 4.224
 1.211 -1.546 4.223
 1.224 -1.546 4.22
 1.236 -1.545 4.214
 1.25 -1.547 4.215
 1.264 -1.548 4.213
 1.277 -1.548 4.21
 1.29 -1.548 4.207
 1.305 -1.551 4.211
 1.317 -1.55 4.204
 1.332 -1.551 4.205
 1.346 -1.553 4.205
 1.362 -1.556 4.209
 1.374 -1.555 4.204
 1.391 -1.559 4.211
 1.405 -1.56 4.209
 1.419 -1.561 4.208
 1.432 -1.561 4.204
 1.446 -1.563 4.203
 1.46 -1.563 4.201
 1.473 -1.563 4.196
 1.487 -1.564 4.195
 1.5 -1.564 4.19
 1.516 -1.567 4.193
 1.529 -1.566 4.188
 1.544 -1.568 4.189
 1.558 -1.569 4.187
 1.575 -1.574 4.194
 1.588 -1.573 4.187
 1.604 -1.576 4.191
 1.618 -1.577 4.188
 1.632 -1.577 4.184
 1.643 -1.576 4.175
 1.658 -1.577 4.175
 1.669 -1.575 4.165
 1.685 -1.578 4.166
 1.699 -1.578 4.163
 1.713 -1.579 4.159
 1.726 -1.579 4.154
 1.74 -1.579 4.151
 1.754 -1.58 4.146
 1.771 -1.583 4.151
 1.787 -1.586 4.153
 1.802 -1.588 4.151
 1.816 -1.588 4.148
 1.825 -1.584 4.131
 1.833 -1.58 4.114
 1.839 -1.574 4.094
 1.846 -1.568 4.073
 1.855 -1.565 4.059
 1.863 -1.56 4.042
 1.867 -1.553 4.017
 1.871 -1.546 3.993
 1.874 -1.538 3.966
 1.876 -1.529 3.937
 1.878 -1.52 3.909
 1.882 -1.513 3.885
 1.887 -1.507 3.864
 1.89 -1.5 3.84
 1.894 -1.492 3.816
 1.901 -1.489 3.8
 1.907 -1.483 3.781
 1.912 -1.478 3.762
 0 0 0
 0 0 0
 0 0 0
 0 0 0
 0 0 0
 0 0 0
 0 0 0
 0 0 0
 0 0 0
 0 0 0
 0 0 0
 0 0 0
 0 0 0
 0 0 0
 1.814 -1.279 3.173
 1.83 -1.283 3.178
 1.839 -1.282 3.169
 1.847 -1.279 3.159
 1.85 -1.274 3.139
 1.854 -1.27 3.123
 1.852 -1.261 3.096
 1.845 -1.249 3.062
 1.852 -1.247 3.05
 1.854 -1.241 3.031
 0 0 0
 -2.378 -1.605 4.063
 -2.356 -1.599 4.056
 -2.358 -1.61 4.09
 -2.339 -1.607 4.089
 -2.329 -1.609 4.102
 -2.321 -1.613 4.118
 -2.307 -1.613 4.127
 -2.292 -1.613 4.131
 -2.283 -1.616 4.147
 -2.268 -1.615 4.151
 -2.256 -1.616 4.16
 -2.239 -1.615 4.162
 -2.222 -1.612 4.163
 -2.205 -1.61 4.162
 -2.187 -1.607 4.161
 -2.17 -1.605 4.162
 -2.157 -1.606 4.17
 -2.144 -1.606 4.177
 -2.128 -1.605 4.18
 -2.12 -1.609 4.196
 -2.105 -1.609 4.202
 -2.092 -1.609 4.208
 -2.077 -1.608 4.212
 -2.062 -1.607 4.216
 -2.046 -1.606 4.218
 -2.033 -1.606 4.225
 -2.015 -1.603 4.223
 -2.002 -1.604 4.231
 -1.99 -1.606 4.24
 -1.973 -1.603 4.239
 -1.958 -1.602 4.241
 -1.943 -1.601 4.244
 -1.929 -1.601 4.248
 -1.914 -1.6 4.252
 -1.897 -1.598 4.251
 -1.882 -1.596 4.252
 -1.871 -1.599 4.264
 -1.856 -1.598 4.266
 -1.84 -1.596 4.267
 -1.827 -1.597 4.274
 -1.812 -1.596 4.276
 -1.794 -1.592 4.271
 -1.778 -1.59 4.269
 -1.763 -1.588 4.271
 -1.751 -1.59 4.28
 -1.733 -1.586 4.275
 -1.72 -1.587 4.28
 -1.705 -1.586 4.282
 -1.688 -1.583 4.279
 -1.672 -1.58 4.276
 -1.661 -1.583 4.288
 -1.645 -1.581 4.287
 -1.628 -1.578 4.284
 -1.618 -1.581 4.295
 -1.603 -1.579 4.296
 -1.586 -1.576 4.291
 -1.57 -1.574 4.289
 -1.558 -1.576 4.299
 -1.542 -1.573 4.295
 -1.526 -1.571 4.294
 -1.511 -1.569 4.292
 -1.497 -1.569 4.296
 -1.482 -1.568 4.296
 -1.467 -1.566 4.295
 -1.453 -1.565 4.296
 -1.439 -1.565 4.3
 -1.424 -1.563 4.3
 -1.41 -1.562 4.3
 -1.397 -1.563 4.305
 -1.381 -1.561 4.303
 -1.366 -1.559 4.301
 -1.352 -1.557 4.3
 -1.336 -1.555 4.298
 -1.32 -1.552 4.293
 -1.306 -1.551 4.292
 -1.291 -1.549 4.292
 -1.277 -1.549 4.294
 -1.264 -1.548 4.295
 -1.25 -1.548 4.298
 -1.236 -1.548 4.3
 -1.223 -1.547 4.301
 -1.207 -1.545 4.298
 -1.193 -1.542 4.295
 -1.178 -1.541 4.293
 -1.165 -1.541 4.296
 -1.15 -1.539 4.293
 -1.135 -1.537 4.292
 -1.122 -1.536 4.292
 -1.109 -1.537 4.297
 -1.094 -1.535 4.294
 -1.081 -1.534 4.295
 -1.068 -1.535 4.299
 -1.053 -1.533 4.297
 -1.038 -1.531 4.292
 -1.024 -1.529 4.289
 -1.01 -1.527 4.287
 -0.996 -1.526 4.285
 -0.982 -1.525 4.286
 -0.968 -1.524 4.285
 -0.955 -1.523 4.285
 -0.942 -1.524 4.291
 -0.929 -1.524 4.291
 -0.914 -1.521 4.287
 -0.9 -1.519 4.282
 -0.886 -1.517 4.28
 -0.872 -1.517 4.28
 -0.858 -1.514 4.273
 -0.845 -1.515 4.279
 -0.834 -1.517 4.288
 -0.821 -1.518 4.291
 -0.807 -1.516 4.287
 -0.794 -1.516 4.291
 -0.78 -1.515 4.289
 -0.766 -1.512 4.283
 -0.752 -1.511 4.282
 -0.739 -1.51 4.279
 -0.725 -1.509 4.279
 -0.711 -1.507 4.274
 -0.698 -1.505 4.271
 -0.684 -1.504 4.268
 -0.672 -1.505 4.274
 -0.658 -1.504 4.272
 -0.646 -1.506 4.278
 -0.633 -1.506 4.281
 -0.621 -1.508 4.287
 -0.608 -1.507 4.286
 -0.594 -1.505 4.281
 -0.581 -1.504 4.281
 -0.568 -1.504 4.282
 -0.554 -1.501 4.274
 -0.54 -1.498 4.267
 -0.528 -1.501 4.276
 -0.515 -1.5 4.276
 -0.502 -1.498 4.271
 -0.489 -1.498 4.272
 -0.477 -1.501 4.281
 -0.464 -1.5 4.279
 -0.451 -1.499 4.277
 -0.438 -1.5 4.282
 -0.425 -1.499 4.28
 -0.411 -1.496 4.272
 -0.398 -1.494 4.267
 -0.385 -1.493 4.264
 -0.372 -1.493 4.264
 -0.359 -1.491 4.261
 -0.346 -1.492 4.265
 -0.334 -1.494 4.269
 -0.321 -1.494 4.269
 -0.308 -1.491 4.264
 -0.295 -1.493 4.269
 -0.283 -1.495 4.276
 -0.27 -1.494 4.273
 -0.257 -1.494 4.275
 -0.245 -1.496 4.28
 -0.232 -1.495 4.278
 -0.218 -1.492 4.27
 -0.206 -1.494 4.274
 -0.193 -1.493 4.273
 -0.18 -1.492 4.269
 -0.168 -1.493 4.274
 -0.155 -1.494 4.275
 -0.142 -1.491 4.268
 -0.129 -1.49 4.264
 -0.116 -1.49 4.265
 -0.103 -1.488 4.26
 -0.091 -1.491 4.267
 -0.078 -1.492 4.271
 -0.065 -1.494 4.276
 -0.053 -1.491 4.269
 -0.04 -1.49 4.266
 -0.027 -1.489 4.262
 -0.014 -1.488 4.258
 -0.002 -1.487 4.257
 0.01 -1.49 4.266
 0.023 -1.491 4.268
 0.036 -1.491 4.266
 0.048 -1.492 4.27
 0.061 -1.492 4.271
 0.074 -1.491 4.265
 0.087 -1.491 4.267
 0.099 -1.492 4.268
 0.112 -1.492 4.267
 0.125 -1.489 4.259
 0.137 -1.49 4.26
 0.15 -1.488 4.253
 0.162 -1.485 4.245
 0.175 -1.485 4.245
 0.188 -1.486 4.248
 0.201 -1.487 4.25
 0.214 -1.49 4.256
 0.227 -1.491 4.26
 0.239 -1.492 4.262
 0.252 -1.491 4.259
 0.265 -1.491 4.256
 0.277 -1.489 4.252
 0.29 -1.489 4.249
 0.302 -1.488 4.246
 0.315 -1.489 4.247
 0.328 -1.491 4.251
 0.341 -1.49 4.249
 0.354 -1.491 4.252
 0.367 -1.492 4.251
 0.38 -1.493 4.253
 0.392 -1.491 4.247
 0.405 -1.491 4.246
 0.417 -1.49 4.242
 0.43 -1.491 4.243
 0.443 -1.492 4.244
 0.456 -1.494 4.248
 0.47 -1.496 4.254
 0.482 -1.496 4.254
 0.495 -1.496 4.25
 0.507 -1.495 4.246
 0.52 -1.495 4.245
 0.532 -1.494 4.24
 0.545 -1.494 4.24
 0.559 -1.496 4.244
 0.572 -1.497 4.246
 0.585 -1.497 4.244
 0.598 -1.498 4.246
 0.611 -1.499 4.247
 0.624 -1.5 4.246
 0.637 -1.5 4.244
 0.65 -1.5 4.244
 0.662 -1.499 4.239
 0.675 -1.499 4.236
 0.687 -1.499 4.235
 0.7 -1.5 4.235
 0.714 -1.501 4.236
 0.728 -1.503 4.241
 0.741 -1.504 4.242
 0.754 -1.506 4.243
 0.767 -1.505 4.24
 0.779 -1.504 4.235
 0.792 -1.504 4.232
 0.805 -1.505 4.233
 0.818 -1.505 4.23
 0.833 -1.508 4.237
 0.846 -1.51 4.241
 0.861 -1.513 4.245
 0.875 -1.515 4.248
 0.888 -1.516 4.249
 0.901 -1.516 4.247
 0.915 -1.517 4.248
 0.926 -1.515 4.24
 0.939 -1.515 4.236
 0.952 -1.515 4.234
 0.964 -1.513 4.227
 0.977 -1.514 4.227
 0.991 -1.516 4.228
 1.004 -1.516 4.227
 1.019 -1.518 4.229
 1.032 -1.519 4.229
 1.046 -1.521 4.23
 1.06 -1.523 4.233
 1.073 -1.523 4.231
 1.085 -1.521 4.223
 1.1 -1.524 4.227
 1.112 -1.522 4.22
 1.124 -1.522 4.215
 1.138 -1.523 4.217
 1.155 -1.528 4.226
 1.168 -1.529 4.226
 1.183 -1.531 4.228
 1.197 -1.533 4.23
 1.211 -1.533 4.227
 1.222 -1.531 4.219
 1.234 -1.53 4.211
 1.248 -1.531 4.21
 1.261 -1.531 4.206
 1.274 -1.532 4.206
 1.288 -1.533 4.205
 1.304 -1.536 4.211
 1.316 -1.535 4.204
 1.331 -1.538 4.207
 1.345 -1.539 4.206
 1.36 -1.541 4.209
 1.374 -1.542 4.207
 1.391 -1.546 4.214
 1.406 -1.548 4.216
 1.419 -1.548 4.213
 1.433 -1.549 4.21
 1.446 -1.549 4.207
 1.46 -1.549 4.203
 1.471 -1.548 4.195
 1.486 -1.55 4.196
 1.5 -1.551 4.194
 1.516 -1.553 4.196
 1.529 -1.554 4.193
 1.545 -1.556 4.195
 1.559 -1.557 4.194
 1.576 -1.561 4.199
 1.588 -1.56 4.192
 1.605 -1.563 4.196
 1.619 -1.564 4.194
 1.632 -1.564 4.19
 1.644 -1.563 4.181
 1.659 -1.565 4.181
 1.671 -1.564 4.174
 1.687 -1.566 4.174
 1.701 -1.566 4.171
 1.714 -1.567 4.167
 1.73 -1.569 4.167
 1.743 -1.569 4.162
 1.757 -1.569 4.158
 1.773 -1.572 4.161
 1.789 -1.575 4.162
 1.804 -1.575 4.159
 1.818 -1.576 4.156
 1.828 -1.573 4.143
 1.837 -1.57 4.128
 1.843 -1.564 4.107
 1.849 -1.557 4.085
 1.857 -1.554 4.069
 1.864 -1.548 4.05
 1.868 -1.541 4.025
 1.873 -1.534 4.001
 1.875 -1.525 3.973
 1.878 -1.517 3.946
 1.88 -1.509 3.919
 1.886 -1.503 3.898
 1.892 -1.498 3.88
 1.898 -1.493 3.86
 1.903 -1.487 3.838
 1.914 -1.486 3.83
 1.917 -1.479 3.806
 0 0 0
 0 0 0
 0 0 0
 0 0 0
 0 0 0
 0 0 0
 0 0 0
 0 0 0
 0 0 0
 0 0 0
 0 0 0
 0 0 0
 0 0 0
 0 0 0
 0 0 0
 1.806 -1.262 3.163
 1.826 -1.269 3.175
 1.836 -1.268 3.167
 1.845 -1.267 3.159
 1.846 -1.26 3.136
 1.854 -1.259 3.127
 1.853 -1.251 3.101
 1.848 -1.241 3.07
 1.836 -1.226 3.028
 1.825 -1.211 2.986
 0 0 0
 0 0 0
 -2.402 -1.616 4.14
 -2.39 -1.618 4.151
 -2.376 -1.618 4.158
 -2.364 -1.619 4.168
 -2.347 -1.617 4.17
 -2.329 -1.614 4.17
 -2.314 -1.614 4.176
 -2.302 -1.616 4.186
 -2.285 -1.614 4.188
 -2.269 -1.612 4.191
 -2.252 -1.61 4.192
 -2.236 -1.608 4.193
 -2.219 -1.607 4.195
 -2.202 -1.605 4.196
 -2.186 -1.603 4.198
 -2.175 -1.605 4.209
 -2.162 -1.606 4.218
 -2.145 -1.604 4.218
 -2.135 -1.607 4.232
 -2.118 -1.604 4.232
 -2.104 -1.604 4.238
 -2.086 -1.602 4.236
 -2.072 -1.602 4.242
 -2.055 -1.599 4.241
 -2.042 -1.6 4.248
 -2.025 -1.597 4.247
 -2.011 -1.598 4.254
 -1.998 -1.598 4.262
 -1.983 -1.598 4.265
 -1.969 -1.597 4.27
 -1.953 -1.596 4.272
 -1.94 -1.596 4.277
 -1.926 -1.597 4.284
 -1.908 -1.593 4.28
 -1.893 -1.592 4.281
 -1.879 -1.592 4.287
 -1.863 -1.59 4.288
 -1.846 -1.587 4.285
 -1.833 -1.588 4.292
 -1.816 -1.585 4.29
 -1.799 -1.583 4.287
 -1.781 -1.579 4.281
 -1.765 -1.577 4.281
 -1.752 -1.578 4.288
 -1.736 -1.576 4.288
 -1.723 -1.576 4.293
 -1.708 -1.575 4.296
 -1.693 -1.574 4.296
 -1.677 -1.571 4.294
 -1.664 -1.572 4.3
 -1.649 -1.571 4.301
 -1.633 -1.569 4.301
 -1.62 -1.569 4.306
 -1.605 -1.568 4.306
 -1.589 -1.566 4.305
 -1.572 -1.563 4.3
 -1.558 -1.562 4.302
 -1.543 -1.561 4.303
 -1.527 -1.559 4.301
 -1.511 -1.556 4.297
 -1.497 -1.555 4.299
 -1.483 -1.555 4.302
 -1.467 -1.552 4.299
 -1.453 -1.552 4.301
 -1.438 -1.55 4.301
 -1.424 -1.549 4.302
 -1.409 -1.548 4.303
 -1.396 -1.549 4.308
 -1.38 -1.545 4.302
 -1.366 -1.545 4.305
 -1.352 -1.544 4.305
 -1.337 -1.542 4.303
 -1.32 -1.539 4.297
 -1.306 -1.538 4.299
 -1.291 -1.536 4.296
 -1.277 -1.535 4.297
 -1.263 -1.534 4.298
 -1.25 -1.534 4.3
 -1.236 -1.534 4.304
 -1.222 -1.533 4.303
 -1.207 -1.531 4.3
 -1.193 -1.529 4.3
 -1.178 -1.528 4.299
 -1.165 -1.528 4.302
 -1.151 -1.527 4.301
 -1.136 -1.525 4.297
 -1.121 -1.522 4.294
 -1.108 -1.522 4.296
 -1.092 -1.519 4.291
 -1.079 -1.519 4.294
 -1.066 -1.52 4.297
 -1.052 -1.519 4.297
 -1.038 -1.517 4.294
 -1.024 -1.515 4.292
 -1.01 -1.514 4.292
 -0.997 -1.515 4.296
 -0.984 -1.514 4.297
 -0.969 -1.513 4.294
 -0.955 -1.511 4.292
 -0.942 -1.511 4.293
 -0.927 -1.508 4.289
 -0.913 -1.506 4.285
 -0.899 -1.505 4.283
 -0.885 -1.503 4.279
 -0.872 -1.502 4.281
 -0.858 -1.501 4.277
 -0.845 -1.502 4.284
 -0.834 -1.504 4.291
 -0.821 -1.506 4.298
 -0.807 -1.503 4.293
 -0.794 -1.504 4.295
 -0.779 -1.5 4.288
 -0.765 -1.497 4.279
 -0.751 -1.495 4.277
 -0.737 -1.494 4.276
 -0.724 -1.494 4.277
 -0.711 -1.494 4.277
 -0.698 -1.493 4.276
 -0.685 -1.492 4.276
 -0.672 -1.493 4.281
 -0.659 -1.493 4.28
 -0.646 -1.492 4.28
 -0.633 -1.493 4.284
 -0.62 -1.493 4.286
 -0.607 -1.491 4.282
 -0.593 -1.489 4.278
 -0.581 -1.491 4.285
 -0.568 -1.491 4.285
 -0.554 -1.489 4.279
 -0.54 -1.486 4.273
 -0.528 -1.487 4.278
 -0.515 -1.486 4.277
 -0.501 -1.484 4.27
 -0.488 -1.484 4.273
 -0.476 -1.487 4.28
 -0.463 -1.486 4.279
 -0.45 -1.484 4.274
 -0.437 -1.485 4.279
 -0.424 -1.484 4.277
 -0.411 -1.482 4.272
 -0.398 -1.482 4.271
 -0.385 -1.482 4.272
 -0.372 -1.482 4.273
 -0.359 -1.48 4.269
 -0.346 -1.48 4.271
 -0.333 -1.48 4.271
 -0.32 -1.478 4.265
 -0.307 -1.476 4.259
 -0.294 -1.476 4.261
 -0.282 -1.478 4.267
 -0.269 -1.477 4.264
 -0.257 -1.479 4.271
 -0.244 -1.481 4.277
 -0.232 -1.482 4.281
 -0.219 -1.48 4.276
 -0.206 -1.482 4.281
 -0.193 -1.481 4.278
 -0.18 -1.481 4.278
 -0.167 -1.481 4.279
 -0.155 -1.48 4.277
 -0.142 -1.478 4.269
 -0.129 -1.476 4.264
 -0.116 -1.474 4.258
 -0.103 -1.473 4.256
 -0.09 -1.475 4.263
 -0.078 -1.477 4.269
 -0.065 -1.479 4.273
 -0.052 -1.478 4.27
 -0.04 -1.477 4.267
 -0.027 -1.475 4.263
 -0.014 -1.474 4.259
 -0.001 -1.475 4.262
 0.01 -1.478 4.27
 0.023 -1.479 4.272
 0.036 -1.479 4.274
 0.049 -1.48 4.276
 0.061 -1.48 4.275
 0.074 -1.479 4.271
 0.087 -1.479 4.272
 0.099 -1.479 4.27
 0.112 -1.478 4.268
 0.125 -1.475 4.259
 0.137 -1.475 4.258
 0.15 -1.472 4.25
 0.162 -1.469 4.239
 0.175 -1.469 4.24
 0.188 -1.471 4.245
 0.2 -1.472 4.247
 0.213 -1.474 4.252
 0.227 -1.478 4.262
 0.239 -1.478 4.263
 0.252 -1.478 4.261
 0.265 -1.478 4.261
 0.277 -1.478 4.259
 0.29 -1.476 4.252
 0.302 -1.476 4.252
 0.315 -1.476 4.252
 0.328 -1.478 4.255
 0.341 -1.476 4.25
 0.354 -1.478 4.255
 0.366 -1.478 4.253
 0.38 -1.48 4.256
 0.392 -1.478 4.249
 0.405 -1.479 4.251
 0.417 -1.478 4.249
 0.43 -1.479 4.25
 0.443 -1.48 4.25
 0.456 -1.481 4.251
 0.469 -1.481 4.252
 0.482 -1.481 4.249
 0.494 -1.48 4.245
 0.506 -1.479 4.242
 0.52 -1.482 4.247
 0.532 -1.48 4.243
 0.545 -1.481 4.243
 0.559 -1.483 4.247
 0.572 -1.483 4.247
 0.584 -1.482 4.241
 0.598 -1.485 4.247
 0.611 -1.486 4.249
 0.623 -1.486 4.246
 0.637 -1.487 4.248
 0.65 -1.487 4.248
 0.662 -1.487 4.244
 0.675 -1.486 4.24
 0.687 -1.486 4.237
 0.7 -1.486 4.237
 0.713 -1.486 4.235
 0.726 -1.488 4.237
 0.74 -1.49 4.241
 0.753 -1.49 4.241
 0.766 -1.49 4.237
 0.778 -1.488 4.23
 0.79 -1.488 4.228
 0.804 -1.489 4.228
 0.817 -1.49 4.228
 0.832 -1.494 4.237
 0.847 -1.498 4.245
 0.861 -1.501 4.252
 0.876 -1.503 4.256
 0.889 -1.504 4.256
 0.901 -1.503 4.251
 0.914 -1.503 4.249
 0.925 -1.5 4.238
 0.937 -1.498 4.231
 0.951 -1.5 4.232
 0.963 -1.499 4.227
 0.976 -1.5 4.226
 0.99 -1.502 4.229
 1.005 -1.504 4.232
 1.019 -1.505 4.233
 1.032 -1.506 4.234
 1.047 -1.509 4.238
 1.061 -1.511 4.24
 1.074 -1.51 4.236
 1.086 -1.509 4.229
 1.101 -1.512 4.234
 1.112 -1.51 4.226
 1.125 -1.509 4.221
 1.138 -1.51 4.219
 1.153 -1.512 4.223
 1.167 -1.513 4.223
 1.18 -1.514 4.222
 1.194 -1.516 4.222
 1.209 -1.518 4.227
 1.222 -1.518 4.222
 1.233 -1.516 4.212
 1.247 -1.516 4.211
 1.26 -1.517 4.21
 1.274 -1.518 4.208
 1.288 -1.52 4.209
 1.303 -1.522 4.211
 1.316 -1.522 4.209
 1.331 -1.524 4.21
 1.345 -1.525 4.209
 1.359 -1.527 4.21
 1.374 -1.529 4.212
 1.391 -1.533 4.218
 1.406 -1.534 4.219
 1.419 -1.534 4.215
 1.432 -1.534 4.211
 1.446 -1.535 4.209
 1.459 -1.535 4.205
 1.471 -1.534 4.197
 1.486 -1.536 4.199
 1.5 -1.537 4.197
 1.515 -1.539 4.199
 1.529 -1.54 4.197
 1.544 -1.542 4.198
 1.558 -1.543 4.195
 1.574 -1.546 4.198
 1.586 -1.545 4.192
 1.603 -1.548 4.195
 1.617 -1.549 4.194
 1.632 -1.55 4.192
 1.644 -1.549 4.185
 1.658 -1.55 4.183
 1.672 -1.551 4.179
 1.687 -1.552 4.179
 1.701 -1.553 4.176
 1.715 -1.554 4.174
 1.731 -1.557 4.175
 1.744 -1.556 4.169
 1.757 -1.556 4.164
 1.773 -1.558 4.164
 1.788 -1.56 4.164
 1.804 -1.562 4.163
 1.818 -1.563 4.16
 1.829 -1.56 4.149
 1.839 -1.558 4.138
 1.845 -1.552 4.115
 1.851 -1.546 4.095
 1.859 -1.542 4.078
 1.867 -1.537 4.059
 1.87 -1.529 4.033
 1.875 -1.523 4.011
 1.875 -1.513 3.978
 1.879 -1.505 3.952
 1.88 -1.496 3.923
 1.886 -1.491 3.903
 1.89 -1.483 3.879
 1.894 -1.477 3.857
 1.899 -1.471 3.834
 1.907 -1.468 3.82
 0 0 0
 0 0 0
 0 0 0
 0 0 0
 0 0 0
 0 0 0
 0 0 0
 0 0 0
 0 0 0
 0 0 0
 0 0 0
 0 0 0
 0 0 0
 0 0 0
 0 0 0
 0 0 0
 1.8 -1.247 3.156
 1.825 -1.257 3.176
 1.834 -1.256 3.168
 1.844 -1.256 3.161
 1.847 -1.251 3.142
 1.856 -1.249 3.134
 1.854 -1.241 3.107
 1.85 -1.232 3.077
 1.841 -1.218 3.038
 1.844 -1.214 3.021
 0 0 0
 -2.423 -1.607 4.15
 -2.436 -1.625 4.205
 -2.403 -1.612 4.179
 -2.389 -1.613 4.186
 -2.374 -1.612 4.191
 -2.353 -1.608 4.187
 -2.337 -1.606 4.189
 -2.328 -1.61 4.206
 -2.313 -1.609 4.211
 -2.301 -1.611 4.221
 -2.285 -1.609 4.225
 -2.266 -1.606 4.223
 -2.248 -1.603 4.222
 -2.234 -1.603 4.228
 -2.214 -1.599 4.222
 -2.197 -1.597 4.224
 -2.185 -1.599 4.234
 -2.172 -1.599 4.242
 -2.155 -1.597 4.243
 -2.145 -1.601 4.258
 -2.128 -1.598 4.257
 -2.116 -1.599 4.267
 -2.096 -1.595 4.262
 -2.081 -1.594 4.264
 -2.064 -1.592 4.264
 -2.05 -1.592 4.271
 -2.033 -1.59 4.271
 -2.021 -1.591 4.279
 -2.008 -1.592 4.287
 -1.993 -1.592 4.292
 -1.979 -1.591 4.296
 -1.962 -1.589 4.295
 -1.947 -1.588 4.298
 -1.931 -1.587 4.299
 -1.912 -1.582 4.293
 -1.895 -1.58 4.292
 -1.881 -1.58 4.296
 -1.865 -1.578 4.297
 -1.85 -1.577 4.3
 -1.838 -1.578 4.307
 -1.821 -1.576 4.307
 -1.806 -1.575 4.308
 -1.789 -1.572 4.306
 -1.772 -1.57 4.304
 -1.757 -1.568 4.304
 -1.74 -1.566 4.302
 -1.725 -1.564 4.302
 -1.708 -1.562 4.3
 -1.694 -1.561 4.303
 -1.678 -1.559 4.303
 -1.664 -1.559 4.307
 -1.65 -1.559 4.309
 -1.635 -1.557 4.31
 -1.62 -1.556 4.312
 -1.605 -1.555 4.313
 -1.589 -1.553 4.31
 -1.573 -1.55 4.307
 -1.558 -1.549 4.308
 -1.542 -1.546 4.304
 -1.526 -1.544 4.302
 -1.511 -1.542 4.301
 -1.496 -1.54 4.301
 -1.482 -1.54 4.304
 -1.467 -1.539 4.303
 -1.452 -1.538 4.304
 -1.438 -1.537 4.307
 -1.423 -1.535 4.303
 -1.409 -1.534 4.305
 -1.395 -1.535 4.31
 -1.379 -1.531 4.303
 -1.365 -1.531 4.306
 -1.351 -1.53 4.308
 -1.337 -1.529 4.309
 -1.321 -1.526 4.303
 -1.308 -1.526 4.307
 -1.292 -1.524 4.304
 -1.278 -1.523 4.304
 -1.263 -1.521 4.302
 -1.25 -1.521 4.305
 -1.236 -1.52 4.306
 -1.221 -1.518 4.303
 -1.206 -1.516 4.3
 -1.192 -1.515 4.3
 -1.177 -1.513 4.298
 -1.163 -1.512 4.298
 -1.148 -1.511 4.296
 -1.134 -1.508 4.293
 -1.118 -1.505 4.287
 -1.105 -1.505 4.29
 -1.091 -1.504 4.288
 -1.077 -1.503 4.29
 -1.064 -1.504 4.294
 -1.051 -1.504 4.297
 -1.038 -1.503 4.297
 -1.024 -1.503 4.297
 -1.011 -1.503 4.301
 -0.998 -1.504 4.306
 -0.984 -1.502 4.304
 -0.969 -1.499 4.298
 -0.955 -1.497 4.295
 -0.94 -1.495 4.291
 -0.926 -1.492 4.285
 -0.911 -1.491 4.282
 -0.899 -1.491 4.286
 -0.885 -1.49 4.284
 -0.873 -1.491 4.289
 -0.86 -1.491 4.292
 -0.847 -1.492 4.296
 -0.834 -1.492 4.298
 -0.822 -1.494 4.304
 -0.807 -1.49 4.297
 -0.793 -1.489 4.294
 -0.779 -1.487 4.291
 -0.764 -1.484 4.283
 -0.75 -1.481 4.277
 -0.737 -1.48 4.276
 -0.724 -1.48 4.277
 -0.71 -1.478 4.273
 -0.697 -1.478 4.274
 -0.684 -1.477 4.274
 -0.671 -1.478 4.278
 -0.658 -1.477 4.277
 -0.645 -1.478 4.28
 -0.632 -1.478 4.282
 -0.62 -1.478 4.285
 -0.606 -1.478 4.284
 -0.593 -1.477 4.283
 -0.581 -1.478 4.287
 -0.567 -1.477 4.285
 -0.554 -1.475 4.282
 -0.54 -1.473 4.276
 -0.527 -1.473 4.278
 -0.515 -1.473 4.279
 -0.501 -1.472 4.278
 -0.489 -1.472 4.28
 -0.476 -1.475 4.287
 -0.463 -1.474 4.286
 -0.45 -1.472 4.282
 -0.437 -1.472 4.282
 -0.424 -1.471 4.279
 -0.41 -1.468 4.273
 -0.398 -1.468 4.272
 -0.385 -1.468 4.272
 -0.372 -1.469 4.278
 -0.359 -1.468 4.275
 -0.347 -1.469 4.279
 -0.334 -1.469 4.279
 -0.321 -1.467 4.275
 -0.307 -1.465 4.269
 -0.295 -1.467 4.275
 -0.282 -1.467 4.277
 -0.269 -1.467 4.275
 -0.257 -1.467 4.278
 -0.244 -1.469 4.282
 -0.231 -1.469 4.283
 -0.219 -1.468 4.281
 -0.206 -1.469 4.284
 -0.193 -1.468 4.281
 -0.18 -1.467 4.28
 -0.167 -1.467 4.279
 -0.154 -1.466 4.277
 -0.141 -1.463 4.269
 -0.128 -1.461 4.263
 -0.116 -1.46 4.258
 -0.103 -1.458 4.253
 -0.09 -1.46 4.258
 -0.078 -1.463 4.268
 -0.065 -1.465 4.273
 -0.052 -1.464 4.272
 -0.04 -1.465 4.275
 -0.027 -1.465 4.274
 -0.014 -1.464 4.27
 -0.001 -1.464 4.27
 0.01 -1.466 4.277
 0.023 -1.466 4.275
 0.036 -1.466 4.276
 0.049 -1.465 4.273
 0.061 -1.466 4.275
 0.074 -1.465 4.272
 0.087 -1.466 4.273
 0.099 -1.464 4.268
 0.112 -1.464 4.268
 0.125 -1.46 4.257
 0.137 -1.46 4.255
 0.15 -1.458 4.249
 0.162 -1.455 4.239
 0.175 -1.455 4.24
 0.188 -1.459 4.25
 0.2 -1.459 4.25
 0.213 -1.461 4.255
 0.227 -1.465 4.267
 0.24 -1.466 4.268
 0.252 -1.466 4.267
 0.265 -1.467 4.268
 0.278 -1.466 4.264
 0.29 -1.463 4.256
 0.303 -1.464 4.259
 0.315 -1.463 4.254
 0.328 -1.464 4.256
 0.341 -1.464 4.254
 0.354 -1.466 4.261
 0.366 -1.465 4.255
 0.38 -1.467 4.261
 0.392 -1.466 4.257
 0.405 -1.466 4.256
 0.417 -1.465 4.251
 0.43 -1.466 4.253
 0.443 -1.466 4.25
 0.456 -1.466 4.249
 0.468 -1.466 4.249
 0.481 -1.467 4.25
 0.494 -1.466 4.246
 0.507 -1.467 4.247
 0.52 -1.469 4.25
 0.533 -1.468 4.247
 0.545 -1.468 4.245
 0.559 -1.47 4.249
 0.571 -1.469 4.245
 0.583 -1.467 4.24
 0.597 -1.47 4.245
 0.61 -1.471 4.246
 0.623 -1.47 4.243
 0.636 -1.472 4.246
 0.649 -1.472 4.245
 0.661 -1.472 4.241
 0.674 -1.471 4.237
 0.687 -1.472 4.239
 0.7 -1.472 4.236
 0.713 -1.473 4.237
 0.726 -1.474 4.238
 0.74 -1.475 4.24
 0.753 -1.476 4.24
 0.765 -1.476 4.238
 0.778 -1.475 4.234
 0.791 -1.476 4.232
 0.804 -1.476 4.231
 0.817 -1.477 4.232
 0.831 -1.48 4.237
 0.846 -1.483 4.246
 0.861 -1.487 4.253
 0.875 -1.489 4.257
 0.888 -1.489 4.256
 0.901 -1.49 4.255
 0.915 -1.491 4.254
 0.926 -1.488 4.245
 0.938 -1.487 4.24
 0.952 -1.489 4.241
 0.964 -1.487 4.235
 0.976 -1.486 4.228
 0.99 -1.488 4.23
 1.004 -1.489 4.231
 1.017 -1.49 4.23
 1.031 -1.491 4.231
 1.046 -1.495 4.238
 1.06 -1.495 4.238
 1.072 -1.495 4.234
 1.085 -1.495 4.231
 1.099 -1.496 4.232
 1.111 -1.495 4.225
 1.125 -1.496 4.225
 1.138 -1.497 4.222
 1.153 -1.499 4.226
 1.167 -1.501 4.229
 1.181 -1.502 4.229
 1.194 -1.502 4.225
 1.209 -1.504 4.228
 1.221 -1.504 4.223
 1.232 -1.501 4.212
 1.245 -1.501 4.209
 1.26 -1.503 4.211
 1.273 -1.504 4.21
 1.288 -1.506 4.212
 1.303 -1.508 4.215
 1.317 -1.51 4.215
 1.332 -1.512 4.216
 1.346 -1.513 4.216
 1.36 -1.514 4.216
 1.375 -1.517 4.219
 1.391 -1.519 4.222
 1.405 -1.521 4.222
 1.419 -1.522 4.22
 1.432 -1.521 4.215
 1.445 -1.521 4.21
 1.458 -1.521 4.206
 1.47 -1.52 4.199
 1.484 -1.521 4.199
 1.499 -1.523 4.199
 1.514 -1.525 4.201
 1.529 -1.526 4.199
 1.544 -1.529 4.202
 1.559 -1.531 4.202
 1.575 -1.534 4.206
 1.588 -1.533 4.201
 1.604 -1.535 4.202
 1.617 -1.536 4.198
 1.63 -1.536 4.193
 1.642 -1.534 4.183
 1.657 -1.535 4.183
 1.671 -1.536 4.181
 1.687 -1.539 4.183
 1.702 -1.54 4.182
 1.716 -1.542 4.18
 1.732 -1.544 4.182
 1.744 -1.542 4.172
 1.756 -1.542 4.165
 1.771 -1.543 4.163
 1.787 -1.545 4.165
