 1.39 -1.648 3.836
 1.404 -1.636 3.8
 1.433 -1.641 3.803
 1.452 -1.636 3.783
 1.497 -1.659 3.827
 1.501 -1.636 3.766
 1.543 -1.655 3.8
 1.54 -1.626 3.726
 1.569 -1.631 3.727
 1.598 -1.636 3.728
 1.626 -1.64 3.728
 1.668 -1.658 3.758
 1.679 -1.645 3.719
 1.709 -1.649 3.72
 1.725 -1.642 3.693
 1.736 -1.629 3.653
 1.779 -1.647 3.682
 1.791 -1.635 3.646
 1.818 -1.638 3.641
 1.819 -1.617 3.583
 1.781 -1.563 3.452
 1.777 -1.54 3.391
 1.764 -1.509 3.311
 1.827 -1.543 3.376
 1.812 -1.512 3.295
 1.839 -1.516 3.293
 1.771 -1.443 3.122
 1.78 -1.433 3.09
 1.768 -1.406 3.022
 1.777 -1.397 2.991
 1.766 -1.373 2.928
 1.755 -1.349 2.866
 1.763 -1.34 2.836
 -2.113 -1.599 3.528
 -2.129 -1.63 3.609
 -2.107 -1.633 3.627
 -2.062 -1.617 3.604
 -2.054 -1.631 3.646
 -2.028 -1.63 3.656
 -2.016 -1.641 3.693
 -1.999 -1.647 3.72
 -1.931 -1.611 3.649
 -1.912 -1.616 3.671
 -1.888 -1.617 3.685
 -1.911 -1.659 3.79
 -1.84 -1.619 3.709
 -1.834 -1.636 3.758
 -1.796 -1.624 3.742
 -1.782 -1.634 3.775
 -1.749 -1.626 3.767
 -1.72 -1.623 3.769
 -1.721 -1.647 3.836
 -1.675 -1.627 3.798
 -1.651 -1.628 3.81
 -1.633 -1.636 3.836
 -1.583 -1.61 3.785
 -1.576 -1.629 3.839
 -1.548 -1.626 3.839
 -1.519 -1.622 3.838
 -1.497 -1.624 3.852
 -1.464 -1.615 3.838
 -1.448 -1.625 3.87
 -1.411 -1.612 3.846
 -1.392 -1.618 3.868
 -1.38 -1.633 3.914
 -1.345 -1.622 3.893
 -1.323 -1.624 3.906
 -1.283 -1.606 3.868
 -1.263 -1.612 3.89
 -1.232 -1.603 3.876
 -1.229 -1.632 3.951
 -1.198 -1.624 3.939
 -1.175 -1.626 3.95
 -1.135 -1.605 3.905
 -1.13 -1.633 3.979
 -1.103 -1.631 3.98
 -1.06 -1.604 3.919
 -1.039 -1.609 3.937
 -1.018 -1.614 3.954
 -1.002 -1.628 3.995
 -0.975 -1.626 3.993
 -0.944 -1.615 3.972
 -0.929 -1.631 4.017
 -0.9 -1.625 4.005
 -0.865 -1.606 3.963
 -0.845 -1.614 3.986
 -0.819 -1.611 3.984
 -0.792 -1.606 3.975
 -0.768 -1.609 3.986
 -0.743 -1.606 3.983
 -0.715 -1.599 3.968
 -0.694 -1.608 3.994
 -0.673 -1.615 4.016
 -0.644 -1.605 3.995
 -0.626 -1.621 4.038
 -0.613 -1.652 4.117
 -0.572 -1.608 4.009
 -0.549 -1.615 4.029
 -0.532 -1.636 4.084
 -0.5 -1.612 4.028
 -0.469 -1.59 3.975
 -0.453 -1.623 4.06
 -0.427 -1.618 4.049
 -0.404 -1.623 4.064
 -0.377 -1.615 4.043
 -0.352 -1.611 4.035
 -0.33 -1.625 4.072
 -0.305 -1.624 4.071
 -0.284 -1.645 4.126
 -0.255 -1.618 4.058
 -0.231 -1.626 4.081
 -0.204 -1.61 4.039
 -0.179 -1.602 4.02
 -0.157 -1.623 4.074
 -0.133 -1.628 4.088
 -0.107 -1.615 4.055
 -0.083 -1.62 4.068
 -0.058 -1.612 4.046
 -0.034 -1.639 4.115
 -0.009 -1.63 4.092
 0.015 -1.617 4.059
 0.039 -1.61 4.041
 0.064 -1.625 4.079
 0.089 -1.618 4.06
 0.112 -1.605 4.028
 0.137 -1.613 4.047
 0.163 -1.624 4.072
 0.187 -1.621 4.064
 0.21 -1.609 4.032
 0.231 -1.586 3.972
 0.262 -1.625 4.07
 0.287 -1.628 4.077
 0.308 -1.61 4.028
 0.336 -1.629 4.075
 0.358 -1.617 4.043
 0.384 -1.622 4.053
 0.411 -1.629 4.068
 0.434 -1.626 4.058
 0.455 -1.612 4.021
 0.476 -1.602 3.991
 0.505 -1.616 4.025
 0.53 -1.617 4.024
 0.55 -1.605 3.991
 0.585 -1.633 4.058
 0.606 -1.625 4.035
 0.635 -1.636 4.057
 0.659 -1.633 4.047
 0.681 -1.628 4.031
 0.712 -1.642 4.062
 0.734 -1.635 4.039
 0.745 -1.607 3.965
 0.782 -1.633 4.027
 0.801 -1.62 3.99
 0.821 -1.613 3.968
 0.858 -1.637 4.022
 0.883 -1.637 4.017
 0.913 -1.647 4.036
 0.923 -1.62 3.965
 0.963 -1.646 4.024
 0.98 -1.634 3.989
 1.01 -1.643 4.004
 1.035 -1.642 3.997
 1.067 -1.654 4.02
 1.086 -1.645 3.991
 1.115 -1.651 3.999
 1.136 -1.646 3.98
 1.165 -1.651 3.987
 1.187 -1.647 3.971
 1.196 -1.626 3.911
 1.233 -1.643 3.945
 1.255 -1.638 3.927
 1.276 -1.634 3.911
 1.307 -1.642 3.921
 1.338 -1.649 3.932
 1.381 -1.671 3.976
 1.389 -1.652 3.921
 1.401 -1.636 3.875
 1.429 -1.64 3.877
 1.457 -1.644 3.877
 1.493 -1.657 3.899
 1.508 -1.645 3.863
 1.507 -1.618 3.789
 1.547 -1.634 3.82
 1.576 -1.639 3.821
 1.598 -1.636 3.805
 1.642 -1.655 3.84
 1.653 -1.642 3.799
 1.665 -1.63 3.761
 1.7 -1.64 3.774
 1.7 -1.617 3.711
 1.752 -1.642 3.759
 1.794 -1.658 3.785
 1.791 -1.633 3.716
 1.81 -1.628 3.693
 1.822 -1.617 3.657
 1.81 -1.585 3.574
 1.805 -1.561 3.508
 1.825 -1.558 3.491
 1.796 -1.514 3.381
 1.83 -1.523 3.39
 1.747 -1.436 3.186
 1.791 -1.454 3.215
 1.774 -1.423 3.135
 1.777 -1.408 3.092
 1.788 -1.401 3.065
 1.786 -1.383 3.014
 1.759 -1.346 2.923
 1.77 -1.34 2.898
 1.762 -1.319 2.842
 -2.182 -1.626 3.654
 -2.15 -1.621 3.655
 -2.129 -1.624 3.675
 -2.106 -1.626 3.69
 -2.081 -1.627 3.704
 -2.057 -1.628 3.719
 -2.034 -1.63 3.735
 -2.01 -1.631 3.749
 -1.979 -1.627 3.751
 -1.956 -1.629 3.767
 -1.928 -1.626 3.772
 -1.903 -1.626 3.783
 -1.878 -1.627 3.796
 -1.857 -1.631 3.815
 -1.83 -1.63 3.824
 -1.805 -1.63 3.833
 -1.78 -1.63 3.844
 -1.753 -1.629 3.851
 -1.725 -1.626 3.856
 -1.7 -1.627 3.866
 -1.674 -1.626 3.873
 -1.647 -1.624 3.879
 -1.622 -1.625 3.889
 -1.594 -1.623 3.892
 -1.566 -1.619 3.893
 -1.541 -1.62 3.902
 -1.515 -1.619 3.91
 -1.488 -1.617 3.913
 -1.465 -1.62 3.927
 -1.44 -1.619 3.934
 -1.413 -1.617 3.937
 -1.389 -1.618 3.947
 -1.365 -1.621 3.96
 -1.339 -1.619 3.964
 -1.313 -1.619 3.969
 -1.292 -1.623 3.988
 -1.265 -1.621 3.989
 -1.238 -1.619 3.99
 -1.211 -1.617 3.992
 -1.187 -1.618 4.001
 -1.16 -1.616 4.001
 -1.134 -1.615 4.004
 -1.108 -1.614 4.008
 -1.084 -1.615 4.016
 -1.059 -1.616 4.023
 -1.034 -1.615 4.028
 -1.01 -1.616 4.035
 -0.984 -1.616 4.039
 -0.96 -1.617 4.047
 -0.934 -1.616 4.049
 -0.909 -1.615 4.052
 -0.884 -1.615 4.056
 -0.857 -1.613 4.055
 -0.831 -1.611 4.053
 -0.805 -1.609 4.054
 -0.78 -1.609 4.057
 -0.755 -1.608 4.059
 -0.731 -1.61 4.068
 -0.706 -1.611 4.074
 -0.682 -1.611 4.077
 -0.656 -1.611 4.08
 -0.632 -1.613 4.087
 -0.608 -1.615 4.095
 -0.584 -1.617 4.103
 -0.559 -1.618 4.109
 -0.534 -1.618 4.111
 -0.509 -1.617 4.112
 -0.483 -1.617 4.112
 -0.459 -1.617 4.116
 -0.433 -1.617 4.117
 -0.409 -1.618 4.122
 -0.384 -1.617 4.122
 -0.359 -1.618 4.124
 -0.333 -1.617 4.124
 -0.308 -1.616 4.124
 -0.284 -1.618 4.129
 -0.258 -1.617 4.128
 -0.233 -1.615 4.124
 -0.208 -1.613 4.118
 -0.183 -1.615 4.124
 -0.158 -1.613 4.121
 -0.133 -1.615 4.127
 -0.109 -1.616 4.13
 -0.084 -1.619 4.138
 -0.059 -1.619 4.137
 -0.034 -1.62 4.14
 -0.009 -1.618 4.134
 0.015 -1.621 4.141
 0.04 -1.62 4.137
 0.065 -1.618 4.133
 0.09 -1.617 4.128
 0.115 -1.618 4.131
 0.14 -1.614 4.119
 0.164 -1.613 4.115
 0.189 -1.611 4.11
 0.214 -1.613 4.112
 0.239 -1.613 4.113
 0.264 -1.616 4.118
 0.289 -1.615 4.114
 0.314 -1.617 4.117
 0.339 -1.617 4.115
 0.364 -1.617 4.114
 0.389 -1.617 4.112
 0.414 -1.619 4.114
 0.439 -1.617 4.107
 0.464 -1.617 4.104
 0.488 -1.617 4.1
 0.513 -1.616 4.095
 0.538 -1.617 4.094
 0.564 -1.62 4.098
 0.589 -1.62 4.096
 0.614 -1.621 4.095
 0.641 -1.625 4.101
 0.666 -1.626 4.099
 0.691 -1.626 4.097
 0.716 -1.626 4.092
 0.741 -1.626 4.088
 0.765 -1.624 4.08
 0.79 -1.623 4.073
 0.815 -1.624 4.07
 0.842 -1.627 4.073
 0.867 -1.629 4.072
 0.892 -1.628 4.065
 0.919 -1.631 4.067
 0.944 -1.631 4.062
 0.969 -1.632 4.059
 0.994 -1.632 4.054
 1.021 -1.635 4.056
 1.048 -1.637 4.055
 1.074 -1.638 4.052
 1.098 -1.638 4.044
 1.124 -1.639 4.041
 1.149 -1.639 4.034
 1.173 -1.637 4.022
 1.198 -1.636 4.014
 1.224 -1.639 4.013
 1.248 -1.637 4.003
 1.274 -1.638 3.997
 1.301 -1.64 3.994
 1.328 -1.643 3.993
 1.353 -1.643 3.986
 1.378 -1.643 3.978
 1.402 -1.642 3.967
 1.427 -1.641 3.956
 1.45 -1.639 3.943
 1.476 -1.64 3.937
 1.499 -1.638 3.924
 1.525 -1.639 3.917
 1.549 -1.638 3.906
 1.574 -1.637 3.895
 1.596 -1.634 3.878
 1.622 -1.635 3.871
 1.647 -1.636 3.862
 1.672 -1.636 3.853
 1.696 -1.635 3.841
 1.721 -1.635 3.83
 1.745 -1.634 3.817
 1.768 -1.632 3.802
 1.788 -1.627 3.782
 1.803 -1.619 3.751
 1.816 -1.608 3.715
 1.82 -1.59 3.663
 1.822 -1.571 3.608
 1.822 -1.551 3.551
 1.825 -1.534 3.499
 1.822 -1.512 3.439
 1.816 -1.488 3.373
 1.789 -1.448 3.272
 1.778 -1.422 3.201
 1.773 -1.401 3.143
 1.778 -1.388 3.102
 1.778 -1.372 3.055
 1.776 -1.354 3.006
 1.771 -1.335 2.952
 1.774 -1.322 2.913
 1.767 -1.302 2.858
 -2.22 -1.628 3.727
 -2.222 -1.649 3.788
 -2.164 -1.625 3.745
 -2.14 -1.627 3.761
 -2.114 -1.627 3.773
 -2.088 -1.627 3.786
 -2.064 -1.628 3.8
 -2.036 -1.626 3.808
 -2.006 -1.623 3.811
 -1.982 -1.624 3.826
 -1.954 -1.622 3.833
 -1.927 -1.621 3.842
 -1.905 -1.625 3.861
 -1.883 -1.628 3.88
 -1.857 -1.628 3.889
 -1.832 -1.629 3.902
 -1.807 -1.629 3.914
 -1.779 -1.628 3.919
 -1.752 -1.626 3.926
 -1.727 -1.627 3.937
 -1.699 -1.625 3.941
 -1.672 -1.624 3.948
 -1.647 -1.624 3.958
 -1.619 -1.622 3.962
 -1.589 -1.618 3.96
 -1.564 -1.618 3.971
 -1.538 -1.618 3.978
 -1.511 -1.616 3.981
 -1.486 -1.617 3.992
 -1.461 -1.617 4.001
 -1.434 -1.616 4.004
 -1.408 -1.616 4.012
 -1.383 -1.616 4.021
 -1.356 -1.614 4.023
 -1.329 -1.613 4.028
 -1.305 -1.615 4.04
 -1.279 -1.614 4.045
 -1.253 -1.613 4.048
 -1.226 -1.612 4.051
 -1.202 -1.614 4.062
 -1.177 -1.614 4.069
 -1.15 -1.613 4.071
 -1.125 -1.612 4.077
 -1.101 -1.614 4.088
 -1.075 -1.614 4.093
 -1.049 -1.613 4.095
 -1.023 -1.613 4.1
 -0.998 -1.612 4.104
 -0.973 -1.613 4.111
 -0.946 -1.611 4.11
 -0.921 -1.612 4.117
 -0.896 -1.613 4.123
 -0.869 -1.61 4.122
 -0.843 -1.608 4.119
 -0.817 -1.607 4.122
 -0.79 -1.604 4.119
 -0.765 -1.605 4.123
 -0.74 -1.606 4.129
 -0.715 -1.606 4.135
 -0.69 -1.607 4.14
 -0.665 -1.608 4.144
 -0.64 -1.608 4.147
 -0.615 -1.609 4.154
 -0.591 -1.611 4.161
 -0.565 -1.612 4.166
 -0.541 -1.613 4.172
 -0.515 -1.614 4.177
 -0.49 -1.614 4.178
 -0.465 -1.614 4.181
 -0.439 -1.612 4.179
 -0.414 -1.612 4.18
 -0.388 -1.61 4.177
 -0.362 -1.61 4.178
 -0.337 -1.609 4.178
 -0.312 -1.609 4.179
 -0.287 -1.61 4.183
 -0.261 -1.61 4.183
 -0.236 -1.608 4.179
 -0.21 -1.606 4.175
 -0.185 -1.607 4.178
 -0.16 -1.606 4.174
 -0.135 -1.607 4.179
 -0.109 -1.607 4.18
 -0.084 -1.61 4.188
 -0.059 -1.61 4.187
 -0.034 -1.61 4.188
 -0.009 -1.609 4.185
 0.016 -1.612 4.192
 0.041 -1.61 4.186
 0.066 -1.611 4.188
 0.091 -1.61 4.184
 0.117 -1.61 4.185
 0.141 -1.607 4.174
 0.167 -1.607 4.174
 0.191 -1.605 4.166
 0.217 -1.606 4.168
 0.242 -1.608 4.171
 0.268 -1.61 4.176
 0.293 -1.611 4.177
 0.319 -1.614 4.182
 0.344 -1.614 4.18
 0.369 -1.613 4.177
 0.394 -1.613 4.173
 0.42 -1.613 4.172
 0.444 -1.611 4.164
 0.47 -1.612 4.164
 0.495 -1.611 4.159
 0.519 -1.61 4.153
 0.545 -1.61 4.15
 0.57 -1.611 4.149
 0.595 -1.612 4.147
 0.621 -1.612 4.144
 0.647 -1.615 4.149
 0.673 -1.616 4.149
 0.699 -1.619 4.151
 0.724 -1.617 4.143
 0.749 -1.618 4.142
 0.774 -1.618 4.136
 0.799 -1.617 4.128
 0.824 -1.616 4.123
 0.852 -1.621 4.129
 0.878 -1.622 4.128
 0.904 -1.623 4.126
 0.93 -1.626 4.127
 0.957 -1.627 4.126
 0.982 -1.627 4.12
 1.007 -1.628 4.116
 1.034 -1.63 4.114
 1.061 -1.632 4.114
 1.086 -1.632 4.108
 1.112 -1.632 4.102
 1.138 -1.633 4.1
 1.164 -1.634 4.095
 1.188 -1.631 4.081
 1.214 -1.632 4.076
 1.241 -1.635 4.076
 1.266 -1.634 4.067
 1.292 -1.635 4.061
 1.318 -1.636 4.057
 1.345 -1.638 4.054
 1.371 -1.638 4.046
 1.396 -1.638 4.038
 1.42 -1.637 4.027
 1.446 -1.637 4.02
 1.471 -1.637 4.01
 1.497 -1.637 4.002
 1.522 -1.636 3.991
 1.547 -1.636 3.981
 1.571 -1.635 3.97
 1.596 -1.635 3.96
 1.619 -1.632 3.944
 1.645 -1.633 3.936
 1.671 -1.634 3.928
 1.696 -1.633 3.916
 1.719 -1.631 3.902
 1.743 -1.63 3.888
 1.766 -1.628 3.873
 1.787 -1.624 3.853
 1.804 -1.617 3.826
 1.817 -1.606 3.789
 1.827 -1.593 3.747
 1.83 -1.574 3.691
 1.834 -1.557 3.64
 1.837 -1.54 3.589
 1.84 -1.522 3.537
 1.837 -1.501 3.476
 1.821 -1.47 3.392
 1.779 -1.418 3.261
 1.764 -1.389 3.183
 1.765 -1.373 3.136
 1.775 -1.364 3.105
 1.78 -1.352 3.066
 1.778 -1.335 3.018
 1.773 -1.316 2.963
 1.773 -1.301 2.919
 1.752 -1.271 2.841
 -2.265 -1.636 3.814
 -2.172 -1.587 3.713
 -2.199 -1.625 3.816
 -2.173 -1.626 3.829
 -2.146 -1.625 3.841
 -2.118 -1.624 3.85
 -2.092 -1.624 3.862
 -2.064 -1.623 3.871
 -2.033 -1.619 3.873
 -2.007 -1.619 3.886
 -1.981 -1.619 3.896
 -1.952 -1.617 3.903
 -1.931 -1.621 3.924
 -1.909 -1.625 3.943
 -1.885 -1.626 3.957
 -1.859 -1.627 3.969
 -1.833 -1.627 3.98
 -1.804 -1.624 3.984
 -1.776 -1.622 3.989
 -1.749 -1.622 3.998
 -1.72 -1.619 4.001
 -1.694 -1.619 4.01
 -1.669 -1.62 4.022
 -1.642 -1.619 4.028
 -1.613 -1.616 4.03
 -1.588 -1.617 4.041
 -1.561 -1.616 4.048
 -1.534 -1.615 4.053
 -1.508 -1.616 4.062
 -1.481 -1.614 4.066
 -1.452 -1.611 4.065
 -1.426 -1.611 4.074
 -1.401 -1.611 4.083
 -1.373 -1.61 4.086
 -1.348 -1.611 4.095
 -1.324 -1.612 4.107
 -1.297 -1.611 4.11
 -1.269 -1.609 4.111
 -1.243 -1.608 4.114
 -1.217 -1.608 4.121
 -1.191 -1.608 4.128
 -1.165 -1.607 4.131
 -1.139 -1.607 4.137
 -1.114 -1.609 4.148
 -1.089 -1.609 4.155
 -1.063 -1.608 4.158
 -1.037 -1.609 4.164
 -1.011 -1.608 4.167
 -0.984 -1.607 4.17
 -0.958 -1.606 4.172
 -0.933 -1.607 4.178
 -0.907 -1.607 4.184
 -0.881 -1.606 4.184
 -0.854 -1.604 4.185
 -0.828 -1.603 4.185
 -0.801 -1.601 4.184
 -0.775 -1.601 4.188
 -0.75 -1.601 4.193
 -0.725 -1.602 4.199
 -0.699 -1.603 4.203
 -0.673 -1.6 4.2
 -0.647 -1.6 4.202
 -0.622 -1.601 4.208
 -0.596 -1.6 4.209
 -0.57 -1.601 4.213
 -0.546 -1.605 4.225
 -0.52 -1.604 4.227
 -0.495 -1.604 4.23
 -0.47 -1.605 4.234
 -0.443 -1.604 4.232
 -0.417 -1.602 4.229
 -0.391 -1.6 4.226
 -0.366 -1.599 4.225
 -0.34 -1.597 4.221
 -0.314 -1.598 4.225
 -0.289 -1.598 4.225
 -0.263 -1.597 4.225
 -0.238 -1.597 4.224
 -0.212 -1.595 4.222
 -0.186 -1.595 4.221
 -0.161 -1.594 4.219
 -0.136 -1.595 4.223
 -0.11 -1.595 4.223
 -0.085 -1.598 4.23
 -0.059 -1.597 4.229
 -0.034 -1.598 4.231
 -0.009 -1.598 4.229
 0.016 -1.601 4.237
 0.041 -1.599 4.232
 0.067 -1.601 4.237
 0.092 -1.6 4.233
 0.118 -1.6 4.232
 0.143 -1.596 4.222
 0.168 -1.597 4.222
 0.194 -1.595 4.217
 0.219 -1.596 4.218
 0.245 -1.597 4.219
 0.27 -1.6 4.224
 0.296 -1.6 4.224
 0.322 -1.601 4.224
 0.347 -1.601 4.222
 0.373 -1.602 4.221
 0.398 -1.6 4.215
 0.423 -1.601 4.216
 0.449 -1.6 4.211
 0.474 -1.602 4.211
 0.5 -1.602 4.208
 0.525 -1.601 4.205
 0.55 -1.601 4.201
 0.576 -1.601 4.197
 0.601 -1.601 4.193
 0.626 -1.6 4.188
 0.653 -1.603 4.192
 0.678 -1.603 4.189
 0.705 -1.606 4.192
 0.73 -1.606 4.187
 0.756 -1.607 4.187
 0.782 -1.607 4.181
 0.808 -1.608 4.18
 0.833 -1.608 4.175
 0.86 -1.611 4.178
 0.886 -1.612 4.176
 0.912 -1.613 4.175
 0.939 -1.615 4.173
 0.965 -1.616 4.171
 0.991 -1.616 4.166
 1.017 -1.617 4.163
 1.043 -1.618 4.16
 1.071 -1.621 4.16
 1.096 -1.621 4.155
 1.123 -1.622 4.151
 1.149 -1.623 4.148
 1.176 -1.624 4.144
 1.2 -1.622 4.132
 1.226 -1.623 4.128
 1.254 -1.626 4.128
 1.28 -1.626 4.12
 1.306 -1.627 4.116
 1.333 -1.628 4.111
 1.36 -1.63 4.107
 1.385 -1.63 4.098
 1.411 -1.63 4.091
 1.437 -1.63 4.082
 1.464 -1.631 4.078
 1.49 -1.631 4.069
 1.517 -1.633 4.064
 1.543 -1.633 4.055
 1.568 -1.633 4.046
 1.593 -1.632 4.035
 1.619 -1.632 4.026
 1.642 -1.629 4.009
 1.668 -1.629 4
 1.693 -1.629 3.988
 1.718 -1.628 3.976
 1.742 -1.627 3.964
 1.764 -1.624 3.945
 1.784 -1.618 3.922
 1.804 -1.613 3.898
 1.818 -1.603 3.863
 1.826 -1.589 3.817
 1.837 -1.577 3.777
 1.842 -1.56 3.725
 1.846 -1.543 3.673
 1.852 -1.528 3.627
 1.856 -1.511 3.576
 1.855 -1.492 3.519
 1.837 -1.459 3.43
 1.768 -1.387 3.248
 1.749 -1.356 3.165
 1.758 -1.346 3.132
 1.77 -1.339 3.105
 1.779 -1.33 3.073
 1.778 -1.314 3.024
 1.773 -1.295 2.97
 1.743 -1.259 2.876
 1.767 -1.262 2.872
 -2.296 -1.631 3.876
 -2.257 -1.622 3.867
 -2.231 -1.623 3.883
 -2.204 -1.622 3.894
 -2.179 -1.624 3.91
 -2.152 -1.624 3.922
 -2.125 -1.624 3.934
 -2.098 -1.623 3.945
 -2.066 -1.619 3.947
 -2.039 -1.618 3.956
 -2.011 -1.618 3.967
 -1.981 -1.614 3.97
 -1.958 -1.617 3.987
 -1.937 -1.622 4.011
 -1.912 -1.623 4.025
 -1.887 -1.625 4.039
 -1.861 -1.625 4.05
 -1.833 -1.623 4.057
 -1.802 -1.62 4.059
 -1.774 -1.619 4.065
 -1.744 -1.615 4.066
 -1.718 -1.616 4.077
 -1.691 -1.615 4.084
 -1.664 -1.614 4.091
 -1.636 -1.613 4.096
 -1.609 -1.613 4.106
 -1.582 -1.612 4.111
 -1.555 -1.611 4.118
 -1.529 -1.611 4.126
 -1.501 -1.61 4.131
 -1.473 -1.607 4.133
 -1.447 -1.608 4.142
 -1.421 -1.609 4.152
 -1.394 -1.608 4.157
 -1.368 -1.608 4.165
 -1.343 -1.61 4.176
 -1.315 -1.608 4.177
 -1.288 -1.606 4.181
 -1.259 -1.603 4.179
 -1.232 -1.601 4.181
 -1.205 -1.601 4.187
 -1.179 -1.601 4.192
 -1.152 -1.6 4.195
 -1.128 -1.603 4.208
 -1.102 -1.603 4.215
 -1.076 -1.602 4.219
 -1.049 -1.602 4.224
 -1.022 -1.601 4.225
 -0.995 -1.599 4.225
 -0.969 -1.598 4.227
 -0.942 -1.597 4.231
 -0.916 -1.597 4.234
 -0.889 -1.595 4.234
 -0.863 -1.595 4.237
 -0.836 -1.593 4.236
 -0.809 -1.591 4.235
 -0.783 -1.59 4.236
 -0.757 -1.591 4.242
 -0.732 -1.592 4.248
 -0.706 -1.593 4.254
 -0.679 -1.591 4.252
 -0.653 -1.59 4.253
 -0.627 -1.59 4.254
 -0.601 -1.588 4.252
 -0.575 -1.587 4.252
 -0.55 -1.589 4.261
 -0.524 -1.589 4.263
 -0.498 -1.59 4.267
 -0.472 -1.59 4.27
 -0.446 -1.588 4.268
 -0.42 -1.586 4.264
 -0.394 -1.584 4.26
 -0.368 -1.583 4.258
 -0.342 -1.581 4.255
 -0.316 -1.582 4.258
 -0.29 -1.582 4.26
 -0.265 -1.582 4.262
 -0.239 -1.581 4.26
 -0.213 -1.581 4.259
 -0.188 -1.58 4.257
 -0.162 -1.579 4.255
 -0.136 -1.58 4.259
 -0.111 -1.58 4.258
 -0.085 -1.58 4.259
 -0.06 -1.58 4.26
 -0.034 -1.58 4.259
 -0.008 -1.579 4.257
 0.016 -1.582 4.263
 0.042 -1.582 4.263
 0.067 -1.583 4.266
 0.093 -1.583 4.265
 0.119 -1.582 4.261
 0.144 -1.58 4.256
 0.17 -1.58 4.254
 0.195 -1.579 4.248
 0.22 -1.579 4.248
 0.246 -1.58 4.248
 0.272 -1.581 4.251
 0.297 -1.581 4.249
 0.323 -1.583 4.253
 0.349 -1.585 4.254
 0.375 -1.586 4.256
 0.4 -1.585 4.251
 0.426 -1.586 4.251
 0.452 -1.585 4.246
 0.477 -1.585 4.244
 0.503 -1.585 4.242
 0.528 -1.585 4.239
 0.554 -1.586 4.237
 0.58 -1.586 4.234
 0.605 -1.586 4.23
 0.63 -1.585 4.223
 0.657 -1.587 4.226
 0.682 -1.586 4.221
 0.709 -1.588 4.222
 0.735 -1.59 4.222
 0.761 -1.591 4.222
 0.787 -1.593 4.22
 0.814 -1.595 4.222
 0.84 -1.595 4.219
 0.867 -1.597 4.218
 0.894 -1.599 4.22
 0.92 -1.6 4.215
 0.946 -1.601 4.213
 0.972 -1.602 4.21
 0.998 -1.602 4.205
 1.024 -1.602 4.201
 1.051 -1.604 4.199
 1.079 -1.606 4.199
 1.105 -1.607 4.196
 1.131 -1.608 4.19
 1.158 -1.61 4.189
 1.184 -1.61 4.183
 1.208 -1.607 4.17
 1.236 -1.61 4.168
 1.265 -1.614 4.171
 1.291 -1.614 4.164
 1.319 -1.616 4.163
 1.346 -1.618 4.161
 1.373 -1.619 4.155
 1.399 -1.619 4.146
 1.425 -1.62 4.141
 1.452 -1.62 4.133
 1.479 -1.622 4.129
 1.506 -1.622 4.121
 1.534 -1.625 4.119
 1.561 -1.625 4.112
 1.586 -1.625 4.101
 1.613 -1.625 4.093
 1.64 -1.626 4.086
 1.664 -1.624 4.071
 1.69 -1.624 4.061
 1.714 -1.622 4.047
 1.737 -1.619 4.029
 1.761 -1.618 4.014
 1.782 -1.614 3.993
 1.8 -1.607 3.966
 1.817 -1.599 3.936
 1.831 -1.589 3.899
 1.836 -1.572 3.847
 1.847 -1.559 3.805
 1.851 -1.542 3.752
 1.86 -1.529 3.709
 1.867 -1.516 3.665
 1.88 -1.507 3.632
 1.88 -1.488 3.574
 0 0 0
 1.762 -1.36 3.245
 1.74 -1.327 3.155
 1.757 -1.324 3.137
 1.77 -1.318 3.112
 1.777 -1.307 3.077
 1.776 -1.292 3.029
 1.773 -1.274 2.977
 1.756 -1.248 2.906
 1.764 -1.24 2.874
 -2.319 -1.621 3.925
 -2.292 -1.62 3.938
 -2.263 -1.619 3.948
 -2.236 -1.619 3.96
 -2.213 -1.622 3.98
 -2.183 -1.62 3.988
 -2.156 -1.62 4.001
 -2.13 -1.62 4.014
 -2.098 -1.617 4.017
 -2.069 -1.616 4.026
 -2.04 -1.614 4.034
 -2.009 -1.611 4.037
 -1.985 -1.612 4.052
 -1.963 -1.617 4.074
 -1.936 -1.617 4.086
 -1.913 -1.62 4.104
 -1.887 -1.621 4.116
 -1.858 -1.62 4.124
 -1.828 -1.617 4.127
 -1.8 -1.615 4.134
 -1.769 -1.612 4.134
 -1.741 -1.611 4.141
 -1.713 -1.609 4.147
 -1.684 -1.608 4.152
 -1.657 -1.607 4.16
 -1.63 -1.607 4.167
 -1.603 -1.606 4.175
 -1.576 -1.606 4.183
 -1.549 -1.606 4.191
 -1.52 -1.604 4.194
 -1.492 -1.602 4.198
 -1.466 -1.603 4.208
 -1.439 -1.602 4.213
 -1.412 -1.602 4.22
 -1.386 -1.602 4.228
 -1.36 -1.603 4.237
 -1.33 -1.6 4.235
 -1.303 -1.598 4.238
 -1.273 -1.595 4.235
 -1.246 -1.593 4.238
 -1.219 -1.593 4.244
 -1.192 -1.593 4.249
 -1.165 -1.591 4.25
 -1.14 -1.593 4.26
 -1.113 -1.592 4.264
 -1.085 -1.591 4.266
 -1.058 -1.59 4.269
 -1.031 -1.588 4.271
 -1.003 -1.586 4.269
 -0.977 -1.585 4.271
 -0.949 -1.583 4.272
 -0.923 -1.583 4.275
 -0.896 -1.581 4.275
 -0.869 -1.581 4.277
 -0.841 -1.578 4.273
 -0.815 -1.576 4.274
 -0.788 -1.576 4.275
 -0.762 -1.576 4.281
 -0.736 -1.576 4.283
 -0.71 -1.576 4.286
 -0.683 -1.573 4.283
 -0.656 -1.572 4.283
 -0.63 -1.57 4.281
 -0.603 -1.569 4.28
 -0.577 -1.569 4.282
 -0.552 -1.571 4.29
 -0.526 -1.571 4.292
 -0.5 -1.572 4.296
 -0.474 -1.571 4.298
 -0.448 -1.57 4.296
 -0.421 -1.567 4.289
 -0.395 -1.565 4.287
 -0.369 -1.563 4.283
 -0.343 -1.562 4.281
 -0.317 -1.563 4.284
 -0.291 -1.563 4.285
 -0.266 -1.563 4.286
 -0.24 -1.562 4.284
 -0.214 -1.561 4.284
 -0.188 -1.56 4.282
 -0.162 -1.561 4.284
 -0.137 -1.561 4.286
 -0.111 -1.561 4.284
 -0.085 -1.56 4.282
 -0.06 -1.559 4.281
 -0.034 -1.558 4.277
 -0.008 -1.557 4.275
 0.016 -1.559 4.28
 0.042 -1.56 4.281
 0.068 -1.56 4.281
 0.093 -1.562 4.284
 0.119 -1.56 4.28
 0.145 -1.559 4.277
 0.17 -1.56 4.276
 0.196 -1.559 4.272
 0.221 -1.558 4.27
 0.247 -1.559 4.269
 0.273 -1.56 4.272
 0.299 -1.561 4.272
 0.325 -1.563 4.275
 0.35 -1.563 4.275
 0.376 -1.565 4.277
 0.402 -1.563 4.27
 0.427 -1.564 4.269
 0.453 -1.564 4.266
 0.479 -1.564 4.265
 0.505 -1.565 4.263
 0.53 -1.564 4.259
 0.556 -1.564 4.256
 0.582 -1.565 4.255
 0.607 -1.565 4.252
 0.633 -1.565 4.247
 0.659 -1.567 4.25
 0.685 -1.567 4.247
 0.711 -1.568 4.246
 0.738 -1.57 4.246
 0.764 -1.571 4.245
 0.791 -1.573 4.245
 0.817 -1.574 4.244
 0.843 -1.575 4.243
 0.87 -1.577 4.242
 0.898 -1.58 4.246
 0.924 -1.58 4.241
 0.951 -1.582 4.242
 0.977 -1.584 4.24
 1.003 -1.584 4.235
 1.029 -1.584 4.229
 1.057 -1.586 4.229
 1.083 -1.587 4.226
 1.11 -1.589 4.224
 1.137 -1.59 4.22
 1.164 -1.592 4.219
 1.191 -1.593 4.215
 1.217 -1.592 4.206
 1.244 -1.594 4.204
 1.272 -1.596 4.204
 1.299 -1.598 4.2
 1.328 -1.601 4.2
 1.355 -1.602 4.197
 1.382 -1.603 4.192
 1.409 -1.604 4.186
 1.436 -1.605 4.18
 1.463 -1.606 4.173
 1.491 -1.608 4.171
 1.518 -1.609 4.164
 1.546 -1.611 4.161
 1.575 -1.614 4.158
 1.601 -1.613 4.147
 1.628 -1.614 4.14
 1.656 -1.615 4.134
 1.681 -1.614 4.121
 1.706 -1.613 4.109
 1.73 -1.611 4.093
 1.752 -1.608 4.074
 1.775 -1.605 4.056
 1.795 -1.599 4.031
 1.812 -1.591 4
 1.826 -1.581 3.965
 1.836 -1.567 3.919
 1.843 -1.552 3.869
 1.854 -1.54 3.829
 1.859 -1.524 3.777
 1.868 -1.511 3.735
 1.882 -1.502 3.702
 1.896 -1.494 3.67
 0 0 0
 0 0 0
 0 0 0
 1.739 -1.305 3.161
 1.758 -1.303 3.146
 1.77 -1.296 3.119
 1.778 -1.287 3.086
 1.778 -1.272 3.04
 1.776 -1.256 2.989
 1.754 -1.226 2.908
 1.758 -1.215 2.872
 -2.382 -1.637 4.042
 -2.31 -1.606 3.98
 -2.296 -1.615 4.015
 -2.269 -1.616 4.03
 -2.245 -1.618 4.049
 -2.214 -1.616 4.055
 -2.185 -1.615 4.065
 -2.157 -1.614 4.076
 -2.125 -1.611 4.08
 -2.097 -1.61 4.091
 -2.069 -1.61 4.101
 -2.04 -1.608 4.108
 -2.015 -1.61 4.125
 -1.991 -1.613 4.142
 -1.963 -1.612 4.152
 -1.937 -1.613 4.166
 -1.909 -1.613 4.175
 -1.881 -1.612 4.184
 -1.852 -1.611 4.192
 -1.822 -1.608 4.195
 -1.793 -1.606 4.199
 -1.765 -1.606 4.207
 -1.737 -1.605 4.214
 -1.707 -1.602 4.217
 -1.68 -1.602 4.226
 -1.653 -1.602 4.235
 -1.623 -1.6 4.239
 -1.595 -1.598 4.242
 -1.566 -1.597 4.246
 -1.536 -1.594 4.247
 -1.507 -1.592 4.249
 -1.48 -1.592 4.257
 -1.453 -1.591 4.262
 -1.426 -1.591 4.271
 -1.398 -1.59 4.275
 -1.37 -1.588 4.278
 -1.34 -1.585 4.276
 -1.312 -1.584 4.279
 -1.283 -1.581 4.277
 -1.255 -1.579 4.28
 -1.228 -1.579 4.285
 -1.201 -1.577 4.287
 -1.173 -1.576 4.29
 -1.146 -1.576 4.294
 -1.119 -1.575 4.298
 -1.092 -1.574 4.3
 -1.064 -1.573 4.303
 -1.036 -1.57 4.301
 -1.008 -1.567 4.299
 -0.981 -1.566 4.299
 -0.953 -1.564 4.299
 -0.926 -1.563 4.301
 -0.9 -1.562 4.302
 -0.873 -1.562 4.306
 -0.845 -1.559 4.303
 -0.818 -1.558 4.302
 -0.791 -1.556 4.302
 -0.765 -1.555 4.303
 -0.738 -1.555 4.305
 -0.712 -1.554 4.307
 -0.685 -1.553 4.306
 -0.659 -1.552 4.308
 -0.632 -1.551 4.306
 -0.605 -1.549 4.304
 -0.579 -1.548 4.303
 -0.553 -1.549 4.309
 -0.527 -1.548 4.308
 -0.501 -1.548 4.312
 -0.475 -1.547 4.311
 -0.449 -1.547 4.311
 -0.422 -1.543 4.303
 -0.396 -1.542 4.303
 -0.369 -1.54 4.297
 -0.343 -1.538 4.295
 -0.317 -1.539 4.297
 -0.291 -1.538 4.296
 -0.265 -1.537 4.293
 -0.24 -1.537 4.294
 -0.214 -1.536 4.294
 -0.188 -1.535 4.291
 -0.162 -1.535 4.292
 -0.137 -1.535 4.293
 -0.111 -1.535 4.292
 -0.085 -1.534 4.29
 -0.059 -1.534 4.29
 -0.034 -1.533 4.287
 -0.008 -1.533 4.287
 0.017 -1.535 4.29
 0.042 -1.536 4.293
 0.068 -1.536 4.292
 0.094 -1.537 4.296
 0.119 -1.536 4.291
 0.145 -1.535 4.288
 0.17 -1.534 4.283
 0.196 -1.533 4.28
 0.222 -1.533 4.279
 0.247 -1.533 4.277
 0.273 -1.534 4.278
 0.299 -1.536 4.281
 0.325 -1.537 4.283
 0.351 -1.538 4.283
 0.377 -1.54 4.287
 0.402 -1.539 4.282
 0.428 -1.539 4.279
 0.454 -1.539 4.278
 0.48 -1.54 4.278
 0.505 -1.54 4.274
 0.531 -1.54 4.271
 0.557 -1.541 4.271
 0.583 -1.541 4.268
 0.608 -1.541 4.263
 0.634 -1.54 4.259
 0.66 -1.542 4.26
 0.686 -1.543 4.259
 0.712 -1.544 4.259
 0.739 -1.547 4.261
 0.766 -1.548 4.26
 0.792 -1.55 4.261
 0.818 -1.55 4.258
 0.845 -1.552 4.257
 0.871 -1.552 4.254
 0.899 -1.555 4.258
 0.925 -1.556 4.253
 0.952 -1.558 4.255
 0.979 -1.559 4.252
 1.005 -1.56 4.249
 1.031 -1.56 4.243
 1.058 -1.562 4.242
 1.085 -1.563 4.239
 1.112 -1.564 4.237
 1.139 -1.566 4.235
 1.166 -1.567 4.232
 1.194 -1.57 4.233
 1.22 -1.571 4.228
 1.248 -1.573 4.226
 1.276 -1.575 4.224
 1.304 -1.577 4.223
 1.332 -1.579 4.222
 1.359 -1.58 4.217
 1.387 -1.582 4.213
 1.415 -1.584 4.211
 1.443 -1.586 4.209
 1.47 -1.587 4.202
 1.5 -1.591 4.203
 1.527 -1.592 4.198
 1.556 -1.594 4.195
 1.584 -1.596 4.192
 1.612 -1.598 4.186
 1.64 -1.599 4.179
 1.667 -1.599 4.171
 1.692 -1.598 4.159
 1.719 -1.598 4.148
 1.742 -1.596 4.132
 1.764 -1.592 4.111
 1.787 -1.588 4.092
 1.806 -1.582 4.064
 1.822 -1.573 4.031
 1.834 -1.562 3.991
 1.845 -1.549 3.947
 1.852 -1.534 3.898
 1.863 -1.522 3.856
 1.869 -1.506 3.805
 1.879 -1.495 3.764
 1.893 -1.486 3.732
 0 0 0
 0 0 0
 0 0 0
 0 0 0
 1.737 -1.282 3.165
 1.755 -1.279 3.148
 1.768 -1.274 3.124
 1.777 -1.265 3.092
 1.779 -1.252 3.048
 1.776 -1.236 2.998
 1.749 -1.203 2.907
 1.757 -1.195 2.878
 -2.356 -1.592 4.008
 -2.345 -1.603 4.05
 -2.044 -1.414 3.582
 -2.112 -1.479 3.76
 -2.089 -1.481 3.776
 -2.061 -1.479 3.782
 -2.033 -1.477 3.791
 -1.919 -1.412 3.633
 -1.892 -1.41 3.639
 -1.953 -1.475 3.818
 -1.927 -1.474 3.827
 -1.984 -1.538 4.005
 -2.042 -1.604 4.19
 -2.017 -1.606 4.206
 -1.908 -1.54 4.044
 -1.881 -1.541 4.055
 -1.854 -1.54 4.063
 -1.826 -1.538 4.07
 -1.797 -1.537 4.075
 -1.842 -1.598 4.25
 -1.813 -1.597 4.257
 -1.784 -1.596 4.264
 -1.756 -1.596 4.271
 -1.726 -1.593 4.274
 -1.7 -1.594 4.287
 -1.671 -1.593 4.292
 -1.641 -1.59 4.293
 -1.61 -1.587 4.293
 -1.581 -1.585 4.296
 -1.549 -1.58 4.292
 -1.519 -1.578 4.293
 -1.492 -1.577 4.299
 -1.464 -1.576 4.305
 -1.436 -1.575 4.309
 -1.407 -1.573 4.311
 -1.379 -1.572 4.314
 -1.348 -1.568 4.311
 -1.32 -1.566 4.312
 -1.292 -1.564 4.315
 -1.262 -1.562 4.313
 -1.235 -1.56 4.316
 -1.207 -1.559 4.318
 -1.178 -1.556 4.316
 -1.149 -1.553 4.315
 -1.122 -1.553 4.319
 -1.094 -1.551 4.319
 -1.068 -1.551 4.324
 -1.04 -1.549 4.325
 -1.012 -1.547 4.323
 -0.985 -1.546 4.325
 -0.956 -1.543 4.322
 -0.929 -1.541 4.32
 -0.901 -1.539 4.32
 -0.875 -1.538 4.322
 -0.846 -1.535 4.316
 -0.82 -1.535 4.319
 -0.792 -1.532 4.317
 -0.766 -1.531 4.317
 -0.739 -1.53 4.318
 -0.713 -1.53 4.319
 -0.685 -1.527 4.316
 -0.659 -1.527 4.318
 -0.632 -1.525 4.315
 -0.606 -1.524 4.314
 -0.579 -1.522 4.313
 -0.553 -1.523 4.317
 -0.527 -1.521 4.315
 -0.501 -1.522 4.318
 -0.474 -1.52 4.316
 -0.448 -1.52 4.318
 -0.422 -1.517 4.311
 -0.396 -1.517 4.312
 -0.369 -1.514 4.306
 -0.343 -1.514 4.305
 -0.317 -1.514 4.307
 -0.291 -1.513 4.305
 -0.265 -1.511 4.302
 -0.24 -1.511 4.303
 -0.214 -1.51 4.301
 -0.188 -1.509 4.298
 -0.162 -1.509 4.299
 -0.137 -1.511 4.304
 -0.111 -1.509 4.3
 -0.085 -1.508 4.298
 -0.059 -1.508 4.296
 -0.034 -1.507 4.294
 -0.008 -1.506 4.29
 0.017 -1.507 4.294
 0.042 -1.509 4.297
 0.068 -1.508 4.294
 0.094 -1.509 4.298
 0.119 -1.508 4.294
 0.145 -1.508 4.291
 0.17 -1.507 4.287
 0.196 -1.507 4.286
 0.222 -1.507 4.285
 0.247 -1.506 4.282
 0.273 -1.507 4.282
 0.299 -1.508 4.284
 0.324 -1.509 4.285
 0.35 -1.509 4.282
 0.376 -1.511 4.287
 0.402 -1.511 4.285
 0.428 -1.511 4.282
 0.453 -1.512 4.283
 0.479 -1.513 4.281
 0.505 -1.514 4.28
 0.531 -1.514 4.279
 0.557 -1.515 4.278
 0.583 -1.516 4.277
 0.609 -1.516 4.273
 0.634 -1.516 4.27
 0.661 -1.517 4.27
 0.687 -1.518 4.27
 0.713 -1.518 4.267
 0.739 -1.521 4.269
 0.766 -1.522 4.267
 0.792 -1.523 4.266
 0.818 -1.524 4.264
 0.845 -1.526 4.266
 0.872 -1.527 4.264
 0.899 -1.53 4.269
 0.925 -1.531 4.264
 0.953 -1.533 4.265
 0.979 -1.534 4.262
 1.006 -1.534 4.259
 1.031 -1.534 4.251
 1.058 -1.536 4.251
 1.085 -1.537 4.247
 1.112 -1.538 4.244
 1.139 -1.539 4.242
 1.166 -1.541 4.242
 1.194 -1.544 4.242
 1.221 -1.545 4.238
 1.249 -1.547 4.238
 1.277 -1.55 4.237
 1.306 -1.552 4.237
 1.334 -1.555 4.237
 1.362 -1.557 4.235
 1.39 -1.559 4.233
 1.419 -1.562 4.231
 1.447 -1.564 4.228
 1.474 -1.565 4.222
 1.503 -1.567 4.221
 1.53 -1.568 4.214
 1.56 -1.571 4.214
 1.589 -1.573 4.211
 1.617 -1.576 4.207
 1.646 -1.578 4.203
 1.674 -1.579 4.198
 1.7 -1.579 4.187
 1.727 -1.579 4.178
 1.752 -1.577 4.162
 1.772 -1.572 4.138
 1.795 -1.569 4.119
 1.814 -1.562 4.091
 1.829 -1.553 4.056
 1.842 -1.542 4.016
 1.855 -1.531 3.977
 1.862 -1.517 3.928
 1.874 -1.505 3.888
 1.88 -1.49 3.836
 1.89 -1.478 3.795
 0 0 0
 0 0 0
 0 0 0
 0 0 0
 0 0 0
 1.731 -1.256 3.162
 1.753 -1.256 3.151
 1.768 -1.252 3.13
 1.776 -1.243 3.097
 1.78 -1.232 3.058
 1.779 -1.217 3.009
 1.77 -1.197 2.95
 1.766 -1.181 2.9
 -2.396 -1.591 4.085
 -2.371 -1.593 4.105
 -1.603 -1.091 2.814
 -1.677 -1.155 2.99
 -1.658 -1.155 3.002
 -1.635 -1.154 3.006
 -1.615 -1.154 3.016
 -1.505 -1.088 2.853
 -1.482 -1.086 2.854
 -1.548 -1.149 3.031
 -1.525 -1.147 3.033
 -1.586 -1.209 3.207
 -1.732 -1.338 3.56
 -1.792 -1.403 3.744
 -1.685 -1.337 3.578
 -1.661 -1.337 3.588
 -1.714 -1.4 3.765
 -1.688 -1.398 3.771
 -1.663 -1.398 3.778
 -1.785 -1.522 4.127
 -1.831 -1.585 4.308
 -1.801 -1.584 4.313
 -1.772 -1.582 4.319
 -1.739 -1.577 4.316
 -1.711 -1.577 4.324
 -1.681 -1.575 4.327
 -1.651 -1.573 4.329
 -1.619 -1.568 4.326
 -1.589 -1.566 4.327
 -1.558 -1.563 4.328
 -1.528 -1.56 4.328
 -1.5 -1.559 4.332
 -1.472 -1.558 4.337
 -1.443 -1.556 4.339
 -1.412 -1.552 4.337
 -1.383 -1.55 4.338
 -1.352 -1.546 4.333
 -1.324 -1.544 4.334
 -1.295 -1.542 4.336
 -1.266 -1.54 4.336
 -1.238 -1.538 4.338
 -1.211 -1.538 4.342
 -1.182 -1.535 4.34
 -1.153 -1.532 4.337
 -1.125 -1.53 4.339
 -1.097 -1.528 4.338
 -1.069 -1.526 4.338
 -1.04 -1.523 4.333
 -1.012 -1.521 4.333
 -0.985 -1.52 4.334
 -0.956 -1.517 4.33
 -0.928 -1.513 4.325
 -0.901 -1.513 4.327
 -0.873 -1.51 4.325
 -0.845 -1.507 4.32
 -0.819 -1.506 4.321
 -0.792 -1.505 4.321
 -0.765 -1.504 4.321
 -0.738 -1.503 4.323
 -0.712 -1.503 4.324
 -0.685 -1.5 4.321
 -0.658 -1.499 4.321
 -0.631 -1.497 4.319
 -0.605 -1.497 4.319
 -0.579 -1.496 4.32
 -0.553 -1.497 4.324
 -0.527 -1.495 4.323
 -0.501 -1.496 4.326
 -0.474 -1.494 4.323
 -0.448 -1.494 4.324
 -0.422 -1.491 4.319
 -0.395 -1.491 4.319
 -0.369 -1.489 4.314
 -0.343 -1.488 4.314
 -0.317 -1.487 4.311
 -0.291 -1.486 4.31
 -0.265 -1.485 4.308
 -0.239 -1.485 4.31
 -0.214 -1.485 4.309
 -0.188 -1.484 4.309
 -0.162 -1.485 4.311
 -0.137 -1.486 4.314
 -0.111 -1.484 4.308
 -0.085 -1.483 4.305
 -0.059 -1.481 4.301
 -0.033 -1.48 4.297
 -0.008 -1.478 4.291
 0.017 -1.479 4.292
 0.042 -1.48 4.296
 0.068 -1.479 4.293
 0.094 -1.481 4.297
 0.119 -1.48 4.293
 0.145 -1.48 4.292
 0.17 -1.478 4.286
 0.196 -1.478 4.285
 0.221 -1.479 4.285
 0.247 -1.479 4.283
 0.272 -1.479 4.282
 0.298 -1.48 4.285
 0.324 -1.482 4.288
 0.35 -1.481 4.284
 0.376 -1.484 4.29
 0.402 -1.485 4.29
 0.428 -1.485 4.289
 0.453 -1.485 4.286
 0.479 -1.487 4.288
 0.505 -1.487 4.285
 0.531 -1.487 4.282
 0.556 -1.487 4.279
 0.582 -1.488 4.279
 0.608 -1.487 4.274
 0.634 -1.488 4.273
 0.66 -1.489 4.273
 0.687 -1.492 4.275
 0.712 -1.492 4.273
 0.739 -1.494 4.275
 0.766 -1.495 4.274
 0.792 -1.497 4.274
 0.818 -1.497 4.271
 0.845 -1.499 4.272
 0.871 -1.5 4.27
 0.899 -1.504 4.275
 0.925 -1.504 4.27
 0.952 -1.505 4.27
 0.979 -1.506 4.267
 1.005 -1.507 4.264
 1.03 -1.506 4.253
 1.057 -1.508 4.253
 1.084 -1.509 4.252
 1.111 -1.51 4.249
 1.138 -1.512 4.247
 1.166 -1.515 4.249
 1.194 -1.517 4.248
 1.221 -1.518 4.246
 1.249 -1.521 4.246
 1.277 -1.523 4.243
 1.305 -1.525 4.244
 1.334 -1.529 4.245
 1.363 -1.531 4.244
 1.392 -1.534 4.244
 1.42 -1.536 4.243
 1.448 -1.538 4.241
 1.476 -1.54 4.235
 1.504 -1.542 4.232
 1.531 -1.542 4.224
 1.56 -1.545 4.223
 1.59 -1.548 4.222
 1.619 -1.55 4.22
 1.649 -1.553 4.219
 1.678 -1.556 4.215
 1.705 -1.556 4.206
 1.731 -1.556 4.196
 1.757 -1.555 4.183
 1.777 -1.549 4.158
 1.799 -1.545 4.136
 1.818 -1.54 4.11
 1.836 -1.532 4.079
 1.848 -1.521 4.038
 1.863 -1.512 4.003
 1.873 -1.499 3.959
 1.882 -1.486 3.913
 1.882 -1.466 3.849
 0 0 0
 0 0 0
 0 0 0
 0 0 0
 0 0 0
 0 0 0
 1.463 -1.044 2.676
 1.754 -1.236 3.161
 1.77 -1.232 3.141
 1.777 -1.222 3.105
 1.783 -1.213 3.069
 1.782 -1.198 3.022
 1.751 -1.164 2.925
 1.77 -1.163 2.912
 -0.029 -0.021 0.037
 -0.038 -0.027 0.054
 -1.162 -0.777 2.04
 -1.238 -0.838 2.209
 -1.223 -0.838 2.216
 -1.205 -0.836 2.218
 -1.189 -0.835 2.221
 -1.08 -0.768 2.049
 -1.063 -0.766 2.048
 -1.133 -0.827 2.219
 -1.113 -0.822 2.214
 -1.18 -0.884 2.388
 -1.415 -1.074 2.913
 -1.56 -1.2 3.265
 -1.457 -1.136 3.099
 -1.516 -1.199 3.279
 -1.649 -1.323 3.629
 -1.623 -1.321 3.633
 -1.598 -1.32 3.639
 -1.797 -1.506 4.163
 -1.842 -1.568 4.345
 -1.811 -1.565 4.347
 -1.781 -1.563 4.351
 -1.748 -1.558 4.348
 -1.719 -1.557 4.354
 -1.688 -1.554 4.355
 -1.658 -1.552 4.358
 -1.626 -1.548 4.355
 -1.596 -1.545 4.356
 -1.564 -1.541 4.353
 -1.533 -1.537 4.349
 -1.503 -1.535 4.35
 -1.473 -1.532 4.35
 -1.443 -1.529 4.349
 -1.413 -1.526 4.347
 -1.384 -1.524 4.348
 -1.354 -1.521 4.346
 -1.325 -1.519 4.348
 -1.298 -1.518 4.353
 -1.269 -1.516 4.353
 -1.241 -1.514 4.355
 -1.212 -1.513 4.356
 -1.183 -1.509 4.352
 -1.153 -1.506 4.347
 -1.125 -1.504 4.348
 -1.096 -1.501 4.345
 -1.068 -1.499 4.343
 -1.039 -1.496 4.34
 -1.011 -1.493 4.336
 -0.983 -1.492 4.337
 -0.955 -1.489 4.334
 -0.928 -1.487 4.332
 -0.9 -1.486 4.333
 -0.873 -1.484 4.332
 -0.845 -1.481 4.327
 -0.819 -1.48 4.329
 -0.791 -1.478 4.328
 -0.764 -1.477 4.326
 -0.738 -1.476 4.328
 -0.711 -1.474 4.326
 -0.684 -1.472 4.321
 -0.657 -1.471 4.322
 -0.63 -1.469 4.319
 -0.604 -1.468 4.318
 -0.578 -1.468 4.32
 -0.552 -1.468 4.324
 -0.525 -1.467 4.322
 -0.5 -1.468 4.328
 -0.474 -1.467 4.327
 -0.448 -1.467 4.329
 -0.421 -1.466 4.327
 -0.396 -1.466 4.329
 -0.369 -1.464 4.325
 -0.343 -1.464 4.326
 -0.317 -1.462 4.321
 -0.291 -1.46 4.317
 -0.265 -1.458 4.314
 -0.239 -1.458 4.314
 -0.213 -1.456 4.309
 -0.187 -1.457 4.311
 -0.162 -1.457 4.312
 -0.136 -1.457 4.314
 -0.11 -1.455 4.308
 -0.085 -1.455 4.307
 -0.059 -1.454 4.303
 -0.033 -1.452 4.299
 -0.008 -1.451 4.295
 0.017 -1.452 4.296
 0.043 -1.452 4.298
 0.068 -1.452 4.295
 0.094 -1.454 4.3
 0.119 -1.452 4.294
 0.145 -1.452 4.293
 0.17 -1.451 4.29
 0.196 -1.451 4.289
 0.221 -1.452 4.289
 0.247 -1.452 4.288
 0.273 -1.453 4.288
 0.298 -1.454 4.291
 0.324 -1.455 4.293
 0.349 -1.454 4.286
 0.376 -1.456 4.291
 0.401 -1.456 4.289
 0.427 -1.456 4.287
 0.452 -1.457 4.285
 0.479 -1.459 4.289
 0.504 -1.458 4.284
 0.53 -1.459 4.283
 0.555 -1.459 4.28
 0.582 -1.46 4.279
 0.607 -1.459 4.274
 0.633 -1.461 4.277
 0.66 -1.462 4.277
 0.686 -1.465 4.28
 0.712 -1.466 4.279
 0.739 -1.468 4.283
 0.765 -1.468 4.278
 0.792 -1.47 4.279
 0.818 -1.47 4.275
 0.844 -1.471 4.272
 0.87 -1.471 4.268
 0.897 -1.474 4.273
 0.923 -1.474 4.266
 0.95 -1.475 4.265
 0.977 -1.477 4.265
 1.003 -1.479 4.264
 1.029 -1.477 4.255
 1.056 -1.48 4.257
 1.083 -1.482 4.256
 1.11 -1.483 4.252
 1.137 -1.485 4.252
 1.165 -1.487 4.252
 1.193 -1.489 4.252
 1.22 -1.491 4.25
 1.249 -1.494 4.251
 1.276 -1.495 4.248
 1.304 -1.498 4.248
 1.333 -1.501 4.249
 1.361 -1.503 4.247
 1.39 -1.506 4.248
 1.419 -1.508 4.248
 1.447 -1.511 4.245
 1.475 -1.512 4.24
 1.504 -1.514 4.24
 1.531 -1.515 4.231
 1.56 -1.517 4.229
 1.59 -1.521 4.23
 1.619 -1.523 4.229
 1.648 -1.526 4.226
 1.677 -1.528 4.222
 1.704 -1.528 4.213
 1.731 -1.529 4.204
 1.757 -1.528 4.192
 1.778 -1.523 4.169
 1.801 -1.521 4.151
 1.822 -1.516 4.126
 1.84 -1.509 4.098
 1.854 -1.499 4.059
 1.869 -1.49 4.024
 1.882 -1.48 3.985
 1.892 -1.468 3.942
 0 0 0
 0 0 0
 0 0 0
 0 0 0
 0 0 0
 0 0 0
 0 0 0
 1.258 -0.882 2.305
 1.75 -1.212 3.161
 1.766 -1.208 3.141
 1.774 -1.2 3.108
 1.782 -1.191 3.074
 1.78 -1.176 3.026
 1.791 -1.17 2.998
 1.758 -1.135 2.899
 -0.087 -0.057 0.136
 -0.081 -0.054 0.128
 -0.718 -0.472 1.259
 -0.797 -0.53 1.421
 -0.785 -0.529 1.422
 -0.772 -0.526 1.418
 -0.759 -0.524 1.416
 -0.654 -0.457 1.239
 -0.641 -0.454 1.234
 -0.712 -0.511 1.394
 -0.784 -0.569 1.559
 -0.94 -0.692 1.903
 -1.261 -0.94 2.6
 -1.406 -1.063 2.949
 -1.388 -1.063 2.958
 -1.446 -1.124 3.135
 -1.579 -1.245 3.483
 -1.553 -1.242 3.484
 -1.606 -1.303 3.665
 -1.803 -1.484 4.186
 -1.848 -1.544 4.366
 -1.817 -1.542 4.37
 -1.786 -1.539 4.372
 -1.753 -1.535 4.37
 -1.724 -1.534 4.376
 -1.693 -1.531 4.376
 -1.661 -1.527 4.374
 -1.629 -1.524 4.373
 -1.598 -1.52 4.371
 -1.566 -1.516 4.366
 -1.534 -1.511 4.361
 -1.503 -1.508 4.359
 -1.472 -1.504 4.357
 -1.441 -1.5 4.353
 -1.411 -1.497 4.35
 -1.382 -1.495 4.351
 -1.353 -1.493 4.351
 -1.324 -1.49 4.352
 -1.296 -1.49 4.357
 -1.268 -1.488 4.357
 -1.24 -1.486 4.36
 -1.211 -1.484 4.358
 -1.181 -1.481 4.356
 -1.152 -1.477 4.35
 -1.123 -1.475 4.349
 -1.094 -1.472 4.345
 -1.066 -1.47 4.344
 -1.037 -1.467 4.34
 -1.009 -1.464 4.337
 -0.982 -1.463 4.34
 -0.954 -1.461 4.336
 -0.926 -1.459 4.335
 -0.899 -1.457 4.335
 -0.872 -1.456 4.334
 -0.843 -1.452 4.327
 -0.817 -1.452 4.33
 -0.79 -1.45 4.329
 -0.763 -1.449 4.328
 -0.737 -1.449 4.331
 -0.711 -1.448 4.334
 -0.683 -1.445 4.328
 -0.656 -1.444 4.326
 -0.63 -1.443 4.326
 -0.603 -1.441 4.322
 -0.577 -1.44 4.322
 -0.551 -1.44 4.325
 -0.525 -1.439 4.326
 -0.499 -1.441 4.332
 -0.474 -1.441 4.335
 -0.447 -1.44 4.335
 -0.421 -1.44 4.334
 -0.395 -1.439 4.332
 -0.368 -1.436 4.325
 -0.342 -1.435 4.324
 -0.316 -1.433 4.321
 -0.29 -1.432 4.318
 -0.264 -1.431 4.315
 -0.239 -1.431 4.316
 -0.213 -1.429 4.311
 -0.187 -1.429 4.312
 -0.161 -1.428 4.308
 -0.136 -1.428 4.311
 -0.11 -1.427 4.306
 -0.084 -1.426 4.304
 -0.059 -1.426 4.303
 -0.033 -1.426 4.304
 -0.007 -1.424 4.298
 0.017 -1.425 4.299
 0.043 -1.426 4.301
 0.068 -1.424 4.296
 0.094 -1.425 4.298
 0.119 -1.424 4.295
 0.145 -1.423 4.29
 0.17 -1.423 4.289
 0.196 -1.425 4.293
 0.222 -1.426 4.297
 0.247 -1.426 4.294
 0.273 -1.427 4.297
 0.299 -1.428 4.298
 0.324 -1.429 4.298
 0.349 -1.427 4.29
 0.376 -1.431 4.3
 0.401 -1.43 4.295
 0.427 -1.43 4.293
 0.452 -1.43 4.29
 0.478 -1.431 4.29
 0.503 -1.429 4.282
 0.529 -1.431 4.284
 0.555 -1.43 4.279
 0.58 -1.431 4.277
 0.606 -1.431 4.276
 0.633 -1.434 4.279
 0.659 -1.434 4.277
 0.686 -1.437 4.282
 0.712 -1.439 4.285
 0.739 -1.441 4.285
 0.764 -1.441 4.281
 0.792 -1.444 4.285
 0.817 -1.443 4.28
 0.843 -1.443 4.276
 0.869 -1.445 4.274
 0.897 -1.447 4.278
 0.922 -1.447 4.27
 0.949 -1.448 4.269
 0.976 -1.449 4.268
 1.002 -1.451 4.267
 1.028 -1.45 4.26
 1.056 -1.453 4.262
 1.083 -1.455 4.261
 1.11 -1.456 4.258
 1.137 -1.458 4.257
 1.165 -1.46 4.258
 1.192 -1.462 4.257
 1.219 -1.463 4.254
 1.248 -1.466 4.255
 1.275 -1.467 4.251
 1.303 -1.469 4.25
 1.33 -1.471 4.248
 1.359 -1.473 4.247
 1.387 -1.476 4.247
 1.416 -1.479 4.247
 1.445 -1.482 4.247
 1.474 -1.484 4.244
 1.503 -1.486 4.243
 1.53 -1.487 4.238
 1.56 -1.49 4.238
 1.589 -1.493 4.235
 1.618 -1.496 4.235
 1.648 -1.498 4.232
 1.676 -1.5 4.227
 1.703 -1.5 4.218
 1.731 -1.502 4.212
 1.757 -1.501 4.201
 1.78 -1.498 4.181
 1.804 -1.496 4.165
 1.826 -1.492 4.144
 1.844 -1.486 4.115
 1.86 -1.478 4.082
 1.881 -1.473 4.059
 1.896 -1.465 4.025
 0 0 0
 0 0 0
 0 0 0
 0 0 0
 0 0 0
 0 0 0
 0 0 0
 0 0 0
 1.255 -0.865 2.304
 1.747 -1.188 3.162
 1.766 -1.187 3.149
 1.776 -1.179 3.117
 1.782 -1.17 3.081
 1.781 -1.156 3.034
 1.77 -1.136 2.97
 1.8 -1.142 2.976
 -0.149 -0.095 0.244
 -0.056 -0.037 0.086
 -0.265 -0.172 0.457
 -0.348 -0.228 0.615
 -0.34 -0.225 0.609
 -0.332 -0.223 0.604
 -0.324 -0.221 0.599
 -0.224 -0.155 0.416
 -0.216 -0.151 0.407
 -0.29 -0.205 0.561
 -0.365 -0.261 0.72
 -0.524 -0.38 1.058
 -0.849 -0.622 1.749
 -1.081 -0.803 2.269
 -1.147 -0.863 2.448
 -1.29 -0.984 2.8
 -1.505 -1.164 3.324
 -1.557 -1.222 3.499
 -1.609 -1.282 3.678
 -1.807 -1.461 4.205
 -1.85 -1.518 4.38
 -1.818 -1.515 4.382
 -1.787 -1.513 4.384
 -1.754 -1.508 4.381
 -1.723 -1.506 4.383
 -1.691 -1.502 4.381
 -1.66 -1.499 4.38
 -1.628 -1.495 4.376
 -1.596 -1.491 4.374
 -1.564 -1.487 4.371
 -1.532 -1.483 4.366
 -1.502 -1.479 4.364
 -1.471 -1.476 4.362
 -1.44 -1.472 4.358
 -1.41 -1.469 4.356
 -1.381 -1.467 4.358
 -1.352 -1.465 4.358
 -1.323 -1.463 4.359
 -1.295 -1.462 4.362
 -1.266 -1.46 4.361
 -1.239 -1.459 4.365
 -1.209 -1.456 4.361
 -1.18 -1.453 4.359
 -1.151 -1.449 4.354
 -1.122 -1.447 4.354
 -1.093 -1.444 4.348
 -1.065 -1.442 4.347
 -1.037 -1.439 4.345
 -1.008 -1.437 4.341
 -0.981 -1.435 4.341
 -0.953 -1.433 4.338
 -0.926 -1.432 4.34
 -0.897 -1.428 4.334
 -0.871 -1.427 4.335
 -0.842 -1.424 4.329
 -0.816 -1.424 4.332
 -0.789 -1.422 4.331
 -0.763 -1.422 4.334
 -0.736 -1.421 4.334
 -0.71 -1.422 4.339
 -0.683 -1.418 4.332
 -0.655 -1.415 4.326
 -0.629 -1.415 4.328
 -0.602 -1.413 4.324
 -0.576 -1.413 4.326
 -0.551 -1.413 4.33
 -0.525 -1.414 4.333
 -0.499 -1.415 4.34
 -0.474 -1.415 4.343
 -0.447 -1.414 4.341
 -0.421 -1.414 4.342
 -0.395 -1.413 4.34
 -0.368 -1.41 4.333
 -0.342 -1.409 4.331
 -0.316 -1.408 4.329
 -0.29 -1.406 4.326
 -0.264 -1.405 4.324
 -0.238 -1.405 4.322
 -0.213 -1.403 4.319
 -0.187 -1.403 4.318
 -0.161 -1.401 4.313
 -0.135 -1.401 4.313
 -0.11 -1.4 4.309
 -0.084 -1.398 4.305
 -0.058 -1.398 4.303
 -0.033 -1.398 4.304
 -0.007 -1.397 4.3
 0.017 -1.397 4.3
 0.043 -1.398 4.303
 0.068 -1.397 4.298
 0.094 -1.398 4.3
 0.119 -1.397 4.298
 0.145 -1.396 4.292
 0.17 -1.396 4.293
 0.196 -1.399 4.299
 0.222 -1.401 4.303
 0.247 -1.4 4.3
 0.273 -1.401 4.302
 0.299 -1.402 4.303
 0.324 -1.402 4.302
 0.349 -1.401 4.295
 0.376 -1.405 4.305
 0.401 -1.404 4.299
 0.427 -1.404 4.299
 0.452 -1.404 4.295
 0.478 -1.404 4.294
 0.503 -1.402 4.284
 0.529 -1.405 4.289
 0.554 -1.403 4.282
 0.58 -1.404 4.279
 0.606 -1.405 4.28
 0.633 -1.407 4.284
 0.658 -1.408 4.282
 0.685 -1.411 4.288
 0.713 -1.414 4.292
 0.739 -1.415 4.292
 0.765 -1.415 4.289
 0.792 -1.418 4.294
 0.818 -1.418 4.289
 0.843 -1.418 4.283
 0.869 -1.418 4.281
 0.897 -1.421 4.284
 0.923 -1.421 4.278
 0.949 -1.422 4.278
 0.976 -1.424 4.276
 1.002 -1.424 4.273
 1.028 -1.424 4.268
 1.055 -1.426 4.267
 1.082 -1.428 4.266
 1.109 -1.429 4.263
 1.137 -1.431 4.264
 1.165 -1.433 4.264
 1.191 -1.434 4.26
 1.218 -1.436 4.258
 1.247 -1.438 4.258
 1.273 -1.439 4.253
 1.301 -1.441 4.252
 1.33 -1.444 4.253
 1.358 -1.446 4.253
 1.386 -1.448 4.251
 1.415 -1.451 4.251
 1.444 -1.454 4.25
 1.472 -1.455 4.248
 1.5 -1.457 4.243
 1.528 -1.458 4.239
 1.557 -1.461 4.238
 1.586 -1.464 4.237
 1.616 -1.466 4.235
 1.645 -1.469 4.234
 1.674 -1.471 4.231
 1.702 -1.472 4.224
 1.73 -1.474 4.218
 1.757 -1.474 4.207
 1.781 -1.472 4.192
 1.806 -1.471 4.178
 1.829 -1.468 4.159
 1.85 -1.464 4.136
 1.871 -1.459 4.113
 1.894 -1.457 4.095
 0 0 0
 0 0 0
 0 0 0
 0 0 0
 0 0 0
 0 0 0
 0 0 0
 0 0 0
 0 0 0
 1.024 -0.694 1.884
 1.75 -1.169 3.174
 1.769 -1.167 3.16
 1.777 -1.159 3.126
 1.783 -1.15 3.09
 1.784 -1.137 3.046
 1.756 -1.107 2.953
 1.753 -1.092 2.904
 -0.107 -0.068 0.172
 -0.156 -0.099 0.261
 -0.091 -0.059 0.149
 -0.083 -0.054 0.136
 -0.077 -0.051 0.129
 -0.071 -0.048 0.12
 -0.067 -0.046 0.114
 -0.058 -0.04 0.098
 -0.05 -0.035 0.084
 -0.038 -0.027 0.061
 -0.114 -0.081 0.216
 -0.19 -0.136 0.376
 -0.518 -0.373 1.064
 -0.753 -0.549 1.579
 -0.985 -0.728 2.104
 -1.209 -0.906 2.629
 -1.503 -1.142 3.328
 -1.555 -1.198 3.502
 -1.684 -1.317 3.859
 -1.807 -1.434 4.214
 -1.849 -1.49 4.388
 -1.818 -1.487 4.39
 -1.785 -1.483 4.388
 -1.752 -1.478 4.383
 -1.719 -1.474 4.381
 -1.688 -1.471 4.38
 -1.656 -1.467 4.378
 -1.625 -1.464 4.377
 -1.593 -1.461 4.376
 -1.562 -1.458 4.373
 -1.53 -1.453 4.367
 -1.5 -1.45 4.367
 -1.469 -1.447 4.365
 -1.439 -1.444 4.361
 -1.409 -1.441 4.361
 -1.38 -1.44 4.364
 -1.351 -1.437 4.363
 -1.323 -1.436 4.365
 -1.295 -1.434 4.368
 -1.265 -1.432 4.366
 -1.237 -1.431 4.369
 -1.207 -1.427 4.363
 -1.179 -1.424 4.361
 -1.149 -1.421 4.357
 -1.121 -1.419 4.357
 -1.092 -1.416 4.353
 -1.065 -1.415 4.354
 -1.036 -1.412 4.351
 -1.008 -1.409 4.346
 -0.98 -1.407 4.344
 -0.952 -1.405 4.342
 -0.925 -1.404 4.344
 -0.896 -1.401 4.337
 -0.87 -1.4 4.34
 -0.842 -1.397 4.334
 -0.816 -1.397 4.338
 -0.789 -1.396 4.337
 -0.763 -1.396 4.341
 -0.736 -1.395 4.342
 -0.71 -1.395 4.346
 -0.682 -1.392 4.337
 -0.655 -1.389 4.331
 -0.629 -1.388 4.333
 -0.602 -1.386 4.327
 -0.576 -1.386 4.329
 -0.55 -1.387 4.335
 -0.524 -1.387 4.339
 -0.499 -1.389 4.347
 -0.474 -1.39 4.351
 -0.447 -1.388 4.346
 -0.421 -1.388 4.348
 -0.394 -1.385 4.342
 -0.368 -1.382 4.332
 -0.342 -1.38 4.329
 -0.315 -1.379 4.326
 -0.289 -1.377 4.322
 -0.264 -1.377 4.322
 -0.238 -1.376 4.319
 -0.212 -1.375 4.317
 -0.186 -1.376 4.32
 -0.161 -1.374 4.316
 -0.135 -1.373 4.314
 -0.109 -1.374 4.314
 -0.084 -1.372 4.308
 -0.058 -1.371 4.308
 -0.033 -1.372 4.309
 -0.007 -1.371 4.307
 0.017 -1.371 4.306
 0.043 -1.373 4.312
 0.068 -1.372 4.306
 0.094 -1.372 4.307
 0.119 -1.372 4.304
 0.145 -1.369 4.296
 0.17 -1.37 4.296
 0.196 -1.372 4.303
 0.222 -1.374 4.308
 0.247 -1.373 4.304
 0.273 -1.376 4.309
 0.299 -1.377 4.311
 0.324 -1.377 4.309
 0.349 -1.375 4.302
 0.376 -1.38 4.314
 0.401 -1.378 4.306
 0.427 -1.378 4.305
 0.452 -1.377 4.3
 0.478 -1.378 4.299
 0.502 -1.375 4.286
 0.529 -1.377 4.291
 0.554 -1.376 4.283
 0.579 -1.376 4.281
 0.605 -1.377 4.28
 0.632 -1.38 4.286
 0.658 -1.38 4.283
 0.685 -1.383 4.289
 0.712 -1.387 4.296
 0.739 -1.389 4.299
 0.765 -1.389 4.295
 0.793 -1.393 4.302
 0.818 -1.393 4.299
 0.843 -1.391 4.289
 0.869 -1.391 4.284
 0.896 -1.394 4.287
 0.922 -1.393 4.281
 0.948 -1.395 4.28
 0.975 -1.396 4.278
 1.002 -1.397 4.276
 1.028 -1.398 4.274
 1.055 -1.4 4.274
 1.082 -1.401 4.272
 1.109 -1.403 4.271
 1.137 -1.405 4.27
 1.163 -1.405 4.266
 1.189 -1.406 4.26
 1.217 -1.408 4.261
 1.245 -1.411 4.261
 1.272 -1.411 4.257
 1.3 -1.413 4.255
 1.328 -1.415 4.255
 1.356 -1.417 4.252
 1.383 -1.418 4.247
 1.412 -1.421 4.249
 1.441 -1.424 4.248
 1.469 -1.426 4.246
 1.498 -1.428 4.244
 1.526 -1.43 4.241
 1.555 -1.433 4.24
 1.585 -1.436 4.242
 1.615 -1.439 4.24
 1.643 -1.441 4.237
 1.673 -1.443 4.235
 1.701 -1.444 4.228
 1.728 -1.445 4.22
 1.755 -1.446 4.212
 1.781 -1.445 4.2
 1.806 -1.444 4.185
 1.83 -1.442 4.17
 1.854 -1.44 4.152
 1.874 -1.435 4.127
 0 0 0
 0 0 0
 0 0 0
 0 0 0
 0 0 0
 0 0 0
 0 0 0
 0 0 0
 0 0 0
 0 0 0
 0.909 -0.605 1.675
 1.75 -1.148 3.181
 1.768 -1.146 3.165
 1.778 -1.139 3.135
 1.783 -1.129 3.096
 1.785 -1.117 3.054
 1.759 -1.089 2.965
 1.753 -1.072 2.91
 -0.095 -0.059 0.151
 -0.09 -0.057 0.145
 -0.1 -0.064 0.166
 -0.09 -0.058 0.15
 -0.082 -0.053 0.137
 -0.075 -0.05 0.127
 -0.069 -0.046 0.118
 -0.06 -0.041 0.103
 -0.052 -0.036 0.089
 -0.04 -0.029 0.067
 -0.116 -0.081 0.222
 -0.192 -0.134 0.38
 -0.517 -0.365 1.064
 -0.752 -0.538 1.58
 -1.064 -0.772 2.28
 -1.368 -1.005 2.982
 -1.66 -1.237 3.685
 -1.711 -1.294 3.863
 -1.837 -1.41 4.22
 -1.882 -1.465 4.397
 -1.848 -1.461 4.394
 -1.817 -1.458 4.396
 -1.783 -1.454 4.392
 -1.75 -1.45 4.389
 -1.718 -1.446 4.388
 -1.685 -1.442 4.383
 -1.653 -1.438 4.378
 -1.622 -1.435 4.379
 -1.592 -1.432 4.38
 -1.561 -1.429 4.377
 -1.529 -1.425 4.372
 -1.499 -1.422 4.372
 -1.468 -1.419 4.368
 -1.437 -1.415 4.365
 -1.408 -1.413 4.366
 -1.38 -1.412 4.371
 -1.351 -1.411 4.372
 -1.323 -1.41 4.375
 -1.295 -1.408 4.377
 -1.265 -1.405 4.373
 -1.237 -1.404 4.376
 -1.206 -1.399 4.367
 -1.177 -1.396 4.364
 -1.148 -1.393 4.358
 -1.119 -1.391 4.358
 -1.09 -1.387 4.352
 -1.063 -1.386 4.354
 -1.036 -1.385 4.356
 -1.007 -1.382 4.35
 -0.978 -1.379 4.347
 -0.951 -1.378 4.346
 -0.925 -1.379 4.354
 -0.896 -1.374 4.342
 -0.87 -1.374 4.348
 -0.842 -1.372 4.344
 -0.816 -1.372 4.348
 -0.788 -1.369 4.343
 -0.762 -1.369 4.346
 -0.735 -1.367 4.344
 -0.709 -1.368 4.348
 -0.681 -1.364 4.339
 -0.654 -1.361 4.332
 -0.628 -1.362 4.337
 -0.601 -1.359 4.331
 -0.575 -1.358 4.332
 -0.55 -1.359 4.338
 -0.524 -1.36 4.343
 -0.499 -1.363 4.353
 -0.473 -1.364 4.358
 -0.447 -1.362 4.353
 -0.421 -1.362 4.355
 -0.393 -1.356 4.338
 -0.366 -1.352 4.326
 -0.341 -1.352 4.327
 -0.315 -1.351 4.325
 -0.289 -1.35 4.323
 -0.263 -1.35 4.324
 -0.237 -1.348 4.32
 -0.211 -1.347 4.316
 -0.186 -1.347 4.317
 -0.16 -1.345 4.311
 -0.135 -1.344 4.309
 -0.109 -1.344 4.308
 -0.083 -1.341 4.3
 -0.058 -1.342 4.301
 -0.032 -1.343 4.304
 -0.007 -1.342 4.303
 0.017 -1.344 4.308
 0.043 -1.349 4.323
 0.069 -1.347 4.315
