-1.397 -1.619 3.797
-1.384 -1.633 3.837
-1.359 -1.632 3.842
-1.349 -1.651 3.894
-1.307 -1.63 3.851
-1.298 -1.65 3.905
-1.246 -1.614 3.826
-1.218 -1.61 3.823
-1.207 -1.628 3.873
-1.193 -1.642 3.912
-1.152 -1.619 3.864
-1.144 -1.642 3.926
-1.091 -1.601 3.833
-1.08 -1.621 3.885
-1.051 -1.614 3.875
-1.032 -1.622 3.9
-1.008 -1.622 3.905
-0.983 -1.623 3.911
-0.954 -1.615 3.898
-0.933 -1.621 3.917
-0.899 -1.603 3.878
-0.893 -1.637 3.965
-0.859 -1.619 3.927
-0.839 -1.627 3.95
-0.821 -1.64 3.986
-0.797 -1.641 3.991
-0.766 -1.628 3.964
-0.747 -1.64 3.998
-0.716 -1.626 3.966
-0.702 -1.65 4.028
-0.669 -1.63 3.984
-0.647 -1.636 4.001
-0.623 -1.637 4.006
-0.59 -1.615 3.956
-0.561 -1.602 3.927
-0.538 -1.605 3.936
-0.516 -1.611 3.953
-0.496 -1.626 3.992
-0.474 -1.632 4.009
-0.454 -1.65 4.057
-0.431 -1.658 4.078
-0.396 -1.614 3.972
-0.373 -1.622 3.992
-0.347 -1.613 3.973
-0.323 -1.611 3.969
-0.306 -1.653 4.073
-0.276 -1.62 3.994
-0.254 -1.639 4.041
-0.226 -1.613 3.978
-0.205 -1.633 4.028
-0.178 -1.615 3.984
-0.155 -1.626 4.013
-0.131 -1.628 4.017
-0.107 -1.641 4.05
-0.081 -1.618 3.993
-0.058 -1.627 4.014
-0.033 -1.634 4.034
-0.009 -1.61 3.973
0.015 -1.651 4.074
0.038 -1.612 3.976
0.063 -1.631 4.023
0.088 -1.637 4.037
0.111 -1.62 3.995
0.137 -1.63 4.02
0.161 -1.629 4.015
0.185 -1.626 4.007
0.213 -1.654 4.074
0.233 -1.624 3.998
0.262 -1.65 4.062
0.281 -1.619 3.982
0.303 -1.608 3.955
0.331 -1.63 4.006
0.353 -1.619 3.977
0.374 -1.604 3.939
0.407 -1.64 4.025
0.433 -1.645 4.034
0.45 -1.619 3.968
0.475 -1.621 3.97
0.5 -1.625 3.978
0.515 -1.595 3.902
0.544 -1.613 3.941
0.577 -1.638 3.999
0.598 -1.628 3.971
0.629 -1.645 4.01
0.645 -1.623 3.952
0.671 -1.629 3.964
0.697 -1.633 3.968
0.716 -1.62 3.933
0.74 -1.619 3.927
0.771 -1.635 3.962
0.796 -1.636 3.96
0.82 -1.636 3.955
0.848 -1.643 3.967
0.873 -1.642 3.961
0.905 -1.658 3.992
0.919 -1.639 3.942
0.944 -1.639 3.937
0.958 -1.622 3.891
0.998 -1.648 3.947
1.027 -1.655 3.959
1.059 -1.666 3.98
1.066 -1.64 3.909
1.114 -1.675 3.987
1.123 -1.652 3.926
1.156 -1.663 3.947
1.148 -1.618 3.833
1.2 -1.656 3.916
1.219 -1.649 3.891
1.245 -1.651 3.889
1.264 -1.644 3.866
1.291 -1.647 3.866
1.298 -1.626 3.807
1.327 -1.632 3.814
1.366 -1.649 3.846
1.39 -1.648 3.837
1.43 -1.667 3.871
1.436 -1.645 3.812
1.45 -1.634 3.778
1.484 -1.644 3.792
1.527 -1.664 3.831
1.525 -1.635 3.755
1.548 -1.634 3.743
1.567 -1.629 3.723
1.606 -1.644 3.747
1.638 -1.652 3.755
1.669 -1.658 3.76
1.683 -1.648 3.726
1.696 -1.637 3.692
1.724 -1.641 3.689
1.742 -1.635 3.666
1.72 -1.592 3.559
1.734 -1.583 3.529
1.728 -1.557 3.461
1.74 -1.547 3.427
0 0 0
0 0 0
0 0 0
1.66 -1.403 3.067
1.688 -1.409 3.071
1.713 -1.412 3.066
1.702 -1.387 3.001
1.685 -1.357 2.925
1.663 -1.323 2.842
1.662 -1.307 2.798
1.624 -1.262 2.692
1.665 -1.28 2.718
1.65 -1.254 2.653
-2.159 -1.633 3.604
-2.145 -1.642 3.636
-2.087 -1.617 3.592
-2.051 -1.609 3.586
-2.039 -1.618 3.619
-2.046 -1.644 3.688
-2.003 -1.63 3.668
-1.978 -1.629 3.679
-1.966 -1.641 3.716
-1.953 -1.651 3.751
-1.898 -1.625 3.703
-1.865 -1.619 3.698
-1.843 -1.622 3.715
-1.793 -1.599 3.674
-1.843 -1.667 3.841
-1.791 -1.643 3.795
-1.752 -1.629 3.774
-1.698 -1.602 3.721
-1.701 -1.629 3.793
-1.7 -1.652 3.856
-1.673 -1.651 3.862
-1.629 -1.632 3.827
-1.62 -1.648 3.875
-1.596 -1.649 3.886
-1.54 -1.618 3.82
-1.525 -1.627 3.851
-1.491 -1.618 3.837
-1.482 -1.636 3.887
-1.457 -1.636 3.896
-1.412 -1.613 3.849
-1.4 -1.627 3.891
-1.359 -1.609 3.855
-1.349 -1.626 3.903
-1.316 -1.617 3.887
-1.302 -1.63 3.926
-1.28 -1.634 3.943
-1.247 -1.623 3.924
-1.207 -1.603 3.882
-1.201 -1.629 3.95
-1.171 -1.621 3.938
-1.136 -1.606 3.908
-1.115 -1.611 3.926
-1.09 -1.611 3.931
-1.06 -1.604 3.918
-1.061 -1.643 4.019
-1.014 -1.609 3.941
-1.002 -1.629 3.996
-0.963 -1.605 3.943
-0.95 -1.624 3.994
-0.923 -1.62 3.99
-0.904 -1.631 4.02
-0.871 -1.617 3.991
-0.849 -1.622 4.006
-0.812 -1.598 3.952
-0.815 -1.653 4.092
-0.785 -1.643 4.071
-0.758 -1.639 4.064
-0.73 -1.633 4.054
-0.7 -1.621 4.026
-0.679 -1.63 4.054
-0.651 -1.622 4.035
-0.635 -1.644 4.094
-0.605 -1.632 4.067
-0.587 -1.65 4.114
-0.544 -1.598 3.988
-0.527 -1.622 4.05
-0.506 -1.633 4.079
-0.481 -1.634 4.085
-0.453 -1.623 4.06
-0.426 -1.614 4.038
-0.4 -1.607 4.023
-0.38 -1.625 4.069
-0.358 -1.639 4.107
-0.331 -1.63 4.086
-0.309 -1.645 4.125
-0.284 -1.642 4.119
-0.258 -1.637 4.107
-0.232 -1.63 4.091
-0.204 -1.608 4.035
-0.182 -1.623 4.074
-0.157 -1.627 4.084
-0.132 -1.627 4.085
-0.108 -1.628 4.088
-0.082 -1.616 4.057
-0.059 -1.641 4.12
-0.034 -1.641 4.121
-0.009 -1.634 4.104
0.015 -1.656 4.158
0.04 -1.627 4.084
0.064 -1.627 4.083
0.09 -1.64 4.116
0.113 -1.61 4.039
0.139 -1.629 4.087
0.164 -1.637 4.107
0.188 -1.628 4.083
0.214 -1.637 4.104
0.236 -1.616 4.049
0.263 -1.631 4.085
0.285 -1.619 4.052
0.31 -1.619 4.052
0.337 -1.631 4.08
0.361 -1.629 4.073
0.39 -1.648 4.117
0.41 -1.628 4.065
0.436 -1.632 4.073
0.455 -1.614 4.024
0.486 -1.633 4.068
0.513 -1.641 4.087
0.529 -1.614 4.015
0.563 -1.641 4.08
0.591 -1.651 4.101
0.616 -1.651 4.099
0.636 -1.637 4.06
0.666 -1.652 4.093
0.683 -1.631 4.039
0.713 -1.645 4.067
0.733 -1.634 4.036
0.763 -1.644 4.057
0.775 -1.619 3.99
0.812 -1.644 4.049
0.842 -1.653 4.066
0.847 -1.616 3.969
0.875 -1.623 3.982
0.916 -1.651 4.046
0.936 -1.644 4.023
0.966 -1.652 4.038
0.982 -1.638 3.997
1.02 -1.658 4.041
1.04 -1.65 4.016
1.069 -1.657 4.027
1.084 -1.642 3.983
1.101 -1.63 3.948
1.133 -1.641 3.969
1.16 -1.644 3.968
1.189 -1.65 3.978
1.215 -1.651 3.974
1.254 -1.67 4.012
1.264 -1.651 3.958
1.278 -1.636 3.915
1.305 -1.64 3.916
1.35 -1.664 3.967
1.355 -1.64 3.901
1.396 -1.66 3.94
1.409 -1.645 3.898
1.431 -1.643 3.884
1.442 -1.627 3.837
1.448 -1.606 3.78
1.522 -1.661 3.899
1.535 -1.648 3.861
1.566 -1.654 3.866
1.591 -1.654 3.857
1.587 -1.625 3.78
1.631 -1.645 3.816
1.644 -1.633 3.779
1.677 -1.641 3.787
1.691 -1.631 3.754
1.753 -1.667 3.827
1.747 -1.637 3.748
1.769 -1.635 3.733
1.769 -1.613 3.671
1.743 -1.568 3.558
1.737 -1.541 3.486
1.794 -1.571 3.544
1.74 -1.505 3.382
0 0 0
0 0 0
1.702 -1.417 3.153
1.7 -1.397 3.1
1.709 -1.388 3.069
1.678 -1.346 2.966
1.663 -1.319 2.894
1.679 -1.315 2.877
1.659 -1.285 2.8
1.665 -1.275 2.767
1.677 -1.269 2.745
1.662 -1.244 2.68
-2.158 -1.608 3.613
-2.115 -1.594 3.594
-2.121 -1.618 3.662
-2.095 -1.618 3.673
-2.074 -1.621 3.691
-2.046 -1.619 3.699
-2.028 -1.625 3.724
-2.007 -1.628 3.744
-1.981 -1.628 3.754
-1.957 -1.629 3.769
-1.933 -1.631 3.783
-1.901 -1.624 3.779
-1.876 -1.625 3.791
-1.855 -1.629 3.811
-1.827 -1.626 3.815
-1.802 -1.627 3.827
-1.782 -1.632 3.849
-1.753 -1.629 3.852
-1.725 -1.626 3.854
-1.702 -1.629 3.871
-1.678 -1.63 3.884
-1.651 -1.629 3.889
-1.626 -1.628 3.898
-1.602 -1.63 3.91
-1.573 -1.627 3.911
-1.548 -1.627 3.919
-1.522 -1.626 3.926
-1.496 -1.625 3.933
-1.468 -1.622 3.934
-1.443 -1.622 3.941
-1.417 -1.622 3.948
-1.391 -1.621 3.953
-1.367 -1.623 3.966
-1.342 -1.623 3.973
-1.317 -1.623 3.98
-1.289 -1.62 3.98
-1.266 -1.623 3.994
-1.24 -1.622 3.998
-1.215 -1.622 4.004
-1.187 -1.618 4.001
-1.162 -1.618 4.007
-1.134 -1.615 4.004
-1.109 -1.615 4.01
-1.083 -1.614 4.014
-1.06 -1.617 4.027
-1.035 -1.616 4.031
-1.01 -1.617 4.038
-0.983 -1.614 4.036
-0.959 -1.615 4.042
-0.934 -1.615 4.048
-0.909 -1.616 4.053
-0.884 -1.615 4.057
-0.861 -1.619 4.071
-0.837 -1.622 4.083
-0.813 -1.624 4.092
-0.788 -1.625 4.099
-0.765 -1.628 4.11
-0.739 -1.627 4.111
-0.713 -1.625 4.109
-0.687 -1.623 4.108
-0.662 -1.624 4.112
-0.636 -1.623 4.112
-0.611 -1.622 4.113
-0.585 -1.62 4.111
-0.56 -1.622 4.119
-0.535 -1.622 4.121
-0.51 -1.623 4.126
-0.486 -1.624 4.132
-0.461 -1.627 4.141
-0.436 -1.625 4.139
-0.41 -1.624 4.138
-0.385 -1.622 4.135
-0.36 -1.623 4.139
-0.335 -1.623 4.14
-0.31 -1.623 4.142
-0.285 -1.624 4.144
-0.26 -1.624 4.145
-0.234 -1.621 4.14
-0.209 -1.621 4.14
-0.184 -1.621 4.141
-0.159 -1.622 4.143
-0.134 -1.622 4.143
-0.109 -1.623 4.147
-0.084 -1.623 4.147
-0.059 -1.621 4.142
-0.034 -1.623 4.147
-0.009 -1.622 4.145
0.015 -1.622 4.145
0.04 -1.623 4.145
0.065 -1.624 4.147
0.09 -1.622 4.142
0.116 -1.625 4.148
0.141 -1.624 4.145
0.166 -1.625 4.147
0.191 -1.624 4.143
0.216 -1.624 4.141
0.24 -1.622 4.136
0.265 -1.621 4.13
0.29 -1.619 4.125
0.315 -1.621 4.126
0.34 -1.621 4.125
0.365 -1.621 4.124
0.391 -1.624 4.13
0.415 -1.623 4.124
0.44 -1.623 4.121
0.466 -1.623 4.12
0.49 -1.623 4.115
0.515 -1.622 4.111
0.541 -1.626 4.117
0.567 -1.628 4.118
0.592 -1.627 4.113
0.617 -1.628 4.113
0.642 -1.627 4.106
0.666 -1.626 4.101
0.691 -1.625 4.095
0.717 -1.628 4.096
0.742 -1.627 4.092
0.768 -1.629 4.092
0.793 -1.63 4.089
0.819 -1.632 4.09
0.843 -1.63 4.081
0.869 -1.632 4.081
0.895 -1.633 4.078
0.919 -1.632 4.071
0.944 -1.632 4.065
0.971 -1.635 4.067
0.998 -1.637 4.067
1.024 -1.639 4.067
1.05 -1.64 4.063
1.076 -1.641 4.059
1.099 -1.639 4.048
1.125 -1.64 4.044
1.149 -1.638 4.032
1.176 -1.641 4.034
1.203 -1.643 4.031
1.23 -1.646 4.031
1.254 -1.644 4.02
1.28 -1.645 4.015
1.302 -1.642 3.999
1.326 -1.64 3.986
1.352 -1.641 3.981
1.378 -1.643 3.978
1.406 -1.646 3.978
1.431 -1.646 3.969
1.457 -1.647 3.963
1.482 -1.646 3.952
1.507 -1.646 3.943
1.53 -1.644 3.93
1.558 -1.647 3.926
1.581 -1.645 3.913
1.606 -1.644 3.902
1.628 -1.641 3.885
1.652 -1.641 3.875
1.677 -1.64 3.864
1.7 -1.638 3.849
1.718 -1.632 3.824
1.738 -1.627 3.802
1.747 -1.613 3.758
1.752 -1.595 3.706
1.758 -1.578 3.656
1.766 -1.564 3.612
1.77 -1.547 3.562
1.781 -1.536 3.526
1.789 -1.523 3.486
1.716 -1.443 3.291
1.662 -1.379 3.135
1.669 -1.368 3.099
1.682 -1.361 3.074
1.689 -1.35 3.039
1.691 -1.336 2.996
1.687 -1.317 2.943
1.675 -1.292 2.878
1.668 -1.272 2.823
1.664 -1.255 2.773
1.64 -1.222 2.691
1.66 -1.224 2.684
-2.23 -1.636 3.744
-2.184 -1.621 3.724
-2.16 -1.622 3.738
-2.134 -1.622 3.75
-2.11 -1.624 3.767
-2.082 -1.622 3.774
-2.059 -1.624 3.791
-2.035 -1.626 3.807
-2.008 -1.624 3.815
-1.982 -1.625 3.827
-1.958 -1.626 3.841
-1.928 -1.623 3.845
-1.904 -1.623 3.857
-1.882 -1.627 3.877
-1.855 -1.626 3.884
-1.831 -1.627 3.898
-1.808 -1.63 3.915
-1.781 -1.629 3.923
-1.752 -1.626 3.926
-1.728 -1.628 3.94
-1.702 -1.628 3.948
-1.676 -1.627 3.956
-1.648 -1.626 3.962
-1.623 -1.626 3.971
-1.594 -1.623 3.973
-1.569 -1.623 3.983
-1.543 -1.623 3.99
-1.516 -1.622 3.995
-1.488 -1.619 3.997
-1.462 -1.619 4.004
-1.434 -1.616 4.006
-1.408 -1.615 4.011
-1.383 -1.616 4.021
-1.358 -1.617 4.03
-1.333 -1.618 4.04
-1.307 -1.617 4.044
-1.283 -1.619 4.057
-1.258 -1.62 4.065
-1.232 -1.619 4.069
-1.203 -1.615 4.066
-1.178 -1.616 4.073
-1.151 -1.613 4.072
-1.124 -1.611 4.074
-1.099 -1.612 4.08
-1.075 -1.614 4.093
-1.049 -1.613 4.096
-1.024 -1.614 4.102
-0.997 -1.612 4.102
-0.972 -1.612 4.107
-0.946 -1.612 4.112
-0.921 -1.612 4.118
-0.895 -1.611 4.12
-0.871 -1.614 4.131
-0.848 -1.618 4.145
-0.823 -1.619 4.153
-0.798 -1.62 4.16
-0.774 -1.623 4.171
-0.748 -1.622 4.172
-0.721 -1.619 4.167
-0.695 -1.617 4.166
-0.669 -1.618 4.17
-0.644 -1.618 4.174
-0.619 -1.618 4.177
-0.593 -1.618 4.181
-0.568 -1.62 4.187
-0.543 -1.619 4.188
-0.517 -1.618 4.188
-0.491 -1.617 4.188
-0.466 -1.619 4.194
-0.44 -1.618 4.193
-0.415 -1.618 4.195
-0.389 -1.617 4.193
-0.364 -1.618 4.198
-0.339 -1.617 4.197
-0.313 -1.616 4.196
-0.287 -1.615 4.196
-0.262 -1.614 4.195
-0.236 -1.614 4.194
-0.211 -1.614 4.194
-0.186 -1.615 4.198
-0.161 -1.614 4.196
-0.135 -1.614 4.197
-0.11 -1.615 4.199
-0.085 -1.615 4.199
-0.059 -1.613 4.196
-0.034 -1.615 4.201
-0.009 -1.615 4.199
0.016 -1.615 4.199
0.041 -1.614 4.198
0.066 -1.615 4.199
0.092 -1.615 4.197
0.117 -1.616 4.201
0.142 -1.615 4.197
0.168 -1.616 4.197
0.193 -1.615 4.192
0.218 -1.613 4.188
0.243 -1.612 4.183
0.268 -1.611 4.18
0.293 -1.611 4.177
0.318 -1.612 4.177
0.344 -1.614 4.18
0.369 -1.614 4.179
0.395 -1.615 4.179
0.42 -1.614 4.174
0.445 -1.615 4.173
0.47 -1.614 4.169
0.496 -1.615 4.169
0.521 -1.616 4.169
0.548 -1.62 4.175
0.574 -1.621 4.176
0.599 -1.62 4.17
0.624 -1.621 4.167
0.648 -1.618 4.157
0.673 -1.617 4.151
0.698 -1.617 4.145
0.725 -1.62 4.15
0.75 -1.619 4.144
0.776 -1.621 4.144
0.802 -1.623 4.144
0.828 -1.624 4.143
0.853 -1.623 4.134
0.878 -1.623 4.132
0.904 -1.624 4.129
0.929 -1.624 4.122
0.955 -1.624 4.118
0.982 -1.627 4.12
1.009 -1.63 4.121
1.035 -1.631 4.117
1.061 -1.632 4.114
1.086 -1.631 4.106
1.109 -1.628 4.093
1.135 -1.628 4.087
1.16 -1.629 4.082
1.188 -1.633 4.084
1.216 -1.635 4.084
1.244 -1.639 4.085
1.269 -1.638 4.077
1.295 -1.639 4.071
1.319 -1.637 4.058
1.343 -1.636 4.048
1.37 -1.637 4.044
1.397 -1.639 4.041
1.426 -1.643 4.041
1.45 -1.642 4.031
1.477 -1.643 4.025
1.502 -1.642 4.015
1.526 -1.641 4.004
1.55 -1.64 3.99
1.578 -1.642 3.987
1.601 -1.64 3.973
1.626 -1.639 3.961
1.649 -1.637 3.946
1.673 -1.636 3.933
1.696 -1.633 3.917
1.718 -1.63 3.898
1.733 -1.621 3.867
1.751 -1.614 3.839
1.759 -1.598 3.792
1.764 -1.581 3.74
1.769 -1.564 3.689
1.779 -1.551 3.649
1.781 -1.532 3.592
1.788 -1.518 3.55
1.796 -1.505 3.508
1.721 -1.424 3.308
1.666 -1.362 3.152
1.667 -1.345 3.104
1.681 -1.339 3.08
1.686 -1.328 3.042
1.689 -1.314 3
1.686 -1.296 2.949
1.677 -1.274 2.89
1.671 -1.255 2.835
1.668 -1.238 2.786
1.687 -1.238 2.776
1.66 -1.205 2.692
-2.265 -1.635 3.813
-2.192 -1.601 3.747
-2.192 -1.621 3.805
-2.165 -1.62 3.815
-2.142 -1.622 3.834
-2.114 -1.621 3.842
-2.088 -1.621 3.855
-2.062 -1.621 3.867
-2.036 -1.621 3.878
-2.01 -1.622 3.892
-1.986 -1.623 3.906
-1.958 -1.622 3.914
-1.932 -1.622 3.926
-1.908 -1.624 3.941
-1.88 -1.622 3.947
-1.856 -1.624 3.962
-1.831 -1.625 3.975
-1.805 -1.625 3.987
-1.776 -1.622 3.989
-1.751 -1.624 4.002
-1.724 -1.622 4.009
-1.697 -1.622 4.016
-1.669 -1.621 4.023
-1.645 -1.622 4.035
-1.617 -1.62 4.039
-1.591 -1.62 4.049
-1.565 -1.62 4.058
-1.537 -1.619 4.062
-1.508 -1.616 4.062
-1.482 -1.615 4.068
-1.454 -1.613 4.071
-1.427 -1.612 4.077
-1.402 -1.613 4.086
-1.378 -1.615 4.1
-1.353 -1.616 4.11
-1.327 -1.616 4.116
-1.302 -1.617 4.125
-1.277 -1.618 4.135
-1.249 -1.616 4.136
-1.22 -1.612 4.133
-1.194 -1.612 4.138
-1.167 -1.61 4.14
-1.14 -1.608 4.14
-1.114 -1.608 4.147
-1.089 -1.61 4.157
-1.063 -1.609 4.159
-1.037 -1.609 4.164
-1.01 -1.607 4.164
-0.983 -1.605 4.164
-0.957 -1.605 4.169
-0.932 -1.605 4.175
-0.906 -1.606 4.18
-0.882 -1.608 4.191
-0.858 -1.612 4.205
-0.833 -1.613 4.213
-0.807 -1.613 4.217
-0.782 -1.614 4.223
-0.756 -1.613 4.224
-0.728 -1.61 4.22
-0.702 -1.608 4.217
-0.676 -1.609 4.222
-0.65 -1.608 4.222
-0.625 -1.608 4.227
-0.599 -1.608 4.23
-0.574 -1.61 4.236
-0.547 -1.608 4.234
-0.522 -1.608 4.237
-0.496 -1.607 4.236
-0.47 -1.608 4.241
-0.445 -1.608 4.243
-0.419 -1.608 4.245
-0.393 -1.606 4.243
-0.367 -1.606 4.242
-0.341 -1.604 4.238
-0.315 -1.601 4.233
-0.289 -1.601 4.232
-0.264 -1.601 4.234
-0.238 -1.601 4.236
-0.213 -1.601 4.236
-0.187 -1.603 4.242
-0.162 -1.602 4.24
-0.136 -1.601 4.238
-0.111 -1.601 4.238
-0.085 -1.6 4.237
-0.059 -1.599 4.233
-0.034 -1.599 4.233
-0.009 -1.598 4.231
0.016 -1.598 4.231
0.041 -1.597 4.228
0.067 -1.599 4.232
0.092 -1.6 4.234
0.118 -1.601 4.236
0.143 -1.6 4.233
0.169 -1.602 4.235
0.194 -1.6 4.229
0.219 -1.598 4.223
0.245 -1.598 4.221
0.27 -1.598 4.219
0.295 -1.598 4.217
0.321 -1.598 4.215
0.347 -1.599 4.217
0.372 -1.599 4.215
0.398 -1.6 4.215
0.423 -1.6 4.211
0.448 -1.6 4.209
0.474 -1.599 4.206
0.499 -1.6 4.205
0.525 -1.601 4.204
0.551 -1.603 4.206
0.577 -1.604 4.205
0.602 -1.602 4.197
0.627 -1.602 4.192
0.651 -1.6 4.184
0.677 -1.6 4.18
0.702 -1.6 4.177
0.729 -1.604 4.183
0.755 -1.605 4.182
0.782 -1.607 4.182
0.808 -1.608 4.181
0.835 -1.611 4.183
0.86 -1.61 4.177
0.885 -1.61 4.172
0.911 -1.611 4.169
0.937 -1.611 4.163
0.962 -1.611 4.158
0.989 -1.613 4.158
1.016 -1.616 4.159
1.042 -1.616 4.155
1.069 -1.618 4.153
1.094 -1.618 4.147
1.118 -1.616 4.135
1.145 -1.617 4.131
1.171 -1.618 4.127
1.2 -1.622 4.131
1.226 -1.623 4.127
1.254 -1.626 4.127
1.28 -1.627 4.122
1.307 -1.628 4.117
1.33 -1.625 4.102
1.356 -1.625 4.096
1.383 -1.627 4.093
1.41 -1.628 4.087
1.439 -1.632 4.087
1.465 -1.632 4.08
1.493 -1.635 4.078
1.519 -1.635 4.069
1.544 -1.634 4.058
1.568 -1.633 4.046
1.596 -1.635 4.042
1.619 -1.632 4.026
1.645 -1.632 4.016
1.668 -1.63 4
1.692 -1.628 3.987
1.714 -1.625 3.968
1.733 -1.619 3.943
1.746 -1.607 3.904
1.759 -1.596 3.867
1.766 -1.579 3.816
1.771 -1.562 3.763
1.777 -1.546 3.714
1.787 -1.533 3.673
1.792 -1.518 3.625
1.803 -1.507 3.588
0 0 0
0 0 0
1.641 -1.32 3.112
1.664 -1.322 3.106
1.68 -1.318 3.086
1.686 -1.307 3.049
1.689 -1.293 3.008
1.69 -1.278 2.963
1.681 -1.257 2.903
1.674 -1.237 2.847
1.67 -1.22 2.797
1.663 -1.201 2.744
1.656 -1.183 2.692
-2.298 -1.632 3.879
-2.27 -1.632 3.89
-2.226 -1.619 3.874
-2.198 -1.618 3.883
-2.172 -1.619 3.898
-2.147 -1.62 3.913
-2.12 -1.62 3.924
-2.094 -1.62 3.937
-2.068 -1.62 3.95
-2.041 -1.62 3.962
-2.016 -1.621 3.975
-1.988 -1.62 3.984
-1.961 -1.62 3.995
-1.934 -1.62 4.005
-1.906 -1.618 4.013
-1.88 -1.619 4.024
-1.854 -1.619 4.036
-1.829 -1.621 4.05
-1.8 -1.618 4.054
-1.775 -1.62 4.068
-1.748 -1.619 4.075
-1.721 -1.618 4.083
-1.693 -1.618 4.091
-1.669 -1.62 4.105
-1.641 -1.618 4.109
-1.614 -1.617 4.117
-1.588 -1.618 4.127
-1.56 -1.616 4.132
-1.53 -1.612 4.13
-1.503 -1.611 4.136
-1.475 -1.61 4.14
-1.447 -1.609 4.144
-1.42 -1.608 4.149
-1.396 -1.61 4.163
-1.371 -1.611 4.173
-1.344 -1.611 4.179
-1.318 -1.611 4.188
-1.294 -1.614 4.201
-1.266 -1.612 4.202
-1.238 -1.609 4.201
-1.211 -1.608 4.206
-1.183 -1.607 4.208
-1.155 -1.604 4.205
-1.128 -1.602 4.207
-1.102 -1.602 4.213
-1.074 -1.6 4.213
-1.048 -1.6 4.218
-1.021 -1.599 4.221
-0.995 -1.599 4.226
-0.97 -1.6 4.232
-0.944 -1.601 4.239
-0.918 -1.6 4.242
-0.892 -1.601 4.25
-0.867 -1.603 4.259
-0.841 -1.603 4.263
-0.814 -1.602 4.263
-0.789 -1.603 4.269
-0.762 -1.602 4.271
-0.735 -1.599 4.267
-0.708 -1.598 4.266
-0.683 -1.598 4.272
-0.656 -1.596 4.27
-0.63 -1.596 4.27
-0.604 -1.597 4.276
-0.578 -1.596 4.278
-0.552 -1.595 4.276
-0.526 -1.595 4.28
-0.499 -1.594 4.279
-0.474 -1.594 4.28
-0.448 -1.594 4.283
-0.422 -1.593 4.283
-0.395 -1.592 4.281
-0.369 -1.591 4.28
-0.343 -1.588 4.273
-0.317 -1.585 4.266
-0.291 -1.584 4.265
-0.265 -1.583 4.263
-0.239 -1.582 4.262
-0.213 -1.582 4.263
-0.188 -1.583 4.267
-0.162 -1.582 4.263
-0.136 -1.581 4.261
-0.111 -1.581 4.262
-0.085 -1.581 4.262
-0.06 -1.58 4.259
-0.034 -1.581 4.261
-0.008 -1.581 4.263
0.016 -1.581 4.262
0.042 -1.58 4.258
0.067 -1.581 4.261
0.093 -1.582 4.262
0.119 -1.582 4.262
0.144 -1.582 4.261
0.17 -1.584 4.264
0.195 -1.582 4.258
0.221 -1.581 4.254
0.246 -1.581 4.251
0.272 -1.58 4.247
0.297 -1.579 4.243
0.322 -1.578 4.24
0.348 -1.58 4.242
0.374 -1.579 4.238
0.399 -1.58 4.238
0.425 -1.58 4.236
0.451 -1.582 4.238
0.476 -1.58 4.23
0.501 -1.58 4.228
0.527 -1.581 4.227
0.553 -1.582 4.226
0.578 -1.582 4.222
0.603 -1.581 4.216
0.629 -1.581 4.214
0.654 -1.58 4.209
0.68 -1.581 4.206
0.706 -1.582 4.206
0.733 -1.585 4.209
0.758 -1.586 4.207
0.785 -1.587 4.207
0.811 -1.588 4.204
0.838 -1.591 4.206
0.863 -1.591 4.202
0.89 -1.592 4.2
0.916 -1.593 4.198
0.942 -1.594 4.195
0.968 -1.595 4.192
0.996 -1.598 4.194
1.023 -1.6 4.195
1.049 -1.601 4.192
1.076 -1.603 4.19
1.102 -1.604 4.186
1.127 -1.602 4.175
1.153 -1.602 4.168
1.179 -1.602 4.163
1.207 -1.606 4.165
1.233 -1.606 4.159
1.261 -1.609 4.16
1.289 -1.611 4.158
1.315 -1.612 4.153
1.339 -1.61 4.139
1.367 -1.612 4.136
1.394 -1.613 4.131
1.42 -1.614 4.125
1.449 -1.617 4.125
1.477 -1.619 4.122
1.504 -1.62 4.116
1.531 -1.622 4.111
1.557 -1.621 4.101
1.582 -1.621 4.09
1.61 -1.623 4.086
1.634 -1.62 4.071
1.66 -1.621 4.062
1.685 -1.62 4.05
1.709 -1.618 4.036
1.73 -1.613 4.013
1.749 -1.607 3.988
1.76 -1.593 3.943
1.771 -1.581 3.902
1.778 -1.565 3.85
1.784 -1.548 3.799
1.791 -1.533 3.752
1.805 -1.524 3.719
1.803 -1.503 3.655
0 0 0
0 0 0
0 0 0
1.645 -1.302 3.127
1.675 -1.309 3.133
1.687 -1.302 3.107
1.691 -1.29 3.067
1.694 -1.276 3.024
1.694 -1.261 2.978
1.683 -1.239 2.914
1.676 -1.219 2.858
1.672 -1.202 2.807
1.691 -1.202 2.797
1.659 -1.166 2.703
-2.33 -1.628 3.943
-2.28 -1.612 3.918
-2.257 -1.615 3.938
-2.23 -1.615 3.951
-2.202 -1.614 3.961
-2.178 -1.616 3.979
-2.15 -1.615 3.99
-2.124 -1.616 4.004
-2.096 -1.616 4.014
-2.071 -1.617 4.03
-2.043 -1.616 4.04
-2.015 -1.615 4.047
-1.987 -1.615 4.058
-1.96 -1.614 4.067
-1.932 -1.614 4.077
-1.906 -1.614 4.089
-1.881 -1.616 4.104
-1.856 -1.618 4.119
-1.829 -1.617 4.128
-1.801 -1.617 4.137
-1.774 -1.616 4.145
-1.747 -1.616 4.155
-1.719 -1.615 4.162
-1.692 -1.615 4.172
-1.665 -1.615 4.179
-1.638 -1.614 4.187
-1.61 -1.614 4.195
-1.582 -1.612 4.199
-1.553 -1.61 4.202
-1.524 -1.608 4.205
-1.496 -1.606 4.207
-1.467 -1.604 4.21
-1.44 -1.604 4.217
-1.414 -1.604 4.226
-1.388 -1.605 4.236
-1.363 -1.606 4.246
-1.336 -1.607 4.254
-1.31 -1.607 4.262
-1.281 -1.605 4.263
-1.253 -1.603 4.264
-1.225 -1.601 4.266
-1.197 -1.6 4.267
-1.169 -1.597 4.265
-1.141 -1.595 4.267
-1.114 -1.594 4.27
-1.086 -1.591 4.268
-1.059 -1.591 4.272
-1.032 -1.589 4.272
-1.005 -1.589 4.277
-0.978 -1.588 4.278
-0.952 -1.588 4.285
-0.925 -1.588 4.287
-0.9 -1.589 4.295
-0.874 -1.59 4.302
-0.848 -1.59 4.306
-0.821 -1.588 4.306
-0.794 -1.587 4.307
-0.767 -1.586 4.308
-0.74 -1.583 4.303
-0.713 -1.582 4.302
-0.686 -1.581 4.305
-0.659 -1.579 4.302
-0.633 -1.578 4.302
-0.607 -1.579 4.307
-0.58 -1.577 4.305
-0.554 -1.576 4.303
-0.528 -1.576 4.307
-0.501 -1.575 4.305
-0.475 -1.573 4.303
-0.449 -1.573 4.306
-0.423 -1.573 4.308
-0.397 -1.571 4.303
-0.37 -1.57 4.301
-0.344 -1.567 4.295
-0.318 -1.565 4.289
-0.291 -1.563 4.285
-0.266 -1.562 4.284
-0.24 -1.561 4.284
-0.214 -1.561 4.284
-0.188 -1.562 4.287
-0.162 -1.561 4.285
-0.137 -1.56 4.283
-0.111 -1.559 4.281
-0.085 -1.559 4.279
-0.06 -1.558 4.276
-0.034 -1.558 4.276
-0.008 -1.558 4.278
0.016 -1.558 4.277
0.042 -1.558 4.276
0.068 -1.558 4.275
0.093 -1.558 4.274
0.119 -1.558 4.274
0.144 -1.558 4.272
0.17 -1.559 4.273
0.196 -1.559 4.273
0.221 -1.559 4.272
0.247 -1.558 4.266
0.272 -1.558 4.265
0.298 -1.556 4.26
0.323 -1.554 4.252
0.348 -1.555 4.252
0.374 -1.556 4.253
0.4 -1.556 4.249
0.425 -1.557 4.249
0.452 -1.558 4.252
0.476 -1.557 4.244
0.502 -1.556 4.238
0.528 -1.557 4.239
0.553 -1.557 4.238
0.579 -1.557 4.232
0.604 -1.558 4.231
0.631 -1.559 4.232
0.656 -1.559 4.229
0.682 -1.56 4.228
0.708 -1.561 4.227
0.734 -1.562 4.225
0.76 -1.563 4.223
0.786 -1.564 4.221
0.812 -1.565 4.219
0.839 -1.568 4.222
0.866 -1.569 4.22
0.892 -1.57 4.22
0.918 -1.571 4.217
0.944 -1.571 4.212
0.971 -1.573 4.212
0.998 -1.576 4.213
1.025 -1.577 4.21
1.051 -1.578 4.208
1.078 -1.579 4.205
1.104 -1.579 4.199
1.129 -1.579 4.192
1.156 -1.58 4.188
1.183 -1.581 4.185
1.211 -1.585 4.187
1.237 -1.585 4.182
1.265 -1.588 4.181
1.293 -1.59 4.179
1.32 -1.591 4.175
1.345 -1.591 4.166
1.373 -1.592 4.163
1.4 -1.594 4.159
1.427 -1.595 4.152
1.455 -1.597 4.151
1.482 -1.598 4.145
1.51 -1.6 4.142
1.537 -1.602 4.136
1.564 -1.602 4.129
1.591 -1.603 4.121
1.619 -1.605 4.117
1.643 -1.603 4.104
1.67 -1.604 4.095
1.695 -1.603 4.083
1.719 -1.601 4.067
1.739 -1.595 4.044
1.757 -1.589 4.016
1.769 -1.576 3.973
1.781 -1.564 3.933
1.79 -1.55 3.886
1.799 -1.536 3.841
1.811 -1.525 3.803
1.82 -1.512 3.76
0 0 0
0 0 0
0 0 0
0 0 0
0 0 0
1.675 -1.288 3.141
1.687 -1.281 3.114
1.691 -1.268 3.073
1.694 -1.255 3.031
1.696 -1.242 2.988
1.686 -1.22 2.925
1.678 -1.2 2.867
1.673 -1.184 2.817
1.704 -1.191 2.825
1.667 -1.153 2.723
-2.359 -1.621 4.003
-2.324 -1.616 4.004
-2.197 -1.546 3.842
-2.174 -1.548 3.861
-2.146 -1.547 3.871
-2.124 -1.55 3.889
-2.185 -1.615 4.065
-2.158 -1.615 4.079
-2.129 -1.614 4.088
-2.103 -1.615 4.101
-2.073 -1.612 4.108
-2.045 -1.612 4.118
-2.016 -1.611 4.126
-1.986 -1.609 4.132
-1.959 -1.609 4.144
-1.934 -1.611 4.16
-1.907 -1.611 4.171
-1.883 -1.614 4.188
-1.781 -1.549 4.03
-1.754 -1.548 4.037
-1.725 -1.545 4.039
-1.698 -1.545 4.047
-1.67 -1.543 4.052
-1.713 -1.608 4.232
-1.685 -1.607 4.24
-1.658 -1.608 4.25
-1.63 -1.607 4.256
-1.601 -1.605 4.261
-1.572 -1.603 4.263
-1.543 -1.601 4.265
-1.513 -1.598 4.266
-1.485 -1.597 4.272
-1.457 -1.596 4.276
-1.431 -1.597 4.287
-1.405 -1.598 4.297
-1.379 -1.599 4.306
-1.351 -1.598 4.31
-1.324 -1.598 4.317
-1.294 -1.595 4.315
-1.265 -1.592 4.314
-1.237 -1.59 4.315
-1.208 -1.587 4.315
-1.179 -1.584 4.312
-1.151 -1.583 4.314
-1.123 -1.581 4.315
-1.094 -1.577 4.311
-1.067 -1.576 4.312
-1.039 -1.574 4.312
-1.012 -1.573 4.313
-0.984 -1.571 4.314
-0.959 -1.573 4.322
-0.932 -1.572 4.325
-0.905 -1.572 4.33
-0.878 -1.571 4.332
-0.852 -1.571 4.335
-0.823 -1.567 4.329
-0.796 -1.566 4.328
-0.769 -1.565 4.329
-0.742 -1.562 4.326
-0.715 -1.56 4.323
-0.688 -1.559 4.324
-0.661 -1.558 4.323
-0.634 -1.556 4.32
-0.608 -1.556 4.325
-0.582 -1.555 4.322
-0.555 -1.552 4.319
-0.529 -1.553 4.322
-0.502 -1.552 4.322
-0.476 -1.549 4.317
-0.45 -1.549 4.319
-0.424 -1.55 4.322
-0.397 -1.547 4.316
-0.37 -1.545 4.311
-0.344 -1.542 4.305
-0.318 -1.54 4.301
-0.292 -1.538 4.297
-0.266 -1.538 4.296
-0.24 -1.537 4.296
-0.214 -1.537 4.297
-0.188 -1.537 4.297
-0.162 -1.536 4.295
-0.137 -1.535 4.293
-0.111 -1.534 4.291
-0.085 -1.534 4.29
-0.059 -1.534 4.289
-0.034 -1.533 4.286
-0.008 -1.533 4.288
0.017 -1.534 4.289
0.042 -1.533 4.285
0.068 -1.532 4.281
0.093 -1.532 4.282
0.119 -1.532 4.28
0.145 -1.532 4.278
0.17 -1.533 4.28
0.196 -1.533 4.281
0.222 -1.534 4.281
0.247 -1.533 4.277
0.273 -1.532 4.274
0.298 -1.531 4.269
0.323 -1.53 4.263
0.349 -1.53 4.261
0.375 -1.531 4.263
0.4 -1.531 4.259
0.426 -1.531 4.258
0.452 -1.532 4.258
0.476 -1.53 4.25
0.502 -1.529 4.244
0.527 -1.53 4.243
0.553 -1.531 4.242
0.579 -1.531 4.239
0.604 -1.532 4.238
0.63 -1.532 4.237
0.656 -1.533 4.236
0.682 -1.534 4.235
0.708 -1.535 4.234
0.734 -1.537 4.233
0.761 -1.539 4.235
0.787 -1.54 4.234
0.814 -1.541 4.233
0.841 -1.544 4.236
0.867 -1.545 4.234
0.893 -1.546 4.233
0.919 -1.546 4.228
0.945 -1.546 4.223
0.971 -1.547 4.22
0.999 -1.551 4.223
1.025 -1.551 4.22
1.052 -1.553 4.218
1.079 -1.554 4.215
1.105 -1.555 4.213
1.131 -1.556 4.207
1.158 -1.556 4.202
1.185 -1.558 4.201
1.213 -1.561 4.202
1.239 -1.561 4.194
1.266 -1.562 4.191
1.294 -1.565 4.191
1.321 -1.566 4.187
1.347 -1.567 4.18
1.376 -1.569 4.18
1.403 -1.571 4.176
1.429 -1.571 4.168
1.457 -1.573 4.164
1.485 -1.575 4.161
1.512 -1.576 4.156
1.54 -1.578 4.152
1.567 -1.579 4.145
1.594 -1.58 4.139
1.622 -1.581 4.134
1.647 -1.581 4.122
1.675 -1.582 4.116
1.702 -1.583 4.109
1.726 -1.58 4.092
1.744 -1.574 4.064
1.762 -1.566 4.034
1.774 -1.554 3.992
1.784 -1.541 3.949
1.796 -1.529 3.908
1.81 -1.52 3.873
1.821 -1.508 3.832
1.83 -1.495 3.788
0 0 0
0 0 0
0 0 0
0 0 0
0 0 0
1.668 -1.261 3.135
1.683 -1.257 3.114
1.687 -1.245 3.074
1.692 -1.234 3.036
1.696 -1.222 2.997
1.688 -1.202 2.936
1.68 -1.182 2.878
1.675 -1.166 2.827
1.655 -1.138 2.75
1.667 -1.134 2.729
-2.354 -1.59 4.004
-2.372 -1.621 4.096
-2.036 -1.409 3.568
-1.923 -1.346 3.421
-1.899 -1.346 3.432
-1.881 -1.35 3.452
-1.858 -1.35 3.464
-1.835 -1.35 3.474
-1.811 -1.349 3.482
-1.789 -1.35 3.495
-1.846 -1.412 3.665
-1.819 -1.41 3.67
-1.875 -1.473 3.847
-1.85 -1.473 3.856
-1.743 -1.408 3.695
-1.72 -1.409 3.707
-1.776 -1.475 3.891
-1.753 -1.477 3.907
-1.652 -1.413 3.745
-1.701 -1.477 3.925
-1.674 -1.475 3.929
-1.648 -1.474 3.936
-1.621 -1.473 3.943
-1.735 -1.601 4.296
-1.707 -1.601 4.305
-1.678 -1.6 4.311
-1.649 -1.598 4.315
-1.619 -1.595 4.317
-1.589 -1.593 4.319
-1.559 -1.59 4.319
-1.529 -1.588 4.321
-1.501 -1.587 4.326
-1.472 -1.585 4.328
-1.445 -1.585 4.337
-1.418 -1.585 4.344
-1.39 -1.585 4.35
-1.361 -1.583 4.353
-1.332 -1.581 4.354
-1.302 -1.577 4.349
-1.273 -1.575 4.349
-1.244 -1.572 4.348
-1.215 -1.569 4.347
-1.186 -1.567 4.347
-1.158 -1.565 4.347
-1.128 -1.561 4.343
-1.1 -1.559 4.342
-1.072 -1.557 4.342
-1.043 -1.555 4.34
-1.016 -1.553 4.34
-0.988 -1.551 4.341
-0.961 -1.551 4.343
-0.934 -1.549 4.343
-0.907 -1.549 4.348
-0.88 -1.548 4.348
-0.853 -1.546 4.349
-0.824 -1.543 4.342
-0.797 -1.541 4.341
-0.77 -1.539 4.34
-0.743 -1.538 4.339
-0.715 -1.535 4.336
-0.689 -1.535 4.337
-0.662 -1.534 4.336
-0.635 -1.531 4.333
-0.608 -1.53 4.333
-0.582 -1.529 4.332
-0.555 -1.527 4.329
-0.528 -1.526 4.329
-0.502 -1.526 4.331
-0.476 -1.524 4.327
-0.449 -1.523 4.325
-0.423 -1.522 4.326
-0.396 -1.52 4.32
-0.37 -1.517 4.313
-0.344 -1.515 4.31
-0.317 -1.514 4.307
-0.291 -1.513 4.305
-0.265 -1.512 4.304
-0.24 -1.511 4.303
-0.214 -1.511 4.302
-0.188 -1.51 4.302
-0.162 -1.51 4.301
-0.136 -1.509 4.299
-0.111 -1.508 4.297
-0.085 -1.507 4.293
-0.059 -1.507 4.293
-0.034 -1.505 4.289
-0.008 -1.506 4.291
0.017 -1.506 4.291
0.042 -1.506 4.29
0.068 -1.505 4.287
0.093 -1.505 4.286
0.119 -1.504 4.282
0.144 -1.504 4.279
0.17 -1.505 4.282
0.196 -1.505 4.282
0.221 -1.506 4.281
0.247 -1.505 4.28
0.273 -1.505 4.278
0.298 -1.503 4.27
0.323 -1.503 4.266
0.349 -1.503 4.264
0.374 -1.504 4.265
0.4 -1.504 4.263
0.426 -1.505 4.264
0.451 -1.505 4.26
0.476 -1.504 4.255
0.501 -1.502 4.247
0.527 -1.502 4.244
0.552 -1.502 4.241
0.578 -1.502 4.238
0.603 -1.503 4.238
0.629 -1.504 4.238
0.656 -1.506 4.24
0.682 -1.509 4.243
0.709 -1.51 4.244
0.735 -1.511 4.242
0.761 -1.513 4.243
0.787 -1.514 4.242
0.813 -1.515 4.239
0.84 -1.516 4.239
0.866 -1.517 4.235
0.892 -1.519 4.236
0.918 -1.518 4.229
0.943 -1.518 4.223
0.97 -1.519 4.222
0.998 -1.522 4.226
1.024 -1.523 4.221
1.051 -1.525 4.222
1.078 -1.527 4.222
1.105 -1.529 4.219
1.132 -1.53 4.216
1.158 -1.531 4.213
1.185 -1.533 4.21
1.213 -1.535 4.21
1.239 -1.535 4.202
1.265 -1.535 4.197
1.294 -1.538 4.197
1.321 -1.539 4.194
1.347 -1.54 4.187
1.375 -1.543 4.187
1.403 -1.544 4.184
1.43 -1.545 4.178
1.456 -1.545 4.17
1.484 -1.547 4.167
1.512 -1.549 4.164
1.54 -1.551 4.16
1.568 -1.553 4.156
1.597 -1.556 4.155
1.626 -1.558 4.151
1.652 -1.558 4.142
1.68 -1.56 4.136
1.707 -1.56 4.128
1.731 -1.558 4.112
1.749 -1.552 4.084
1.767 -1.545 4.056
1.781 -1.534 4.018
1.793 -1.522 3.976
1.807 -1.513 3.94
1.821 -1.503 3.904
1.836 -1.495 3.872
0 0 0
0 0 0
0 0 0
0 0 0
0 0 0
0 0 0
1.745 -1.297 3.287
1.685 -1.237 3.125
1.69 -1.226 3.085
1.696 -1.215 3.049
1.7 -1.204 3.009
1.69 -1.183 2.946
1.682 -1.164 2.889
1.678 -1.148 2.838
1.667 -1.128 2.778
1.694 -1.133 2.78
-2.387 -1.585 4.07
-2.359 -1.585 4.084
-1.662 -1.13 2.917
-1.49 -1.026 2.654
-1.47 -1.025 2.66
-1.456 -1.027 2.675
-1.437 -1.026 2.681
-1.418 -1.026 2.688
-1.397 -1.024 2.69
-1.379 -1.024 2.698
-1.442 -1.085 2.868
-1.421 -1.083 2.871
-1.483 -1.145 3.046
-1.465 -1.147 3.059
-1.445 -1.148 3.068
-1.427 -1.149 3.079
-1.485 -1.213 3.261
-1.542 -1.277 3.443
-1.519 -1.277 3.451
-1.496 -1.276 3.456
-1.543 -1.336 3.629
-1.591 -1.399 3.81
-1.567 -1.4 3.819
-1.68 -1.524 4.168
-1.722 -1.587 4.352
-1.693 -1.586 4.359
-1.662 -1.584 4.36
-1.632 -1.581 4.361
-1.602 -1.579 4.363
-1.571 -1.576 4.364
-1.541 -1.573 4.364
-1.512 -1.571 4.368
-1.482 -1.568 4.367
-1.453 -1.567 4.37
-1.424 -1.565 4.373
-1.395 -1.564 4.376
-1.366 -1.562 4.378
-1.337 -1.56 4.378
-1.308 -1.557 4.377
-1.279 -1.555 4.379
-1.249 -1.552 4.376
-1.22 -1.549 4.375
-1.191 -1.546 4.372
-1.161 -1.542 4.368
-1.132 -1.539 4.364
-1.104 -1.538 4.366
-1.075 -1.535 4.362
-1.047 -1.533 4.362
-1.019 -1.532 4.363
-0.991 -1.53 4.363
-0.963 -1.528 4.361
-0.935 -1.525 4.359
-0.907 -1.523 4.358
-0.88 -1.521 4.356
-0.852 -1.518 4.352
-0.823 -1.515 4.345
-0.796 -1.514 4.346
-0.769 -1.512 4.346
-0.742 -1.51 4.344
-0.715 -1.509 4.342
-0.688 -1.508 4.343
-0.661 -1.506 4.34
-0.634 -1.504 4.338
-0.608 -1.503 4.339
-0.581 -1.503 4.339
-0.555 -1.501 4.336
-0.529 -1.501 4.339
-0.502 -1.5 4.339
-0.476 -1.499 4.336
-0.449 -1.497 4.334
-0.423 -1.496 4.332
-0.396 -1.493 4.327
-0.37 -1.49 4.32
-0.343 -1.489 4.316
-0.317 -1.487 4.313
-0.291 -1.487 4.313
-0.265 -1.485 4.31
-0.239 -1.484 4.308
-0.214 -1.485 4.31
-0.188 -1.484 4.307
-0.162 -1.482 4.304
-0.136 -1.482 4.304
-0.11 -1.482 4.302
-0.085 -1.48 4.297
-0.059 -1.48 4.296
-0.033 -1.479 4.294
-0.008 -1.479 4.295
0.017 -1.48 4.296
0.042 -1.48 4.296
0.068 -1.479 4.291
0.093 -1.478 4.288
0.119 -1.476 4.283
0.144 -1.476 4.28
0.17 -1.477 4.282
0.196 -1.477 4.282
0.221 -1.478 4.284
0.247 -1.478 4.282
0.272 -1.479 4.282
0.298 -1.476 4.274
0.323 -1.477 4.272
0.348 -1.476 4.269
0.374 -1.477 4.269
0.4 -1.477 4.266
0.425 -1.478 4.266
0.451 -1.477 4.263
0.476 -1.476 4.258
0.501 -1.475 4.252
0.527 -1.476 4.25
0.552 -1.476 4.248
0.578 -1.476 4.245
0.604 -1.479 4.25
0.63 -1.479 4.246
0.656 -1.481 4.249
0.682 -1.482 4.248
0.708 -1.484 4.249
0.734 -1.483 4.244
0.76 -1.485 4.245
0.786 -1.486 4.243
0.812 -1.487 4.241
0.839 -1.488 4.241
0.865 -1.489 4.237
0.892 -1.491 4.239
0.917 -1.491 4.233
0.943 -1.491 4.23
0.97 -1.493 4.229
0.998 -1.496 4.233
1.024 -1.497 4.228
1.051 -1.499 4.229
1.078 -1.501 4.229
1.105 -1.502 4.225
1.131 -1.503 4.222
1.157 -1.503 4.216
1.184 -1.505 4.213
1.211 -1.506 4.212
1.237 -1.506 4.205
1.264 -1.507 4.2
1.293 -1.511 4.202
1.319 -1.512 4.198
1.346 -1.512 4.192
1.375 -1.515 4.193
1.402 -1.517 4.189
1.429 -1.518 4.184
1.456 -1.519 4.178
1.485 -1.522 4.178
1.512 -1.523 4.173
1.541 -1.525 4.17
1.568 -1.527 4.165
1.597 -1.53 4.164
1.626 -1.532 4.16
1.652 -1.532 4.152
1.681 -1.534 4.146
1.708 -1.535 4.14
1.732 -1.533 4.123
1.752 -1.527 4.098
1.77 -1.521 4.071
1.787 -1.513 4.038
1.801 -1.503 4.001
1.817 -1.495 3.969
1.831 -1.486 3.935
0 0 0
0 0 0
0 0 0
0 0 0
0 0 0
0 0 0
1.381 -1.023 2.648
1.545 -1.129 2.916
1.678 -1.211 3.118
1.682 -1.2 3.078
1.691 -1.191 3.047
1.694 -1.18 3.007
1.688 -1.161 2.95
1.68 -1.143 2.892
1.678 -1.128 2.845
1.68 -1.117 2.806
1.635 -1.075 2.69
-2.421 -1.579 4.138
-2.37 -1.565 4.114
-1.252 -0.837 2.2
-1.098 -0.743 1.957
-1.081 -0.741 1.957
-1.071 -0.743 1.97
-1.057 -0.742 1.973
-1.002 -0.713 1.9
-0.984 -0.709 1.896
-0.972 -0.709 1.902
-1.04 -0.769 2.069
-1.023 -0.767 2.069
-1.092 -0.829 2.244
-1.078 -0.83 2.252
-1.062 -0.828 2.255
-1.047 -0.828 2.26
-1.187 -0.953 2.609
-1.246 -1.014 2.785
-1.302 -1.076 2.962
-1.356 -1.137 3.14
-1.481 -1.26 3.49
-1.53 -1.322 3.671
-1.578 -1.385 3.853
-1.69 -1.506 4.202
-1.732 -1.569 4.386
-1.702 -1.567 4.392
-1.671 -1.564 4.391
-1.64 -1.561 4.392
-1.61 -1.559 4.395
-1.579 -1.556 4.395
-1.548 -1.552 4.393
-1.518 -1.55 4.395
-1.488 -1.547 4.393
-1.457 -1.544 4.392
-1.427 -1.541 4.391
-1.398 -1.539 4.394
-1.368 -1.537 4.393
-1.338 -1.533 4.39
-1.308 -1.53 4.387
-1.279 -1.529 4.389
-1.249 -1.525 4.386
-1.22 -1.522 4.383
-1.191 -1.52 4.383
-1.162 -1.517 4.38
-1.133 -1.514 4.376
-1.105 -1.512 4.377
-1.076 -1.509 4.374
-1.047 -1.506 4.371
-1.019 -1.505 4.372
-0.991 -1.503 4.371
-0.962 -1.5 4.366
-0.934 -1.498 4.364
-0.907 -1.497 4.365
-0.879 -1.494 4.362
-0.851 -1.49 4.355
-0.823 -1.487 4.351
-0.796 -1.487 4.352
-0.768 -1.485 4.349
-0.741 -1.483 4.348
-0.715 -1.482 4.349
-0.688 -1.481 4.347
-0.661 -1.479 4.344
-0.634 -1.478 4.345
-0.607 -1.476 4.342
-0.581 -1.475 4.342
-0.554 -1.473 4.34
-0.528 -1.473 4.341
-0.501 -1.472 4.34
-0.475 -1.47 4.337
-0.448 -1.468 4.333
-0.422 -1.467 4.333
-0.396 -1.465 4.328
-0.369 -1.463 4.322
-0.343 -1.462 4.322
-0.317 -1.461 4.32
-0.291 -1.461 4.319
-0.265 -1.459 4.316
-0.239 -1.458 4.312
-0.213 -1.458 4.314
-0.188 -1.457 4.312
-0.162 -1.457 4.311
-0.136 -1.456 4.309
-0.11 -1.456 4.309
-0.085 -1.453 4.302
-0.059 -1.452 4.298
-0.033 -1.45 4.293
-0.008 -1.451 4.293
0.017 -1.451 4.293
0.042 -1.451 4.295
0.068 -1.451 4.293
0.093 -1.45 4.289
0.119 -1.449 4.284
0.144 -1.447 4.279
0.17 -1.447 4.278
0.195 -1.448 4.28
0.221 -1.449 4.28
0.246 -1.449 4.279
0.272 -1.45 4.281
0.297 -1.449 4.276
0.323 -1.449 4.275
0.348 -1.449 4.27
0.374 -1.449 4.27
0.399 -1.449 4.266
0.425 -1.449 4.265
0.45 -1.448 4.261
0.475 -1.448 4.258
0.5 -1.448 4.253
0.526 -1.448 4.251
0.552 -1.448 4.249
0.577 -1.449 4.247
0.604 -1.451 4.251
0.629 -1.451 4.248
0.655 -1.452 4.248
0.681 -1.454 4.248
0.707 -1.455 4.247
0.733 -1.455 4.245
0.759 -1.457 4.244
0.785 -1.458 4.243
0.811 -1.458 4.239
0.837 -1.46 4.24
0.863 -1.46 4.236
0.89 -1.462 4.238
0.916 -1.463 4.234
0.942 -1.464 4.232
0.968 -1.464 4.228
0.996 -1.467 4.232
1.022 -1.468 4.228
1.049 -1.47 4.228
1.076 -1.472 4.228
1.103 -1.474 4.227
1.129 -1.474 4.222
1.156 -1.475 4.218
1.182 -1.476 4.214
1.21 -1.478 4.213
1.236 -1.479 4.208
1.262 -1.479 4.202
1.291 -1.482 4.203
1.318 -1.483 4.2
1.345 -1.485 4.197
1.374 -1.488 4.197
1.401 -1.49 4.195
1.429 -1.491 4.192
1.456 -1.493 4.186
1.484 -1.494 4.182
1.511 -1.495 4.177
1.54 -1.498 4.175
1.567 -1.499 4.17
1.596 -1.502 4.168
1.625 -1.504 4.165
1.651 -1.505 4.157
1.679 -1.506 4.151
1.705 -1.506 4.142
1.729 -1.504 4.126
1.75 -1.499 4.103
1.769 -1.493 4.076
1.788 -1.488 4.051
1.804 -1.48 4.018
1.819 -1.471 3.983
0 0 0
0 0 0
0 0 0
0 0 0
0 0 0
0 0 0
0 0 0
0 0 0
1.519 -1.092 2.874
1.669 -1.184 3.109
1.676 -1.175 3.074
1.685 -1.167 3.043
1.693 -1.158 3.01
1.689 -1.142 2.959
1.683 -1.125 2.903
1.68 -1.11 2.854
1.675 -1.094 2.803
1.682 -1.086 2.773
0 0 0
-0.053 -0.036 0.079
-0.776 -0.51 1.361
-0.644 -0.429 1.145
-0.634 -0.428 1.146
-0.627 -0.428 1.15
-0.617 -0.426 1.149
-0.584 -0.408 1.104
-0.57 -0.404 1.094
-0.56 -0.402 1.092
-0.631 -0.458 1.252
-0.621 -0.458 1.253
-0.693 -0.517 1.422
-0.684 -0.517 1.427
-0.67 -0.514 1.422
-0.661 -0.514 1.425
-0.883 -0.696 1.94
-1.023 -0.818 2.29
-1.158 -0.94 2.638
-1.215 -1.001 2.818
-1.416 -1.184 3.343
-1.466 -1.244 3.524
-1.513 -1.304 3.702
-1.626 -1.424 4.052
-1.737 -1.545 4.408
-1.707 -1.543 4.412
-1.675 -1.54 4.411
-1.643 -1.536 4.41
-1.612 -1.533 4.408
-1.581 -1.53 4.409
-1.55 -1.527 4.407
-1.52 -1.524 4.408
-1.489 -1.521 4.406
-1.459 -1.519 4.407
-1.429 -1.516 4.406
-1.399 -1.513 4.404
-1.368 -1.509 4.4
-1.338 -1.506 4.398
-1.307 -1.502 4.394
-1.278 -1.5 4.394
-1.248 -1.497 4.39
-1.218 -1.493 4.385
-1.188 -1.49 4.381
-1.16 -1.487 4.38
-1.13 -1.484 4.376
-1.102 -1.482 4.376
-1.074 -1.481 4.376
-1.046 -1.479 4.375
-1.017 -1.476 4.373
-0.99 -1.475 4.373
-0.961 -1.472 4.369
-0.933 -1.469 4.366
-0.906 -1.468 4.366
-0.878 -1.466 4.364
-0.85 -1.462 4.358
-0.822 -1.46 4.354
-0.795 -1.458 4.354
-0.767 -1.457 4.352
-0.74 -1.454 4.348
-0.713 -1.453 4.348
-0.687 -1.452 4.349
-0.66 -1.451 4.346
-0.633 -1.449 4.345
-0.606 -1.448 4.345
-0.58 -1.447 4.343
-0.553 -1.446 4.342
-0.527 -1.444 4.341
-0.501 -1.444 4.343
-0.474 -1.443 4.34
-0.448 -1.442 4.339
-0.421 -1.44 4.336
-0.395 -1.439 4.334
-0.368 -1.436 4.325
-0.343 -1.435 4.324
-0.316 -1.434 4.322
-0.291 -1.433 4.321
-0.265 -1.432 4.318
-0.239 -1.431 4.316
-0.213 -1.431 4.316
-0.187 -1.43 4.315
-0.161 -1.429 4.312
-0.136 -1.429 4.312
-0.11 -1.428 4.309
-0.084 -1.426 4.304
-0.059 -1.425 4.3
-0.033 -1.424 4.297
-0.007 -1.423 4.295
0.017 -1.424 4.298
0.043 -1.424 4.298
0.068 -1.424 4.297
0.094 -1.424 4.295
0.119 -1.422 4.289
0.144 -1.421 4.285
0.17 -1.421 4.284
0.195 -1.422 4.284
0.221 -1.422 4.282
0.246 -1.423 4.284
0.272 -1.424 4.286
0.297 -1.423 4.28
0.323 -1.423 4.279
0.348 -1.422 4.276
0.374 -1.422 4.274
0.399 -1.422 4.271
0.425 -1.423 4.27
0.45 -1.422 4.264
0.475 -1.422 4.262
0.5 -1.422 4.259
0.526 -1.422 4.256
0.551 -1.422 4.254
0.577 -1.423 4.253
0.603 -1.425 4.256
0.629 -1.425 4.254
0.655 -1.426 4.254
0.681 -1.428 4.255
0.707 -1.429 4.254
0.733 -1.429 4.251
0.759 -1.431 4.251
0.784 -1.43 4.245
0.81 -1.431 4.244
0.836 -1.432 4.24
0.862 -1.432 4.237
0.888 -1.434 4.237
0.915 -1.435 4.237
0.941 -1.435 4.232
0.967 -1.437 4.232
0.995 -1.44 4.235
1.021 -1.441 4.232
1.048 -1.442 4.23
1.075 -1.444 4.23
1.102 -1.446 4.229
1.128 -1.446 4.224
1.154 -1.447 4.219
1.181 -1.448 4.217
1.209 -1.45 4.217
1.235 -1.451 4.213
1.262 -1.452 4.208
1.29 -1.455 4.21
1.317 -1.457 4.206
1.344 -1.458 4.202
1.373 -1.461 4.203
1.401 -1.462 4.2
1.428 -1.464 4.196
1.455 -1.465 4.19
1.482 -1.466 4.186
1.509 -1.467 4.179
1.538 -1.47 4.179
1.565 -1.47 4.172
1.594 -1.473 4.171
1.623 -1.476 4.168
1.65 -1.477 4.161
1.677 -1.477 4.153
1.704 -1.478 4.145
1.728 -1.476 4.13
1.749 -1.472 4.109
1.769 -1.467 4.085
1.788 -1.461 4.058
1.799 -1.45 4.015
0 0 0
0 0 0
0 0 0
0 0 0
0 0 0
0 0 0
0 0 0
0 0 0
0.981 -0.702 1.887
1.521 -1.073 2.883
1.67 -1.164 3.117
1.678 -1.155 3.083
1.686 -1.147 3.052
1.693 -1.138 3.017
1.691 -1.123 2.968
1.686 -1.107 2.915
1.681 -1.091 2.863
1.696 -1.089 2.846
1.676 -1.064 2.77
-0.088 -0.057 0.139
-0.131 -0.085 0.216
-0.397 -0.257 0.692
-0.282 -0.185 0.496
-0.276 -0.184 0.493
-0.271 -0.182 0.491
-0.17 -0.116 0.307
-0.16 -0.111 0.294
-0.15 -0.105 0.279
-0.144 -0.103 0.272
-0.221 -0.159 0.431
-0.214 -0.156 0.425
-0.289 -0.212 0.587
-0.283 -0.211 0.584
-0.273 -0.207 0.573
-0.347 -0.265 0.743
-0.652 -0.505 1.432
-0.873 -0.686 1.956
-1.162 -0.926 2.652
-1.294 -1.046 3.008
-1.494 -1.226 3.536
-1.544 -1.287 3.719
-1.59 -1.346 3.899
-1.632 -1.403 4.075
-1.743 -1.523 4.432
-1.711 -1.519 4.432
-1.677 -1.515 4.427
-1.644 -1.51 4.421
-1.613 -1.506 4.419
-1.581 -1.503 4.417
-1.549 -1.499 4.414
-1.519 -1.496 4.414
-1.488 -1.493 4.413
-1.458 -1.491 4.413
-1.428 -1.488 4.411
-1.398 -1.485 4.41
-1.366 -1.48 4.403
-1.336 -1.477 4.399
-1.305 -1.473 4.395
-1.276 -1.471 4.396
-1.246 -1.468 4.392
-1.217 -1.464 4.388
-1.187 -1.461 4.384
-1.158 -1.458 4.381
-1.128 -1.454 4.374
-1.1 -1.452 4.375
-1.072 -1.451 4.376
-1.044 -1.449 4.375
-1.016 -1.448 4.376
-0.989 -1.447 4.378
-0.96 -1.443 4.371
-0.932 -1.441 4.367
-0.904 -1.439 4.367
-0.877 -1.438 4.367
-0.848 -1.434 4.361
-0.821 -1.433 4.361
-0.794 -1.432 4.36
-0.767 -1.429 4.357
-0.739 -1.426 4.35
-0.713 -1.426 4.353
-0.686 -1.425 4.353
-0.659 -1.423 4.35
-0.632 -1.422 4.35
-0.606 -1.421 4.35
-0.579 -1.419 4.346
-0.553 -1.418 4.346
-0.526 -1.417 4.345
-0.5 -1.417 4.347
-0.474 -1.415 4.343
-0.447 -1.414 4.34
-0.421 -1.412 4.336
-0.394 -1.411 4.333
-0.368 -1.408 4.328
-0.342 -1.408 4.329
-0.316 -1.406 4.324
-0.29 -1.406 4.323
-0.264 -1.405 4.322
-0.238 -1.403 4.317
-0.212 -1.402 4.315
-0.187 -1.402 4.315
-0.161 -1.4 4.309
-0.135 -1.398 4.304
-0.109 -1.397 4.301
-0.084 -1.397 4.3
-0.058 -1.395 4.294
-0.033 -1.395 4.293
-0.007 -1.396 4.297
0.017 -1.397 4.3
0.043 -1.398 4.302
0.068 -1.398 4.303
0.094 -1.398 4.3
0.119 -1.395 4.291
0.144 -1.394 4.286
0.17 -1.393 4.283
0.195 -1.394 4.284
0.221 -1.393 4.281
0.246 -1.395 4.285
0.272 -1.398 4.291
0.297 -1.397 4.286
0.323 -1.396 4.283
0.348 -1.395 4.279
0.373 -1.395 4.276
0.399 -1.395 4.273
0.424 -1.396 4.273
0.45 -1.395 4.269
0.475 -1.396 4.268
0.501 -1.396 4.265
0.526 -1.396 4.261
0.551 -1.395 4.258
0.576 -1.395 4.254
0.603 -1.399 4.261
0.629 -1.4 4.261
0.655 -1.401 4.261
0.681 -1.402 4.26
0.707 -1.404 4.262
0.733 -1.403 4.258
0.759 -1.404 4.254
0.783 -1.403 4.247
0.81 -1.405 4.249
0.835 -1.404 4.243
0.861 -1.405 4.24
0.888 -1.407 4.241
0.915 -1.409 4.242
0.94 -1.408 4.235
0.966 -1.41 4.234
0.993 -1.412 4.234
1.019 -1.412 4.23
1.046 -1.414 4.23
1.073 -1.416 4.23
1.1 -1.417 4.228
1.126 -1.418 4.224
1.152 -1.419 4.22
1.179 -1.42 4.217
1.207 -1.422 4.217
1.234 -1.424 4.217
1.261 -1.425 4.213
1.29 -1.428 4.215
1.317 -1.43 4.212
1.343 -1.431 4.207
1.372 -1.433 4.206
1.4 -1.435 4.204
1.427 -1.436 4.2
1.454 -1.438 4.196
1.481 -1.439 4.191
1.508 -1.439 4.183
1.536 -1.442 4.182
1.564 -1.443 4.177
1.593 -1.446 4.176
1.622 -1.448 4.173
1.65 -1.45 4.169
1.676 -1.45 4.159
1.702 -1.45 4.15
1.727 -1.449 4.137
1.751 -1.447 4.12
1.775 -1.446 4.107
1.798 -1.443 4.089
0 0 0
0 0 0
0 0 0
0 0 0
0 0 0
0 0 0
0 0 0
0 0 0
0 0 0
0 0 0
1.476 -1.023 2.803
1.671 -1.144 3.126
1.678 -1.134 3.09
1.686 -1.126 3.058
1.693 -1.118 3.024
1.693 -1.104 2.978
1.686 -1.087 2.922
1.682 -1.072 2.871
1.687 -1.064 2.837
1.665 -1.038 2.758
-0.163 -0.102 0.269
-0.126 -0.08 0.208
-0.123 -0.079 0.206
-0.113 -0.074 0.192
-0.109 -0.072 0.188
-0.102 -0.069 0.178
-0.095 -0.064 0.167
-0.087 -0.06 0.155
-0.077 -0.053 0.136
-0.068 -0.048 0.122
-0.06 -0.044 0.109
-0.053 -0.039 0.096
-0.046 -0.034 0.082
-0.04 -0.031 0.072
-0.115 -0.086 0.233
-0.189 -0.143 0.4
-0.497 -0.378 1.091
-0.719 -0.554 1.611
-1.087 -0.851 2.487
-1.219 -0.968 2.839
-1.495 -1.204 3.544
-1.544 -1.263 3.726
-1.661 -1.38 4.082
-1.631 -1.377 4.081
-1.741 -1.493 4.437
-1.709 -1.49 4.437
-1.675 -1.485 4.429
-1.642 -1.48 4.425
-1.611 -1.477 4.423
-1.58 -1.474 4.422
-1.548 -1.47 4.418
-1.519 -1.468 4.422
-1.488 -1.465 4.42
-1.457 -1.463 4.419
-1.427 -1.46 4.418
-1.396 -1.456 4.414
-1.364 -1.451 4.405
-1.335 -1.449 4.405
-1.305 -1.446 4.402
-1.275 -1.443 4.4
-1.245 -1.44 4.397
-1.216 -1.437 4.393
-1.186 -1.433 4.388
-1.158 -1.432 4.389
-1.129 -1.429 4.386
-1.1 -1.426 4.384
-1.073 -1.426 4.387
-1.045 -1.424 4.387
-1.015 -1.42 4.38
-0.988 -1.42 4.383
-0.96 -1.417 4.379
-0.932 -1.414 4.376
-0.904 -1.413 4.375
-0.877 -1.412 4.376
-0.848 -1.408 4.367
-0.821 -1.407 4.367
-0.794 -1.405 4.365
-0.766 -1.402 4.361
-0.738 -1.399 4.353
-0.712 -1.399 4.358
-0.685 -1.398 4.358
-0.658 -1.396 4.353
-0.632 -1.395 4.354
-0.605 -1.394 4.353
-0.578 -1.392 4.349
-0.552 -1.391 4.349
-0.526 -1.391 4.35
-0.5 -1.39 4.351
-0.473 -1.389 4.348
-0.446 -1.386 4.341
-0.42 -1.383 4.334
-0.394 -1.382 4.332
-0.367 -1.381 4.329
-0.341 -1.38 4.328
-0.316 -1.379 4.327
-0.29 -1.379 4.327
-0.264 -1.378 4.325
-0.238 -1.376 4.32
-0.212 -1.375 4.317
-0.186 -1.375 4.316
-0.16 -1.372 4.309
-0.135 -1.37 4.303
-0.109 -1.369 4.3
-0.084 -1.369 4.301
-0.058 -1.367 4.293
-0.033 -1.367 4.292
-0.007 -1.368 4.295
0.017 -1.37 4.303
0.043 -1.37 4.3
0.068 -1.37 4.302
0.094 -1.37 4.3
0.119 -1.368 4.293
0.144 -1.367 4.288
0.17 -1.366 4.284
0.195 -1.367 4.287
0.221 -1.368 4.288
0.246 -1.369 4.29
0.272 -1.371 4.294
0.298 -1.372 4.297
0.323 -1.371 4.291
0.348 -1.37 4.287
0.374 -1.37 4.284
0.399 -1.368 4.276
0.424 -1.368 4.273
0.45 -1.37 4.275
0.475 -1.369 4.27
0.5 -1.369 4.269
0.526 -1.371 4.27
0.552 -1.37 4.266
0.577 -1.37 4.261
0.604 -1.373 4.269
0.629 -1.374 4.266
0.654 -1.373 4.262
0.68 -1.374 4.261
0.706 -1.375 4.259
0.732 -1.375 4.256
0.757 -1.376 4.254
0.782 -1.374 4.245
0.809 -1.377 4.25
0.835 -1.378 4.247
0.861 -1.378 4.244
0.888 -1.381 4.247
0.915 -1.383 4.249
0.94 -1.382 4.242
0.966 -1.383 4.239
0.993 -1.385 4.239
1.019 -1.385 4.234
1.046 -1.387 4.235
1.072 -1.389 4.233
1.099 -1.39 4.231
1.125 -1.39 4.226
1.151 -1.391 4.221
1.177 -1.392 4.217
1.204 -1.393 4.216
1.233 -1.396 4.218
1.26 -1.398 4.217
1.289 -1.401 4.219
1.315 -1.402 4.213
1.343 -1.404 4.212
1.37 -1.405 4.209
1.398 -1.407 4.205
1.424 -1.408 4.2
1.452 -1.41 4.198
1.48 -1.411 4.194
1.506 -1.411 4.185
1.534 -1.413 4.183
1.561 -1.414 4.178
1.59 -1.417 4.176
1.618 -1.418 4.17
1.646 -1.42 4.167
1.672 -1.42 4.157
1.7 -1.421 4.151
1.724 -1.42 4.137
1.749 -1.419 4.125
1.773 -1.418 4.11
1.797 -1.416 4.095
0 0 0
0 0 0
0 0 0
0 0 0
0 0 0
0 0 0
0 0 0
0 0 0
0 0 0
0 0 0
1.233 -0.84 2.346
1.671 -1.123 3.132
1.677 -1.113 3.095
1.685 -1.105 3.062
1.692 -1.096 3.028
1.695 -1.085 2.987
1.687 -1.068 2.93
1.683 -1.053 2.877
1.699 -1.051 2.863
1.671 -1.022 2.773
-0.164 -0.101 0.271
-0.114 -0.071 0.187
-0.139 -0.087 0.234
-0.132 -0.084 0.226
-0.125 -0.081 0.218
-0.118 -0.077 0.208
-0.111 -0.074 0.198
-0.102 -0.068 0.182
-0.089 -0.061 0.16
-0.08 -0.056 0.146
-0.069 -0.049 0.127
-0.059 -0.042 0.108
-0.048 -0.035 0.087
-0.04 -0.03 0.071
-0.031 -0.024 0.055
-0.186 -0.138 0.395
-0.573 -0.428 1.264
-0.795 -0.602 1.788
-1.163 -0.893 2.667
-1.446 -1.126 3.376
-1.645 -1.3 3.909
-1.618 -1.299 3.913
-1.734 -1.413 4.269
-1.701 -1.409 4.266
-1.739 -1.464 4.441
-1.707 -1.46 4.438
-1.672 -1.455 4.431
-1.64 -1.45 4.427
-1.609 -1.448 4.427
-1.578 -1.445 4.426
-1.547 -1.441 4.423
-1.516 -1.439 4.424
-1.485 -1.436 4.421
-1.453 -1.431 4.414
-1.423 -1.428 4.414
-1.393 -1.426 4.412
-1.362 -1.422 4.407
-1.333 -1.42 4.407
-1.304 -1.418 4.407
-1.274 -1.415 4.404
-1.244 -1.412 4.402
-1.214 -1.408 4.394
-1.184 -1.404 4.39
-1.157 -1.404 4.395
-1.128 -1.401 4.39
-1.098 -1.397 4.384
-1.071 -1.397 4.39
-1.043 -1.395 4.387
-1.013 -1.391 4.379
-0.987 -1.391 4.385
-0.959 -1.389 4.383
-0.931 -1.387 4.38
-0.904 -1.386 4.381
-0.877 -1.385 4.382
-0.848 -1.381 4.374
-0.822 -1.381 4.378
-0.794 -1.379 4.374
-0.766 -1.377 4.37
-0.738 -1.373 4.362
-0.712 -1.373 4.365
-0.685 -1.372 4.365
-0.659 -1.371 4.364
-0.632 -1.369 4.362
-0.605 -1.368 4.361
-0.578 -1.366 4.356
-0.552 -1.365 4.356
-0.525 -1.364 4.353
-0.499 -1.364 4.355
-0.473 -1.362 4.351
-0.445 -1.357 4.339
-0.419 -1.355 4.332
-0.393 -1.354 4.332
-0.367 -1.353 4.33
-0.341 -1.353 4.33
-0.315 -1.352 4.33
-0.289 -1.351 4.327
-0.263 -1.35 4.325
-0.237 -1.348 4.32
-0.211 -1.347 4.315
-0.186 -1.347 4.316
-0.16 -1.345 4.311
-0.134 -1.341 4.299
-0.109 -1.34 4.295
-0.083 -1.34 4.296
-0.058 -1.336 4.283
-0.032 -1.335 4.279
-0.007 -1.338 4.29
0.017 -1.343 4.304
0.043 -1.343 4.303
0.069 -1.346 4.312
0.094 -1.346 4.312
0.119 -1.345 4.306
0.145 -1.343 4.299
0.17 -1.341 4.292
0.196 -1.344 4.3
0.221 -1.342 4.294
0.246 -1.343 4.296
0.272 -1.344 4.295
0.298 -1.346 4.301
0.322 -1.342 4.286
0.347 -1.341 4.28
0.373 -1.34 4.277
0.398 -1.34 4.273
0.423 -1.339 4.269
0.449 -1.342 4.275
0.474 -1.342 4.271
0.5 -1.342 4.27
0.526 -1.344 4.272
0.55 -1.342 4.262
0.575 -1.34 4.255
0.602 -1.343 4.262
0.629 -1.347 4.269
0.653 -1.344 4.259
0.681 -1.349 4.27
0.706 -1.349 4.266
