1.682 -1.329 2.98
1.675 -1.308 2.922
1.667 -1.287 2.865
1.664 -1.269 2.816
1.662 -1.253 2.769
1.653 -1.233 2.714
1.644 -1.212 2.658
-2.221 -1.629 3.729
-2.172 -1.612 3.702
-2.162 -1.624 3.742
-2.133 -1.621 3.748
-2.107 -1.621 3.761
-2.082 -1.622 3.774
-2.059 -1.624 3.791
-2.034 -1.625 3.805
-2.01 -1.626 3.82
-1.985 -1.627 3.833
-1.96 -1.628 3.846
-1.932 -1.625 3.851
-1.906 -1.625 3.862
-1.88 -1.625 3.872
-1.854 -1.625 3.883
-1.828 -1.625 3.893
-1.805 -1.628 3.91
-1.777 -1.625 3.914
-1.751 -1.625 3.923
-1.723 -1.623 3.929
-1.698 -1.624 3.939
-1.668 -1.62 3.938
-1.645 -1.622 3.953
-1.617 -1.62 3.957
-1.591 -1.619 3.965
-1.564 -1.618 3.971
-1.54 -1.62 3.983
-1.511 -1.617 3.983
-1.487 -1.618 3.995
-1.462 -1.619 4.006
-1.437 -1.619 4.013
-1.41 -1.618 4.017
-1.383 -1.616 4.02
-1.357 -1.616 4.027
-1.331 -1.615 4.033
-1.307 -1.617 4.044
-1.283 -1.619 4.056
-1.259 -1.621 4.066
-1.232 -1.619 4.07
-1.206 -1.619 4.075
-1.179 -1.616 4.075
-1.151 -1.614 4.074
-1.126 -1.613 4.08
-1.1 -1.614 4.086
-1.075 -1.614 4.093
-1.05 -1.615 4.099
-1.024 -1.613 4.101
-0.997 -1.612 4.103
-0.972 -1.612 4.108
-0.946 -1.611 4.109
-0.921 -1.612 4.117
-0.896 -1.613 4.125
-0.871 -1.614 4.13
-0.845 -1.613 4.132
-0.821 -1.615 4.142
-0.795 -1.614 4.144
-0.771 -1.616 4.152
-0.746 -1.619 4.163
-0.721 -1.62 4.17
-0.696 -1.619 4.171
-0.67 -1.619 4.174
-0.644 -1.617 4.171
-0.618 -1.615 4.17
-0.592 -1.615 4.172
-0.566 -1.614 4.173
-0.54 -1.613 4.171
-0.516 -1.615 4.179
-0.491 -1.616 4.184
-0.464 -1.613 4.179
-0.439 -1.613 4.181
-0.415 -1.617 4.193
-0.388 -1.613 4.185
-0.363 -1.611 4.181
-0.337 -1.612 4.185
-0.312 -1.612 4.186
-0.286 -1.609 4.18
-0.261 -1.611 4.187
-0.236 -1.613 4.191
-0.211 -1.612 4.191
-0.186 -1.613 4.194
-0.16 -1.613 4.194
-0.135 -1.614 4.196
-0.11 -1.614 4.198
-0.085 -1.615 4.199
-0.059 -1.613 4.195
-0.034 -1.615 4.199
-0.009 -1.613 4.196
0.016 -1.613 4.193
0.041 -1.614 4.197
0.066 -1.614 4.196
0.091 -1.613 4.191
0.117 -1.613 4.191
0.142 -1.612 4.188
0.167 -1.612 4.186
0.192 -1.612 4.186
0.218 -1.614 4.19
0.243 -1.614 4.187
0.268 -1.613 4.185
0.293 -1.612 4.181
0.318 -1.612 4.177
0.343 -1.611 4.172
0.368 -1.609 4.167
0.394 -1.61 4.166
0.419 -1.61 4.165
0.444 -1.611 4.164
0.469 -1.611 4.162
0.495 -1.612 4.16
0.52 -1.613 4.161
0.546 -1.615 4.162
0.572 -1.616 4.162
0.597 -1.617 4.16
0.623 -1.619 4.163
0.649 -1.62 4.161
0.674 -1.62 4.158
0.699 -1.619 4.152
0.725 -1.619 4.148
0.749 -1.618 4.142
0.775 -1.619 4.14
0.8 -1.618 4.132
0.826 -1.619 4.131
0.851 -1.62 4.128
0.877 -1.621 4.126
0.902 -1.621 4.12
0.929 -1.623 4.12
0.954 -1.623 4.114
0.98 -1.624 4.112
1.005 -1.624 4.106
1.032 -1.626 4.106
1.058 -1.627 4.103
1.084 -1.629 4.1
1.111 -1.63 4.098
1.136 -1.631 4.093
1.161 -1.631 4.086
1.189 -1.633 4.085
1.215 -1.634 4.081
1.241 -1.634 4.075
1.27 -1.639 4.079
1.295 -1.639 4.071
1.321 -1.639 4.065
1.346 -1.64 4.058
1.373 -1.641 4.053
1.396 -1.638 4.039
1.424 -1.641 4.038
1.448 -1.639 4.024
1.475 -1.641 4.02
1.501 -1.641 4.012
1.527 -1.642 4.004
1.549 -1.638 3.986
1.576 -1.64 3.983
1.599 -1.638 3.967
1.624 -1.637 3.955
1.649 -1.637 3.946
1.675 -1.638 3.938
1.699 -1.636 3.924
1.721 -1.633 3.906
1.739 -1.626 3.879
1.752 -1.615 3.842
1.762 -1.602 3.8
1.767 -1.584 3.746
1.775 -1.569 3.702
1.779 -1.551 3.649
1.788 -1.538 3.606
1.787 -1.518 3.548
1.746 -1.463 3.409
1.658 -1.372 3.187
1.649 -1.348 3.12
1.663 -1.342 3.096
1.67 -1.331 3.061
1.675 -1.319 3.022
1.678 -1.306 2.982
1.673 -1.286 2.926
1.666 -1.266 2.87
1.664 -1.249 2.822
1.662 -1.234 2.777
1.668 -1.224 2.746
1.684 -1.222 2.73
-2.274 -1.642 3.828
-2.216 -1.619 3.787
-2.192 -1.62 3.804
-2.163 -1.619 3.813
-2.138 -1.619 3.827
-2.114 -1.621 3.843
-2.091 -1.623 3.859
-2.065 -1.624 3.873
-2.039 -1.623 3.884
-2.012 -1.623 3.895
-1.988 -1.625 3.91
-1.96 -1.623 3.918
-1.933 -1.623 3.928
-1.908 -1.624 3.941
-1.88 -1.622 3.948
-1.852 -1.621 3.955
-1.827 -1.621 3.967
-1.8 -1.621 3.975
-1.773 -1.62 3.983
-1.748 -1.621 3.995
-1.725 -1.623 4.011
-1.697 -1.622 4.016
-1.671 -1.622 4.027
-1.644 -1.621 4.033
-1.616 -1.62 4.038
-1.587 -1.617 4.04
-1.561 -1.617 4.048
-1.532 -1.613 4.048
-1.507 -1.614 4.059
-1.482 -1.615 4.068
-1.456 -1.616 4.078
-1.43 -1.615 4.083
-1.404 -1.615 4.092
-1.378 -1.615 4.099
-1.352 -1.615 4.107
-1.327 -1.616 4.115
-1.302 -1.617 4.125
-1.276 -1.617 4.133
-1.249 -1.616 4.135
-1.222 -1.615 4.14
-1.195 -1.612 4.14
-1.167 -1.61 4.14
-1.141 -1.61 4.144
-1.115 -1.61 4.15
-1.09 -1.61 4.158
-1.064 -1.611 4.165
-1.039 -1.611 4.17
-1.013 -1.611 4.175
-0.986 -1.61 4.178
-0.959 -1.609 4.178
-0.934 -1.609 4.183
-0.907 -1.608 4.186
-0.882 -1.607 4.189
-0.856 -1.607 4.192
-0.831 -1.609 4.201
-0.804 -1.608 4.202
-0.78 -1.61 4.213
-0.756 -1.613 4.224
-0.73 -1.614 4.229
-0.704 -1.613 4.229
-0.678 -1.613 4.232
-0.651 -1.61 4.228
-0.624 -1.608 4.225
-0.598 -1.607 4.227
-0.573 -1.607 4.228
-0.546 -1.605 4.228
-0.521 -1.607 4.233
-0.495 -1.606 4.235
-0.469 -1.604 4.231
-0.443 -1.604 4.232
-0.419 -1.606 4.241
-0.392 -1.603 4.234
-0.366 -1.602 4.231
-0.341 -1.603 4.235
-0.315 -1.602 4.236
-0.289 -1.6 4.232
-0.264 -1.602 4.237
-0.239 -1.603 4.242
-0.213 -1.602 4.24
-0.187 -1.603 4.242
-0.162 -1.602 4.241
-0.136 -1.603 4.243
-0.111 -1.601 4.239
-0.085 -1.602 4.242
-0.06 -1.601 4.239
-0.034 -1.602 4.24
-0.009 -1.6 4.237
0.016 -1.6 4.236
0.041 -1.6 4.235
0.067 -1.6 4.235
0.092 -1.599 4.231
0.118 -1.598 4.228
0.143 -1.598 4.226
0.168 -1.598 4.225
0.194 -1.597 4.222
0.219 -1.599 4.224
0.245 -1.599 4.224
0.27 -1.599 4.222
0.296 -1.598 4.218
0.321 -1.599 4.219
0.346 -1.598 4.213
0.371 -1.596 4.207
0.397 -1.596 4.205
0.422 -1.597 4.204
0.447 -1.596 4.198
0.473 -1.596 4.196
0.498 -1.597 4.196
0.524 -1.598 4.196
0.55 -1.599 4.196
0.575 -1.6 4.194
0.601 -1.599 4.19
0.627 -1.601 4.191
0.653 -1.603 4.192
0.679 -1.604 4.191
0.704 -1.604 4.188
0.73 -1.605 4.184
0.755 -1.604 4.179
0.78 -1.604 4.176
0.805 -1.603 4.168
0.831 -1.604 4.165
0.857 -1.605 4.162
0.883 -1.606 4.16
0.908 -1.606 4.156
0.935 -1.608 4.157
0.962 -1.61 4.155
0.988 -1.612 4.155
1.014 -1.612 4.15
1.041 -1.614 4.149
1.067 -1.615 4.145
1.093 -1.615 4.14
1.119 -1.617 4.137
1.145 -1.617 4.132
1.17 -1.617 4.124
1.198 -1.62 4.126
1.225 -1.621 4.122
1.251 -1.622 4.116
1.28 -1.627 4.122
1.306 -1.627 4.116
1.332 -1.628 4.109
1.359 -1.629 4.106
1.387 -1.631 4.103
1.411 -1.629 4.089
1.438 -1.631 4.087
1.463 -1.63 4.074
1.489 -1.631 4.068
1.516 -1.632 4.062
1.543 -1.633 4.056
1.567 -1.631 4.042
1.594 -1.632 4.036
1.618 -1.631 4.023
1.643 -1.63 4.01
1.668 -1.63 4
1.694 -1.63 3.991
1.717 -1.627 3.974
1.738 -1.623 3.953
1.755 -1.615 3.923
1.767 -1.603 3.884
1.776 -1.588 3.837
1.781 -1.571 3.786
1.79 -1.558 3.742
1.799 -1.544 3.699
1.804 -1.528 3.649
1.811 -1.513 3.603
0 0 0
0 0 0
1.65 -1.327 3.128
1.665 -1.322 3.107
1.672 -1.311 3.071
1.678 -1.3 3.034
1.683 -1.289 2.997
1.677 -1.269 2.942
1.672 -1.25 2.887
1.668 -1.233 2.838
1.668 -1.219 2.794
1.652 -1.194 2.726
1.651 -1.18 2.684
-2.268 -1.611 3.829
-2.271 -1.632 3.892
-2.224 -1.618 3.87
-2.194 -1.615 3.877
-2.168 -1.616 3.89
-2.144 -1.617 3.907
-2.122 -1.621 3.927
-2.096 -1.621 3.941
-2.07 -1.622 3.954
-2.043 -1.621 3.964
-2.017 -1.622 3.977
-1.989 -1.62 3.985
-1.962 -1.621 3.996
-1.936 -1.621 4.009
-1.911 -1.622 4.022
-1.884 -1.622 4.033
-1.857 -1.622 4.042
-1.83 -1.621 4.051
-1.802 -1.62 4.058
-1.775 -1.619 4.066
-1.748 -1.619 4.076
-1.718 -1.616 4.078
-1.691 -1.615 4.085
-1.664 -1.615 4.093
-1.636 -1.613 4.098
-1.607 -1.611 4.1
-1.581 -1.611 4.108
-1.553 -1.609 4.113
-1.527 -1.609 4.121
-1.5 -1.609 4.13
-1.475 -1.61 4.14
-1.448 -1.61 4.147
-1.422 -1.61 4.154
-1.396 -1.61 4.164
-1.371 -1.612 4.175
-1.345 -1.612 4.183
-1.321 -1.614 4.195
-1.295 -1.615 4.203
-1.267 -1.614 4.207
-1.24 -1.612 4.209
-1.212 -1.61 4.209
-1.183 -1.607 4.207
-1.157 -1.606 4.211
-1.13 -1.606 4.216
-1.104 -1.606 4.222
-1.078 -1.607 4.23
-1.053 -1.607 4.237
-1.026 -1.606 4.239
-0.998 -1.604 4.238
-0.971 -1.602 4.237
-0.944 -1.601 4.239
-0.917 -1.599 4.239
-0.891 -1.599 4.243
-0.865 -1.599 4.247
-0.839 -1.599 4.252
-0.813 -1.599 4.255
-0.787 -1.6 4.262
-0.762 -1.602 4.271
-0.736 -1.602 4.275
-0.71 -1.601 4.276
-0.683 -1.6 4.275
-0.656 -1.597 4.272
-0.629 -1.595 4.268
-0.603 -1.595 4.271
-0.577 -1.593 4.27
-0.551 -1.593 4.271
-0.525 -1.593 4.274
-0.499 -1.593 4.275
-0.472 -1.589 4.266
-0.446 -1.588 4.266
-0.421 -1.59 4.274
-0.394 -1.587 4.268
-0.368 -1.585 4.264
-0.343 -1.587 4.27
-0.317 -1.588 4.274
-0.291 -1.586 4.27
-0.266 -1.587 4.275
-0.24 -1.588 4.279
-0.214 -1.587 4.276
-0.188 -1.586 4.274
-0.162 -1.585 4.272
-0.137 -1.584 4.27
-0.111 -1.583 4.266
-0.085 -1.583 4.267
-0.06 -1.583 4.266
-0.034 -1.583 4.268
-0.008 -1.583 4.267
0.016 -1.584 4.269
0.042 -1.585 4.271
0.067 -1.584 4.268
0.093 -1.583 4.264
0.119 -1.582 4.262
0.144 -1.58 4.256
0.169 -1.579 4.252
0.195 -1.579 4.249
0.22 -1.579 4.249
0.246 -1.58 4.248
0.272 -1.579 4.246
0.297 -1.578 4.242
0.322 -1.579 4.242
0.348 -1.579 4.238
0.373 -1.577 4.233
0.399 -1.578 4.231
0.424 -1.578 4.229
0.449 -1.577 4.225
0.475 -1.577 4.221
0.5 -1.577 4.219
0.526 -1.577 4.216
0.551 -1.578 4.216
0.577 -1.578 4.212
0.602 -1.578 4.208
0.628 -1.579 4.208
0.655 -1.582 4.212
0.681 -1.584 4.214
0.707 -1.586 4.215
0.733 -1.587 4.214
0.76 -1.589 4.214
0.785 -1.589 4.21
0.81 -1.587 4.2
0.835 -1.586 4.194
0.861 -1.587 4.191
0.887 -1.587 4.187
0.913 -1.588 4.185
0.94 -1.59 4.184
0.966 -1.591 4.183
0.993 -1.594 4.184
1.019 -1.595 4.18
1.046 -1.597 4.18
1.073 -1.598 4.177
1.099 -1.599 4.175
1.126 -1.6 4.171
1.152 -1.601 4.165
1.177 -1.6 4.157
1.206 -1.604 4.161
1.233 -1.605 4.157
1.259 -1.606 4.151
1.287 -1.609 4.153
1.315 -1.611 4.15
1.341 -1.611 4.143
1.368 -1.613 4.14
1.396 -1.615 4.138
1.42 -1.614 4.126
1.448 -1.615 4.121
1.472 -1.614 4.11
1.499 -1.615 4.104
1.527 -1.618 4.101
1.555 -1.619 4.096
1.58 -1.618 4.085
1.608 -1.621 4.081
1.634 -1.621 4.072
1.659 -1.62 4.06
1.685 -1.62 4.05
1.71 -1.619 4.038
1.731 -1.614 4.016
1.75 -1.608 3.989
1.763 -1.597 3.951
1.774 -1.584 3.909
1.782 -1.568 3.859
1.789 -1.552 3.81
1.799 -1.54 3.768
1.806 -1.525 3.721
1.812 -1.51 3.673
0 0 0
0 0 0
0 0 0
1.657 -1.312 3.15
1.67 -1.305 3.123
1.674 -1.292 3.082
1.679 -1.281 3.045
1.685 -1.27 3.009
1.679 -1.25 2.952
1.672 -1.23 2.894
1.671 -1.215 2.849
1.67 -1.2 2.804
1.667 -1.185 2.758
1.675 -1.177 2.729
-2.314 -1.617 3.917
-2.31 -1.633 3.969
-2.26 -1.617 3.943
-2.23 -1.615 3.951
-2.202 -1.614 3.962
-2.177 -1.615 3.977
-2.152 -1.617 3.993
-2.125 -1.617 4.005
-2.099 -1.618 4.019
-2.072 -1.618 4.031
-2.046 -1.619 4.046
-2.018 -1.618 4.055
-1.991 -1.618 4.065
-1.966 -1.619 4.08
-1.939 -1.619 4.091
-1.911 -1.619 4.101
-1.885 -1.619 4.112
-1.858 -1.619 4.123
-1.829 -1.617 4.128
-1.802 -1.617 4.138
-1.774 -1.616 4.145
-1.744 -1.613 4.147
-1.715 -1.612 4.153
-1.69 -1.613 4.166
-1.66 -1.61 4.168
-1.631 -1.608 4.17
-1.604 -1.608 4.179
-1.576 -1.606 4.183
-1.548 -1.605 4.188
-1.521 -1.605 4.197
-1.495 -1.606 4.207
-1.469 -1.606 4.215
-1.442 -1.606 4.223
-1.417 -1.607 4.233
-1.391 -1.608 4.243
-1.364 -1.609 4.251
-1.337 -1.608 4.258
-1.311 -1.609 4.267
-1.283 -1.607 4.269
-1.254 -1.604 4.267
-1.225 -1.601 4.266
-1.197 -1.599 4.264
-1.169 -1.597 4.266
-1.142 -1.596 4.269
-1.116 -1.596 4.276
-1.089 -1.596 4.281
-1.062 -1.596 4.285
-1.035 -1.595 4.288
-1.007 -1.592 4.285
-0.979 -1.589 4.282
-0.952 -1.589 4.286
-0.925 -1.587 4.284
-0.898 -1.585 4.284
-0.871 -1.584 4.286
-0.845 -1.584 4.29
-0.818 -1.583 4.292
-0.792 -1.584 4.297
-0.767 -1.585 4.305
-0.741 -1.585 4.309
-0.714 -1.584 4.309
-0.686 -1.581 4.305
-0.66 -1.58 4.304
-0.632 -1.577 4.298
-0.606 -1.577 4.301
-0.58 -1.576 4.301
-0.554 -1.575 4.302
-0.528 -1.575 4.303
-0.501 -1.574 4.302
-0.474 -1.569 4.293
-0.448 -1.568 4.291
-0.422 -1.569 4.296
-0.396 -1.568 4.293
-0.37 -1.567 4.292
-0.344 -1.568 4.298
-0.318 -1.568 4.299
-0.292 -1.567 4.296
-0.266 -1.567 4.297
-0.241 -1.567 4.299
-0.215 -1.566 4.297
-0.189 -1.565 4.295
-0.163 -1.564 4.293
-0.137 -1.564 4.293
-0.111 -1.562 4.289
-0.085 -1.562 4.287
-0.06 -1.561 4.286
-0.034 -1.562 4.288
-0.008 -1.561 4.284
0.016 -1.56 4.283
0.042 -1.56 4.282
0.068 -1.559 4.277
0.093 -1.557 4.273
0.119 -1.557 4.27
0.144 -1.556 4.266
0.17 -1.556 4.265
0.195 -1.557 4.267
0.221 -1.557 4.266
0.247 -1.558 4.266
0.272 -1.558 4.265
0.298 -1.556 4.259
0.323 -1.557 4.259
0.349 -1.557 4.257
0.374 -1.556 4.251
0.399 -1.555 4.247
0.425 -1.555 4.246
0.45 -1.554 4.241
0.475 -1.553 4.233
0.501 -1.554 4.234
0.527 -1.555 4.233
0.553 -1.556 4.232
0.578 -1.555 4.228
0.604 -1.556 4.227
0.629 -1.556 4.224
0.656 -1.558 4.225
0.682 -1.56 4.226
0.708 -1.562 4.227
0.734 -1.562 4.225
0.761 -1.564 4.226
0.787 -1.565 4.223
0.812 -1.563 4.215
0.837 -1.564 4.211
0.863 -1.565 4.209
0.889 -1.565 4.206
0.916 -1.567 4.205
0.942 -1.569 4.205
0.969 -1.57 4.202
0.996 -1.572 4.203
1.023 -1.574 4.201
1.049 -1.575 4.2
1.076 -1.577 4.198
1.103 -1.578 4.196
1.129 -1.579 4.192
1.155 -1.579 4.185
1.181 -1.579 4.178
1.209 -1.582 4.18
1.236 -1.583 4.176
1.262 -1.584 4.17
1.291 -1.587 4.172
1.319 -1.59 4.171
1.345 -1.59 4.165
1.373 -1.592 4.163
1.401 -1.595 4.162
1.428 -1.596 4.155
1.455 -1.597 4.151
1.481 -1.597 4.141
1.507 -1.597 4.134
1.536 -1.6 4.133
1.564 -1.602 4.128
1.59 -1.602 4.12
1.618 -1.604 4.115
1.646 -1.605 4.109
1.671 -1.605 4.097
1.697 -1.604 4.087
1.721 -1.603 4.072
1.741 -1.598 4.049
1.758 -1.589 4.017
1.77 -1.577 3.975
1.781 -1.564 3.932
1.787 -1.548 3.88
1.794 -1.532 3.829
1.8 -1.516 3.78
1.81 -1.504 3.739
0 0 0
0 0 0
0 0 0
0 0 0
1.648 -1.283 3.139
1.663 -1.279 3.118
1.668 -1.267 3.079
1.673 -1.255 3.04
1.682 -1.246 3.009
1.677 -1.229 2.956
1.674 -1.212 2.905
1.672 -1.197 2.858
1.671 -1.182 2.814
1.671 -1.169 2.771
1.666 -1.152 2.722
-2.364 -1.625 4.012
-2.305 -1.603 3.972
-2.197 -1.546 3.843
-2.171 -1.546 3.855
-2.234 -1.61 4.029
-2.207 -1.611 4.042
-2.181 -1.612 4.057
-2.154 -1.612 4.071
-2.126 -1.612 4.082
-2.1 -1.613 4.097
-2.072 -1.612 4.107
-2.044 -1.611 4.116
-2.016 -1.611 4.127
-1.991 -1.613 4.142
-1.883 -1.547 3.983
-1.857 -1.547 3.994
-1.83 -1.546 4.001
-1.805 -1.547 4.015
-1.776 -1.545 4.019
-1.824 -1.61 4.199
-1.798 -1.611 4.211
-1.771 -1.611 4.221
-1.741 -1.609 4.225
-1.715 -1.61 4.238
-1.687 -1.609 4.244
-1.657 -1.606 4.247
-1.628 -1.605 4.252
-1.599 -1.603 4.256
-1.57 -1.601 4.257
-1.542 -1.6 4.263
-1.514 -1.599 4.27
-1.487 -1.599 4.277
-1.46 -1.599 4.284
-1.433 -1.599 4.293
-1.407 -1.6 4.301
-1.379 -1.599 4.307
-1.35 -1.597 4.308
-1.323 -1.597 4.314
-1.294 -1.595 4.315
-1.265 -1.592 4.313
-1.236 -1.589 4.313
-1.208 -1.588 4.315
-1.18 -1.585 4.315
-1.151 -1.583 4.314
-1.124 -1.582 4.318
-1.097 -1.581 4.32
-1.07 -1.581 4.324
-1.043 -1.58 4.328
-1.014 -1.577 4.325
-0.986 -1.574 4.322
-0.958 -1.573 4.322
-0.93 -1.569 4.317
-0.902 -1.567 4.315
-0.875 -1.566 4.316
-0.849 -1.566 4.32
-0.822 -1.565 4.322
-0.795 -1.564 4.324
-0.769 -1.564 4.326
-0.742 -1.563 4.327
-0.715 -1.561 4.326
-0.688 -1.558 4.321
-0.661 -1.558 4.323
-0.634 -1.556 4.321
-0.608 -1.556 4.324
-0.581 -1.554 4.322
-0.555 -1.553 4.321
-0.528 -1.552 4.321
-0.502 -1.55 4.317
-0.475 -1.546 4.308
-0.448 -1.544 4.303
-0.422 -1.543 4.304
-0.396 -1.542 4.301
-0.37 -1.541 4.301
-0.344 -1.541 4.303
-0.318 -1.542 4.306
-0.292 -1.541 4.304
-0.266 -1.541 4.306
-0.24 -1.54 4.305
-0.214 -1.54 4.304
-0.189 -1.539 4.303
-0.163 -1.539 4.303
-0.137 -1.538 4.299
-0.111 -1.536 4.297
-0.085 -1.536 4.296
-0.06 -1.535 4.292
-0.034 -1.535 4.292
-0.008 -1.535 4.292
0.017 -1.535 4.291
0.042 -1.534 4.289
0.068 -1.533 4.286
0.093 -1.532 4.281
0.119 -1.531 4.277
0.144 -1.53 4.274
0.17 -1.531 4.275
0.196 -1.532 4.277
0.221 -1.533 4.278
0.247 -1.534 4.279
0.273 -1.533 4.275
0.298 -1.532 4.27
0.324 -1.532 4.27
0.349 -1.532 4.267
0.375 -1.531 4.262
0.4 -1.531 4.26
0.425 -1.53 4.256
0.451 -1.53 4.251
0.476 -1.527 4.242
0.501 -1.528 4.24
0.527 -1.528 4.238
0.552 -1.529 4.237
0.578 -1.528 4.232
0.604 -1.53 4.234
0.629 -1.53 4.23
0.656 -1.532 4.232
0.682 -1.534 4.234
0.709 -1.536 4.236
0.735 -1.537 4.234
0.761 -1.539 4.236
0.787 -1.54 4.234
0.813 -1.539 4.228
0.838 -1.539 4.223
0.864 -1.54 4.222
0.89 -1.541 4.219
0.917 -1.543 4.218
0.944 -1.544 4.217
0.97 -1.546 4.217
0.997 -1.548 4.217
1.024 -1.55 4.215
1.051 -1.551 4.212
1.077 -1.552 4.211
1.104 -1.554 4.209
1.13 -1.554 4.203
1.156 -1.554 4.197
1.183 -1.555 4.192
1.211 -1.558 4.194
1.238 -1.559 4.19
1.265 -1.561 4.187
1.293 -1.564 4.188
1.321 -1.566 4.186
1.347 -1.567 4.18
1.375 -1.569 4.178
1.403 -1.571 4.177
1.432 -1.574 4.176
1.459 -1.575 4.171
1.485 -1.575 4.163
1.512 -1.576 4.156
1.541 -1.579 4.155
1.568 -1.58 4.148
1.596 -1.581 4.143
1.624 -1.584 4.14
1.651 -1.584 4.132
1.677 -1.584 4.121
1.703 -1.584 4.11
1.727 -1.581 4.095
1.748 -1.577 4.072
1.764 -1.568 4.039
1.777 -1.557 4.001
1.79 -1.546 3.96
1.8 -1.533 3.917
1.81 -1.52 3.872
1.818 -1.506 3.826
0 0 0
0 0 0
0 0 0
0 0 0
0 0 0
0 0 0
1.661 -1.256 3.122
1.669 -1.246 3.088
1.675 -1.236 3.051
1.681 -1.226 3.016
1.68 -1.21 2.968
1.678 -1.194 2.918
1.675 -1.179 2.87
1.673 -1.164 2.822
1.698 -1.168 2.823
1.652 -1.123 2.704
-2.371 -1.602 4.034
-2.357 -1.611 4.071
-1.946 -1.346 3.41
-1.922 -1.346 3.421
-1.897 -1.345 3.428
-1.874 -1.345 3.438
-1.849 -1.344 3.447
-1.74 -1.28 3.293
-1.716 -1.279 3.299
-1.696 -1.28 3.312
-1.758 -1.345 3.49
-1.819 -1.41 3.671
-1.876 -1.474 3.849
-1.854 -1.477 3.866
-1.747 -1.411 3.703
-1.643 -1.346 3.541
-1.619 -1.345 3.546
-1.598 -1.346 3.56
-1.649 -1.41 3.738
-1.774 -1.539 4.093
-1.748 -1.54 4.104
-1.72 -1.538 4.109
-1.69 -1.535 4.109
-1.664 -1.536 4.12
-1.636 -1.534 4.124
-1.674 -1.596 4.301
-1.646 -1.595 4.307
-1.618 -1.594 4.314
-1.588 -1.592 4.316
-1.559 -1.591 4.32
-1.531 -1.59 4.326
-1.503 -1.589 4.332
-1.474 -1.587 4.335
-1.446 -1.586 4.339
-1.419 -1.587 4.348
-1.391 -1.586 4.353
-1.361 -1.582 4.351
-1.333 -1.582 4.356
-1.304 -1.579 4.355
-1.273 -1.575 4.351
-1.244 -1.573 4.35
-1.215 -1.57 4.348
-1.186 -1.567 4.346
-1.157 -1.564 4.345
-1.13 -1.563 4.348
-1.102 -1.562 4.349
-1.075 -1.562 4.354
-1.048 -1.561 4.358
-1.019 -1.557 4.353
-0.989 -1.553 4.346
-0.962 -1.551 4.345
-0.933 -1.548 4.34
-0.905 -1.545 4.337
-0.878 -1.544 4.338
-0.851 -1.544 4.341
-0.824 -1.542 4.34
-0.797 -1.541 4.34
-0.77 -1.539 4.339
-0.742 -1.537 4.338
-0.716 -1.537 4.339
-0.688 -1.534 4.336
-0.662 -1.534 4.338
-0.635 -1.532 4.336
-0.609 -1.532 4.338
-0.582 -1.529 4.333
-0.555 -1.529 4.334
-0.529 -1.527 4.331
-0.502 -1.525 4.328
-0.475 -1.522 4.322
-0.448 -1.52 4.317
-0.422 -1.518 4.312
-0.396 -1.516 4.311
-0.37 -1.517 4.313
-0.344 -1.516 4.312
-0.318 -1.517 4.316
-0.292 -1.517 4.317
-0.266 -1.517 4.32
-0.24 -1.515 4.315
-0.214 -1.514 4.313
-0.188 -1.513 4.309
-0.162 -1.511 4.305
-0.136 -1.509 4.3
-0.111 -1.508 4.297
-0.085 -1.508 4.296
-0.059 -1.508 4.296
-0.034 -1.508 4.296
-0.008 -1.507 4.292
0.017 -1.507 4.294
0.042 -1.507 4.291
0.068 -1.506 4.289
0.093 -1.505 4.285
0.119 -1.504 4.282
0.144 -1.504 4.28
0.17 -1.504 4.279
0.196 -1.504 4.278
0.221 -1.504 4.278
0.247 -1.506 4.281
0.272 -1.505 4.275
0.298 -1.505 4.275
0.324 -1.506 4.276
0.349 -1.506 4.274
0.375 -1.506 4.271
0.4 -1.506 4.269
0.426 -1.505 4.264
0.451 -1.505 4.261
0.476 -1.503 4.252
0.501 -1.502 4.249
0.527 -1.503 4.247
0.552 -1.503 4.243
0.577 -1.501 4.236
0.604 -1.504 4.241
0.629 -1.504 4.238
0.656 -1.506 4.24
0.682 -1.509 4.243
0.709 -1.51 4.244
0.734 -1.51 4.24
0.761 -1.512 4.241
0.787 -1.513 4.238
0.812 -1.512 4.233
0.838 -1.513 4.229
0.864 -1.513 4.226
0.89 -1.514 4.223
0.916 -1.515 4.222
0.943 -1.517 4.222
0.97 -1.519 4.222
0.997 -1.521 4.223
1.024 -1.523 4.221
1.05 -1.524 4.218
1.077 -1.526 4.218
1.104 -1.527 4.215
1.131 -1.528 4.212
1.157 -1.529 4.207
1.184 -1.53 4.205
1.212 -1.533 4.206
1.239 -1.535 4.203
1.266 -1.536 4.2
1.294 -1.538 4.198
1.321 -1.539 4.194
1.348 -1.541 4.189
1.375 -1.542 4.187
1.404 -1.545 4.186
1.432 -1.548 4.185
1.46 -1.55 4.182
1.486 -1.55 4.173
1.513 -1.55 4.167
1.541 -1.552 4.162
1.568 -1.553 4.157
1.596 -1.555 4.152
1.625 -1.558 4.15
1.653 -1.559 4.144
1.68 -1.56 4.136
1.706 -1.56 4.126
1.73 -1.558 4.111
1.751 -1.553 4.089
1.769 -1.546 4.058
1.784 -1.537 4.025
1.801 -1.529 3.993
1.815 -1.52 3.958
1.825 -1.507 3.914
0 0 0
0 0 0
0 0 0
0 0 0
0 0 0
0 0 0
0 0 0
1.672 -1.243 3.15
1.678 -1.233 3.112
1.683 -1.221 3.074
1.689 -1.211 3.037
1.689 -1.196 2.99
1.685 -1.18 2.938
1.68 -1.163 2.885
1.675 -1.146 2.833
1.689 -1.142 2.814
1.685 -1.127 2.766
-2.407 -1.599 4.105
-0.012 -0.009 0.008
-1.506 -1.025 2.643
-1.487 -1.024 2.649
-1.465 -1.021 2.65
-1.446 -1.02 2.656
-1.426 -1.019 2.66
-1.322 -0.956 2.505
-1.303 -0.955 2.508
-1.289 -0.957 2.521
-1.357 -1.021 2.698
-1.425 -1.086 2.879
-1.488 -1.149 3.056
-1.471 -1.152 3.072
-1.37 -1.088 2.907
-1.27 -1.023 2.74
-1.251 -1.021 2.743
-1.31 -1.085 2.923
-1.441 -1.211 3.272
-1.643 -1.402 3.798
-1.618 -1.401 3.805
-1.664 -1.463 3.983
-1.634 -1.459 3.983
-1.608 -1.459 3.989
-1.58 -1.457 3.993
-1.689 -1.583 4.349
-1.66 -1.581 4.354
-1.631 -1.58 4.359
-1.601 -1.578 4.36
-1.571 -1.575 4.363
-1.542 -1.573 4.365
-1.513 -1.572 4.369
-1.483 -1.57 4.372
-1.454 -1.568 4.373
-1.426 -1.568 4.38
-1.397 -1.565 4.381
-1.367 -1.562 4.379
-1.338 -1.561 4.383
-1.309 -1.558 4.382
-1.278 -1.554 4.375
-1.248 -1.551 4.373
-1.219 -1.547 4.37
-1.189 -1.543 4.365
-1.16 -1.541 4.363
-1.132 -1.539 4.364
-1.103 -1.537 4.364
-1.076 -1.536 4.366
-1.048 -1.534 4.366
-1.019 -1.531 4.363
-0.99 -1.527 4.355
-0.962 -1.525 4.354
-0.934 -1.523 4.353
-0.906 -1.521 4.351
-0.878 -1.518 4.348
-0.852 -1.518 4.352
-0.824 -1.517 4.352
-0.797 -1.515 4.349
-0.769 -1.512 4.345
-0.742 -1.511 4.345
-0.715 -1.51 4.345
-0.688 -1.507 4.341
-0.661 -1.506 4.342
-0.635 -1.505 4.34
-0.608 -1.505 4.343
-0.581 -1.503 4.34
-0.555 -1.501 4.337
-0.528 -1.499 4.334
-0.502 -1.498 4.333
-0.475 -1.495 4.327
-0.448 -1.493 4.321
-0.422 -1.492 4.32
-0.396 -1.491 4.319
-0.37 -1.491 4.321
-0.344 -1.49 4.319
-0.318 -1.49 4.32
-0.292 -1.488 4.317
-0.266 -1.488 4.318
-0.239 -1.486 4.311
-0.214 -1.485 4.309
-0.188 -1.483 4.305
-0.162 -1.483 4.304
-0.136 -1.482 4.302
-0.11 -1.482 4.302
-0.085 -1.481 4.301
-0.059 -1.481 4.301
-0.033 -1.481 4.301
-0.008 -1.479 4.295
0.017 -1.479 4.295
0.042 -1.479 4.292
0.068 -1.478 4.29
0.093 -1.477 4.286
0.119 -1.477 4.285
0.144 -1.477 4.284
0.17 -1.478 4.285
0.196 -1.478 4.284
0.221 -1.478 4.284
0.247 -1.479 4.285
0.272 -1.478 4.28
0.298 -1.478 4.28
0.324 -1.479 4.278
0.349 -1.479 4.277
0.375 -1.479 4.274
0.4 -1.478 4.271
0.425 -1.477 4.265
0.451 -1.478 4.264
0.476 -1.476 4.257
0.501 -1.476 4.254
0.527 -1.477 4.252
0.552 -1.477 4.25
0.577 -1.476 4.243
0.604 -1.478 4.248
0.63 -1.479 4.246
0.656 -1.48 4.246
0.682 -1.482 4.246
0.708 -1.483 4.247
0.733 -1.483 4.242
0.76 -1.484 4.243
0.786 -1.486 4.242
0.812 -1.486 4.238
0.838 -1.487 4.238
0.864 -1.488 4.235
0.89 -1.488 4.231
0.916 -1.49 4.23
0.943 -1.491 4.229
0.969 -1.491 4.224
0.996 -1.494 4.225
1.023 -1.496 4.226
1.05 -1.497 4.223
1.077 -1.499 4.223
1.104 -1.501 4.222
1.131 -1.502 4.219
1.157 -1.503 4.214
1.184 -1.504 4.213
1.212 -1.507 4.214
1.24 -1.509 4.212
1.267 -1.511 4.21
1.294 -1.512 4.206
1.321 -1.514 4.203
1.348 -1.515 4.199
1.375 -1.516 4.195
1.403 -1.518 4.193
1.432 -1.521 4.193
1.459 -1.522 4.188
1.485 -1.522 4.179
1.512 -1.523 4.173
1.539 -1.524 4.166
1.567 -1.525 4.161
1.595 -1.528 4.158
1.625 -1.531 4.157
1.652 -1.532 4.151
1.681 -1.534 4.147
1.708 -1.535 4.139
1.731 -1.532 4.121
1.752 -1.527 4.099
1.771 -1.521 4.072
1.788 -1.514 4.042
1.804 -1.506 4.01
1.819 -1.497 3.974
1.826 -1.482 3.923
0 0 0
0 0 0
0 0 0
0 0 0
0 0 0
0 0 0
0 0 0
1.391 -1.017 2.625
1.674 -1.209 3.112
1.681 -1.199 3.076
1.685 -1.187 3.036
1.688 -1.176 2.996
1.685 -1.16 2.945
1.679 -1.142 2.89
1.672 -1.124 2.834
1.675 -1.114 2.797
1.649 -1.084 2.713
-0.015 -0.011 0.013
-2.404 -1.587 4.171
-1.111 -0.743 1.95
-1.058 -0.716 1.885
-1.042 -0.714 1.886
-1.026 -0.711 1.885
-1.007 -0.707 1.879
-0.906 -0.644 1.716
-0.891 -0.642 1.714
-0.88 -0.642 1.72
-0.953 -0.705 1.895
-1.027 -0.769 2.076
-1.095 -0.832 2.252
-1.082 -0.833 2.261
-0.984 -0.768 2.09
-0.889 -0.704 1.918
-0.873 -0.701 1.916
-1.013 -0.825 2.263
-1.15 -0.95 2.614
-1.432 -1.2 3.315
-1.484 -1.263 3.497
-1.605 -1.387 3.851
-1.577 -1.384 3.851
-1.621 -1.445 4.03
-1.593 -1.443 4.033
-1.701 -1.566 4.389
-1.671 -1.564 4.392
-1.641 -1.562 4.395
-1.61 -1.559 4.393
-1.579 -1.556 4.393
-1.548 -1.552 4.391
-1.518 -1.551 4.395
-1.489 -1.549 4.397
-1.459 -1.546 4.398
-1.43 -1.545 4.401
-1.4 -1.542 4.4
-1.369 -1.537 4.395
-1.34 -1.536 4.397
-1.31 -1.533 4.394
-1.279 -1.528 4.388
-1.249 -1.525 4.385
-1.219 -1.522 4.381
-1.189 -1.517 4.375
-1.16 -1.514 4.372
-1.132 -1.513 4.373
-1.104 -1.511 4.373
-1.075 -1.509 4.373
-1.047 -1.507 4.373
-1.019 -1.504 4.37
-0.989 -1.5 4.363
-0.961 -1.497 4.359
-0.933 -1.496 4.358
-0.906 -1.494 4.357
-0.878 -1.491 4.354
-0.851 -1.491 4.358
-0.824 -1.49 4.359
-0.797 -1.488 4.356
-0.769 -1.486 4.353
-0.742 -1.484 4.35
-0.715 -1.482 4.349
-0.687 -1.48 4.345
-0.66 -1.478 4.344
-0.634 -1.477 4.342
-0.608 -1.477 4.345
-0.581 -1.476 4.344
-0.554 -1.473 4.338
-0.527 -1.472 4.337
-0.501 -1.47 4.336
-0.474 -1.469 4.332
-0.448 -1.466 4.328
-0.422 -1.466 4.328
-0.395 -1.465 4.327
-0.37 -1.465 4.328
-0.343 -1.463 4.324
-0.317 -1.462 4.322
-0.291 -1.46 4.318
-0.265 -1.46 4.317
-0.239 -1.457 4.31
-0.213 -1.457 4.31
-0.187 -1.455 4.306
-0.162 -1.455 4.306
-0.136 -1.454 4.303
-0.11 -1.454 4.305
-0.085 -1.454 4.303
-0.059 -1.454 4.303
-0.033 -1.453 4.302
-0.008 -1.452 4.297
0.017 -1.451 4.295
0.042 -1.451 4.293
0.068 -1.45 4.291
0.093 -1.449 4.288
0.119 -1.449 4.286
0.144 -1.449 4.284
0.17 -1.449 4.283
0.195 -1.449 4.281
0.221 -1.45 4.283
0.247 -1.451 4.285
0.272 -1.451 4.282
0.298 -1.452 4.284
0.324 -1.452 4.283
0.349 -1.452 4.282
0.375 -1.453 4.282
0.4 -1.452 4.276
0.425 -1.452 4.273
0.451 -1.452 4.272
0.476 -1.451 4.265
0.501 -1.45 4.261
0.527 -1.452 4.262
0.553 -1.451 4.258
0.578 -1.45 4.251
0.604 -1.452 4.253
0.629 -1.452 4.25
0.655 -1.453 4.249
0.681 -1.453 4.246
0.707 -1.454 4.246
0.733 -1.455 4.243
0.759 -1.456 4.242
0.785 -1.457 4.241
0.811 -1.458 4.239
0.837 -1.46 4.24
0.863 -1.46 4.237
0.889 -1.46 4.232
0.915 -1.462 4.231
0.941 -1.463 4.229
0.967 -1.463 4.224
0.994 -1.465 4.224
1.021 -1.466 4.224
1.047 -1.468 4.221
1.074 -1.47 4.221
1.102 -1.472 4.221
1.129 -1.473 4.219
1.155 -1.475 4.216
1.183 -1.477 4.218
1.211 -1.48 4.218
1.238 -1.481 4.216
1.265 -1.483 4.213
1.293 -1.484 4.21
1.319 -1.484 4.202
1.346 -1.486 4.199
1.373 -1.487 4.194
1.401 -1.489 4.193
1.429 -1.492 4.192
1.458 -1.494 4.191
1.484 -1.495 4.184
1.512 -1.496 4.179
1.539 -1.497 4.173
1.566 -1.498 4.167
1.594 -1.5 4.163
1.622 -1.502 4.159
1.649 -1.503 4.152
1.677 -1.504 4.147
1.705 -1.505 4.14
1.728 -1.503 4.124
1.752 -1.501 4.106
1.772 -1.496 4.083
1.793 -1.492 4.061
1.808 -1.483 4.026
1.823 -1.474 3.991
0 0 0
0 0 0
0 0 0
0 0 0
0 0 0
0 0 0
0 0 0
0 0 0
1.33 -0.956 2.515
1.675 -1.188 3.12
1.68 -1.178 3.082
1.684 -1.166 3.042
1.691 -1.157 3.008
1.689 -1.142 2.959
1.681 -1.123 2.899
1.674 -1.106 2.844
1.654 -1.08 2.768
1.655 -1.069 2.729
-0.085 -0.056 0.133
-0.092 -0.061 0.147
-0.674 -0.443 1.181
-0.639 -0.426 1.137
-0.627 -0.422 1.132
-0.595 -0.406 1.091
-0.581 -0.402 1.082
-0.487 -0.341 0.919
-0.476 -0.337 0.912
-0.469 -0.337 0.912
-0.545 -0.396 1.08
-0.624 -0.46 1.259
-0.696 -0.52 1.429
-0.767 -0.581 1.603
-0.673 -0.517 1.429
-0.582 -0.453 1.254
-0.569 -0.449 1.246
-0.712 -0.57 1.589
-0.853 -0.693 1.941
-1.215 -1 2.816
-1.344 -1.124 3.173
-1.468 -1.246 3.529
-1.515 -1.306 3.707
-1.558 -1.365 3.883
-1.531 -1.362 3.884
-1.64 -1.483 4.239
-1.677 -1.542 4.416
-1.645 -1.538 4.415
-1.614 -1.535 4.414
-1.582 -1.531 4.41
-1.55 -1.527 4.407
-1.521 -1.525 4.411
-1.491 -1.523 4.412
-1.46 -1.52 4.409
-1.431 -1.518 4.413
-1.401 -1.516 4.412
-1.37 -1.511 4.406
-1.34 -1.508 4.405
-1.31 -1.505 4.402
-1.279 -1.501 4.397
-1.249 -1.498 4.393
-1.219 -1.495 4.39
-1.189 -1.49 4.382
-1.16 -1.487 4.38
-1.131 -1.485 4.379
-1.103 -1.483 4.379
-1.075 -1.481 4.379
-1.047 -1.48 4.38
-1.019 -1.478 4.379
-0.989 -1.474 4.372
-0.961 -1.471 4.367
-0.933 -1.469 4.364
-0.905 -1.467 4.363
-0.877 -1.464 4.36
-0.85 -1.464 4.362
-0.823 -1.462 4.361
-0.796 -1.46 4.359
-0.768 -1.457 4.354
-0.74 -1.455 4.35
-0.713 -1.453 4.348
-0.686 -1.452 4.348
-0.659 -1.45 4.346
-0.633 -1.449 4.343
-0.606 -1.448 4.344
-0.579 -1.446 4.342
-0.552 -1.443 4.335
-0.526 -1.442 4.333
-0.5 -1.441 4.334
-0.474 -1.441 4.335
-0.447 -1.439 4.33
-0.421 -1.439 4.331
-0.395 -1.438 4.33
-0.369 -1.437 4.33
-0.343 -1.435 4.324
-0.317 -1.435 4.325
-0.291 -1.433 4.322
-0.265 -1.433 4.321
-0.239 -1.43 4.315
-0.213 -1.43 4.314
-0.187 -1.428 4.309
-0.161 -1.428 4.309
-0.135 -1.427 4.305
-0.11 -1.428 4.308
-0.084 -1.427 4.307
-0.059 -1.427 4.308
-0.033 -1.427 4.305
-0.007 -1.425 4.302
0.017 -1.424 4.298
0.043 -1.424 4.298
0.068 -1.424 4.297
0.094 -1.424 4.296
0.119 -1.424 4.296
0.145 -1.424 4.293
0.17 -1.424 4.291
0.195 -1.422 4.286
0.221 -1.423 4.287
0.247 -1.424 4.288
0.272 -1.424 4.285
0.298 -1.426 4.289
0.324 -1.426 4.289
0.349 -1.426 4.286
0.375 -1.427 4.288
0.4 -1.426 4.282
0.425 -1.425 4.277
0.451 -1.426 4.279
0.476 -1.426 4.274
0.502 -1.425 4.269
0.528 -1.427 4.271
0.553 -1.427 4.268
0.578 -1.425 4.259
0.604 -1.426 4.259
0.63 -1.426 4.257
0.655 -1.427 4.257
0.681 -1.427 4.252
0.707 -1.428 4.251
0.733 -1.429 4.249
0.758 -1.429 4.247
0.785 -1.431 4.249
0.811 -1.431 4.244
0.838 -1.434 4.249
0.863 -1.434 4.242
0.888 -1.433 4.236
0.914 -1.434 4.233
0.941 -1.435 4.232
0.966 -1.434 4.224
0.992 -1.436 4.224
1.019 -1.438 4.224
1.045 -1.439 4.219
1.072 -1.44 4.219
1.1 -1.443 4.22
1.127 -1.445 4.22
1.154 -1.447 4.219
1.182 -1.45 4.221
1.21 -1.452 4.221
1.237 -1.453 4.217
1.264 -1.454 4.214
1.291 -1.456 4.211
1.316 -1.455 4.202
1.343 -1.457 4.199
1.371 -1.459 4.197
1.398 -1.46 4.193
1.426 -1.462 4.191
1.455 -1.465 4.19
1.481 -1.465 4.181
1.508 -1.466 4.177
1.535 -1.467 4.171
1.562 -1.468 4.165
1.591 -1.47 4.162
1.62 -1.473 4.161
1.647 -1.474 4.153
1.676 -1.477 4.152
1.704 -1.478 4.145
1.727 -1.476 4.129
1.752 -1.475 4.115
1.776 -1.473 4.1
1.796 -1.467 4.075
1.812 -1.46 4.043
0 0 0
0 0 0
0 0 0
0 0 0
0 0 0
0 0 0
0 0 0
0 0 0
0 0 0
1.384 -0.977 2.624
1.676 -1.168 3.129
1.684 -1.159 3.094
1.689 -1.149 3.057
1.696 -1.14 3.023
1.692 -1.124 2.971
1.682 -1.104 2.908
1.674 -1.087 2.851
1.656 -1.063 2.778
1.64 -1.041 2.71
0 0 0
-0.067 -0.044 0.104
-0.3 -0.194 0.519
-0.284 -0.186 0.498
-0.178 -0.119 0.314
-0.167 -0.113 0.297
-0.157 -0.108 0.284
-0.064 -0.045 0.109
-0.056 -0.04 0.096
-0.053 -0.038 0.091
-0.134 -0.097 0.256
-0.216 -0.157 0.429
-0.293 -0.215 0.595
-0.368 -0.274 0.764
-0.358 -0.271 0.756
-0.269 -0.207 0.575
-0.26 -0.202 0.563
-0.484 -0.381 1.079
-0.705 -0.562 1.604
-1.068 -0.864 2.48
-1.273 -1.045 3.01
-1.471 -1.226 3.542
-1.516 -1.283 3.717
-1.559 -1.34 3.892
-1.531 -1.338 3.893
-1.64 -1.456 4.247
-1.676 -1.513 4.422
-1.644 -1.51 4.421
-1.613 -1.507 4.42
-1.581 -1.503 4.417
-1.55 -1.499 4.416
-1.52 -1.497 4.418
-1.491 -1.496 4.422
-1.459 -1.492 4.416
-1.43 -1.49 4.418
-1.4 -1.487 4.417
-1.369 -1.483 4.411
-1.338 -1.48 4.409
-1.308 -1.477 4.406
-1.278 -1.473 4.4
-1.247 -1.469 4.395
-1.218 -1.466 4.392
-1.187 -1.461 4.384
-1.158 -1.459 4.383
-1.129 -1.456 4.381
-1.102 -1.455 4.382
-1.073 -1.453 4.381
-1.046 -1.452 4.383
-1.017 -1.449 4.38
-0.988 -1.445 4.373
-0.958 -1.441 4.364
-0.93 -1.439 4.362
-0.902 -1.436 4.358
-0.875 -1.434 4.356
-0.848 -1.433 4.357
-0.822 -1.433 4.362
-0.795 -1.432 4.362
-0.767 -1.431 4.361
-0.74 -1.428 4.356
-0.713 -1.427 4.357
-0.686 -1.426 4.356
-0.659 -1.424 4.353
-0.632 -1.422 4.348
-0.606 -1.422 4.351
-0.579 -1.42 4.349
-0.552 -1.417 4.341
-0.525 -1.415 4.339
-0.499 -1.415 4.34
-0.473 -1.415 4.342
-0.446 -1.411 4.333
-0.42 -1.411 4.332
-0.394 -1.41 4.331
-0.368 -1.409 4.33
-0.342 -1.407 4.324
-0.316 -1.408 4.328
-0.29 -1.407 4.326
-0.264 -1.406 4.326
-0.238 -1.404 4.319
-0.213 -1.403 4.318
-0.187 -1.402 4.314
-0.161 -1.401 4.313
-0.135 -1.398 4.305
-0.11 -1.4 4.311
-0.084 -1.399 4.308
-0.058 -1.4 4.31
-0.033 -1.399 4.307
-0.007 -1.4 4.308
0.017 -1.398 4.302
0.043 -1.398 4.301
0.068 -1.397 4.299
0.094 -1.397 4.299
0.119 -1.398 4.301
0.145 -1.398 4.298
0.17 -1.397 4.295
0.195 -1.396 4.29
0.221 -1.396 4.288
0.246 -1.396 4.288
0.272 -1.396 4.286
0.298 -1.398 4.291
0.324 -1.4 4.294
0.349 -1.4 4.293
0.375 -1.402 4.297
0.4 -1.4 4.29
0.426 -1.4 4.287
0.451 -1.401 4.285
0.477 -1.401 4.282
0.502 -1.4 4.277
0.528 -1.402 4.281
0.554 -1.402 4.279
0.579 -1.401 4.272
0.604 -1.401 4.269
0.63 -1.402 4.267
0.656 -1.402 4.266
0.681 -1.401 4.259
0.707 -1.402 4.257
0.732 -1.403 4.255
0.758 -1.403 4.251
0.785 -1.405 4.254
0.81 -1.404 4.247
0.837 -1.408 4.254
0.862 -1.407 4.246
0.888 -1.406 4.239
0.914 -1.408 4.238
0.94 -1.409 4.238
0.965 -1.407 4.226
0.991 -1.409 4.227
1.019 -1.411 4.228
1.044 -1.411 4.221
1.071 -1.413 4.222
1.099 -1.416 4.225
1.126 -1.418 4.225
1.153 -1.419 4.222
1.181 -1.422 4.223
1.208 -1.423 4.22
1.234 -1.424 4.215
1.261 -1.425 4.213
1.288 -1.427 4.211
1.315 -1.428 4.205
1.342 -1.429 4.201
1.369 -1.43 4.196
1.395 -1.43 4.19
1.422 -1.432 4.186
1.45 -1.434 4.185
1.477 -1.435 4.179
1.505 -1.437 4.177
1.533 -1.438 4.172
1.561 -1.44 4.168
1.589 -1.443 4.166
1.619 -1.445 4.165
1.646 -1.447 4.159
1.676 -1.45 4.158
1.702 -1.45 4.149
1.726 -1.448 4.134
1.75 -1.446 4.119
1.776 -1.446 4.109
1.795 -1.441 4.082
0 0 0
0 0 0
0 0 0
0 0 0
0 0 0
0.074 -0.058 0.145
0.065 -0.051 0.126
0.066 -0.051 0.125
0.056 -0.043 0.103
0 0 0
1.388 -0.962 2.636
1.679 -1.149 3.14
1.686 -1.14 3.105
1.691 -1.13 3.068
1.699 -1.121 3.034
1.694 -1.105 2.98
1.684 -1.086 2.917
1.677 -1.069 2.861
1.692 -1.067 2.845
1.662 -1.036 2.753
-0.197 -0.123 0.327
-0.148 -0.094 0.246
-0.118 -0.076 0.196
-0.111 -0.072 0.187
-0.102 -0.067 0.174
-0.095 -0.064 0.164
-0.087 -0.059 0.152
-0.079 -0.055 0.139
-0.069 -0.048 0.122
-0.063 -0.045 0.112
-0.057 -0.041 0.101
-0.054 -0.04 0.098
-0.049 -0.037 0.089
-0.127 -0.094 0.256
-0.201 -0.149 0.418
-0.192 -0.145 0.407
-0.262 -0.2 0.569
-0.563 -0.435 1.26
-0.781 -0.612 1.784
-1.068 -0.848 2.485
-1.347 -1.086 3.193
-1.544 -1.264 3.728
-1.588 -1.319 3.901
-1.629 -1.375 4.076
-1.6 -1.373 4.078
-1.639 -1.428 4.252
-1.674 -1.484 4.427
-1.642 -1.48 4.424
-1.61 -1.477 4.422
-1.578 -1.472 4.418
-1.548 -1.47 4.418
-1.518 -1.468 4.42
-1.489 -1.466 4.423
-1.456 -1.461 4.416
-1.426 -1.459 4.415
-1.395 -1.455 4.411
-1.364 -1.451 4.404
-1.333 -1.447 4.401
-1.304 -1.445 4.401
-1.275 -1.443 4.4
-1.246 -1.44 4.398
-1.217 -1.439 4.399
-1.187 -1.435 4.393
-1.16 -1.434 4.396
-1.13 -1.431 4.393
-1.103 -1.43 4.395
-1.074 -1.427 4.392
-1.046 -1.426 4.393
-1.017 -1.422 4.387
-0.988 -1.419 4.381
-0.958 -1.414 4.37
-0.93 -1.412 4.37
-0.902 -1.41 4.366
-0.874 -1.407 4.362
-0.847 -1.407 4.364
-0.822 -1.408 4.371
-0.795 -1.406 4.37
-0.768 -1.405 4.369
-0.74 -1.402 4.364
-0.713 -1.401 4.364
-0.686 -1.399 4.36
-0.658 -1.396 4.355
-0.631 -1.394 4.349
-0.605 -1.393 4.351
-0.578 -1.392 4.349
-0.551 -1.388 4.339
-0.524 -1.387 4.338
-0.498 -1.387 4.34
-0.473 -1.388 4.344
-0.446 -1.384 4.333
-0.42 -1.383 4.334
-0.394 -1.383 4.333
-0.368 -1.382 4.333
-0.341 -1.38 4.329
-0.316 -1.38 4.331
-0.29 -1.379 4.327
-0.264 -1.378 4.324
-0.238 -1.375 4.317
-0.212 -1.374 4.315
-0.186 -1.373 4.313
-0.161 -1.374 4.315
-0.135 -1.371 4.307
-0.109 -1.373 4.313
-0.084 -1.373 4.312
-0.058 -1.373 4.311
-0.033 -1.371 4.306
-0.007 -1.373 4.313
0.017 -1.371 4.304
0.043 -1.37 4.302
0.068 -1.37 4.301
0.094 -1.371 4.304
0.119 -1.372 4.305
0.145 -1.371 4.301
0.17 -1.371 4.3
0.196 -1.37 4.295
0.221 -1.369 4.293
0.246 -1.369 4.291
0.272 -1.37 4.292
0.298 -1.372 4.294
0.324 -1.373 4.298
0.349 -1.374 4.297
0.375 -1.376 4.302
0.4 -1.373 4.292
0.426 -1.374 4.292
0.451 -1.374 4.289
0.476 -1.373 4.284
0.502 -1.373 4.28
0.528 -1.376 4.287
0.554 -1.377 4.287
0.579 -1.375 4.278
0.605 -1.375 4.276
0.63 -1.375 4.27
0.655 -1.375 4.266
0.68 -1.373 4.257
0.706 -1.374 4.257
0.732 -1.376 4.258
0.758 -1.376 4.256
0.785 -1.379 4.26
0.809 -1.377 4.248
0.837 -1.381 4.257
0.861 -1.379 4.247
0.886 -1.378 4.239
0.913 -1.38 4.239
0.939 -1.381 4.239
0.963 -1.379 4.227
0.99 -1.381 4.228
1.017 -1.384 4.23
1.042 -1.383 4.222
1.07 -1.385 4.224
1.098 -1.388 4.227
1.125 -1.39 4.225
1.151 -1.391 4.221
1.178 -1.393 4.22
1.205 -1.393 4.216
1.231 -1.394 4.211
1.257 -1.395 4.207
1.286 -1.398 4.208
1.312 -1.399 4.204
1.339 -1.4 4.201
1.366 -1.401 4.196
1.393 -1.402 4.192
1.42 -1.403 4.187
1.449 -1.406 4.187
1.476 -1.407 4.182
1.504 -1.409 4.18
1.532 -1.411 4.176
1.56 -1.413 4.173
1.588 -1.415 4.169
1.616 -1.417 4.166
1.643 -1.418 4.16
1.673 -1.421 4.158
1.699 -1.421 4.149
1.723 -1.419 4.134
1.749 -1.419 4.123
1.775 -1.419 4.114
1.792 -1.412 4.082
0 0 0
0 0 0
0 0 0
0 0 0
0 0 0
0.074 -0.057 0.146
0.065 -0.05 0.126
0.066 -0.05 0.126
0.056 -0.042 0.103
0 0 0
1.338 -0.911 2.546
1.68 -1.129 3.149
1.684 -1.118 3.108
1.688 -1.107 3.067
1.695 -1.098 3.033
1.691 -1.083 2.981
1.683 -1.065 2.922
1.678 -1.05 2.87
1.651 -1.022 2.782
1.688 -1.033 2.801
-0.162 -0.1 0.268
-0.153 -0.095 0.255
-0.138 -0.087 0.233
-0.129 -0.082 0.22
-0.121 -0.078 0.21
-0.111 -0.073 0.193
-0.101 -0.067 0.179
-0.092 -0.062 0.164
-0.081 -0.055 0.145
-0.072 -0.05 0.13
-0.063 -0.045 0.115
-0.057 -0.041 0.104
-0.052 -0.038 0.094
-0.127 -0.092 0.256
-0.2 -0.146 0.417
-0.19 -0.141 0.404
-0.339 -0.254 0.742
-0.561 -0.425 1.257
-0.78 -0.599 1.784
-1.067 -0.831 2.487
-1.421 -1.123 3.375
-1.543 -1.239 3.731
-1.659 -1.353 4.086
-1.701 -1.409 4.264
-1.668 -1.404 4.26
-1.636 -1.399 4.254
-1.672 -1.454 4.43
-1.639 -1.45 4.424
-1.607 -1.446 4.421
-1.576 -1.443 4.421
-1.546 -1.441 4.422
-1.516 -1.438 4.421
-1.487 -1.437 4.425
-1.453 -1.431 4.413
-1.423 -1.428 4.413
-1.393 -1.425 4.41
-1.362 -1.421 4.405
-1.331 -1.418 4.401
-1.304 -1.417 4.407
-1.275 -1.415 4.406
-1.246 -1.413 4.406
-1.217 -1.412 4.408
-1.188 -1.409 4.403
-1.16 -1.408 4.407
-1.131 -1.405 4.404
-1.104 -1.405 4.407
-1.075 -1.402 4.403
-1.047 -1.401 4.405
-1.017 -1.396 4.394
-0.988 -1.393 4.389
-0.957 -1.387 4.376
-0.929 -1.384 4.371
-0.901 -1.381 4.365
-0.874 -1.38 4.367
-0.846 -1.379 4.366
-0.821 -1.379 4.372
-0.794 -1.379 4.374
-0.767 -1.378 4.374
-0.739 -1.375 4.368
-0.713 -1.375 4.37
-0.685 -1.372 4.364
-0.658 -1.37 4.361
-0.63 -1.367 4.353
-0.604 -1.365 4.35
-0.577 -1.363 4.346
-0.55 -1.36 4.34
-0.524 -1.359 4.339
-0.497 -1.359 4.34
-0.472 -1.361 4.349
-0.444 -1.355 4.331
-0.418 -1.354 4.329
-0.392 -1.353 4.328
-0.367 -1.353 4.329
-0.341 -1.351 4.325
-0.315 -1.352 4.33
-0.289 -1.352 4.33
-0.264 -1.351 4.329
-0.237 -1.349 4.322
-0.212 -1.348 4.32
-0.186 -1.348 4.319
-0.16 -1.347 4.317
-0.134 -1.344 4.308
-0.109 -1.346 4.315
-0.084 -1.345 4.313
-0.058 -1.345 4.31
-0.032 -1.343 4.305
-0.007 -1.347 4.316
0.017 -1.343 4.305
0.043 -1.345 4.311
0.068 -1.345 4.309
0.094 -1.347 4.314
0.12 -1.346 4.311
0.145 -1.343 4.301
0.17 -1.339 4.287
0.195 -1.339 4.284
0.22 -1.339 4.283
0.246 -1.34 4.286
0.272 -1.342 4.29
0.298 -1.345 4.299
0.324 -1.348 4.306
0.349 -1.348 4.305
0.375 -1.35 4.309
0.4 -1.348 4.299
0.427 -1.351 4.306
0.452 -1.35 4.301
0.477 -1.349 4.296
0.502 -1.349 4.291
0.529 -1.353 4.301
0.555 -1.352 4.297
0.579 -1.349 4.282
0.604 -1.347 4.274
0.628 -1.346 4.265
0.654 -1.346 4.262
0.678 -1.344 4.252
0.705 -1.346 4.257
0.732 -1.35 4.266
0.759 -1.353 4.269
0.786 -1.355 4.273
0.809 -1.35 4.253
0.837 -1.354 4.262
0.861 -1.352 4.25
0.885 -1.351 4.242
0.912 -1.353 4.242
0.938 -1.354 4.241
0.963 -1.353 4.232
0.99 -1.354 4.231
1.016 -1.356 4.23
1.041 -1.355 4.223
1.069 -1.358 4.225
1.096 -1.36 4.227
1.123 -1.362 4.226
1.15 -1.363 4.223
1.177 -1.365 4.221
1.203 -1.365 4.216
1.228 -1.365 4.21
1.254 -1.365 4.203
1.282 -1.368 4.204
1.308 -1.368 4.198
1.335 -1.369 4.194
1.362 -1.371 4.19
1.39 -1.373 4.189
1.417 -1.374 4.186
1.446 -1.378 4.188
1.474 -1.379 4.184
1.503 -1.382 4.184
1.531 -1.384 4.182
1.559 -1.385 4.177
1.586 -1.387 4.172
1.614 -1.389 4.168
1.641 -1.389 4.161
1.669 -1.391 4.157
1.695 -1.391 4.146
1.721 -1.391 4.136
1.747 -1.391 4.127
1.774 -1.392 4.119
0 0 0
0 0 0
0 0 0
0 0 0
0 0 0
0 0 0
0.084 -0.063 0.168
0.075 -0.056 0.146
0.076 -0.056 0.145
0 0 0
0 0 0
0 0 0
1.682 -1.109 3.158
1.686 -1.098 3.118
1.69 -1.087 3.077
1.696 -1.079 3.042
1.694 -1.065 2.992
1.686 -1.048 2.934
1.681 -1.032 2.881
1.679 -1.019 2.834
1.675 -1.006 2.786
-0.136 -0.082 0.223
-0.172 -0.105 0.291
-0.144 -0.089 0.245
-0.135 -0.084 0.231
-0.124 -0.079 0.215
-0.114 -0.073 0.199
-0.105 -0.068 0.186
-0.096 -0.064 0.173
-0.085 -0.057 0.154
-0.075 -0.052 0.137
-0.067 -0.046 0.122
-0.058 -0.041 0.107
-0.052 -0.037 0.095
-0.127 -0.09 0.257
-0.198 -0.142 0.415
-0.267 -0.194 0.574
-0.416 -0.305 0.914
-0.637 -0.473 1.432
-0.93 -0.701 2.134
-1.215 -0.929 2.84
-1.492 -1.157 3.551
-1.613 -1.27 3.909
-1.729 -1.383 4.266
-1.699 -1.38 4.267
-1.667 -1.376 4.263
-1.634 -1.372 4.258
-1.671 -1.425 4.435
-1.637 -1.421 4.428
-1.606 -1.417 4.427
-1.575 -1.414 4.425
-1.545 -1.412 4.427
-1.513 -1.409 4.423
-1.484 -1.407 4.424
-1.449 -1.4 4.411
-1.42 -1.398 4.411
-1.389 -1.395 4.408
-1.359 -1.391 4.404
-1.329 -1.388 4.401
-1.302 -1.389 4.409
-1.274 -1.388 4.411
-1.245 -1.386 4.412
-1.218 -1.385 4.417
-1.188 -1.382 4.411
-1.161 -1.382 4.419
-1.132 -1.379 4.414
-1.103 -1.378 4.414
-1.074 -1.374 4.409
-1.048 -1.375 4.414
-1.016 -1.368 4.399
-0.987 -1.365 4.394
-0.956 -1.359 4.378
-0.927 -1.356 4.371
-0.898 -1.351 4.361
-0.872 -1.351 4.364
-0.844 -1.349 4.362
-0.819 -1.351 4.372
-0.793 -1.351 4.376
-0.767 -1.351 4.379
-0.739 -1.348 4.373
-0.712 -1.348 4.376
-0.685 -1.346 4.372
-0.658 -1.344 4.369
-0.629 -1.338 4.353
-0.602 -1.336 4.347
-0.575 -1.333 4.339
-0.548 -1.33 4.332
-0.521 -1.328 4.328
-0.496 -1.329 4.333
-0.472 -1.334 4.353
-0.443 -1.324 4.321
-0.416 -1.322 4.316
-0.391 -1.322 4.318
-0.365 -1.323 4.322
-0.34 -1.322 4.321
-0.314 -1.324 4.327
-0.289 -1.324 4.329
-0.263 -1.324 4.331
-0.237 -1.322 4.324
-0.211 -1.32 4.318
-0.186 -1.32 4.318
-0.16 -1.319 4.315
-0.134 -1.317 4.308
-0.109 -1.318 4.314
-0.083 -1.319 4.315
-0.058 -1.319 4.315
-0.032 -1.318 4.314
0 0 0
0 0 0
0 0 0
0 0 0
0 0 0
0 0 0
0 0 0
0 0 0
0 0 0
0 0 0
0 0 0
0 0 0
0 0 0
0 0 0
0 0 0
0 0 0
0 0 0
0 0 0
0 0 0
0 0 0
0 0 0
0 0 0
0 0 0
0 0 0
0 0 0
0 0 0
0 0 0
0 0 0
0 0 0
0 0 0
0 0 0
0 0 0
0 0 0
0 0 0
0.861 -1.327 4.257
0.886 -1.327 4.253
0.912 -1.327 4.25
0.938 -1.328 4.246
0.963 -1.327 4.237
0.989 -1.328 4.235
1.015 -1.328 4.231
1.04 -1.328 4.223
1.068 -1.331 4.227
1.095 -1.332 4.227
1.121 -1.333 4.224
1.147 -1.334 4.219
1.173 -1.335 4.216
1.2 -1.336 4.212
1.226 -1.336 4.207
1.253 -1.338 4.204
1.281 -1.34 4.206
1.308 -1.342 4.204
1.335 -1.343 4.199
1.362 -1.344 4.197
1.389 -1.346 4.194
1.416 -1.347 4.19
1.445 -1.35 4.19
1.472 -1.351 4.186
1.501 -1.354 4.187
1.529 -1.356 4.185
1.557 -1.358 4.18
1.584 -1.359 4.174
1.613 -1.361 4.172
1.639 -1.361 4.164
1.668 -1.364 4.161
1.693 -1.363 4.15
1.72 -1.364 4.142
1.746 -1.364 4.131
1.772 -1.364 4.122
0 0 0
0 0 0
0 0 0
0 0 0
0 0 0
0 0 0
0.084 -0.062 0.168
0.075 -0.055 0.146
0.076 -0.055 0.146
0 0 0
0 0 0
0 0 0
1.674 -1.083 3.151
1.677 -1.072 3.107
1.683 -1.063 3.072
1.691 -1.055 3.038
1.691 -1.043 2.993
1.684 -1.026 2.935
1.68 -1.012 2.885
1.69 -1.007 2.859
1.682 -0.991 2.803
-0.16 -0.095 0.266
-0.166 -0.099 0.279
-0.147 -0.089 0.251
-0.139 -0.086 0.241
-0.129 -0.08 0.225
-0.119 -0.075 0.211
-0.108 -0.069 0.193
-0.097 -0.063 0.174
-0.085 -0.056 0.154
-0.075 -0.051 0.137
-0.067 -0.045 0.122
-0.057 -0.039 0.104
-0.049 -0.035 0.089
-0.043 -0.031 0.078
-0.114 -0.081 0.233
-0.264 -0.188 0.567
-0.414 -0.298 0.912
-0.715 -0.521 1.612
-1.083 -0.8 2.492
-1.366 -1.023 3.2
-1.565 -1.19 3.734
-1.757 -1.356 4.267
-1.797 -1.409 4.444
-1.766 -1.407 4.446
-1.733 -1.403 4.443
-1.701 -1.399 4.439
-1.669 -1.397 4.439
-1.636 -1.392 4.433
-1.603 -1.388 4.428
-1.573 -1.385 4.427
-1.543 -1.383 4.428
-1.51 -1.378 4.422
-1.479 -1.375 4.419
-1.446 -1.37 4.409
-1.416 -1.367 4.407
-1.385 -1.363 4.402
-1.354 -1.36 4.397
-1.325 -1.358 4.398
-1.299 -1.359 4.406
-1.272 -1.359 4.414
-1.244 -1.357 4.415
-1.217 -1.357 4.421
-1.187 -1.355 4.417
-1.162 -1.356 4.428
-1.132 -1.353 4.422
-1.104 -1.352 4.425
-1.075 -1.349 4.421
-1.048 -1.348 4.422
-1.013 -1.338 4.394
-0.985 -1.336 4.393
-0.951 -1.326 4.363
-0.922 -1.322 4.353
-0.893 -1.317 4.343
-0.867 -1.318 4.348
-0.84 -1.317 4.348
-0.818 -1.323 4.374
-0.794 -1.327 4.388
-0.768 -1.328 4.397
-0.743 -1.329 4.403
0 0 0
0 0 0
0 0 0
0 0 0
0 0 0
0 0 0
0 0 0
0 0 0
0 0 0
0 0 0
-0.439 -1.289 4.297
-0.414 -1.29 4.302
-0.389 -1.293 4.312
-0.364 -1.294 4.317
-0.339 -1.295 4.321
-0.314 -1.296 4.327
-0.288 -1.297 4.33
-0.263 -1.296 4.33
-0.237 -1.295 4.325
-0.211 -1.293 4.319
-0.185 -1.293 4.319
-0.16 -1.291 4.315
-0.134 -1.289 4.308
-0.108 -1.289 4.309
-0.083 -1.29 4.31
-0.057 -1.286 4.298
-0.032 -1.285 4.293
0 0 0
0 0 0
0 0 0
0 0 0
0 0 0
0 0 0
0 0 0
0 0 0
0 0 0
0 0 0
0 0 0
0 0 0
0 0 0
0 0 0
0 0 0
0 0 0
0 0 0
0 0 0
0 0 0
0 0 0
0 0 0
0 0 0
0 0 0
0 0 0
0 0 0
0 0 0
0 0 0
0 0 0
0 0 0
0 0 0
0 0 0
0 0 0
0 0 0
0 0 0
0 0 0
0.884 -1.297 4.245
0.91 -1.298 4.245
0.936 -1.298 4.24
0.961 -1.299 4.236
0.987 -1.3 4.234
1.014 -1.301 4.232
1.04 -1.302 4.229
1.067 -1.304 4.231
1.094 -1.306 4.231
1.12 -1.306 4.226
1.146 -1.307 4.221
1.172 -1.307 4.216
1.198 -1.308 4.212
1.224 -1.308 4.206
1.25 -1.309 4.203
1.278 -1.312 4.205
1.306 -1.314 4.204
1.333 -1.315 4.2
1.36 -1.316 4.197
1.388 -1.318 4.196
1.415 -1.319 4.191
1.443 -1.322 4.191
1.471 -1.324 4.189
1.5 -1.327 4.191
1.528 -1.329 4.188
1.556 -1.33 4.183
1.582 -1.331 4.177
1.61 -1.332 4.172
1.636 -1.333 4.164
1.665 -1.335 4.16
1.69 -1.334 4.148
1.717 -1.335 4.141
1.742 -1.334 4.129
1.767 -1.334 4.117
1.78 -1.324 4.078
0 0 0
0 0 0
0 0 0
0 0 0
0 0 0
0.092 -0.066 0.184
0 0 0
0 0 0
0 0 0
0 0 0
0 0 0
1.667 -1.057 3.142
1.674 -1.049 3.108
1.68 -1.04 3.072
1.686 -1.032 3.036
1.689 -1.021 2.996
1.685 -1.007 2.943
1.68 -0.992 2.89
1.694 -0.99 2.872
1.667 -0.963 2.784
-0.163 -0.094 0.27
-0.188 -0.11 0.32
-0.142 -0.084 0.241
-0.133 -0.08 0.23
-0.123 -0.075 0.214
-0.115 -0.071 0.203
-0.104 -0.065 0.185
-0.094 -0.06 0.17
-0.084 -0.055 0.153
-0.074 -0.049 0.134
-0.064 -0.043 0.116
-0.055 -0.037 0.1
-0.048 -0.033 0.088
-0.041 -0.029 0.074
-0.113 -0.078 0.231
-0.263 -0.184 0.567
-0.492 -0.347 1.089
-0.791 -0.565 1.789
-1.157 -0.838 2.668
-1.439 -1.056 3.378
-1.637 -1.22 3.914
-1.754 -1.327 4.267
-1.795 -1.38 4.447
-1.764 -1.378 4.449
-1.731 -1.374 4.445
-1.698 -1.37 4.441
-1.667 -1.367 4.442
-1.634 -1.362 4.435
-1.601 -1.358 4.429
-1.571 -1.356 4.43
-1.54 -1.354 4.43
-1.509 -1.35 4.425
-1.478 -1.347 4.423
-1.446 -1.343 4.417
-1.417 -1.341 4.417
-1.385 -1.336 4.41
-1.353 -1.332 4.402
-1.32 -1.326 4.387
-1.295 -1.327 4.4
-1.27 -1.33 4.414
-1.245 -1.332 4.427
-1.219 -1.333 4.437
-1.191 -1.332 4.44
-1.169 -1.338 4.463
-1.141 -1.336 4.464
0 0 0
0 0 0
0 0 0
0 0 0
0 0 0
0 0 0
0 0 0
0 0 0
0 0 0
0 0 0
0 0 0
0 0 0
0 0 0
0 0 0
0 0 0
0 0 0
0 0 0
0 0 0
0 0 0
0 0 0
0 0 0
0 0 0
0 0 0
0 0 0
-0.439 -1.263 4.302
-0.414 -1.265 4.309
-0.389 -1.267 4.317
-0.364 -1.267 4.32
-0.339 -1.268 4.325
-0.313 -1.269 4.328
-0.288 -1.269 4.33
-0.262 -1.269 4.329
-0.236 -1.268 4.326
-0.21 -1.265 4.318
-0.185 -1.265 4.319
-0.159 -1.263 4.312
-0.134 -1.263 4.311
-0.108 -1.263 4.311
-0.083 -1.264 4.316
-0.057 -1.262 4.307
-0.032 -1.265 4.32
0 0 0
0 0 0
0 0 0
0 0 0
0 0 0
0 0 0
0 0 0
0 0 0
0 0 0
0 0 0
0 0 0
0 0 0
0 0 0
0 0 0
0 0 0
0 0 0
0 0 0
0 0 0
0 0 0
0 0 0
0 0 0
0 0 0
0 0 0
0 0 0
0 0 0
0 0 0
0 0 0
0 0 0
0 0 0
0 0 0
0 0 0
0 0 0
0 0 0
0 0 0
0 0 0
0.88 -1.266 4.235
0.907 -1.268 4.236
0.933 -1.269 4.234
0.959 -1.271 4.234
0.985 -1.271 4.232
1.012 -1.274 4.233
1.04 -1.276 4.235
1.067 -1.278 4.235
1.092 -1.278 4.23
1.118 -1.278 4.226
1.144 -1.279 4.221
1.169 -1.278 4.214
1.196 -1.28 4.212
1.222 -1.281 4.208
1.249 -1.282 4.205
1.276 -1.284 4.204
1.304 -1.285 4.203
1.33 -1.287 4.199
1.359 -1.289 4.2
1.387 -1.292 4.2
1.414 -1.293 4.198
1.442 -1.295 4.195
1.469 -1.296 4.19
1.498 -1.299 4.192
1.526 -1.301 4.188
1.553 -1.302 4.182
1.581 -1.303 4.179
1.608 -1.304 4.172
1.633 -1.304 4.162
1.661 -1.305 4.158
1.688 -1.306 4.152
1.715 -1.307 4.144
1.742 -1.308 4.137
1.77 -1.309 4.131
1.791 -1.306 4.108
0 0 0
0 0 0
0 0 0
0 0 0
0 0 0
0 0 0
0 0 0
0 0 0
0 0 0
0 0 0
0 0 0
1.647 -1.024 3.111
1.668 -1.025 3.102
1.675 -1.016 3.067
1.681 -1.008 3.032
1.688 -1.001 2.999
1.686 -0.988 2.95
1.678 -0.972 2.893
1.639 -0.939 2.783
1.659 -0.94 2.776
-0.156 -0.089 0.259
-0.158 -0.091 0.267
-0.143 -0.083 0.244
-0.132 -0.078 0.229
-0.122 -0.073 0.212
-0.112 -0.068 0.198
-0.1 -0.062 0.179
-0.091 -0.057 0.163
-0.082 -0.052 0.149
-0.072 -0.047 0.132
-0.061 -0.04 0.111
-0.136 -0.089 0.268
-0.129 -0.085 0.258
-0.119 -0.08 0.241
