 -0.018 0.055 0.737
 -0.013 0.055 0.74
 -0.009 0.056 0.746
 -0.005 0.056 0.752
 0 0.057 0.764
 0.003 0.058 0.779
 0.008 0.06 0.794
 0.013 0.061 0.808
 0.018 0.061 0.819
 0.022 0.062 0.827
 0.027 0.062 0.832
 0.033 0.063 0.839
 0.038 0.064 0.851
 0.044 0.065 0.869
 0.05 0.067 0.894
 0.057 0.069 0.922
 0.065 0.072 0.96
 0.074 0.076 1.006
 0.084 0.079 1.053
 0.094 0.083 1.094
 0.103 0.085 1.129
 0.113 0.088 1.159
 0.12 0.088 1.166
 0.127 0.088 1.166
 0.134 0.088 1.165
 0.141 0.089 1.171
 0.149 0.089 1.175
 0.157 0.09 1.19
 0.17 0.093 1.229
 0.182 0.096 1.261
 0.194 0.098 1.294
 0.203 0.099 1.3
 0.209 0.098 1.293
 0.214 0.097 1.274
 0.216 0.095 1.245
 0.205 0.087 1.142
 0.199 0.081 1.07
 0 0 0
 0 0 0
 0.182 0.067 0.892
 0.169 0.06 0.804
 0.164 0.057 0.762
 0.148 0.05 0.667
 0.138 0.045 0.605
 0.13 0.041 0.555
 0.114 0.035 0.475
 0.104 0.031 0.42
 0.101 0.029 0.399
 0.1 0.028 0.383
 0.098 0.027 0.368
 0.097 0.026 0.357
 0.097 0.025 0.347
 0.097 0.024 0.339
 0.097 0.024 0.331
 0.096 0.023 0.322
 0.096 0.022 0.313
 0.096 0.022 0.308
 0.096 0.022 0.301
 0.097 0.021 0.299
 0.1 0.022 0.301
 0.103 0.022 0.305
 0.107 0.022 0.309
 0.111 0.023 0.315
 0.116 0.023 0.323
 0.12 0.024 0.328
 0.123 0.024 0.331
 0.128 0.025 0.338
 0.133 0.025 0.345
 0.138 0.026 0.353
 0.144 0.027 0.361
 0.149 0.027 0.367
 0.153 0.028 0.37
 0.157 0.028 0.372
 0.16 0.028 0.374
 0.163 0.028 0.374
 0.167 0.028 0.377
 0.172 0.029 0.384
 0.178 0.03 0.39
 0.183 0.03 0.394
 0.188 0.031 0.4
 0.197 0.032 0.411
 0.202 0.032 0.415
 0.21 0.033 0.424
 0.22 0.034 0.439
 0.23 0.035 0.452
 0.24 0.036 0.465
 0.25 0.038 0.478
 0.266 0.04 0.5
 0.29 0.043 0.538
 0.318 0.047 0.582
 0.345 0.05 0.623
 0.372 0.054 0.662
 0.44 0.063 0.772
 0.444 0.063 0.768
 -0.378 0.063 0.676
 -0.383 0.065 0.696
 -0.388 0.066 0.716
 -0.391 0.068 0.733
 -0.391 0.069 0.745
 -0.386 0.068 0.745
 -0.376 0.067 0.736
 -0.361 0.066 0.719
 -0.345 0.063 0.697
 -0.33 0.061 0.677
 -0.318 0.06 0.663
 -0.309 0.059 0.654
 -0.302 0.058 0.649
 -0.297 0.058 0.649
 -0.293 0.058 0.65
 -0.289 0.058 0.652
 -0.285 0.058 0.654
 -0.282 0.058 0.658
 -0.279 0.058 0.661
 -0.275 0.058 0.664
 -0.272 0.058 0.667
 -0.269 0.059 0.672
 -0.267 0.059 0.677
 -0.265 0.06 0.684
 -0.263 0.06 0.693
 -0.262 0.061 0.703
 -0.261 0.062 0.712
 -0.259 0.062 0.721
 -0.257 0.063 0.73
 -0.255 0.063 0.737
 -0.252 0.064 0.742
 -0.248 0.064 0.747
 -0.244 0.064 0.75
 -0.24 0.064 0.751
 -0.236 0.064 0.753
 -0.231 0.064 0.754
 -0.226 0.064 0.755
 -0.222 0.064 0.756
 -0.217 0.064 0.756
 -0.212 0.064 0.756
 -0.208 0.064 0.756
 -0.203 0.064 0.756
 -0.198 0.064 0.756
 -0.193 0.063 0.755
 -0.188 0.063 0.753
 -0.182 0.063 0.749
 -0.176 0.062 0.743
 -0.171 0.062 0.738
 -0.165 0.061 0.732
 -0.159 0.061 0.728
 -0.154 0.06 0.725
 -0.15 0.06 0.724
 -0.145 0.06 0.725
 -0.141 0.06 0.726
 -0.137 0.06 0.726
 -0.133 0.06 0.726
 -0.128 0.06 0.725
 -0.123 0.06 0.724
 -0.119 0.059 0.721
 -0.114 0.059 0.719
 -0.109 0.059 0.717
 -0.105 0.059 0.717
 -0.101 0.059 0.718
 -0.097 0.059 0.721
 -0.093 0.059 0.724
 -0.09 0.06 0.731
 -0.087 0.06 0.74
 -0.083 0.061 0.749
 -0.08 0.062 0.756
 -0.076 0.062 0.764
 -0.072 0.063 0.769
 -0.068 0.063 0.773
 -0.064 0.063 0.777
 -0.059 0.063 0.78
 -0.055 0.063 0.779
 -0.05 0.063 0.778
 -0.045 0.063 0.777
 -0.041 0.063 0.777
 -0.037 0.063 0.781
 -0.032 0.064 0.789
 -0.028 0.065 0.799
 -0.024 0.065 0.808
 -0.019 0.066 0.817
 -0.015 0.067 0.826
 -0.01 0.068 0.834
 -0.005 0.068 0.843
 0 0.069 0.856
 0.004 0.07 0.869
 0.009 0.071 0.881
 0.014 0.072 0.89
 0.019 0.073 0.896
 0.025 0.073 0.896
 0.03 0.073 0.896
 0.035 0.073 0.897
 0.041 0.073 0.905
 0.046 0.074 0.918
 0.053 0.076 0.936
 0.059 0.077 0.955
 0.067 0.08 0.984
 0.076 0.083 1.025
 0.085 0.087 1.07
 0.095 0.091 1.112
 0.105 0.094 1.15
 0.115 0.096 1.181
 0.124 0.098 1.199
 0.132 0.099 1.209
 0.14 0.099 1.217
 0.149 0.101 1.231
 0.158 0.102 1.246
 0.166 0.103 1.255
 0.177 0.105 1.28
 0.188 0.107 1.304
 0.199 0.109 1.326
 0.206 0.108 1.323
 0.211 0.107 1.305
 0.216 0.105 1.285
 0.219 0.103 1.259
 0.209 0.095 1.164
 0.206 0.091 1.11
 0.211 0.09 1.101
 0 0 0
 0.196 0.078 0.962
 0.172 0.067 0.819
 0.164 0.062 0.76
 0.145 0.053 0.652
 0.133 0.047 0.582
 0.122 0.041 0.518
 0.109 0.036 0.453
 0.099 0.031 0.398
 0.096 0.03 0.38
 0.096 0.029 0.37
 0.096 0.028 0.361
 0.096 0.028 0.353
 0.097 0.027 0.346
 0.097 0.026 0.339
 0.097 0.026 0.333
 0.097 0.025 0.323
 0.096 0.025 0.315
 0.096 0.024 0.308
 0.096 0.023 0.301
 0.097 0.023 0.297
 0.099 0.023 0.299
 0.102 0.024 0.302
 0.106 0.024 0.307
 0.111 0.025 0.315
 0.116 0.026 0.323
 0.119 0.026 0.327
 0.123 0.026 0.33
 0.127 0.027 0.336
 0.132 0.027 0.341
 0.137 0.028 0.349
 0.143 0.029 0.358
 0.148 0.029 0.364
 0.153 0.03 0.369
 0.157 0.03 0.372
 0.161 0.031 0.375
 0.164 0.031 0.377
 0.168 0.031 0.38
 0.174 0.032 0.388
 0.18 0.032 0.395
 0.186 0.033 0.4
 0.193 0.034 0.409
 0.2 0.035 0.419
 0.204 0.035 0.42
 0.211 0.036 0.428
 0.219 0.037 0.436
 0.226 0.037 0.444
 0.235 0.039 0.455
 0.249 0.04 0.475
 0.263 0.042 0.493
 0.284 0.045 0.526
 0.31 0.049 0.567
 0.336 0.053 0.605
 0.359 0.056 0.638
 0.436 0.068 0.765
 0.422 0.064 0.728
 -0.381 0.068 0.681
 -0.379 0.069 0.689
 -0.386 0.071 0.711
 -0.389 0.072 0.729
 -0.389 0.073 0.74
 -0.384 0.073 0.741
 -0.374 0.072 0.733
 -0.361 0.07 0.718
 -0.347 0.068 0.701
 -0.335 0.067 0.687
 -0.326 0.066 0.679
 -0.32 0.065 0.676
 -0.314 0.065 0.676
 -0.31 0.065 0.677
 -0.306 0.065 0.678
 -0.301 0.065 0.68
 -0.298 0.065 0.683
 -0.294 0.065 0.686
 -0.291 0.065 0.69
 -0.288 0.065 0.695
 -0.285 0.066 0.7
 -0.284 0.066 0.708
 -0.282 0.067 0.717
 -0.282 0.068 0.729
 -0.281 0.069 0.742
 -0.281 0.07 0.756
 -0.281 0.072 0.77
 -0.281 0.073 0.782
 -0.279 0.073 0.793
 -0.277 0.074 0.802
 -0.274 0.075 0.809
 -0.27 0.075 0.814
 -0.266 0.075 0.819
 -0.262 0.075 0.822
 -0.258 0.076 0.826
 -0.254 0.076 0.829
 -0.249 0.076 0.831
 -0.244 0.076 0.833
 -0.239 0.076 0.833
 -0.234 0.076 0.835
 -0.229 0.076 0.836
 -0.224 0.076 0.837
 -0.219 0.076 0.837
 -0.214 0.076 0.837
 -0.208 0.075 0.835
 -0.201 0.075 0.829
 -0.195 0.074 0.823
 -0.188 0.073 0.816
 -0.181 0.072 0.808
 -0.175 0.072 0.802
 -0.169 0.071 0.797
 -0.164 0.071 0.795
 -0.159 0.071 0.795
 -0.155 0.071 0.797
 -0.15 0.071 0.796
 -0.145 0.071 0.796
 -0.14 0.071 0.796
 -0.135 0.07 0.795
 -0.13 0.07 0.792
 -0.125 0.07 0.79
 -0.12 0.07 0.79
 -0.116 0.07 0.791
 -0.111 0.07 0.792
 -0.107 0.07 0.796
 -0.103 0.07 0.801
 -0.1 0.071 0.811
 -0.096 0.072 0.824
 -0.093 0.074 0.838
 -0.089 0.075 0.85
 -0.085 0.075 0.86
 -0.081 0.076 0.865
 -0.076 0.076 0.868
 -0.071 0.076 0.869
 -0.066 0.076 0.867
 -0.06 0.075 0.862
 -0.055 0.075 0.856
 -0.05 0.074 0.85
 -0.044 0.074 0.846
 -0.04 0.074 0.848
 -0.035 0.075 0.856
 -0.03 0.076 0.866
 -0.026 0.076 0.877
 -0.021 0.077 0.889
 -0.016 0.079 0.902
 -0.011 0.08 0.914
 -0.006 0.081 0.926
 0 0.082 0.942
 0.004 0.083 0.958
 0.01 0.085 0.972
 0.016 0.085 0.98
 0.022 0.086 0.985
 0.027 0.086 0.984
 0.033 0.085 0.981
 0.038 0.085 0.98
 0.044 0.086 0.988
 0.051 0.087 1.004
 0.058 0.089 1.025
 0.065 0.091 1.049
 0.074 0.094 1.081
 0.083 0.098 1.122
 0.093 0.101 1.16
 0.102 0.104 1.189
 0.111 0.106 1.212
 0.12 0.107 1.228
 0.127 0.108 1.232
 0.135 0.108 1.236
 0.142 0.108 1.239
 0.151 0.11 1.253
 0.161 0.111 1.269
 0.17 0.112 1.28
 0.181 0.114 1.306
 0.192 0.117 1.333
 0.203 0.118 1.35
 0.209 0.118 1.341
 0.213 0.116 1.317
 0.218 0.114 1.296
 0.221 0.112 1.27
 0.212 0.104 1.181
 0.211 0.1 1.137
 0.216 0.099 1.124
 0.209 0.093 1.056
 0.213 0.091 1.044
 0.199 0.083 0.947
 0.184 0.074 0.852
 0.16 0.062 0.719
 0.139 0.052 0.607
 0.126 0.046 0.538
 0.115 0.041 0.476
 0.101 0.035 0.408
 0.096 0.032 0.379
 0.095 0.031 0.367
 0.096 0.03 0.358
 0.095 0.029 0.349
 0.096 0.029 0.343
 0.096 0.028 0.336
 0.096 0.028 0.329
 0.096 0.027 0.32
 0.096 0.026 0.314
 0.096 0.026 0.307
 0.096 0.025 0.301
 0.097 0.025 0.298
 0.099 0.025 0.299
 0.102 0.025 0.3
 0.105 0.026 0.305
 0.11 0.026 0.311
 0.114 0.027 0.317
 0.118 0.028 0.323
 0.122 0.028 0.327
 0.126 0.029 0.333
 0.13 0.029 0.337
 0.136 0.03 0.345
 0.14 0.03 0.351
 0.146 0.031 0.358
 0.15 0.032 0.362
 0.154 0.032 0.367
 0.159 0.032 0.37
 0.163 0.033 0.375
 0.169 0.034 0.382
 0.174 0.034 0.387
 0.18 0.035 0.394
 0.185 0.036 0.399
 0.192 0.036 0.407
 0.198 0.037 0.413
 0.203 0.038 0.417
 0.209 0.038 0.422
 0.215 0.039 0.427
 0.221 0.039 0.434
 0.233 0.041 0.45
 0.252 0.044 0.48
 0.271 0.047 0.51
 0.296 0.051 0.549
 0.32 0.055 0.585
 0.345 0.058 0.62
 0.362 0.061 0.643
 0.231 0.037 0.401
 0.233 0.037 0.399
 -0.374 0.071 0.668
 -0.379 0.073 0.687
 -0.383 0.075 0.706
 -0.387 0.076 0.724
 -0.387 0.077 0.735
 -0.382 0.077 0.736
 -0.374 0.076 0.732
 -0.364 0.075 0.724
 -0.353 0.074 0.714
 -0.345 0.073 0.707
 -0.339 0.073 0.706
 -0.334 0.073 0.706
 -0.329 0.072 0.707
 -0.324 0.072 0.708
 -0.32 0.072 0.71
 -0.316 0.072 0.713
 -0.312 0.073 0.716
 -0.309 0.073 0.721
 -0.306 0.073 0.726
 -0.304 0.074 0.733
 -0.302 0.074 0.742
 -0.301 0.075 0.753
 -0.301 0.077 0.767
 -0.302 0.078 0.783
 -0.303 0.08 0.8
 -0.304 0.081 0.818
 -0.305 0.083 0.837
 -0.306 0.085 0.853
 -0.305 0.086 0.867
 -0.303 0.087 0.877
 -0.3 0.087 0.887
 -0.297 0.088 0.895
 -0.293 0.088 0.901
 -0.288 0.089 0.906
 -0.285 0.089 0.912
 -0.28 0.09 0.917
 -0.275 0.09 0.919
 -0.27 0.09 0.922
 -0.264 0.09 0.922
 -0.259 0.09 0.924
 -0.253 0.09 0.926
 -0.248 0.09 0.928
 -0.242 0.09 0.929
 -0.237 0.09 0.93
 -0.231 0.089 0.928
 -0.224 0.089 0.922
 -0.216 0.088 0.914
 -0.208 0.087 0.905
 -0.2 0.086 0.894
 -0.193 0.085 0.885
 -0.186 0.084 0.879
 -0.18 0.083 0.875
 -0.175 0.083 0.875
 -0.17 0.083 0.876
 -0.165 0.083 0.876
 -0.159 0.083 0.877
 -0.154 0.083 0.877
 -0.149 0.083 0.877
 -0.143 0.083 0.874
 -0.138 0.082 0.873
 -0.133 0.082 0.874
 -0.128 0.083 0.877
 -0.123 0.083 0.878
 -0.119 0.083 0.884
 -0.115 0.084 0.892
 -0.111 0.085 0.908
 -0.108 0.087 0.923
 -0.104 0.089 0.943
 -0.1 0.09 0.959
 -0.096 0.091 0.972
 -0.091 0.092 0.976
 -0.085 0.092 0.978
 -0.079 0.091 0.976
 -0.073 0.091 0.97
 -0.067 0.09 0.959
 -0.061 0.088 0.947
 -0.054 0.087 0.935
 -0.049 0.087 0.927
 -0.043 0.086 0.927
 -0.038 0.087 0.935
 -0.033 0.088 0.946
 -0.028 0.089 0.957
 -0.023 0.091 0.972
 -0.017 0.092 0.988
 -0.012 0.093 1.002
 -0.006 0.095 1.017
 0 0.097 1.037
 0.005 0.098 1.056
 0.011 0.1 1.071
 0.018 0.101 1.081
 0.024 0.101 1.085
 0.03 0.101 1.084
 0.036 0.101 1.08
 0.042 0.1 1.079
 0.049 0.102 1.091
 0.057 0.104 1.111
 0.065 0.106 1.139
 0.073 0.109 1.173
 0.083 0.114 1.218
 0.094 0.118 1.268
 0.105 0.123 1.315
 0.116 0.126 1.349
 0.126 0.128 1.371
 0.135 0.129 1.384
 0.143 0.129 1.383
 0.151 0.129 1.382
 0.159 0.129 1.381
 0.168 0.13 1.387
 0.176 0.13 1.39
 0.183 0.129 1.383
 0.192 0.13 1.386
 0.201 0.13 1.39
 0.209 0.13 1.388
 0.215 0.129 1.374
 0.217 0.126 1.34
 0.221 0.123 1.313
 0.225 0.121 1.291
 0.218 0.114 1.213
 0.218 0.11 1.174
 0.223 0.109 1.165
 0.22 0.104 1.112
 0.217 0.1 1.065
 0.222 0.099 1.059
 0.199 0.086 0.923
 0.171 0.072 0.772
 0.148 0.06 0.65
 0.133 0.052 0.567
 0.122 0.047 0.506
 0.108 0.04 0.438
 0.1 0.036 0.393
 0.096 0.034 0.371
 0.096 0.033 0.361
 0.096 0.032 0.35
 0.096 0.031 0.344
 0.097 0.031 0.337
 0.096 0.03 0.33
 0.096 0.029 0.32
 0.096 0.028 0.315
 0.096 0.028 0.308
 0.096 0.027 0.301
 0.097 0.027 0.297
 0.099 0.027 0.297
 0.101 0.027 0.298
 0.105 0.027 0.303
 0.109 0.028 0.31
 0.114 0.029 0.316
 0.117 0.029 0.32
 0.121 0.03 0.324
 0.125 0.03 0.33
 0.129 0.031 0.334
 0.134 0.032 0.342
 0.139 0.032 0.348
 0.144 0.033 0.354
 0.148 0.033 0.357
 0.152 0.034 0.362
 0.156 0.034 0.365
 0.161 0.035 0.369
 0.166 0.035 0.376
 0.171 0.036 0.381
 0.176 0.037 0.385
 0.181 0.037 0.39
 0.189 0.038 0.399
 0.194 0.039 0.404
 0.199 0.039 0.409
 0.206 0.04 0.417
 0.213 0.041 0.424
 0.219 0.042 0.43
 0.237 0.045 0.458
 0.264 0.05 0.503
 0.289 0.054 0.542
 0.313 0.058 0.579
 0.333 0.061 0.607
 0.353 0.064 0.635
 0.364 0.065 0.645
 0.392 0.069 0.686
 0.419 0.073 0.722
 -0.368 0.074 0.657
 -0.374 0.076 0.679
 -0.38 0.079 0.701
 -0.384 0.08 0.718
 -0.385 0.081 0.73
 -0.382 0.082 0.738
 -0.379 0.082 0.742
 -0.374 0.082 0.743
 -0.368 0.082 0.742
 -0.363 0.082 0.745
 -0.359 0.082 0.748
 -0.354 0.082 0.75
 -0.35 0.082 0.752
 -0.346 0.082 0.755
 -0.341 0.082 0.758
 -0.337 0.082 0.761
 -0.334 0.083 0.766
 -0.331 0.083 0.772
 -0.329 0.084 0.78
 -0.327 0.085 0.79
 -0.327 0.086 0.804
 -0.327 0.087 0.819
 -0.329 0.089 0.838
 -0.332 0.091 0.86
 -0.334 0.094 0.883
 -0.337 0.096 0.906
 -0.339 0.098 0.929
 -0.34 0.1 0.949
 -0.339 0.102 0.966
 -0.338 0.103 0.98
 -0.335 0.104 0.992
 -0.332 0.105 1.002
 -0.328 0.106 1.01
 -0.324 0.106 1.018
 -0.32 0.107 1.026
 -0.315 0.107 1.032
 -0.309 0.108 1.036
 -0.304 0.108 1.041
 -0.298 0.108 1.043
 -0.293 0.108 1.047
 -0.287 0.108 1.05
 -0.281 0.109 1.054
 -0.275 0.109 1.056
 -0.269 0.109 1.058
 -0.262 0.108 1.057
 -0.254 0.108 1.05
 -0.246 0.106 1.041
 -0.237 0.105 1.029
 -0.227 0.104 1.016
 -0.219 0.102 1.005
 -0.211 0.101 0.996
 -0.204 0.101 0.992
 -0.198 0.1 0.991
 -0.192 0.1 0.991
 -0.186 0.1 0.992
 -0.18 0.1 0.993
 -0.175 0.1 0.995
 -0.169 0.1 0.996
 -0.163 0.1 0.995
 -0.157 0.1 0.995
 -0.151 0.1 0.998
 -0.146 0.101 1.002
 -0.14 0.101 1.004
 -0.136 0.102 1.012
 -0.131 0.103 1.025
 -0.128 0.105 1.046
 -0.124 0.107 1.069
 -0.121 0.11 1.096
 -0.117 0.112 1.118
 -0.112 0.114 1.135
 -0.106 0.114 1.14
 -0.099 0.114 1.141
 -0.092 0.113 1.136
 -0.085 0.112 1.125
 -0.077 0.111 1.11
 -0.069 0.109 1.091
 -0.062 0.107 1.073
 -0.055 0.105 1.059
 -0.049 0.105 1.053
 -0.043 0.105 1.057
 -0.037 0.106 1.066
 -0.031 0.107 1.076
 -0.025 0.108 1.091
 -0.019 0.11 1.108
 -0.013 0.112 1.124
 -0.007 0.113 1.141
 0 0.116 1.164
 0.006 0.118 1.184
 0.013 0.119 1.2
 0.02 0.12 1.209
 0.027 0.12 1.212
 0.034 0.12 1.207
 0.041 0.119 1.2
 0.047 0.119 1.197
 0.055 0.12 1.209
 0.063 0.122 1.23
 0.072 0.125 1.262
 0.082 0.13 1.306
 0.094 0.136 1.365
 0.106 0.142 1.425
 0.119 0.147 1.479
 0.131 0.151 1.518
 0.141 0.153 1.539
 0.151 0.154 1.547
 0.16 0.154 1.545
 0.168 0.153 1.54
 0.177 0.153 1.534
 0.186 0.153 1.536
 0.194 0.153 1.532
 0.202 0.151 1.519
 0.208 0.149 1.499
 0.214 0.147 1.48
 0.219 0.145 1.454
 0.221 0.141 1.416
 0.221 0.136 1.364
 0.223 0.132 1.328
 0.227 0.13 1.305
 0.223 0.123 1.238
 0.224 0.12 1.205
 0.229 0.119 1.194
 0.225 0.113 1.138
 0.223 0.109 1.092
 0.222 0.105 1.058
 0.212 0.098 0.98
 0.184 0.082 0.828
 0.16 0.069 0.701
 0.141 0.059 0.6
 0.127 0.052 0.528
 0.114 0.045 0.461
 0.105 0.04 0.413
 0.098 0.036 0.377
 0.097 0.035 0.363
 0.097 0.034 0.353
 0.097 0.033 0.346
 0.097 0.033 0.34
 0.097 0.032 0.331
 0.097 0.031 0.323
 0.097 0.031 0.319
 0.097 0.03 0.311
 0.097 0.029 0.302
 0.097 0.029 0.298
 0.099 0.029 0.298
 0.101 0.029 0.296
 0.104 0.029 0.301
 0.108 0.03 0.307
 0.113 0.031 0.313
 0.116 0.031 0.317
 0.121 0.032 0.323
 0.126 0.033 0.33
 0.129 0.033 0.333
 0.133 0.034 0.339
 0.138 0.034 0.345
 0.142 0.035 0.348
 0.145 0.035 0.35
 0.149 0.035 0.354
 0.153 0.036 0.357
 0.157 0.036 0.36
 0.162 0.037 0.365
 0.166 0.037 0.368
 0.173 0.038 0.378
 0.178 0.039 0.383
 0.186 0.04 0.394
 0.194 0.041 0.403
 0.201 0.042 0.411
 0.205 0.043 0.413
 0.209 0.043 0.416
 0.213 0.043 0.417
 0.232 0.047 0.448
 0.268 0.054 0.51
 0.298 0.059 0.561
 0.321 0.063 0.595
 0.336 0.065 0.614
 0.352 0.068 0.633
 0.359 0.068 0.636
 0.435 0.082 0.76
 0.434 0.081 0.749
 -0.366 0.078 0.653
 -0.374 0.081 0.677
 -0.377 0.082 0.694
 -0.381 0.084 0.712
 -0.384 0.086 0.729
 -0.386 0.088 0.745
 -0.387 0.089 0.757
 -0.385 0.09 0.766
 -0.383 0.09 0.774
 -0.38 0.091 0.78
 -0.377 0.091 0.786
 -0.374 0.092 0.791
 -0.37 0.092 0.796
 -0.366 0.092 0.801
 -0.363 0.093 0.806
 -0.359 0.093 0.811
 -0.356 0.093 0.818
 -0.354 0.094 0.827
 -0.353 0.095 0.838
 -0.352 0.097 0.852
 -0.354 0.099 0.871
 -0.356 0.101 0.892
 -0.36 0.104 0.918
 -0.364 0.106 0.945
 -0.368 0.109 0.974
 -0.372 0.112 1.001
 -0.374 0.115 1.027
 -0.375 0.117 1.049
 -0.375 0.119 1.068
 -0.373 0.121 1.083
 -0.37 0.122 1.097
 -0.366 0.123 1.108
 -0.363 0.124 1.119
 -0.359 0.125 1.129
 -0.355 0.126 1.141
 -0.351 0.127 1.152
 -0.346 0.128 1.16
 -0.341 0.129 1.169
 -0.335 0.129 1.174
 -0.33 0.129 1.181
 -0.324 0.13 1.187
 -0.318 0.13 1.193
 -0.312 0.131 1.196
 -0.305 0.131 1.2
 -0.297 0.13 1.199
 -0.288 0.13 1.192
 -0.279 0.128 1.183
 -0.269 0.127 1.17
 -0.258 0.125 1.155
 -0.248 0.123 1.141
 -0.239 0.122 1.13
 -0.231 0.121 1.124
 -0.223 0.121 1.12
 -0.216 0.12 1.119
 -0.21 0.12 1.119
 -0.203 0.12 1.12
 -0.197 0.12 1.123
 -0.19 0.12 1.125
 -0.184 0.12 1.126
 -0.177 0.12 1.128
 -0.172 0.121 1.133
 -0.166 0.121 1.138
 -0.159 0.122 1.141
 -0.154 0.122 1.15
 -0.149 0.124 1.164
 -0.145 0.126 1.188
 -0.141 0.129 1.215
 -0.137 0.133 1.248
 -0.133 0.136 1.277
 -0.128 0.138 1.298
 -0.121 0.138 1.303
 -0.113 0.138 1.3
 -0.104 0.137 1.289
 -0.095 0.134 1.271
 -0.086 0.132 1.248
 -0.078 0.129 1.221
 -0.069 0.126 1.196
 -0.061 0.124 1.174
 -0.054 0.122 1.158
 -0.047 0.121 1.153
 -0.04 0.121 1.152
 -0.033 0.122 1.155
 -0.027 0.123 1.166
 -0.02 0.124 1.181
 -0.014 0.126 1.195
 -0.007 0.127 1.212
 0 0.13 1.233
 0.006 0.132 1.251
 0.014 0.133 1.263
 0.021 0.133 1.268
 0.028 0.133 1.268
 0.035 0.133 1.261
 0.042 0.132 1.253
 0.05 0.131 1.25
 0.057 0.132 1.261
 0.066 0.135 1.284
 0.075 0.138 1.317
 0.086 0.143 1.365
 0.098 0.15 1.425
 0.11 0.156 1.481
 0.123 0.161 1.529
 0.135 0.164 1.561
 0.145 0.166 1.572
 0.154 0.166 1.571
 0.162 0.165 1.566
 0.171 0.164 1.558
 0.179 0.164 1.552
 0.188 0.163 1.551
 0.196 0.163 1.545
 0.203 0.162 1.531
 0.21 0.16 1.513
 0.216 0.157 1.492
 0.22 0.154 1.463
 0.223 0.15 1.424
 0.224 0.145 1.378
 0.225 0.141 1.337
 0.229 0.139 1.314
 0.225 0.132 1.251
 0.227 0.129 1.222
 0.23 0.127 1.199
 0.225 0.12 1.136
 0.222 0.115 1.09
 0 0 0
 0.214 0.104 0.988
 0.195 0.092 0.874
 0.171 0.079 0.749
 0.146 0.065 0.623
 0.136 0.059 0.563
 0.115 0.048 0.465
 0.106 0.043 0.416
 0.099 0.039 0.381
 0.098 0.038 0.367
 0.098 0.037 0.358
 0.098 0.036 0.349
 0.099 0.035 0.344
 0.098 0.034 0.335
 0.098 0.034 0.328
 0.099 0.033 0.325
 0.1 0.033 0.318
 0.099 0.032 0.31
 0.1 0.031 0.306
 0.101 0.031 0.303
 0.101 0.031 0.299
 0.105 0.031 0.302
 0.108 0.032 0.306
 0.112 0.032 0.311
 0.116 0.033 0.317
 0.121 0.034 0.323
 0.125 0.034 0.329
 0.129 0.035 0.333
 0.134 0.036 0.34
 0.138 0.036 0.344
 0.143 0.037 0.35
 0.146 0.037 0.353
 0.15 0.038 0.355
 0.154 0.038 0.358
 0.157 0.038 0.36
 0.16 0.039 0.361
 0.164 0.039 0.364
 0.171 0.04 0.374
 0.176 0.041 0.377
 0.183 0.042 0.386
 0.189 0.043 0.394
 0.195 0.043 0.399
 0.196 0.043 0.396
 0.199 0.043 0.395
 0.2 0.043 0.391
 0.226 0.048 0.435
 0.281 0.06 0.534
 0.321 0.068 0.603
 0.347 0.073 0.642
 0.362 0.075 0.66
 0.379 0.078 0.682
 0.389 0.079 0.69
 0.414 0.083 0.723
 0.416 0.082 0.716
 -0.367 0.082 0.654
 -0.368 0.084 0.666
 -0.374 0.086 0.688
 -0.378 0.088 0.706
 -0.382 0.09 0.724
 -0.384 0.092 0.74
 -0.385 0.093 0.753
 -0.384 0.094 0.763
 -0.382 0.095 0.771
 -0.38 0.096 0.778
 -0.377 0.096 0.785
 -0.373 0.097 0.79
 -0.37 0.097 0.795
 -0.366 0.097 0.801
 -0.363 0.098 0.806
 -0.359 0.098 0.812
 -0.357 0.099 0.819
 -0.355 0.1 0.829
 -0.354 0.101 0.84
 -0.354 0.102 0.855
 -0.356 0.105 0.876
 -0.36 0.107 0.9
 -0.364 0.111 0.928
 -0.369 0.114 0.959
 -0.374 0.117 0.989
 -0.378 0.121 1.019
 -0.382 0.124 1.048
 -0.383 0.127 1.072
 -0.383 0.129 1.092
 -0.382 0.13 1.109
 -0.379 0.132 1.122
 -0.375 0.133 1.134
 -0.371 0.134 1.145
 -0.368 0.135 1.157
 -0.364 0.136 1.17
 -0.36 0.138 1.182
 -0.355 0.138 1.191
 -0.351 0.139 1.201
 -0.345 0.14 1.208
 -0.339 0.141 1.215
 -0.333 0.141 1.222
 -0.328 0.142 1.229
 -0.321 0.142 1.234
 -0.314 0.142 1.237
 -0.307 0.142 1.238
 -0.298 0.141 1.233
 -0.288 0.14 1.224
 -0.278 0.139 1.212
 -0.268 0.137 1.198
 -0.258 0.135 1.185
 -0.248 0.134 1.174
 -0.239 0.133 1.166
 -0.232 0.132 1.162
 -0.224 0.132 1.161
 -0.217 0.131 1.16
 -0.21 0.131 1.161
 -0.204 0.132 1.166
 -0.198 0.132 1.169
 -0.191 0.132 1.171
 -0.185 0.132 1.174
 -0.179 0.133 1.18
 -0.172 0.133 1.185
 -0.166 0.134 1.19
 -0.161 0.135 1.202
 -0.155 0.137 1.217
 -0.151 0.14 1.243
 -0.147 0.143 1.272
 -0.143 0.146 1.304
 -0.139 0.149 1.331
 -0.133 0.151 1.352
 -0.125 0.152 1.357
 -0.117 0.151 1.353
 -0.108 0.15 1.342
 -0.099 0.148 1.322
 -0.09 0.145 1.297
 -0.081 0.142 1.269
 -0.072 0.138 1.241
 -0.063 0.136 1.217
 -0.055 0.134 1.2
 -0.048 0.132 1.191
 -0.041 0.132 1.187
 -0.034 0.132 1.187
 -0.028 0.133 1.196
 -0.021 0.134 1.21
 -0.014 0.136 1.223
 -0.007 0.138 1.239
 0 0.14 1.259
 0.006 0.142 1.275
 0.014 0.143 1.285
 0.021 0.143 1.289
 0.029 0.143 1.289
 0.036 0.143 1.284
 0.043 0.142 1.28
 0.051 0.142 1.28
 0.059 0.144 1.294
 0.068 0.146 1.319
 0.077 0.15 1.353
 0.088 0.156 1.4
 0.1 0.162 1.456
 0.112 0.167 1.506
 0.124 0.172 1.547
 0.136 0.175 1.573
 0.146 0.176 1.58
 0.154 0.175 1.578
 0.163 0.175 1.572
 0.171 0.174 1.564
 0.18 0.173 1.558
 0.189 0.173 1.556
 0.197 0.172 1.548
 0.204 0.171 1.535
 0.211 0.169 1.518
 0.216 0.167 1.496
 0.221 0.163 1.467
 0.224 0.159 1.431
 0.226 0.155 1.389
 0.227 0.15 1.35
 0.232 0.148 1.328
 0.23 0.142 1.277
 0.233 0.139 1.25
 0.236 0.137 1.23
 0.232 0.13 1.169
 0.234 0.128 1.146
 0 0 0
 0 0 0
 0.201 0.101 0.904
 0.176 0.085 0.769
 0.151 0.071 0.643
 0.138 0.063 0.573
 0.119 0.053 0.48
 0.108 0.047 0.426
 0.1 0.042 0.383
 0.098 0.04 0.367
 0.098 0.039 0.357
 0.098 0.038 0.35
 0.099 0.038 0.347
 0.099 0.037 0.337
 0.1 0.036 0.333
 0.101 0.036 0.33
 0.101 0.035 0.322
 0.1 0.034 0.314
 0.102 0.034 0.312
 0.103 0.034 0.31
 0.104 0.033 0.305
 0.107 0.034 0.309
 0.111 0.035 0.314
 0.115 0.035 0.319
 0.12 0.036 0.327
 0.124 0.037 0.331
 0.127 0.037 0.335
 0.131 0.038 0.338
 0.135 0.038 0.342
 0.138 0.038 0.343
 0.142 0.039 0.348
 0.146 0.04 0.352
 0.149 0.04 0.353
 0.152 0.04 0.354
 0.154 0.04 0.354
 0.158 0.04 0.355
 0.16 0.04 0.355
 0.168 0.042 0.366
 0.171 0.042 0.366
 0.177 0.043 0.373
 0.182 0.044 0.378
 0.187 0.044 0.383
 0.185 0.043 0.373
 0.192 0.044 0.38
 0.189 0.043 0.37
 0.239 0.054 0.46
 0.312 0.07 0.594
 0.35 0.078 0.658
 0.37 0.082 0.686
 0.378 0.083 0.689
 0.389 0.084 0.7
 0.398 0.085 0.704
 0.373 0.079 0.65
 0.399 0.083 0.686
 -0.366 0.086 0.652
 -0.365 0.087 0.66
 -0.372 0.09 0.684
 -0.376 0.092 0.701
 -0.379 0.094 0.719
 -0.381 0.096 0.734
 -0.383 0.098 0.748
 -0.382 0.099 0.759
 -0.381 0.1 0.768
 -0.379 0.1 0.776
 -0.376 0.101 0.782
 -0.372 0.101 0.788
 -0.369 0.102 0.793
 -0.366 0.102 0.798
 -0.362 0.103 0.804
 -0.359 0.103 0.81
 -0.356 0.104 0.817
 -0.355 0.105 0.828
 -0.354 0.106 0.84
 -0.354 0.108 0.856
 -0.357 0.111 0.878
 -0.362 0.114 0.905
 -0.367 0.117 0.935
 -0.373 0.121 0.968
 -0.379 0.125 1.002
 -0.384 0.129 1.034
 -0.388 0.133 1.065
 -0.39 0.136 1.091
 -0.391 0.138 1.113
 -0.389 0.14 1.13
 -0.387 0.142 1.145
 -0.383 0.143 1.157
 -0.379 0.144 1.168
 -0.375 0.145 1.18
 -0.372 0.146 1.193
 -0.368 0.148 1.206
 -0.363 0.149 1.216
 -0.358 0.15 1.227
 -0.353 0.151 1.235
 -0.347 0.151 1.241
 -0.341 0.152 1.248
 -0.334 0.152 1.254
 -0.328 0.153 1.259
 -0.321 0.153 1.262
 -0.313 0.153 1.263
 -0.305 0.152 1.26
 -0.295 0.151 1.252
 -0.285 0.149 1.241
 -0.274 0.148 1.227
 -0.264 0.146 1.214
 -0.254 0.144 1.204
 -0.246 0.143 1.196
 -0.238 0.143 1.192
 -0.23 0.142 1.19
 -0.223 0.142 1.19
 -0.216 0.142 1.191
 -0.21 0.142 1.196
 -0.203 0.143 1.2
 -0.197 0.143 1.205
 -0.19 0.143 1.208
 -0.184 0.144 1.214
 -0.177 0.145 1.22
 -0.171 0.145 1.226
 -0.165 0.146 1.237
 -0.16 0.148 1.253
 -0.156 0.151 1.278
 -0.151 0.154 1.305
 -0.147 0.158 1.334
 -0.142 0.161 1.36
 -0.136 0.163 1.38
 -0.128 0.164 1.387
 -0.12 0.163 1.384
 -0.111 0.162 1.375
 -0.102 0.16 1.357
 -0.092 0.157 1.333
 -0.083 0.153 1.306
 -0.074 0.15 1.28
 -0.065 0.147 1.255
 -0.057 0.145 1.237
 -0.049 0.144 1.227
 -0.042 0.143 1.221
 -0.035 0.143 1.22
 -0.028 0.144 1.228
 -0.021 0.145 1.24
 -0.014 0.146 1.252
 -0.007 0.148 1.266
 0 0.15 1.283
 0.007 0.152 1.298
 0.014 0.153 1.307
 0.022 0.153 1.311
 0.03 0.153 1.312
 0.037 0.153 1.309
 0.044 0.153 1.307
 0.052 0.153 1.311
 0.061 0.155 1.328
 0.07 0.158 1.354
 0.079 0.162 1.388
 0.09 0.167 1.432
 0.102 0.173 1.481
 0.114 0.178 1.524
 0.126 0.182 1.559
 0.137 0.185 1.583
 0.146 0.186 1.587
 0.155 0.185 1.583
 0.164 0.185 1.577
 0.172 0.184 1.569
 0.18 0.183 1.56
 0.189 0.182 1.555
 0.197 0.181 1.546
 0.204 0.18 1.533
 0.211 0.178 1.517
 0.217 0.175 1.495
 0.221 0.172 1.468
 0.225 0.169 1.436
 0.227 0.164 1.396
 0.229 0.159 1.357
 0.232 0.156 1.331
 0.233 0.152 1.292
 0.236 0.148 1.264
 0.24 0.146 1.246
 0.241 0.143 1.214
 0.243 0.14 1.188
 0 0 0
 0 0 0
 0 0 0
 0.196 0.1 0.855
 0.164 0.082 0.698
 0.138 0.067 0.572
 0.119 0.056 0.479
 0.109 0.05 0.43
 0.101 0.045 0.387
 0.099 0.043 0.372
 0.099 0.042 0.363
 0.1 0.041 0.357
 0.101 0.041 0.352
 0.1 0.04 0.343
 0.102 0.039 0.339
 0.103 0.039 0.338
 0.103 0.038 0.329
 0.103 0.037 0.322
 0.104 0.037 0.318
 0.105 0.037 0.316
 0.106 0.036 0.313
 0.11 0.037 0.317
 0.115 0.038 0.325
 0.119 0.039 0.331
 0.125 0.04 0.341
 0.129 0.04 0.345
 0.131 0.041 0.345
 0.133 0.04 0.344
 0.137 0.041 0.348
 0.139 0.041 0.347
 0.144 0.042 0.352
 0.148 0.042 0.357
 0.151 0.043 0.357
 0.153 0.042 0.355
 0.152 0.042 0.349
 0.153 0.041 0.344
 0.154 0.041 0.341
 0.163 0.043 0.355
 0.166 0.043 0.355
 0.172 0.044 0.363
 0.179 0.045 0.371
 0.186 0.046 0.381
 0 0 0
 0 0 0
 0 0 0
 0 0 0
 0.353 0.084 0.672
 0.364 0.086 0.685
 0.371 0.087 0.687
 0.377 0.087 0.688
 0.384 0.088 0.69
 0.394 0.089 0.697
 0.394 0.088 0.686
 0.388 0.086 0.667
 -0.363 0.09 0.646
 -0.367 0.092 0.664
 -0.369 0.094 0.678
 -0.373 0.096 0.695
 -0.377 0.098 0.713
 -0.379 0.1 0.729
 -0.38 0.102 0.743
 -0.38 0.103 0.754
 -0.379 0.104 0.763
 -0.377 0.105 0.771
 -0.374 0.105 0.778
 -0.371 0.106 0.784
 -0.368 0.106 0.79
 -0.365 0.107 0.796
 -0.361 0.107 0.802
 -0.358 0.108 0.808
 -0.355 0.109 0.815
 -0.354 0.11 0.826
 -0.354 0.111 0.839
 -0.355 0.113 0.856
 -0.359 0.116 0.881
 -0.364 0.12 0.91
 -0.37 0.124 0.942
 -0.377 0.128 0.978
 -0.384 0.133 1.014
 -0.39 0.137 1.048
 -0.394 0.141 1.081
 -0.397 0.145 1.11
 -0.398 0.147 1.132
 -0.397 0.15 1.152
 -0.394 0.151 1.167
 -0.39 0.153 1.178
 -0.386 0.154 1.19
 -0.382 0.155 1.202
 -0.378 0.157 1.215
 -0.374 0.158 1.227
 -0.37 0.159 1.239
 -0.365 0.16 1.25
 -0.359 0.161 1.258
 -0.353 0.162 1.265
 -0.347 0.162 1.272
 -0.341 0.163 1.277
 -0.334 0.163 1.281
 -0.327 0.163 1.285
 -0.319 0.163 1.285
 -0.31 0.162 1.282
 -0.301 0.161 1.275
 -0.29 0.16 1.265
 -0.28 0.158 1.252
 -0.27 0.156 1.24
 -0.26 0.155 1.232
 -0.251 0.154 1.225
 -0.243 0.153 1.22
 -0.235 0.153 1.218
 -0.228 0.153 1.218
 -0.221 0.152 1.218
 -0.214 0.153 1.224
 -0.208 0.153 1.226
 -0.201 0.154 1.231
 -0.194 0.154 1.236
 -0.188 0.155 1.243
 -0.181 0.155 1.246
 -0.175 0.156 1.254
 -0.169 0.157 1.264
 -0.163 0.159 1.278
 -0.158 0.161 1.3
 -0.154 0.165 1.328
 -0.149 0.168 1.354
 -0.144 0.171 1.379
 -0.137 0.173 1.398
 -0.13 0.174 1.407
 -0.122 0.174 1.405
 -0.113 0.173 1.398
 -0.104 0.171 1.383
 -0.094 0.168 1.363
 -0.085 0.165 1.338
 -0.076 0.162 1.314
 -0.067 0.159 1.291
 -0.059 0.157 1.272
 -0.051 0.155 1.262
 -0.043 0.154 1.255
 -0.036 0.154 1.254
 -0.029 0.155 1.261
 -0.022 0.156 1.273
 -0.015 0.158 1.284
 -0.007 0.159 1.296
 0 0.161 1.311
 0.007 0.163 1.324
 0.015 0.164 1.332
 0.022 0.164 1.336
 0.03 0.164 1.338
 0.038 0.164 1.337
 0.046 0.164 1.338
 0.054 0.165 1.345
 0.062 0.167 1.363
 0.072 0.17 1.388
 0.081 0.174 1.42
 0.092 0.179 1.458
 0.104 0.184 1.501
 0.115 0.189 1.538
 0.126 0.193 1.567
 0.137 0.195 1.586
 0.147 0.196 1.59
 0.156 0.195 1.587
 0.164 0.194 1.579
 0.172 0.193 1.57
 0.18 0.192 1.561
 0.189 0.191 1.555
 0.196 0.19 1.543
 0.204 0.188 1.53
 0.211 0.187 1.515
 0.216 0.184 1.494
 0.221 0.181 1.467
 0.225 0.177 1.434
 0.227 0.172 1.395
 0.229 0.168 1.359
 0.232 0.164 1.331
 0.233 0.159 1.292
 0.237 0.157 1.271
 0.241 0.155 1.252
 0.24 0.149 1.21
 0 0 0
 0 0 0
 0 0 0
 0 0 0
 0 0 0
 0.173 0.091 0.737
 0.139 0.07 0.574
 0.111 0.055 0.448
 0.108 0.051 0.423
 0.103 0.048 0.395
 0.104 0.047 0.388
 0.104 0.046 0.381
 0.105 0.045 0.374
 0.106 0.045 0.369
 0.104 0.043 0.356
 0.104 0.042 0.347
 0.105 0.042 0.344
 0.104 0.041 0.333
 0.104 0.04 0.325
 0.105 0.039 0.321
 0.107 0.039 0.32
 0.108 0.039 0.317
 0.112 0.039 0.322
 0.116 0.04 0.329
 0.12 0.041 0.334
 0.127 0.043 0.346
 0.131 0.044 0.352
 0.134 0.044 0.353
 0.136 0.043 0.35
 0.14 0.044 0.356
 0.142 0.044 0.353
 0.146 0.045 0.357
 0.15 0.045 0.36
 0.157 0.047 0.371
 0.16 0.047 0.372
 0.158 0.046 0.362
 0.157 0.044 0.352
 0.158 0.044 0.349
 0.168 0.046 0.365
 0.169 0.046 0.362
 0 0 0
 0 0 0
 0 0 0
 0 0 0
 0 0 0
 0 0 0
 0 0 0
 0.327 0.082 0.622
 0.347 0.086 0.651
 0.36 0.088 0.665
 0.369 0.09 0.672
 0.381 0.091 0.684
 0.394 0.093 0.696
 0.41 0.096 0.715
 0.41 0.095 0.704
 -0.36 0.094 0.641
 -0.363 0.095 0.655
 -0.367 0.098 0.673
 -0.37 0.1 0.69
 -0.374 0.102 0.707
 -0.376 0.104 0.723
 -0.378 0.106 0.738
 -0.378 0.107 0.749
 -0.377 0.108 0.758
 -0.375 0.109 0.766
 -0.372 0.11 0.774
 -0.369 0.11 0.78
 -0.366 0.111 0.786
 -0.363 0.111 0.792
 -0.36 0.112 0.798
 -0.357 0.113 0.805
 -0.355 0.114 0.813
 -0.353 0.115 0.824
 -0.354 0.116 0.838
 -0.355 0.119 0.856
 -0.359 0.122 0.882
 -0.365 0.126 0.912
 -0.372 0.13 0.946
 -0.38 0.135 0.984
 -0.388 0.141 1.023
 -0.394 0.145 1.06
 -0.399 0.15 1.095
 -0.403 0.154 1.125
 -0.404 0.157 1.149
 -0.403 0.159 1.17
 -0.401 0.161 1.186
 -0.397 0.162 1.197
 -0.392 0.164 1.208
 -0.388 0.165 1.22
 -0.384 0.166 1.232
 -0.38 0.168 1.244
 -0.375 0.169 1.256
 -0.371 0.17 1.268
 -0.365 0.171 1.277
 -0.359 0.172 1.283
 -0.352 0.172 1.289
 -0.345 0.173 1.294
 -0.338 0.173 1.298
 -0.331 0.173 1.302
 -0.323 0.173 1.303
 -0.315 0.173 1.3
 -0.305 0.171 1.293
 -0.295 0.17 1.285
 -0.285 0.168 1.273
 -0.275 0.167 1.263
 -0.265 0.166 1.255
 -0.256 0.164 1.248
 -0.248 0.164 1.244
 -0.24 0.163 1.242
 -0.232 0.163 1.241
 -0.225 0.163 1.24
 -0.218 0.163 1.246
 -0.211 0.163 1.249
 -0.205 0.164 1.253
 -0.198 0.164 1.258
 -0.192 0.165 1.265
 -0.184 0.165 1.267
 -0.178 0.166 1.276
 -0.172 0.167 1.286
 -0.166 0.169 1.299
 -0.161 0.172 1.319
 -0.156 0.175 1.345
 -0.151 0.178 1.369
 -0.145 0.181 1.392
 -0.139 0.183 1.411
 -0.131 0.184 1.42
 -0.123 0.184 1.42
 -0.114 0.183 1.415
 -0.105 0.182 1.404
 -0.096 0.179 1.385
 -0.086 0.176 1.364
 -0.077 0.173 1.343
 -0.069 0.171 1.322
 -0.06 0.168 1.305
 -0.052 0.167 1.296
 -0.044 0.166 1.289
 -0.037 0.166 1.288
 -0.03 0.167 1.294
 -0.022 0.168 1.305
 -0.015 0.169 1.315
 -0.007 0.171 1.326
 0 0.173 1.34
 0.007 0.174 1.351
 0.015 0.175 1.358
 0.023 0.175 1.364
 0.031 0.176 1.365
 0.039 0.176 1.366
 0.047 0.176 1.368
 0.055 0.177 1.376
 0.064 0.179 1.393
 0.073 0.182 1.418
 0.083 0.186 1.448
 0.094 0.191 1.481
 0.105 0.195 1.516
 0.116 0.199 1.547
 0.127 0.202 1.57
 0.137 0.204 1.586
 0.147 0.205 1.589
 0.156 0.204 1.586
 0.164 0.203 1.578
 0.172 0.202 1.569
 0.18 0.201 1.56
 0.189 0.2 1.552
 0.196 0.199 1.54
 0.203 0.197 1.527
 0.21 0.195 1.512
 0.216 0.192 1.489
 0.221 0.189 1.463
 0.224 0.185 1.431
 0.227 0.18 1.397
 0.23 0.176 1.361
 0.233 0.172 1.332
 0.235 0.168 1.301
 0.239 0.166 1.283
 0.243 0.163 1.261
 0.244 0.159 1.227
 0 0 0
 0 0 0
 0.209 0.125 0.963
 0.215 0.125 0.962
 0.205 0.116 0.894
 0.182 0.1 0.775
 0.158 0.084 0.652
 0.114 0.059 0.458
 0.109 0.055 0.429
 0.107 0.053 0.411
 0.107 0.051 0.4
 0.108 0.05 0.393
 0.107 0.049 0.383
 0.109 0.048 0.378
 0.106 0.046 0.362
 0.106 0.045 0.352
 0.106 0.044 0.347
 0.105 0.043 0.335
 0.105 0.042 0.327
 0.106 0.041 0.323
 0.107 0.041 0.32
 0.109 0.041 0.32
 0.113 0.042 0.325
 0.118 0.043 0.333
 0.121 0.044 0.337
 0.129 0.046 0.351
 0.134 0.047 0.358
 0.138 0.047 0.362
 0.14 0.047 0.36
 0.146 0.049 0.37
 0.146 0.048 0.364
 0.151 0.049 0.37
 0.16 0.051 0.386
 0.175 0.055 0.414
 0.179 0.055 0.416
 0.186 0.057 0.427
 0.188 0.057 0.423
 0 0 0
 0 0 0
 0 0 0
 0 0 0
 0 0 0
 0 0 0
 0 0 0
 0 0 0
 0 0 0
 0 0 0
 0.299 0.079 0.569
 0.34 0.088 0.636
 0.357 0.092 0.659
 0.368 0.094 0.67
 0.385 0.097 0.69
 0.4 0.1 0.708
 0.424 0.104 0.738
 0.42 0.102 0.721
 -0.358 0.097 0.636
 -0.356 0.098 0.643
 -0.364 0.101 0.667
 -0.368 0.103 0.684
 -0.371 0.106 0.701
 -0.374 0.108 0.718
 -0.376 0.11 0.733
 -0.376 0.111 0.745
 -0.375 0.112 0.754
 -0.373 0.113 0.762
 -0.371 0.114 0.769
 -0.367 0.115 0.775
 -0.364 0.115 0.781
 -0.361 0.116 0.787
 -0.358 0.116 0.794
 -0.356 0.117 0.801
 -0.354 0.118 0.81
 -0.353 0.12 0.822
 -0.354 0.122 0.838
 -0.356 0.124 0.857
 -0.36 0.128 0.884
 -0.367 0.132 0.915
 -0.374 0.137 0.951
 -0.382 0.143 0.991
 -0.391 0.148 1.032
 -0.398 0.154 1.071
 -0.404 0.158 1.107
 -0.408 0.163 1.139
 -0.409 0.166 1.165
 -0.409 0.169 1.187
 -0.406 0.171 1.202
 -0.402 0.172 1.215
 -0.398 0.174 1.225
 -0.394 0.175 1.237
 -0.389 0.176 1.249
 -0.385 0.178 1.26
 -0.38 0.179 1.272
 -0.375 0.18 1.283
 -0.369 0.181 1.29
 -0.363 0.182 1.297
 -0.356 0.182 1.303
 -0.349 0.183 1.307
 -0.342 0.183 1.311
 -0.335 0.183 1.315
 -0.326 0.183 1.315
 -0.318 0.182 1.313
 -0.309 0.181 1.308
 -0.299 0.18 1.3
 -0.289 0.178 1.29
 -0.279 0.177 1.281
 -0.269 0.176 1.274
 -0.26 0.175 1.267
 -0.252 0.174 1.262
 -0.243 0.173 1.259
 -0.236 0.173 1.259
 -0.228 0.172 1.258
 -0.221 0.173 1.262
 -0.214 0.173 1.265
 -0.208 0.174 1.271
 -0.201 0.174 1.276
 -0.194 0.175 1.282
 -0.187 0.175 1.285
 -0.181 0.176 1.294
 -0.174 0.177 1.303
 -0.168 0.179 1.316
 -0.163 0.181 1.335
 -0.158 0.185 1.359
 -0.152 0.188 1.381
 -0.146 0.19 1.403
 -0.14 0.193 1.421
 -0.132 0.194 1.43
 -0.124 0.194 1.432
 -0.115 0.193 1.428
 -0.106 0.192 1.418
 -0.097 0.19 1.402
 -0.088 0.187 1.383
 -0.079 0.184 1.365
 -0.07 0.182 1.347
 -0.061 0.18 1.333
 -0.053 0.179 1.324
 -0.045 0.178 1.32
 -0.038 0.178 1.32
 -0.03 0.179 1.326
 -0.023 0.18 1.335
 -0.015 0.181 1.344
 -0.007 0.182 1.354
 0 0.184 1.366
 0.007 0.185 1.376
 0.015 0.186 1.383
 0.023 0.187 1.389
 0.032 0.187 1.391
 0.04 0.187 1.391
 0.048 0.188 1.394
 0.056 0.189 1.403
 0.065 0.191 1.419
 0.074 0.194 1.441
 0.084 0.198 1.469
 0.095 0.202 1.498
 0.106 0.206 1.527
 0.116 0.209 1.553
 0.127 0.212 1.572
 0.137 0.213 1.584
 0.147 0.214 1.586
 0.156 0.213 1.584
 0.164 0.212 1.575
 0.172 0.211 1.566
 0.18 0.21 1.557
 0.188 0.209 1.548
 0.196 0.207 1.535
 0.203 0.205 1.522
 0.21 0.203 1.506
 0.215 0.2 1.485
 0.22 0.197 1.459
 0.225 0.193 1.431
 0.228 0.189 1.398
 0.23 0.184 1.363
 0.232 0.18 1.329
 0.237 0.177 1.31
 0.24 0.174 1.283
 0.244 0.171 1.264
 0.247 0.168 1.241
 0 0 0
 0.218 0.14 1.033
 0.214 0.133 0.985
 0.22 0.133 0.984
 0.212 0.125 0.924
 0.195 0.112 0.826
 0.152 0.085 0.629
 0.12 0.065 0.483
 0.114 0.06 0.446
 0.111 0.057 0.426
 0.113 0.056 0.421
 0.112 0.055 0.409
 0.112 0.054 0.399
 0.113 0.053 0.395
 0.111 0.051 0.378
 0.108 0.049 0.361
 0.108 0.047 0.351
 0.106 0.045 0.337
 0.104 0.044 0.325
 0.105 0.043 0.32
 0.107 0.043 0.32
 0.111 0.044 0.325
 0.116 0.045 0.334
 0.123 0.047 0.347
 0.127 0.048 0.353
 0.134 0.05 0.366
 0.139 0.051 0.372
 0.143 0.052 0.376
 0.142 0.05 0.366
 0.148 0.051 0.374
 0.147 0.05 0.365
 0.144 0.048 0.351
 0.153 0.051 0.369
 0 0 0
 0.188 0.061 0.437
 0 0 0
 0 0 0
 0 0 0
 0 0 0
 0 0 0
 0 0 0
 0 0 0
 0 0 0
 0 0 0
 0.247 0.07 0.49
 0.25 0.07 0.489
 0.263 0.073 0.506
 0.292 0.08 0.554
 0.328 0.089 0.614
 0.35 0.094 0.645
 0.363 0.097 0.661
 0.385 0.101 0.689
 0.402 0.105 0.71
 0.418 0.108 0.727
 0.421 0.107 0.722
 -0.356 0.101 0.632
 -0.355 0.102 0.641
 -0.361 0.105 0.661
 -0.365 0.107 0.678
 -0.368 0.109 0.695
 -0.371 0.112 0.711
 -0.373 0.114 0.726
 -0.373 0.115 0.738
 -0.372 0.116 0.748
 -0.37 0.117 0.756
 -0.368 0.118 0.764
 -0.365 0.119 0.77
 -0.362 0.119 0.776
 -0.36 0.12 0.783
 -0.357 0.121 0.79
 -0.355 0.122 0.798
 -0.353 0.123 0.808
 -0.352 0.125 0.82
 -0.353 0.127 0.837
 -0.356 0.13 0.857
 -0.361 0.134 0.885
 -0.368 0.138 0.918
 -0.376 0.144 0.956
 -0.385 0.15 0.996
 -0.394 0.156 1.04
 -0.402 0.162 1.079
 -0.408 0.167 1.116
 -0.412 0.171 1.15
 -0.414 0.175 1.177
 -0.413 0.178 1.199
 -0.411 0.18 1.215
 -0.407 0.182 1.228
 -0.403 0.183 1.239
 -0.398 0.184 1.249
 -0.393 0.186 1.261
 -0.388 0.187 1.271
 -0.383 0.188 1.283
 -0.378 0.189 1.293
 -0.372 0.19 1.3
 -0.366 0.191 1.307
 -0.359 0.191 1.312
 -0.352 0.192 1.316
 -0.344 0.192 1.32
 -0.337 0.192 1.324
 -0.329 0.192 1.324
 -0.32 0.192 1.323
 -0.311 0.191 1.318
 -0.301 0.189 1.311
 -0.291 0.188 1.303
 -0.282 0.186 1.294
 -0.272 0.185 1.287
 -0.263 0.184 1.282
 -0.255 0.183 1.277
 -0.246 0.183 1.273
 -0.239 0.183 1.274
 -0.231 0.182 1.274
 -0.224 0.183 1.277
 -0.217 0.183 1.279
 -0.21 0.183 1.285
 -0.203 0.184 1.289
 -0.196 0.184 1.295
 -0.189 0.185 1.299
 -0.183 0.186 1.309
 -0.176 0.187 1.317
 -0.17 0.189 1.328
 -0.164 0.191 1.346
 -0.159 0.194 1.369
 -0.153 0.197 1.389
 -0.147 0.2 1.41
 -0.14 0.202 1.427
 -0.133 0.203 1.436
 -0.125 0.203 1.437
 -0.116 0.203 1.434
 -0.107 0.202 1.428
 -0.098 0.2 1.414
 -0.089 0.197 1.398
 -0.08 0.195 1.383
 -0.071 0.193 1.368
 -0.062 0.191 1.355
 -0.054 0.19 1.347
 -0.046 0.189 1.344
 -0.038 0.189 1.345
 -0.031 0.19 1.351
 -0.023 0.191 1.36
 -0.015 0.192 1.368
 -0.008 0.194 1.378
 0 0.195 1.389
 0.008 0.196 1.398
 0.016 0.197 1.405
 0.024 0.198 1.41
 0.032 0.199 1.413
 0.04 0.199 1.414
 0.049 0.199 1.417
 0.057 0.2 1.425
 0.066 0.202 1.44
 0.076 0.205 1.459
 0.085 0.208 1.484
 0.096 0.212 1.509
 0.106 0.216 1.535
 0.117 0.219 1.556
 0.127 0.221 1.573
 0.137 0.223 1.583
 0.147 0.223 1.584
 0.155 0.222 1.581
 0.164 0.221 1.571
 0.172 0.22 1.561
 0.18 0.218 1.552
 0.188 0.217 1.542
 0.195 0.215 1.528
 0.202 0.214 1.516
 0.209 0.211 1.5
 0.215 0.208 1.478
 0.219 0.205 1.452
 0.223 0.201 1.423
 0.227 0.196 1.39
 0.228 0.191 1.35
 0.231 0.186 1.32
 0.235 0.184 1.299
 0.238 0.18 1.275
 0.24 0.176 1.245
 0.246 0.175 1.234
 0.236 0.163 1.153
 0.22 0.148 1.044
 0.219 0.143 1.01
 0.221 0.14 0.988
 0.215 0.132 0.936
 0.19 0.114 0.805
 0.14 0.081 0.577
 0.12 0.068 0.481
 0.115 0.063 0.451
 0.114 0.061 0.436
 0.114 0.06 0.426
 0.115 0.059 0.419
 0.114 0.057 0.407
 0.116 0.057 0.403
 0.113 0.054 0.386
 0.111 0.052 0.369
 0.109 0.05 0.354
 0.106 0.048 0.338
 0.105 0.046 0.326
 0.105 0.045 0.322
 0.108 0.046 0.323
 0.113 0.047 0.331
 0.119 0.049 0.342
 0.126 0.05 0.355
 0.13 0.052 0.362
 0.136 0.053 0.371
 0.142 0.054 0.379
 0.145 0.055 0.38
 0.144 0.053 0.371
 0.148 0.054 0.376
 0.15 0.054 0.374
 0.144 0.051 0.351
 0.155 0.054 0.371
 0.183 0.063 0.432
 0.183 0.062 0.425
 0.19 0.063 0.434
 0.187 0.062 0.421
 0 0 0
 0 0 0
 0 0 0
 0 0 0
 0 0 0
 0 0 0
 0.246 0.074 0.496
 0.254 0.075 0.503
 0.259 0.076 0.506
 0.267 0.077 0.513
 0.285 0.082 0.539
 0.315 0.089 0.588
 0.339 0.095 0.625
 0.357 0.099 0.647
 0.381 0.105 0.682
 0.4 0.109 0.705
 0.416 0.112 0.723
 0.413 0.11 0.707
 -0.354 0.104 0.628
 -0.354 0.105 0.637
 -0.358 0.108 0.655
 -0.362 0.111 0.672
 -0.365 0.113 0.689
 -0.368 0.115 0.705
 -0.37 0.117 0.72
 -0.37 0.119 0.732
 -0.37 0.12 0.742
 -0.368 0.121 0.75
 -0.366 0.122 0.758
 -0.363 0.123 0.764
 -0.36 0.124 0.771
 -0.358 0.124 0.778
 -0.355 0.125 0.786
 -0.353 0.126 0.793
 -0.352 0.128 0.804
 -0.351 0.129 0.816
 -0.353 0.132 0.834
 -0.355 0.135 0.855
 -0.361 0.139 0.885
 -0.369 0.144 0.92
 -0.377 0.15 0.959
 -0.387 0.156 1
 -0.396 0.163 1.044
 -0.404 0.169 1.085
 -0.41 0.175 1.121
 -0.414 0.179 1.155
 -0.416 0.183 1.183
 -0.416 0.187 1.206
 -0.414 0.189 1.223
 -0.41 0.191 1.236
 -0.405 0.192 1.247
 -0.401 0.193 1.258
 -0.396 0.194 1.268
 -0.391 0.196 1.279
 -0.386 0.197 1.29
 -0.38 0.198 1.3
 -0.374 0.199 1.308
 -0.368 0.2 1.315
 -0.361 0.201 1.32
 -0.354 0.201 1.324
 -0.347 0.201 1.329
 -0.339 0.201 1.331
 -0.331 0.201 1.332
 -0.322 0.201 1.331
 -0.313 0.2 1.326
 -0.303 0.198 1.318
 -0.293 0.197 1.311
 -0.284 0.196 1.303
 -0.274 0.194 1.296
 -0.266 0.193 1.292
 -0.257 0.193 1.288
 -0.249 0.192 1.286
 -0.241 0.192 1.286
 -0.234 0.192 1.288
 -0.226 0.192 1.289
 -0.219 0.192 1.292
 -0.212 0.193 1.296
 -0.205 0.193 1.301
 -0.198 0.194 1.305
 -0.191 0.194 1.309
 -0.184 0.196 1.32
 -0.178 0.197 1.328
 -0.171 0.198 1.339
 -0.165 0.201 1.356
 -0.16 0.204 1.378
 -0.154 0.206 1.396
 -0.148 0.209 1.416
 -0.141 0.211 1.433
 -0.133 0.213 1.442
 -0.125 0.213 1.444
 -0.116 0.212 1.442
 -0.108 0.211 1.437
 -0.099 0.21 1.425
 -0.089 0.207 1.41
 -0.08 0.205 1.397
 -0.072 0.203 1.384
 -0.063 0.201 1.372
 -0.055 0.2 1.365
 -0.047 0.2 1.363
 -0.039 0.2 1.364
 -0.031 0.201 1.369
 -0.023 0.202 1.378
 -0.016 0.203 1.387
 -0.008 0.205 1.397
 0 0.206 1.407
 0.008 0.207 1.416
 0.016 0.208 1.423
 0.024 0.209 1.429
 0.033 0.21 1.433
 0.041 0.21 1.433
 0.049 0.21 1.436
 0.058 0.211 1.444
 0.067 0.213 1.458
 0.076 0.216 1.474
 0.086 0.219 1.496
 0.096 0.222 1.517
 0.106 0.225 1.537
 0.117 0.228 1.555
 0.127 0.23 1.569
 0.137 0.231 1.575
 0.146 0.231 1.578
 0.155 0.231 1.575
 0.163 0.23 1.566
 0.171 0.228 1.554
 0.179 0.227 1.546
 0.187 0.225 1.534
 0.194 0.223 1.523
 0.201 0.221 1.508
 0.208 0.219 1.494
 0.214 0.216 1.471
 0.219 0.212 1.446
 0.222 0.208 1.413
 0.225 0.203 1.381
 0.226 0.197 1.338
 0.229 0.192 1.306
 0.231 0.188 1.277
 0.235 0.185 1.254
 0.236 0.18 1.223
 0.242 0.179 1.215
 0.231 0.166 1.126
 0.216 0.15 1.02
 0.215 0.146 0.99
 0.216 0.143 0.968
 0.212 0.136 0.925
 0.185 0.116 0.785
 0.136 0.083 0.562
 0.122 0.072 0.489
 0.119 0.068 0.466
 0.117 0.066 0.448
 0.117 0.064 0.437
 0.118 0.063 0.429
 0.116 0.061 0.413
 0.117 0.06 0.407
 0.115 0.057 0.391
 0.112 0.055 0.373
 0.109 0.052 0.355
 0.106 0.05 0.338
 0.104 0.048 0.324
 0.105 0.047 0.321
 0.109 0.048 0.326
 0.114 0.05 0.335
 0.121 0.052 0.348
 0.128 0.053 0.36
 0.131 0.054 0.364
 0.135 0.055 0.368
 0.14 0.056 0.373
 0.143 0.056 0.374
 0.142 0.055 0.366
 0.145 0.055 0.366
 0.148 0.055 0.367
 0.145 0.053 0.353
 0.155 0.056 0.372
 0.172 0.062 0.407
 0.18 0.064 0.419
 0.191 0.067 0.436
 0.193 0.066 0.433
 0.19 0.064 0.42
 0.189 0.063 0.411
 0.192 0.063 0.411
 0.193 0.063 0.407
 0.207 0.066 0.428
 0.218 0.069 0.445
 0.235 0.073 0.471
 0.247 0.076 0.488
 0.252 0.077 0.491
 0.265 0.08 0.51
 0.282 0.084 0.534
 0.308 0.091 0.575
 0.332 0.097 0.61
 0.351 0.102 0.637
 0.376 0.108 0.672
 0.394 0.112 0.695
 0.414 0.116 0.719
 0.415 0.115 0.71
 -0.346 0.106 0.612
 -0.354 0.11 0.637
 -0.356 0.112 0.65
 -0.359 0.114 0.666
 -0.362 0.116 0.682
 -0.365 0.119 0.698
 -0.367 0.121 0.713
 -0.367 0.123 0.726
 -0.367 0.124 0.736
 -0.365 0.125 0.745
 -0.363 0.126 0.752
 -0.36 0.127 0.758
 -0.358 0.128 0.765
 -0.355 0.128 0.771
 -0.353 0.129 0.779
 -0.351 0.13 0.788
 -0.35 0.132 0.799
 -0.349 0.134 0.811
 -0.351 0.136 0.829
 -0.354 0.14 0.851
 -0.36 0.144 0.882
 -0.368 0.15 0.918
 -0.377 0.156 0.958
 -0.387 0.163 1.001
 -0.397 0.17 1.045
 -0.405 0.176 1.087
 -0.411 0.182 1.124
 -0.416 0.187 1.158
 -0.418 0.191 1.186
 -0.418 0.195 1.21
 -0.415 0.197 1.227
 -0.412 0.199 1.241
 -0.407 0.201 1.252
 -0.403 0.202 1.264
 -0.398 0.203 1.273
 -0.393 0.205 1.285
 -0.388 0.206 1.296
 -0.382 0.207 1.305
 -0.376 0.208 1.312
 -0.369 0.209 1.319
 -0.362 0.209 1.324
 -0.355 0.21 1.329
 -0.348 0.21 1.333
 -0.34 0.21 1.335
 -0.332 0.21 1.335
 -0.323 0.209 1.334
 -0.314 0.209 1.33
 -0.305 0.207 1.324
 -0.295 0.206 1.318
 -0.286 0.205 1.311
 -0.276 0.203 1.304
 -0.267 0.202 1.3
 -0.259 0.202 1.297
 -0.251 0.201 1.295
 -0.243 0.201 1.296
 -0.236 0.201 1.298
 -0.228 0.201 1.299
 -0.221 0.202 1.303
 -0.214 0.202 1.308
 -0.207 0.203 1.312
 -0.2 0.203 1.317
 -0.193 0.204 1.323
 -0.186 0.205 1.33
 -0.179 0.206 1.338
 -0.172 0.208 1.349
 -0.166 0.21 1.365
 -0.161 0.213 1.384
 -0.154 0.215 1.403
 -0.148 0.218 1.422
 -0.141 0.221 1.438
 -0.134 0.222 1.447
 -0.126 0.222 1.45
 -0.117 0.222 1.447
 -0.108 0.221 1.443
 -0.099 0.219 1.432
 -0.09 0.217 1.421
 -0.081 0.215 1.409
 -0.072 0.214 1.397
 -0.064 0.212 1.387
 -0.055 0.211 1.381
 -0.047 0.21 1.379
 -0.039 0.21 1.379
 -0.032 0.211 1.384
 -0.024 0.212 1.391
 -0.016 0.213 1.399
 -0.008 0.215 1.41
 0 0.217 1.421
 0.008 0.218 1.429
 0.016 0.219 1.437
 0.025 0.22 1.443
 0.033 0.22 1.445
 0.041 0.22 1.446
 0.05 0.221 1.449
 0.059 0.222 1.456
 0.068 0.223 1.467
 0.077 0.226 1.483
 0.087 0.229 1.503
 0.097 0.232 1.522
 0.107 0.235 1.539
 0.117 0.237 1.554
 0.127 0.239 1.565
 0.136 0.239 1.569
 0.145 0.239 1.57
 0.154 0.239 1.566
 0.162 0.238 1.557
 0.17 0.236 1.545
 0.178 0.235 1.537
 0.186 0.233 1.524
 0.193 0.231 1.513
 0.2 0.229 1.498
 0.207 0.227 1.483
 0.212 0.223 1.46
 0.218 0.22 1.437
 0.221 0.215 1.403
 0.224 0.209 1.369
 0.224 0.202 1.323
 0.226 0.197 1.289
 0.227 0.192 1.255
 0.229 0.187 1.223
 0.231 0.183 1.194
 0.236 0.182 1.185
 0.231 0.172 1.123
 0.215 0.156 1.018
 0.214 0.151 0.985
 0.212 0.145 0.947
 0.21 0.14 0.913
 0.189 0.123 0.801
 0.142 0.09 0.587
 0.129 0.079 0.519
 0.123 0.074 0.482
 0.121 0.07 0.461
 0.12 0.068 0.448
 0.12 0.067 0.437
 0.118 0.065 0.421
 0.117 0.062 0.408
 0.116 0.06 0.393
 0.114 0.058 0.378
 0.11 0.055 0.356
 0.107 0.052 0.34
 0.105 0.05 0.328
 0.107 0.05 0.326
 0.111 0.051 0.331
 0.117 0.053 0.343
 0.125 0.055 0.358
 0.132 0.058 0.372
 0.136 0.059 0.378
 0.139 0.059 0.379
 0.144 0.06 0.383
 0.146 0.06 0.383
 0.147 0.059 0.378
 0.149 0.059 0.376
 0.153 0.06 0.379
 0.152 0.058 0.371
 0.161 0.061 0.387
 0.171 0.064 0.402
 0.18 0.066 0.418
 0.193 0.07 0.44
 0.194 0.07 0.436
 0.194 0.068 0.427
 0.192 0.067 0.418
 0.196 0.067 0.419
 0.197 0.067 0.414
 0.211 0.07 0.436
 0.22 0.073 0.448
 0.234 0.076 0.471
 0.246 0.079 0.487
 0.253 0.081 0.493
 0.265 0.083 0.508
 0.281 0.088 0.532
 0.304 0.094 0.567
 0.328 0.1 0.603
 0.349 0.105 0.632
 0.372 0.111 0.665
 0.39 0.115 0.686
 0.41 0.12 0.711
 0.405 0.117 0.693
 -0.346 0.11 0.612
 -0.351 0.113 0.631
 -0.353 0.115 0.645
 -0.357 0.118 0.661
 -0.36 0.12 0.677
 -0.362 0.122 0.692
 -0.364 0.125 0.707
 -0.364 0.126 0.719
 -0.364 0.128 0.729
 -0.362 0.129 0.738
 -0.36 0.13 0.745
 -0.358 0.131 0.752
 -0.355 0.131 0.758
 -0.352 0.132 0.765
 -0.35 0.133 0.772
 -0.348 0.134 0.781
 -0.347 0.136 0.791
 -0.347 0.138 0.805
 -0.348 0.141 0.823
 -0.352 0.144 0.846
 -0.359 0.149 0.877
 -0.368 0.155 0.915
 -0.377 0.162 0.957
 -0.388 0.169 1.001
 -0.397 0.176 1.046
 -0.406 0.183 1.087
 -0.412 0.189 1.124
 -0.416 0.195 1.159
 -0.418 0.199 1.187
 -0.419 0.203 1.211
 -0.416 0.205 1.229
 -0.413 0.207 1.244
 -0.409 0.209 1.255
 -0.404 0.211 1.268
 -0.399 0.212 1.277
 -0.394 0.213 1.288
 -0.389 0.215 1.299
 -0.383 0.216 1.308
 -0.377 0.216 1.314
 -0.37 0.217 1.321
 -0.363 0.218 1.326
 -0.356 0.218 1.331
 -0.349 0.219 1.335
 -0.341 0.219 1.337
 -0.333 0.218 1.337
 -0.324 0.218 1.337
 -0.315 0.217 1.334
 -0.306 0.216 1.328
 -0.296 0.215 1.323
 -0.287 0.214 1.316
 -0.278 0.212 1.311
 -0.269 0.212 1.307
 -0.261 0.211 1.306
 -0.253 0.211 1.304
 -0.245 0.211 1.306
 -0.237 0.211 1.307
 -0.23 0.211 1.309
 -0.222 0.211 1.311
 -0.215 0.212 1.317
 -0.208 0.212 1.321
 -0.201 0.213 1.325
 -0.194 0.213 1.332
 -0.187 0.214 1.339
 -0.18 0.215 1.346
 -0.174 0.217 1.358
 -0.167 0.219 1.373
 -0.161 0.222 1.389
 -0.155 0.225 1.408
 -0.149 0.228 1.427
 -0.142 0.23 1.442
 -0.134 0.231 1.45
 -0.126 0.232 1.455
 -0.117 0.231 1.453
 -0.109 0.23 1.447
 -0.1 0.229 1.438
 -0.09 0.227 1.427
 -0.082 0.225 1.416
 -0.073 0.223 1.407
 -0.064 0.222 1.398
 -0.056 0.221 1.392
 -0.048 0.22 1.39
 -0.04 0.22 1.39
 -0.032 0.221 1.394
 -0.024 0.222 1.401
 -0.016 0.223 1.409
 -0.008 0.225 1.419
 0 0.226 1.43
 0.008 0.228 1.439
 0.016 0.229 1.446
 0.025 0.23 1.451
 0.033 0.23 1.453
 0.042 0.23 1.455
 0.05 0.231 1.458
 0.059 0.232 1.465
 0.068 0.233 1.475
 0.077 0.235 1.488
 0.087 0.238 1.505
 0.097 0.241 1.522
 0.107 0.243 1.538
 0.117 0.245 1.551
 0.127 0.247 1.561
 0.136 0.248 1.563
 0.145 0.248 1.563
 0.154 0.247 1.558
 0.162 0.246 1.549
 0.169 0.244 1.537
 0.177 0.242 1.527
 0.185 0.24 1.513
 0.192 0.238 1.499
 0.198 0.235 1.483
 0.205 0.233 1.467
 0.21 0.229 1.444
 0.215 0.226 1.42
 0.218 0.22 1.387
 0.221 0.215 1.351
 0.221 0.208 1.306
 0.223 0.202 1.273
 0.224 0.197 1.235
 0.226 0.192 1.206
 0.229 0.188 1.183
 0.234 0.187 1.174
 0.23 0.179 1.12
 0.214 0.161 1.009
 0.214 0.157 0.983
 0.21 0.15 0.94
 0.216 0.15 0.939
 0.198 0.134 0.839
 0.129 0.085 0.532
 0.128 0.082 0.514
 0.124 0.077 0.484
 0.123 0.075 0.47
 0.123 0.073 0.459
 0.123 0.071 0.447
 0.121 0.069 0.43
 0.119 0.066 0.414
 0.118 0.064 0.4
 0.116 0.062 0.386
 0.113 0.058 0.366
 0.11 0.056 0.351
 0.109 0.054 0.339
 0.111 0.054 0.338
 0.115 0.055 0.344
 0.121 0.057 0.355
 0.129 0.06 0.37
 0.136 0.062 0.382
 0.14 0.063 0.386
 0.142 0.062 0.384
 0.145 0.063 0.387
 0.146 0.062 0.382
 0.147 0.061 0.377
 0.148 0.061 0.373
 0.152 0.062 0.377
 0.153 0.061 0.374
 0.159 0.063 0.381
 0.165 0.064 0.388
 0.177 0.068 0.41
 0.19 0.072 0.432
 0.192 0.071 0.43
 0.193 0.071 0.425
 0.194 0.07 0.422
 0.197 0.07 0.42
 0.198 0.07 0.415
 0.209 0.073 0.433
