 1.597 -1.635 3.784
 1.608 -1.634 3.776
 1.62 -1.634 3.771
 1.632 -1.633 3.764
 1.646 -1.635 3.764
 1.657 -1.634 3.757
 1.668 -1.632 3.748
 1.678 -1.63 3.738
 1.69 -1.63 3.733
 1.702 -1.631 3.728
 1.716 -1.632 3.727
 1.73 -1.634 3.725
 1.742 -1.633 3.719
 1.755 -1.634 3.716
 1.766 -1.633 3.708
 1.776 -1.631 3.699
 1.791 -1.634 3.699
 1.803 -1.633 3.693
 1.815 -1.633 3.687
 1.826 -1.632 3.68
 1.834 -1.628 3.665
 1.84 -1.623 3.647
 1.848 -1.619 3.634
 1.853 -1.613 3.613
 1.858 -1.607 3.595
 1.855 -1.594 3.559
 1.852 -1.582 3.526
 1.854 -1.573 3.501
 1.854 -1.563 3.474
 1.851 -1.551 3.441
 1.853 -1.543 3.417
 1.855 -1.535 3.394
 1.852 -1.524 3.363
 1.849 -1.511 3.33
 1.85 -1.503 3.307
 1.848 -1.493 3.277
 1.843 -1.479 3.243
 1.841 -1.469 3.215
 1.84 -1.46 3.189
 1.839 -1.45 3.162
 1.841 -1.443 3.141
 1.842 -1.436 3.119
 1.836 -1.423 3.086
 1.834 -1.413 3.058
 1.831 -1.403 3.031
 1.827 -1.392 3.001
 1.824 -1.382 2.974
 1.823 -1.373 2.95
 1.844 -1.381 2.962
 -2.221 -1.669 3.697
 -2.148 -1.624 3.602
 -2.135 -1.623 3.607
 -2.124 -1.625 3.618
 -2.111 -1.625 3.623
 -2.102 -1.628 3.635
 -2.093 -1.63 3.647
 -2.087 -1.635 3.665
 -2.077 -1.637 3.676
 -2.066 -1.639 3.685
 -2.055 -1.64 3.693
 -2.043 -1.64 3.699
 -2.031 -1.641 3.707
 -2.019 -1.641 3.714
 -2.005 -1.641 3.718
 -1.987 -1.636 3.714
 -1.973 -1.635 3.718
 -1.955 -1.631 3.713
 -1.937 -1.626 3.707
 -1.928 -1.629 3.721
 -1.918 -1.632 3.731
 -1.907 -1.633 3.74
 -1.896 -1.634 3.747
 -1.887 -1.637 3.761
 -1.874 -1.637 3.765
 -1.864 -1.639 3.776
 -1.852 -1.64 3.782
 -1.84 -1.641 3.79
 -1.828 -1.641 3.794
 -1.813 -1.639 3.796
 -1.8 -1.639 3.8
 -1.785 -1.636 3.799
 -1.771 -1.635 3.802
 -1.758 -1.634 3.805
 -1.741 -1.631 3.802
 -1.728 -1.63 3.805
 -1.717 -1.632 3.813
 -1.702 -1.63 3.814
 -1.69 -1.63 3.819
 -1.68 -1.632 3.829
 -1.667 -1.632 3.833
 -1.656 -1.634 3.842
 -1.645 -1.635 3.85
 -1.63 -1.633 3.85
 -1.616 -1.632 3.851
 -1.603 -1.63 3.852
 -1.59 -1.631 3.858
 -1.58 -1.633 3.866
 -1.568 -1.634 3.874
 -1.555 -1.633 3.876
 -1.542 -1.633 3.879
 -1.527 -1.63 3.876
 -1.511 -1.627 3.873
 -1.498 -1.626 3.877
 -1.488 -1.628 3.886
 -1.476 -1.63 3.892
 -1.462 -1.627 3.891
 -1.45 -1.628 3.898
 -1.438 -1.629 3.904
 -1.425 -1.628 3.905
 -1.411 -1.627 3.906
 -1.401 -1.629 3.916
 -1.388 -1.629 3.918
 -1.373 -1.627 3.916
 -1.361 -1.627 3.921
 -1.349 -1.627 3.925
 -1.334 -1.624 3.922
 -1.321 -1.624 3.924
 -1.31 -1.625 3.93
 -1.298 -1.626 3.936
 -1.282 -1.622 3.93
 -1.272 -1.625 3.94
 -1.26 -1.626 3.946
 -1.248 -1.626 3.949
 -1.234 -1.625 3.95
 -1.228 -1.633 3.973
 -1.214 -1.631 3.972
 -1.202 -1.632 3.977
 -1.188 -1.63 3.976
 -1.178 -1.633 3.985
 -1.164 -1.631 3.983
 -1.151 -1.631 3.986
 -1.137 -1.628 3.983
 -1.126 -1.63 3.991
 -1.111 -1.628 3.988
 -1.099 -1.627 3.989
 -1.086 -1.627 3.992
 -1.074 -1.628 3.996
 -1.06 -1.625 3.993
 -1.046 -1.624 3.991
 -1.033 -1.622 3.991
 -1.021 -1.624 3.997
 -1.009 -1.623 3.998
 -0.997 -1.624 4.003
 -0.984 -1.623 4.004
 -0.97 -1.62 3.999
 -0.957 -1.621 4.002
 -0.944 -1.619 3.999
 -0.932 -1.62 4.005
 -0.921 -1.622 4.012
 -0.907 -1.619 4.008
 -0.894 -1.618 4.008
 -0.883 -1.621 4.017
 -0.87 -1.62 4.017
 -0.857 -1.619 4.017
 -0.847 -1.623 4.028
 -0.835 -1.624 4.033
 -0.822 -1.624 4.036
 -0.81 -1.624 4.036
 -0.798 -1.624 4.04
 -0.785 -1.625 4.042
 -0.773 -1.625 4.045
 -0.759 -1.622 4.04
 -0.747 -1.624 4.045
 -0.734 -1.621 4.041
 -0.723 -1.624 4.049
 -0.71 -1.623 4.048
 -0.698 -1.624 4.054
 -0.686 -1.625 4.057
 -0.675 -1.629 4.068
 -0.661 -1.625 4.061
 -0.648 -1.623 4.057
 -0.635 -1.621 4.054
 -0.621 -1.619 4.05
 -0.608 -1.617 4.047
 -0.596 -1.618 4.049
 -0.584 -1.62 4.057
 -0.573 -1.624 4.067
 -0.561 -1.624 4.071
 -0.549 -1.626 4.075
 -0.538 -1.628 4.083
 -0.524 -1.626 4.078
 -0.511 -1.622 4.07
 -0.498 -1.621 4.068
 -0.486 -1.622 4.072
 -0.472 -1.618 4.063
 -0.459 -1.616 4.059
 -0.448 -1.619 4.067
 -0.437 -1.624 4.081
 -0.423 -1.619 4.069
 -0.411 -1.62 4.072
 -0.399 -1.623 4.081
 -0.386 -1.62 4.075
 -0.373 -1.616 4.065
 -0.36 -1.616 4.066
 -0.348 -1.615 4.065
 -0.335 -1.613 4.06
 -0.323 -1.614 4.064
 -0.311 -1.616 4.069
 -0.299 -1.619 4.078
 -0.287 -1.618 4.076
 -0.275 -1.621 4.084
 -0.263 -1.623 4.089
 -0.25 -1.622 4.087
 -0.238 -1.622 4.087
 -0.226 -1.626 4.097
 -0.214 -1.626 4.099
 -0.201 -1.623 4.092
 -0.188 -1.622 4.088
 -0.176 -1.619 4.083
 -0.163 -1.618 4.081
 -0.151 -1.618 4.079
 -0.138 -1.619 4.082
 -0.126 -1.62 4.084
 -0.114 -1.623 4.092
 -0.102 -1.626 4.101
 -0.089 -1.623 4.094
 -0.077 -1.624 4.095
 -0.064 -1.623 4.092
 -0.052 -1.622 4.089
 -0.04 -1.614 4.071
 -0.027 -1.614 4.07
 -0.015 -1.614 4.071
 -0.003 -1.618 4.079
 0.009 -1.619 4.083
 0.021 -1.625 4.097
 0.034 -1.626 4.099
 0.046 -1.625 4.097
 0.058 -1.623 4.09
 0.071 -1.62 4.084
 0.083 -1.621 4.086
 0.096 -1.626 4.097
 0.108 -1.624 4.093
 0.12 -1.624 4.092
 0.133 -1.623 4.089
 0.145 -1.621 4.084
 0.157 -1.615 4.069
 0.169 -1.616 4.071
 0.181 -1.615 4.067
 0.194 -1.618 4.074
 0.206 -1.616 4.067
 0.218 -1.617 4.07
 0.23 -1.616 4.066
 0.243 -1.616 4.066
 0.255 -1.615 4.063
 0.267 -1.616 4.064
 0.28 -1.619 4.072
 0.293 -1.622 4.077
 0.305 -1.622 4.077
 0.317 -1.618 4.066
 0.329 -1.618 4.066
 0.341 -1.617 4.06
 0.354 -1.617 4.061
 0.366 -1.618 4.06
 0.379 -1.621 4.068
 0.392 -1.622 4.068
 0.404 -1.622 4.068
 0.416 -1.619 4.059
 0.428 -1.619 4.059
 0.44 -1.618 4.053
 0.452 -1.617 4.05
 0.464 -1.617 4.049
 0.476 -1.616 4.045
 0.488 -1.615 4.04
 0.501 -1.617 4.044
 0.514 -1.617 4.044
 0.526 -1.617 4.043
 0.539 -1.62 4.048
 0.552 -1.62 4.047
 0.563 -1.617 4.037
 0.575 -1.617 4.034
 0.587 -1.616 4.031
 0.6 -1.617 4.032
 0.613 -1.62 4.037
 0.626 -1.622 4.041
 0.639 -1.624 4.044
 0.652 -1.626 4.048
 0.664 -1.624 4.041
 0.676 -1.623 4.036
 0.69 -1.627 4.043
 0.703 -1.63 4.05
 0.716 -1.629 4.046
 0.73 -1.633 4.054
 0.742 -1.633 4.052
 0.754 -1.633 4.049
 0.765 -1.629 4.036
 0.776 -1.627 4.029
 0.788 -1.626 4.025
 0.802 -1.63 4.032
 0.813 -1.627 4.024
 0.826 -1.629 4.025
 0.84 -1.63 4.026
 0.851 -1.629 4.02
 0.862 -1.627 4.013
 0.875 -1.628 4.013
 0.888 -1.629 4.014
 0.902 -1.631 4.015
 0.915 -1.632 4.017
 0.927 -1.633 4.014
 0.939 -1.631 4.008
 0.951 -1.631 4.006
 0.965 -1.633 4.008
 0.977 -1.632 4.002
 0.989 -1.632 3.999
 1.002 -1.633 3.998
 1.014 -1.633 3.995
 1.024 -1.629 3.984
 1.037 -1.63 3.982
 1.049 -1.629 3.978
 1.062 -1.631 3.978
 1.075 -1.631 3.975
 1.087 -1.63 3.971
 1.098 -1.629 3.964
 1.11 -1.628 3.96
 1.122 -1.628 3.956
 1.135 -1.629 3.956
 1.149 -1.631 3.956
 1.163 -1.633 3.959
 1.178 -1.637 3.964
 1.19 -1.636 3.959
 1.201 -1.635 3.953
 1.211 -1.632 3.941
 1.224 -1.632 3.939
 1.235 -1.63 3.931
 1.25 -1.634 3.935
 1.263 -1.634 3.934
 1.279 -1.639 3.942
 1.289 -1.637 3.932
 1.305 -1.64 3.937
 1.316 -1.639 3.931
 1.33 -1.641 3.931
 1.343 -1.642 3.929
 1.359 -1.646 3.934
 1.368 -1.642 3.921
 1.379 -1.641 3.914
 1.391 -1.64 3.908
 1.401 -1.637 3.898
 1.411 -1.634 3.887
 1.422 -1.633 3.879
 1.434 -1.633 3.875
 1.444 -1.63 3.864
 1.458 -1.632 3.864
 1.47 -1.631 3.859
 1.486 -1.636 3.864
 1.5 -1.638 3.865
 1.513 -1.638 3.861
 1.527 -1.639 3.86
 1.541 -1.642 3.86
 1.553 -1.641 3.854
 1.562 -1.638 3.842
 1.576 -1.639 3.84
 1.586 -1.637 3.83
 1.594 -1.632 3.816
 1.607 -1.632 3.811
 1.619 -1.632 3.806
 1.632 -1.633 3.803
 1.644 -1.633 3.797
 1.659 -1.636 3.799
 1.673 -1.637 3.797
 1.683 -1.635 3.788
 1.694 -1.633 3.779
 1.704 -1.632 3.769
 1.716 -1.631 3.763
 1.729 -1.632 3.759
 1.741 -1.632 3.755
 1.752 -1.63 3.745
 1.765 -1.631 3.741
 1.776 -1.63 3.734
 1.786 -1.628 3.724
 1.805 -1.633 3.731
 1.816 -1.633 3.725
 1.828 -1.632 3.718
 1.841 -1.633 3.713
 1.847 -1.627 3.695
 1.848 -1.617 3.667
 1.857 -1.615 3.655
 1.86 -1.606 3.631
 1.862 -1.599 3.608
 1.86 -1.586 3.574
 1.859 -1.576 3.544
 1.86 -1.566 3.517
 1.864 -1.559 3.496
 1.862 -1.549 3.466
 1.865 -1.541 3.444
 1.869 -1.535 3.425
 1.87 -1.526 3.399
 1.865 -1.513 3.363
 1.866 -1.505 3.34
 1.859 -1.49 3.302
 1.844 -1.469 3.248
 1.834 -1.453 3.207
 1.835 -1.445 3.183
 1.833 -1.435 3.156
 1.84 -1.432 3.144
 1.843 -1.426 3.125
 1.838 -1.414 3.094
 1.837 -1.405 3.068
 1.837 -1.397 3.044
 1.828 -1.382 3.006
 1.824 -1.372 2.978
 1.8 -1.346 2.916
 1.818 -1.352 2.923
 -2.157 -1.609 3.595
 -2.214 -1.661 3.718
 -2.155 -1.626 3.647
 -2.142 -1.626 3.652
 -2.128 -1.625 3.656
 -2.118 -1.627 3.668
 -2.106 -1.628 3.675
 -2.101 -1.634 3.695
 -2.092 -1.636 3.706
 -2.081 -1.638 3.717
 -2.07 -1.64 3.726
 -2.061 -1.642 3.738
 -2.049 -1.643 3.745
 -2.036 -1.643 3.752
 -2.025 -1.644 3.76
 -2.005 -1.639 3.753
 -1.988 -1.635 3.751
 -1.97 -1.631 3.747
 -1.952 -1.626 3.74
 -1.941 -1.627 3.749
 -1.932 -1.631 3.763
 -1.921 -1.632 3.772
 -1.91 -1.634 3.781
 -1.9 -1.636 3.791
 -1.885 -1.634 3.791
 -1.874 -1.636 3.801
 -1.863 -1.637 3.81
 -1.851 -1.638 3.817
 -1.842 -1.641 3.829
 -1.83 -1.642 3.837
 -1.816 -1.641 3.839
 -1.801 -1.638 3.838
 -1.787 -1.637 3.84
 -1.769 -1.633 3.836
 -1.754 -1.63 3.835
 -1.74 -1.629 3.836
 -1.729 -1.63 3.845
 -1.713 -1.627 3.842
 -1.701 -1.628 3.848
 -1.687 -1.626 3.85
 -1.675 -1.628 3.858
 -1.664 -1.629 3.866
 -1.653 -1.63 3.873
 -1.642 -1.632 3.881
 -1.629 -1.632 3.886
 -1.615 -1.63 3.886
 -1.601 -1.629 3.889
 -1.592 -1.633 3.902
 -1.578 -1.632 3.904
 -1.565 -1.631 3.905
 -1.551 -1.63 3.907
 -1.537 -1.629 3.909
 -1.522 -1.626 3.906
 -1.509 -1.626 3.91
 -1.498 -1.627 3.917
 -1.486 -1.628 3.923
 -1.471 -1.626 3.922
 -1.458 -1.625 3.924
 -1.446 -1.625 3.928
 -1.434 -1.626 3.934
 -1.42 -1.625 3.936
 -1.408 -1.625 3.941
 -1.396 -1.626 3.947
 -1.382 -1.624 3.945
 -1.37 -1.625 3.95
 -1.356 -1.623 3.951
 -1.343 -1.622 3.952
 -1.331 -1.623 3.957
 -1.32 -1.625 3.966
 -1.305 -1.623 3.964
 -1.292 -1.622 3.964
 -1.281 -1.623 3.972
 -1.268 -1.624 3.976
 -1.255 -1.622 3.976
 -1.242 -1.623 3.981
 -1.235 -1.63 4.001
 -1.221 -1.628 4
 -1.208 -1.628 4.002
 -1.195 -1.626 4.001
 -1.185 -1.631 4.015
 -1.171 -1.629 4.014
 -1.158 -1.628 4.016
 -1.145 -1.627 4.016
 -1.134 -1.629 4.024
 -1.117 -1.624 4.013
 -1.104 -1.623 4.014
 -1.091 -1.622 4.014
 -1.079 -1.623 4.019
 -1.064 -1.62 4.015
 -1.051 -1.619 4.016
 -1.038 -1.617 4.014
 -1.027 -1.62 4.024
 -1.015 -1.62 4.027
 -1.003 -1.621 4.031
 -0.991 -1.622 4.037
 -0.976 -1.619 4.031
 -0.964 -1.619 4.033
 -0.951 -1.618 4.033
 -0.939 -1.62 4.041
 -0.927 -1.62 4.044
 -0.914 -1.62 4.045
 -0.902 -1.62 4.048
 -0.889 -1.62 4.049
 -0.876 -1.619 4.05
 -0.863 -1.619 4.051
 -0.852 -1.621 4.059
 -0.84 -1.622 4.063
 -0.828 -1.623 4.069
 -0.815 -1.623 4.07
 -0.802 -1.622 4.069
 -0.79 -1.622 4.07
 -0.776 -1.62 4.067
 -0.762 -1.616 4.06
 -0.75 -1.617 4.065
 -0.737 -1.616 4.064
 -0.726 -1.618 4.071
 -0.714 -1.619 4.075
 -0.702 -1.622 4.085
 -0.691 -1.624 4.09
 -0.68 -1.628 4.102
 -0.666 -1.626 4.098
 -0.653 -1.624 4.096
 -0.64 -1.622 4.092
 -0.626 -1.619 4.086
 -0.613 -1.617 4.082
 -0.6 -1.616 4.08
 -0.588 -1.617 4.085
 -0.576 -1.619 4.091
 -0.564 -1.62 4.095
 -0.552 -1.621 4.099
 -0.541 -1.626 4.112
 -0.528 -1.625 4.112
 -0.515 -1.624 4.109
 -0.502 -1.623 4.11
 -0.49 -1.623 4.11
 -0.476 -1.619 4.101
 -0.463 -1.617 4.097
 -0.451 -1.618 4.101
 -0.44 -1.622 4.113
 -0.426 -1.618 4.103
 -0.414 -1.619 4.107
 -0.401 -1.619 4.108
 -0.389 -1.618 4.106
 -0.375 -1.613 4.093
 -0.363 -1.613 4.095
 -0.35 -1.612 4.091
 -0.337 -1.611 4.091
 -0.325 -1.613 4.095
 -0.314 -1.617 4.107
 -0.302 -1.62 4.116
 -0.289 -1.619 4.113
 -0.277 -1.62 4.116
 -0.264 -1.622 4.121
 -0.252 -1.62 4.117
 -0.239 -1.619 4.114
 -0.227 -1.621 4.121
 -0.215 -1.623 4.127
 -0.202 -1.62 4.118
 -0.189 -1.619 4.116
 -0.177 -1.618 4.115
 -0.164 -1.619 4.117
 -0.152 -1.619 4.117
 -0.139 -1.619 4.119
 -0.127 -1.619 4.118
 -0.115 -1.623 4.128
 -0.102 -1.624 4.132
 -0.09 -1.621 4.123
 -0.077 -1.621 4.124
 -0.065 -1.621 4.124
 -0.052 -1.618 4.116
 -0.04 -1.614 4.106
 -0.027 -1.614 4.106
 -0.015 -1.615 4.107
 -0.003 -1.616 4.111
 0.009 -1.618 4.116
 0.021 -1.622 4.126
 0.034 -1.623 4.128
 0.046 -1.622 4.126
 0.059 -1.62 4.12
 0.071 -1.619 4.116
 0.084 -1.619 4.117
 0.096 -1.623 4.125
 0.108 -1.619 4.117
 0.121 -1.619 4.116
 0.133 -1.616 4.108
 0.146 -1.617 4.109
 0.157 -1.611 4.093
 0.17 -1.614 4.1
 0.182 -1.613 4.097
 0.195 -1.617 4.107
 0.207 -1.615 4.101
 0.22 -1.616 4.103
 0.232 -1.615 4.098
 0.245 -1.616 4.102
 0.257 -1.614 4.096
 0.269 -1.613 4.092
 0.282 -1.617 4.102
 0.295 -1.62 4.107
 0.307 -1.62 4.108
 0.32 -1.62 4.105
 0.333 -1.622 4.11
 0.344 -1.618 4.099
 0.357 -1.617 4.097
 0.369 -1.617 4.094
 0.381 -1.617 4.095
 0.393 -1.616 4.09
 0.406 -1.616 4.088
 0.418 -1.615 4.086
 0.431 -1.616 4.087
 0.443 -1.614 4.081
 0.455 -1.614 4.079
 0.468 -1.616 4.081
 0.48 -1.615 4.078
 0.492 -1.613 4.072
 0.505 -1.617 4.079
 0.518 -1.618 4.08
 0.531 -1.619 4.083
 0.543 -1.62 4.084
 0.556 -1.62 4.082
 0.567 -1.617 4.072
 0.579 -1.616 4.069
 0.591 -1.614 4.062
 0.604 -1.617 4.068
 0.617 -1.619 4.07
 0.63 -1.619 4.07
 0.642 -1.62 4.069
 0.656 -1.623 4.075
 0.667 -1.62 4.066
 0.679 -1.619 4.062
 0.694 -1.624 4.073
 0.708 -1.628 4.08
 0.72 -1.627 4.076
 0.733 -1.629 4.078
 0.746 -1.629 4.077
 0.757 -1.627 4.069
 0.768 -1.623 4.058
 0.78 -1.622 4.053
 0.792 -1.622 4.05
 0.805 -1.624 4.052
 0.818 -1.623 4.049
 0.831 -1.625 4.05
 0.844 -1.626 4.051
 0.856 -1.625 4.045
 0.868 -1.624 4.041
 0.881 -1.625 4.042
 0.893 -1.626 4.04
 0.907 -1.627 4.041
 0.921 -1.63 4.045
 0.933 -1.63 4.043
 0.944 -1.627 4.032
 0.958 -1.629 4.036
 0.971 -1.631 4.037
 0.984 -1.631 4.035
 0.996 -1.632 4.034
 1.01 -1.633 4.034
 1.022 -1.632 4.03
 1.032 -1.629 4.019
 1.044 -1.628 4.012
 1.056 -1.627 4.008
 1.069 -1.629 4.009
 1.082 -1.628 4.005
 1.093 -1.627 3.999
 1.105 -1.626 3.993
 1.116 -1.625 3.987
 1.129 -1.625 3.984
 1.142 -1.626 3.984
 1.156 -1.628 3.985
 1.17 -1.63 3.987
 1.184 -1.633 3.99
 1.197 -1.633 3.986
 1.209 -1.633 3.983
 1.221 -1.632 3.978
 1.234 -1.633 3.975
 1.245 -1.631 3.967
 1.258 -1.631 3.965
 1.271 -1.632 3.963
 1.285 -1.634 3.965
 1.296 -1.632 3.956
 1.313 -1.639 3.968
 1.326 -1.639 3.964
 1.336 -1.636 3.955
 1.35 -1.638 3.953
 1.367 -1.643 3.962
 1.375 -1.637 3.945
 1.386 -1.636 3.938
 1.399 -1.637 3.936
 1.41 -1.635 3.927
 1.418 -1.63 3.912
 1.43 -1.63 3.906
 1.443 -1.63 3.903
 1.456 -1.63 3.899
 1.47 -1.633 3.9
 1.482 -1.633 3.896
 1.497 -1.635 3.897
 1.512 -1.637 3.898
 1.522 -1.635 3.889
 1.535 -1.635 3.884
 1.549 -1.637 3.885
 1.561 -1.637 3.88
 1.571 -1.634 3.868
 1.586 -1.637 3.869
 1.596 -1.634 3.859
 1.603 -1.629 3.842
 1.616 -1.629 3.837
 1.629 -1.63 3.834
 1.641 -1.63 3.829
 1.654 -1.631 3.826
 1.669 -1.633 3.827
 1.683 -1.634 3.824
 1.692 -1.631 3.813
 1.704 -1.63 3.805
 1.714 -1.628 3.796
 1.728 -1.63 3.793
 1.74 -1.629 3.787
 1.754 -1.631 3.786
 1.765 -1.63 3.779
 1.778 -1.631 3.775
 1.79 -1.63 3.767
 1.802 -1.629 3.761
 1.818 -1.633 3.763
 1.83 -1.632 3.757
 1.841 -1.631 3.749
 1.851 -1.629 3.738
 1.856 -1.623 3.718
 1.856 -1.612 3.688
 1.861 -1.606 3.668
 1.861 -1.596 3.639
 1.863 -1.587 3.614
 1.862 -1.576 3.582
 1.861 -1.565 3.552
 1.858 -1.552 3.518
 1.861 -1.546 3.497
 1.861 -1.536 3.469
 1.863 -1.528 3.444
 1.87 -1.524 3.43
 1.875 -1.518 3.412
 1.871 -1.506 3.379
 1.874 -1.5 3.359
 1.865 -1.483 3.316
 1.842 -1.457 3.251
 1.827 -1.436 3.199
 1.83 -1.43 3.18
 1.83 -1.421 3.155
 1.839 -1.42 3.147
 1.844 -1.415 3.131
 1.842 -1.406 3.103
 1.841 -1.397 3.078
 1.841 -1.389 3.055
 1.829 -1.372 3.013
 1.827 -1.363 2.986
 1.812 -1.344 2.939
 1.787 -1.318 2.877
 0 0 0
 -2.184 -1.626 3.674
 -2.176 -1.629 3.688
 -2.161 -1.628 3.69
 -2.148 -1.628 3.697
 -2.136 -1.628 3.704
 -2.121 -1.626 3.705
 -2.113 -1.63 3.72
 -2.102 -1.631 3.729
 -2.091 -1.633 3.739
 -2.082 -1.636 3.751
 -2.072 -1.638 3.763
 -2.064 -1.642 3.778
 -2.051 -1.642 3.784
 -2.038 -1.642 3.79
 -2.022 -1.639 3.789
 -2.005 -1.636 3.788
 -1.987 -1.632 3.783
 -1.97 -1.628 3.781
 -1.957 -1.628 3.785
 -1.949 -1.632 3.801
 -1.937 -1.633 3.808
 -1.925 -1.634 3.816
 -1.914 -1.635 3.823
 -1.898 -1.632 3.823
 -1.883 -1.631 3.825
 -1.872 -1.632 3.833
 -1.862 -1.634 3.843
 -1.851 -1.636 3.854
 -1.841 -1.639 3.865
 -1.828 -1.639 3.869
 -1.814 -1.637 3.871
 -1.8 -1.636 3.873
 -1.785 -1.634 3.874
 -1.769 -1.631 3.872
 -1.755 -1.63 3.874
 -1.742 -1.63 3.878
 -1.728 -1.628 3.88
 -1.715 -1.629 3.886
 -1.701 -1.627 3.887
 -1.691 -1.63 3.898
 -1.68 -1.632 3.908
 -1.666 -1.631 3.909
 -1.655 -1.632 3.917
 -1.643 -1.633 3.924
 -1.628 -1.631 3.924
 -1.614 -1.63 3.926
 -1.605 -1.634 3.939
 -1.593 -1.634 3.944
 -1.578 -1.632 3.944
 -1.562 -1.629 3.941
 -1.549 -1.628 3.943
 -1.534 -1.625 3.94
 -1.519 -1.624 3.94
 -1.506 -1.623 3.943
 -1.495 -1.625 3.952
 -1.481 -1.623 3.951
 -1.467 -1.622 3.953
 -1.455 -1.622 3.958
 -1.444 -1.625 3.968
 -1.432 -1.626 3.973
 -1.42 -1.626 3.979
 -1.407 -1.626 3.981
 -1.392 -1.624 3.98
 -1.38 -1.624 3.985
 -1.366 -1.622 3.984
 -1.353 -1.622 3.987
 -1.341 -1.624 3.994
 -1.329 -1.624 3.999
 -1.313 -1.62 3.993
 -1.3 -1.619 3.993
 -1.287 -1.619 3.997
 -1.275 -1.62 4.003
 -1.262 -1.619 4.004
 -1.251 -1.621 4.011
 -1.241 -1.625 4.025
 -1.227 -1.624 4.025
 -1.214 -1.623 4.026
 -1.203 -1.625 4.033
 -1.193 -1.629 4.047
 -1.18 -1.628 4.049
 -1.168 -1.63 4.055
 -1.154 -1.628 4.055
 -1.142 -1.629 4.059
 -1.126 -1.624 4.05
 -1.113 -1.624 4.053
 -1.1 -1.623 4.052
 -1.088 -1.624 4.058
 -1.074 -1.621 4.054
 -1.06 -1.62 4.054
 -1.047 -1.619 4.054
 -1.035 -1.62 4.058
 -1.022 -1.619 4.06
 -1.01 -1.621 4.066
 -0.999 -1.623 4.075
 -0.984 -1.619 4.066
 -0.971 -1.619 4.07
 -0.958 -1.618 4.07
 -0.946 -1.619 4.075
 -0.933 -1.619 4.076
 -0.921 -1.62 4.081
 -0.909 -1.621 4.086
 -0.897 -1.622 4.091
 -0.884 -1.622 4.093
 -0.871 -1.621 4.092
 -0.859 -1.621 4.095
 -0.846 -1.621 4.096
 -0.833 -1.62 4.097
 -0.819 -1.618 4.095
 -0.807 -1.618 4.095
 -0.794 -1.618 4.098
 -0.78 -1.615 4.092
 -0.767 -1.614 4.09
 -0.755 -1.615 4.095
 -0.742 -1.615 4.096
 -0.73 -1.615 4.1
 -0.718 -1.618 4.108
 -0.707 -1.621 4.119
 -0.695 -1.622 4.122
 -0.684 -1.625 4.131
 -0.67 -1.624 4.129
 -0.657 -1.623 4.128
 -0.643 -1.618 4.118
 -0.63 -1.616 4.115
 -0.617 -1.616 4.116
 -0.605 -1.617 4.119
 -0.592 -1.617 4.122
 -0.581 -1.62 4.131
 -0.569 -1.622 4.137
 -0.556 -1.622 4.139
 -0.544 -1.624 4.143
 -0.531 -1.622 4.14
 -0.518 -1.62 4.137
 -0.505 -1.618 4.133
 -0.491 -1.616 4.129
 -0.478 -1.614 4.125
 -0.465 -1.613 4.122
 -0.453 -1.613 4.125
 -0.442 -1.618 4.138
 -0.429 -1.616 4.134
 -0.416 -1.616 4.134
 -0.404 -1.618 4.141
 -0.391 -1.618 4.141
 -0.378 -1.614 4.131
 -0.365 -1.614 4.133
 -0.353 -1.613 4.131
 -0.34 -1.611 4.125
 -0.327 -1.611 4.129
 -0.315 -1.614 4.136
 -0.303 -1.616 4.141
 -0.29 -1.614 4.137
 -0.278 -1.616 4.141
 -0.265 -1.614 4.139
 -0.253 -1.613 4.136
 -0.24 -1.612 4.134
 -0.228 -1.616 4.145
 -0.216 -1.617 4.148
 -0.203 -1.618 4.15
 -0.19 -1.617 4.149
 -0.178 -1.62 4.155
 -0.166 -1.619 4.155
 -0.153 -1.621 4.16
 -0.141 -1.62 4.158
 -0.128 -1.619 4.154
 -0.115 -1.62 4.157
 -0.103 -1.619 4.155
 -0.09 -1.614 4.142
 -0.077 -1.613 4.141
 -0.065 -1.614 4.142
 -0.052 -1.612 4.137
 -0.04 -1.609 4.128
 -0.027 -1.61 4.131
 -0.015 -1.611 4.133
 -0.002 -1.612 4.136
 0.009 -1.612 4.138
 0.022 -1.616 4.148
 0.034 -1.619 4.153
 0.047 -1.618 4.151
 0.059 -1.616 4.146
 0.072 -1.617 4.147
 0.084 -1.617 4.148
 0.097 -1.619 4.151
 0.109 -1.617 4.147
 0.122 -1.617 4.146
 0.134 -1.615 4.14
 0.147 -1.615 4.141
 0.159 -1.61 4.127
 0.171 -1.61 4.126
 0.184 -1.61 4.126
 0.196 -1.613 4.133
 0.209 -1.611 4.127
 0.221 -1.612 4.129
 0.234 -1.614 4.132
 0.246 -1.614 4.134
 0.259 -1.612 4.126
 0.27 -1.609 4.117
 0.283 -1.612 4.125
 0.296 -1.613 4.126
 0.309 -1.614 4.129
 0.322 -1.615 4.131
 0.335 -1.619 4.139
 0.347 -1.617 4.132
 0.359 -1.616 4.129
 0.371 -1.613 4.122
 0.384 -1.614 4.121
 0.396 -1.612 4.115
 0.408 -1.611 4.111
 0.42 -1.61 4.108
 0.433 -1.613 4.114
 0.445 -1.611 4.107
 0.458 -1.613 4.112
 0.471 -1.615 4.117
 0.484 -1.617 4.119
 0.496 -1.615 4.114
 0.509 -1.618 4.118
 0.522 -1.619 4.12
 0.535 -1.619 4.12
 0.547 -1.618 4.113
 0.559 -1.617 4.11
 0.571 -1.615 4.105
 0.583 -1.614 4.099
 0.594 -1.611 4.089
 0.609 -1.616 4.102
 0.621 -1.616 4.101
 0.634 -1.616 4.098
 0.646 -1.615 4.094
 0.66 -1.619 4.102
 0.672 -1.618 4.098
 0.685 -1.619 4.097
 0.698 -1.622 4.103
 0.713 -1.627 4.113
 0.724 -1.624 4.104
 0.737 -1.624 4.101
 0.75 -1.625 4.102
 0.761 -1.623 4.095
 0.772 -1.62 4.085
 0.786 -1.621 4.087
 0.798 -1.62 4.081
 0.81 -1.62 4.08
 0.824 -1.622 4.082
 0.837 -1.624 4.084
 0.85 -1.625 4.085
 0.863 -1.626 4.084
 0.875 -1.625 4.08
 0.889 -1.627 4.081
 0.901 -1.626 4.078
 0.914 -1.628 4.079
 0.928 -1.63 4.081
 0.94 -1.63 4.078
 0.951 -1.626 4.067
 0.965 -1.628 4.069
 0.977 -1.629 4.068
 0.989 -1.628 4.062
 1.002 -1.627 4.058
 1.014 -1.627 4.056
 1.026 -1.627 4.052
 1.037 -1.623 4.04
 1.05 -1.625 4.04
 1.064 -1.627 4.042
 1.078 -1.629 4.045
 1.09 -1.629 4.042
 1.103 -1.629 4.039
 1.114 -1.627 4.03
 1.126 -1.626 4.025
 1.138 -1.626 4.022
 1.151 -1.626 4.019
 1.164 -1.627 4.017
 1.177 -1.628 4.017
 1.191 -1.629 4.017
 1.204 -1.63 4.015
 1.216 -1.63 4.011
 1.229 -1.63 4.008
 1.242 -1.63 4.005
 1.252 -1.627 3.993
 1.264 -1.627 3.991
 1.279 -1.63 3.993
 1.293 -1.632 3.996
 1.308 -1.635 3.997
 1.326 -1.642 4.012
 1.34 -1.643 4.011
 1.349 -1.639 3.997
 1.362 -1.639 3.993
 1.375 -1.64 3.99
 1.383 -1.635 3.974
 1.393 -1.632 3.963
 1.408 -1.634 3.965
 1.419 -1.633 3.958
 1.428 -1.629 3.944
 1.442 -1.63 3.942
 1.456 -1.632 3.942
 1.469 -1.632 3.938
 1.483 -1.635 3.94
 1.497 -1.636 3.94
 1.511 -1.637 3.938
 1.524 -1.638 3.934
 1.534 -1.635 3.924
 1.546 -1.634 3.917
 1.557 -1.633 3.91
 1.568 -1.632 3.902
 1.578 -1.628 3.889
 1.592 -1.631 3.89
 1.605 -1.631 3.885
 1.614 -1.627 3.872
 1.626 -1.626 3.865
 1.638 -1.627 3.861
 1.65 -1.626 3.854
 1.661 -1.624 3.846
 1.675 -1.626 3.845
 1.689 -1.627 3.842
 1.7 -1.626 3.835
 1.711 -1.625 3.826
 1.722 -1.623 3.818
 1.737 -1.626 3.818
 1.75 -1.626 3.814
 1.765 -1.629 3.815
 1.779 -1.63 3.813
 1.793 -1.631 3.81
 1.803 -1.629 3.8
 1.817 -1.631 3.798
 1.828 -1.63 3.79
 1.838 -1.627 3.779
 1.85 -1.626 3.771
 1.858 -1.623 3.758
 1.858 -1.612 3.726
 1.862 -1.605 3.705
 1.866 -1.598 3.683
 1.864 -1.585 3.648
 1.864 -1.576 3.621
 1.867 -1.568 3.596
 1.864 -1.555 3.562
 1.859 -1.541 3.524
 1.862 -1.534 3.502
 1.864 -1.526 3.479
 1.866 -1.519 3.455
 1.873 -1.515 3.44
 1.881 -1.512 3.428
 1.881 -1.502 3.401
 1.887 -1.498 3.385
 1.865 -1.472 3.321
 1.832 -1.437 3.237
 1.807 -1.409 3.167
 1.811 -1.404 3.15
 1.82 -1.403 3.141
 1.832 -1.403 3.138
 1.84 -1.402 3.129
 1.843 -1.396 3.109
 1.843 -1.388 3.086
 1.842 -1.379 3.061
 1.832 -1.364 3.021
 1.826 -1.352 2.988
 1.76 -1.296 2.859
 1.831 -1.34 2.952
 -2.252 -1.654 3.765
 0 0 0
 -2.196 -1.631 3.726
 -2.182 -1.631 3.732
 -2.17 -1.632 3.74
 -2.159 -1.633 3.749
 -2.146 -1.633 3.755
 -2.137 -1.636 3.768
 -2.125 -1.636 3.775
 -2.113 -1.637 3.783
 -2.1 -1.638 3.79
 -2.089 -1.638 3.798
 -2.078 -1.64 3.809
 -2.064 -1.639 3.812
 -2.049 -1.638 3.814
 -2.031 -1.634 3.811
 -2.013 -1.63 3.807
 -1.993 -1.624 3.8
 -1.979 -1.623 3.802
 -1.964 -1.621 3.804
 -1.958 -1.627 3.823
 -1.948 -1.629 3.834
 -1.938 -1.631 3.845
 -1.926 -1.632 3.853
 -1.913 -1.632 3.859
 -1.899 -1.632 3.862
 -1.888 -1.633 3.871
 -1.877 -1.635 3.88
 -1.865 -1.635 3.886
 -1.855 -1.638 3.899
 -1.84 -1.637 3.9
 -1.824 -1.634 3.899
 -1.812 -1.634 3.905
 -1.798 -1.633 3.908
 -1.782 -1.631 3.907
 -1.77 -1.631 3.912
 -1.757 -1.631 3.917
 -1.741 -1.628 3.915
 -1.728 -1.629 3.921
 -1.713 -1.626 3.92
 -1.702 -1.628 3.93
 -1.692 -1.63 3.939
 -1.677 -1.629 3.941
 -1.665 -1.629 3.947
 -1.652 -1.629 3.951
 -1.637 -1.627 3.95
 -1.621 -1.624 3.948
 -1.612 -1.628 3.961
 -1.6 -1.629 3.967
 -1.587 -1.629 3.972
 -1.572 -1.627 3.971
 -1.56 -1.627 3.975
 -1.545 -1.625 3.974
 -1.53 -1.623 3.974
 -1.515 -1.621 3.973
 -1.504 -1.622 3.98
 -1.491 -1.622 3.984
 -1.477 -1.62 3.984
 -1.464 -1.62 3.987
 -1.454 -1.624 4
 -1.442 -1.625 4.007
 -1.43 -1.625 4.011
 -1.417 -1.625 4.014
 -1.403 -1.624 4.015
 -1.39 -1.624 4.019
 -1.376 -1.622 4.018
 -1.363 -1.622 4.022
 -1.351 -1.622 4.027
 -1.337 -1.621 4.026
 -1.321 -1.617 4.022
 -1.307 -1.615 4.019
 -1.293 -1.614 4.021
 -1.281 -1.615 4.027
 -1.27 -1.617 4.033
 -1.257 -1.616 4.036
 -1.245 -1.618 4.043
 -1.233 -1.618 4.048
 -1.219 -1.616 4.046
 -1.206 -1.617 4.05
 -1.197 -1.622 4.066
 -1.185 -1.623 4.071
 -1.171 -1.622 4.071
 -1.159 -1.623 4.077
 -1.148 -1.625 4.086
 -1.133 -1.621 4.08
 -1.12 -1.622 4.083
 -1.108 -1.621 4.086
 -1.095 -1.622 4.091
 -1.08 -1.618 4.084
 -1.066 -1.617 4.082
 -1.053 -1.615 4.081
 -1.04 -1.615 4.082
 -1.026 -1.613 4.081
 -1.014 -1.614 4.086
 -1.002 -1.615 4.092
 -0.987 -1.612 4.086
 -0.976 -1.614 4.093
 -0.963 -1.614 4.097
 -0.951 -1.616 4.102
 -0.939 -1.617 4.108
 -0.928 -1.62 4.117
 -0.916 -1.62 4.121
 -0.904 -1.621 4.126
 -0.891 -1.621 4.127
 -0.877 -1.619 4.123
 -0.863 -1.617 4.122
 -0.85 -1.616 4.121
 -0.837 -1.615 4.12
 -0.824 -1.614 4.12
 -0.811 -1.614 4.122
 -0.799 -1.616 4.13
 -0.785 -1.613 4.124
 -0.771 -1.611 4.119
 -0.759 -1.611 4.121
 -0.745 -1.609 4.118
 -0.733 -1.61 4.122
 -0.722 -1.613 4.132
 -0.71 -1.616 4.141
 -0.698 -1.617 4.146
 -0.687 -1.621 4.158
 -0.674 -1.62 4.156
 -0.661 -1.62 4.158
 -0.647 -1.617 4.151
 -0.634 -1.614 4.146
 -0.621 -1.613 4.145
 -0.608 -1.614 4.149
 -0.595 -1.613 4.148
 -0.584 -1.617 4.159
 -0.572 -1.618 4.163
 -0.559 -1.618 4.165
 -0.547 -1.619 4.167
 -0.534 -1.618 4.167
 -0.52 -1.614 4.158
 -0.506 -1.612 4.153
 -0.493 -1.61 4.15
 -0.48 -1.606 4.141
 -0.467 -1.606 4.142
 -0.455 -1.607 4.145
 -0.444 -1.613 4.161
 -0.431 -1.612 4.16
 -0.419 -1.614 4.167
 -0.406 -1.614 4.168
 -0.394 -1.616 4.172
 -0.381 -1.613 4.166
 -0.368 -1.613 4.167
 -0.355 -1.611 4.161
 -0.342 -1.608 4.156
 -0.329 -1.61 4.16
 -0.317 -1.611 4.164
 -0.305 -1.611 4.166
 -0.292 -1.611 4.165
 -0.279 -1.612 4.169
 -0.267 -1.61 4.164
 -0.254 -1.608 4.159
 -0.241 -1.606 4.155
 -0.229 -1.61 4.165
 -0.216 -1.609 4.162
 -0.204 -1.61 4.167
 -0.191 -1.609 4.165
 -0.179 -1.612 4.172
 -0.166 -1.611 4.171
 -0.154 -1.614 4.178
 -0.141 -1.613 4.177
 -0.128 -1.613 4.175
 -0.116 -1.615 4.181
 -0.103 -1.614 4.18
 -0.09 -1.612 4.173
 -0.078 -1.611 4.171
 -0.065 -1.612 4.172
 -0.053 -1.609 4.166
 -0.04 -1.606 4.159
 -0.027 -1.606 4.158
 -0.015 -1.607 4.16
 -0.002 -1.607 4.16
 0.009 -1.609 4.165
 0.022 -1.611 4.171
 0.034 -1.614 4.177
 0.047 -1.613 4.175
 0.06 -1.611 4.17
 0.072 -1.61 4.167
 0.085 -1.611 4.168
 0.097 -1.611 4.168
 0.11 -1.609 4.162
 0.122 -1.609 4.164
 0.135 -1.608 4.159
 0.147 -1.608 4.159
 0.159 -1.605 4.15
 0.172 -1.605 4.151
 0.185 -1.607 4.154
 0.198 -1.61 4.162
 0.21 -1.609 4.157
 0.223 -1.61 4.161
 0.236 -1.612 4.165
 0.248 -1.612 4.163
 0.26 -1.61 4.158
 0.272 -1.607 4.148
 0.285 -1.61 4.156
 0.298 -1.609 4.153
 0.311 -1.611 4.156
 0.324 -1.613 4.161
 0.337 -1.616 4.169
 0.349 -1.615 4.163
 0.361 -1.613 4.159
 0.374 -1.613 4.156
 0.386 -1.612 4.152
 0.399 -1.611 4.149
 0.41 -1.609 4.142
 0.423 -1.61 4.144
 0.436 -1.611 4.146
 0.448 -1.608 4.136
 0.461 -1.609 4.137
 0.474 -1.612 4.144
 0.487 -1.613 4.144
 0.499 -1.613 4.144
 0.513 -1.617 4.152
 0.527 -1.619 4.157
 0.539 -1.618 4.151
 0.55 -1.615 4.144
 0.562 -1.614 4.138
 0.575 -1.613 4.134
 0.586 -1.609 4.122
 0.599 -1.609 4.122
 0.613 -1.615 4.136
 0.626 -1.615 4.134
 0.637 -1.613 4.126
 0.65 -1.613 4.124
 0.663 -1.615 4.128
 0.676 -1.615 4.125
 0.689 -1.617 4.129
 0.704 -1.622 4.141
 0.719 -1.627 4.151
 0.73 -1.624 4.142
 0.743 -1.624 4.139
 0.756 -1.625 4.14
 0.767 -1.621 4.128
 0.778 -1.619 4.12
 0.792 -1.621 4.122
 0.803 -1.619 4.115
 0.814 -1.616 4.104
 0.828 -1.618 4.107
 0.84 -1.617 4.103
 0.853 -1.618 4.102
 0.866 -1.619 4.104
 0.879 -1.62 4.102
 0.893 -1.622 4.105
 0.905 -1.621 4.101
 0.918 -1.623 4.102
 0.932 -1.623 4.101
 0.944 -1.624 4.099
 0.955 -1.621 4.09
 0.97 -1.625 4.096
 0.984 -1.626 4.098
 0.996 -1.626 4.093
 1.009 -1.626 4.092
 1.021 -1.626 4.088
 1.034 -1.626 4.086
 1.044 -1.622 4.073
 1.058 -1.625 4.076
 1.072 -1.626 4.077
 1.086 -1.628 4.079
 1.099 -1.628 4.077
 1.111 -1.628 4.074
 1.122 -1.626 4.063
 1.134 -1.625 4.058
 1.147 -1.626 4.057
 1.159 -1.625 4.053
 1.173 -1.626 4.052
 1.187 -1.629 4.055
 1.201 -1.63 4.055
 1.214 -1.631 4.054
 1.226 -1.63 4.046
 1.239 -1.63 4.044
 1.251 -1.63 4.039
 1.26 -1.625 4.025
 1.272 -1.624 4.018
 1.287 -1.627 4.022
 1.301 -1.629 4.023
 1.317 -1.633 4.028
 1.336 -1.641 4.044
 1.351 -1.643 4.047
 1.361 -1.64 4.035
 1.372 -1.639 4.027
 1.383 -1.636 4.018
 1.391 -1.631 4.001
 1.401 -1.629 3.99
 1.417 -1.632 3.994
 1.429 -1.631 3.988
 1.44 -1.63 3.98
 1.454 -1.631 3.981
 1.468 -1.633 3.98
 1.48 -1.632 3.975
 1.495 -1.635 3.977
 1.509 -1.636 3.975
 1.52 -1.635 3.966
 1.533 -1.635 3.962
 1.543 -1.632 3.952
 1.555 -1.631 3.944
 1.565 -1.628 3.933
 1.579 -1.63 3.932
 1.589 -1.627 3.92
 1.603 -1.629 3.921
 1.616 -1.629 3.916
 1.628 -1.629 3.91
 1.638 -1.626 3.9
 1.65 -1.626 3.894
 1.663 -1.626 3.889
 1.675 -1.625 3.883
 1.687 -1.625 3.876
 1.703 -1.628 3.879
 1.715 -1.627 3.872
 1.725 -1.625 3.862
 1.736 -1.623 3.853
 1.752 -1.627 3.857
 1.764 -1.626 3.85
 1.78 -1.629 3.851
 1.795 -1.632 3.851
 1.809 -1.633 3.848
 1.818 -1.63 3.836
 1.83 -1.63 3.83
 1.841 -1.628 3.822
 1.847 -1.622 3.801
 1.855 -1.618 3.786
 1.861 -1.613 3.769
 1.859 -1.601 3.734
 1.861 -1.591 3.706
 1.867 -1.586 3.689
 1.863 -1.573 3.652
 1.864 -1.563 3.624
 1.868 -1.557 3.604
 1.867 -1.546 3.573
 1.863 -1.533 3.537
 1.869 -1.528 3.519
 1.873 -1.521 3.499
 1.876 -1.514 3.477
 1.885 -1.512 3.466
 1.893 -1.51 3.455
 1.899 -1.505 3.438
 1.902 -1.498 3.417
 1.881 -1.473 3.353
 1.831 -1.425 3.238
 1.792 -1.387 3.145
 1.802 -1.386 3.139
 1.813 -1.386 3.133
 1.825 -1.387 3.13
 1.836 -1.387 3.125
 1.839 -1.382 3.107
 1.839 -1.374 3.082
 1.839 -1.366 3.059
 1.831 -1.352 3.023
 1.823 -1.339 2.987
 1.809 -1.322 2.943
 1.859 -1.35 3.001
 -2.226 -1.622 3.726
 -2.24 -1.642 3.778
 -2.215 -1.633 3.765
 -2.201 -1.632 3.768
 -2.19 -1.634 3.779
 -2.172 -1.63 3.777
 -2.158 -1.629 3.781
 -2.148 -1.631 3.793
 -2.134 -1.631 3.797
 -2.123 -1.632 3.806
 -2.113 -1.635 3.819
 -2.099 -1.634 3.823
 -2.088 -1.635 3.832
 -2.073 -1.634 3.834
 -2.056 -1.631 3.833
 -2.037 -1.626 3.827
 -2.022 -1.624 3.83
 -2.003 -1.62 3.824
 -1.991 -1.62 3.831
 -1.979 -1.621 3.838
 -1.969 -1.624 3.851
 -1.958 -1.625 3.859
 -1.948 -1.628 3.872
 -1.937 -1.629 3.88
 -1.923 -1.628 3.884
 -1.911 -1.629 3.892
 -1.9 -1.63 3.9
 -1.888 -1.631 3.908
 -1.875 -1.631 3.913
 -1.864 -1.633 3.923
 -1.85 -1.632 3.925
 -1.838 -1.633 3.932
 -1.825 -1.633 3.939
 -1.811 -1.632 3.94
 -1.795 -1.63 3.94
 -1.783 -1.631 3.948
 -1.768 -1.629 3.947
 -1.752 -1.626 3.946
 -1.739 -1.625 3.949
 -1.724 -1.624 3.95
 -1.712 -1.625 3.958
 -1.7 -1.626 3.964
 -1.685 -1.624 3.964
 -1.673 -1.625 3.971
 -1.662 -1.626 3.979
 -1.647 -1.624 3.978
 -1.633 -1.623 3.98
 -1.623 -1.627 3.994
 -1.613 -1.629 4.003
 -1.6 -1.629 4.009
 -1.586 -1.628 4.011
 -1.572 -1.627 4.013
 -1.559 -1.627 4.017
 -1.544 -1.625 4.015
 -1.529 -1.622 4.013
 -1.515 -1.621 4.013
 -1.502 -1.622 4.02
 -1.488 -1.619 4.018
 -1.473 -1.618 4.019
 -1.463 -1.621 4.029
 -1.453 -1.624 4.041
 -1.44 -1.624 4.045
 -1.426 -1.622 4.045
 -1.412 -1.622 4.047
 -1.4 -1.622 4.052
 -1.385 -1.619 4.049
 -1.371 -1.618 4.049
 -1.359 -1.62 4.057
 -1.346 -1.619 4.059
 -1.33 -1.616 4.054
 -1.317 -1.615 4.055
 -1.302 -1.613 4.054
 -1.29 -1.614 4.059
 -1.279 -1.615 4.066
 -1.265 -1.614 4.067
 -1.252 -1.614 4.071
 -1.242 -1.617 4.081
 -1.227 -1.614 4.077
 -1.213 -1.613 4.076
 -1.205 -1.619 4.096
 -1.193 -1.621 4.105
 -1.179 -1.619 4.101
 -1.166 -1.62 4.106
 -1.156 -1.623 4.118
 -1.141 -1.619 4.112
 -1.126 -1.618 4.11
 -1.113 -1.617 4.112
 -1.101 -1.618 4.116
 -1.085 -1.614 4.108
 -1.072 -1.612 4.108
 -1.059 -1.612 4.109
 -1.047 -1.613 4.115
 -1.033 -1.611 4.113
 -1.02 -1.611 4.115
 -1.007 -1.611 4.116
 -0.993 -1.609 4.116
 -0.98 -1.609 4.118
 -0.968 -1.61 4.121
 -0.956 -1.611 4.127
 -0.944 -1.612 4.133
 -0.932 -1.614 4.139
 -0.92 -1.614 4.143
 -0.908 -1.617 4.152
 -0.896 -1.617 4.155
 -0.882 -1.616 4.154
 -0.869 -1.616 4.155
 -0.856 -1.614 4.154
 -0.842 -1.612 4.151
 -0.829 -1.611 4.15
 -0.816 -1.612 4.155
 -0.805 -1.615 4.163
 -0.791 -1.612 4.157
 -0.777 -1.61 4.154
 -0.764 -1.61 4.155
 -0.75 -1.608 4.152
 -0.738 -1.607 4.153
 -0.727 -1.611 4.165
 -0.714 -1.611 4.167
 -0.702 -1.613 4.173
 -0.691 -1.616 4.183
 -0.677 -1.614 4.18
 -0.665 -1.615 4.184
 -0.652 -1.616 4.187
 -0.638 -1.612 4.179
 -0.625 -1.611 4.178
 -0.613 -1.613 4.183
 -0.6 -1.612 4.182
 -0.587 -1.613 4.185
 -0.575 -1.616 4.195
 -0.563 -1.617 4.198
 -0.55 -1.617 4.201
 -0.537 -1.615 4.197
 -0.523 -1.612 4.19
 -0.509 -1.608 4.182
 -0.496 -1.605 4.174
 -0.482 -1.603 4.169
 -0.47 -1.603 4.171
 -0.457 -1.602 4.169
 -0.445 -1.607 4.182
 -0.433 -1.606 4.182
 -0.42 -1.607 4.185
 -0.408 -1.608 4.189
 -0.396 -1.61 4.195
 -0.383 -1.609 4.193
 -0.37 -1.609 4.195
 -0.357 -1.606 4.187
 -0.343 -1.604 4.183
 -0.331 -1.606 4.188
 -0.319 -1.606 4.189
 -0.306 -1.608 4.193
 -0.293 -1.607 4.194
 -0.281 -1.607 4.193
 -0.268 -1.605 4.188
 -0.255 -1.603 4.185
 -0.242 -1.6 4.177
 -0.23 -1.603 4.186
 -0.217 -1.605 4.19
 -0.205 -1.607 4.195
 -0.192 -1.607 4.197
 -0.18 -1.609 4.203
 -0.167 -1.608 4.201
 -0.154 -1.609 4.202
 -0.141 -1.608 4.199
 -0.129 -1.606 4.195
 -0.116 -1.608 4.199
 -0.103 -1.607 4.198
 -0.091 -1.604 4.19
 -0.078 -1.603 4.187
 -0.065 -1.603 4.188
 -0.053 -1.602 4.185
 -0.04 -1.601 4.183
 -0.028 -1.602 4.185
 -0.015 -1.603 4.187
 -0.002 -1.604 4.189
 0.009 -1.605 4.192
 0.022 -1.606 4.195
 0.035 -1.609 4.202
 0.047 -1.608 4.199
 0.06 -1.607 4.197
 0.073 -1.606 4.194
 0.085 -1.605 4.192
 0.098 -1.605 4.19
 0.11 -1.604 4.186
 0.123 -1.602 4.182
 0.135 -1.601 4.178
 0.148 -1.602 4.18
 0.16 -1.6 4.175
 0.173 -1.6 4.174
 0.186 -1.602 4.179
 0.198 -1.604 4.183
 0.211 -1.604 4.182
 0.224 -1.603 4.18
 0.237 -1.607 4.189
 0.249 -1.608 4.19
 0.262 -1.608 4.189
 0.274 -1.604 4.178
 0.287 -1.607 4.185
 0.299 -1.603 4.173
 0.312 -1.604 4.175
 0.325 -1.605 4.178
 0.338 -1.61 4.189
 0.35 -1.607 4.182
 0.363 -1.607 4.179
 0.375 -1.606 4.177
 0.388 -1.606 4.174
 0.4 -1.605 4.17
 0.412 -1.603 4.164
 0.425 -1.604 4.165
 0.438 -1.603 4.162
 0.449 -1.6 4.153
 0.462 -1.601 4.155
 0.476 -1.605 4.164
 0.489 -1.607 4.167
 0.502 -1.609 4.171
 0.516 -1.613 4.178
 0.529 -1.615 4.183
 0.542 -1.614 4.179
 0.554 -1.612 4.172
 0.566 -1.609 4.164
 0.578 -1.61 4.165
 0.59 -1.607 4.153
 0.603 -1.608 4.155
 0.617 -1.612 4.165
 0.63 -1.612 4.162
 0.64 -1.607 4.148
 0.653 -1.607 4.146
 0.665 -1.607 4.143
 0.679 -1.608 4.146
 0.693 -1.612 4.153
 0.708 -1.617 4.165
 0.722 -1.622 4.175
 0.735 -1.622 4.172
 0.747 -1.62 4.167
 0.76 -1.62 4.163
 0.77 -1.616 4.15
 0.782 -1.614 4.144
 0.796 -1.617 4.148
 0.808 -1.615 4.141
 0.82 -1.615 4.138
 0.834 -1.616 4.14
 0.845 -1.613 4.13
 0.857 -1.613 4.127
 0.871 -1.615 4.129
 0.883 -1.613 4.122
 0.898 -1.617 4.13
 0.911 -1.619 4.132
 0.923 -1.618 4.128
 0.936 -1.619 4.127
 0.949 -1.619 4.123
 0.96 -1.616 4.113
 0.974 -1.619 4.119
 0.989 -1.622 4.124
 1.001 -1.622 4.12
 1.016 -1.624 4.124
 1.029 -1.625 4.122
 1.04 -1.623 4.115
 1.052 -1.622 4.108
 1.066 -1.624 4.11
 1.078 -1.622 4.103
 1.091 -1.623 4.103
 1.105 -1.625 4.105
 1.117 -1.624 4.099
 1.129 -1.623 4.092
 1.142 -1.623 4.091
 1.156 -1.626 4.093
 1.167 -1.623 4.084
 1.18 -1.624 4.082
 1.193 -1.624 4.08
 1.207 -1.626 4.079
 1.22 -1.626 4.077
 1.232 -1.626 4.073
 1.247 -1.628 4.075
 1.26 -1.628 4.072
 1.27 -1.625 4.059
 1.28 -1.622 4.05
 1.296 -1.626 4.054
 1.309 -1.626 4.051
 1.324 -1.629 4.056
 1.343 -1.637 4.071
 1.358 -1.64 4.074
 1.369 -1.637 4.063
 1.381 -1.637 4.059
 1.393 -1.635 4.051
 1.401 -1.63 4.035
 1.413 -1.629 4.027
 1.427 -1.631 4.028
 1.44 -1.631 4.024
 1.452 -1.63 4.018
 1.467 -1.632 4.019
 1.48 -1.633 4.017
 1.492 -1.632 4.009
 1.506 -1.633 4.009
 1.518 -1.633 4.003
 1.529 -1.631 3.994
 1.541 -1.63 3.986
 1.552 -1.629 3.979
 1.563 -1.627 3.969
 1.573 -1.624 3.959
 1.586 -1.624 3.955
 1.599 -1.624 3.95
 1.614 -1.627 3.952
 1.626 -1.627 3.946
 1.64 -1.628 3.943
 1.652 -1.627 3.936
 1.664 -1.626 3.931
 1.676 -1.626 3.924
 1.69 -1.627 3.922
 1.701 -1.625 3.913
 1.716 -1.628 3.913
 1.727 -1.626 3.905
 1.74 -1.626 3.9
 1.749 -1.623 3.888
 1.765 -1.626 3.889
 1.777 -1.626 3.883
 1.792 -1.628 3.883
 1.805 -1.628 3.877
 1.819 -1.629 3.874
 1.83 -1.627 3.865
 1.84 -1.625 3.855
 1.848 -1.621 3.84
 1.853 -1.614 3.818
 1.86 -1.61 3.801
 1.864 -1.603 3.779
 1.863 -1.591 3.746
 1.865 -1.582 3.719
 1.871 -1.577 3.702
 1.867 -1.564 3.665
 1.866 -1.553 3.632
 1.871 -1.547 3.613
 1.872 -1.538 3.586
 1.867 -1.524 3.549
 1.872 -1.519 3.53
 1.88 -1.515 3.517
 1.882 -1.508 3.493
 1.893 -1.507 3.486
 1.904 -1.506 3.478
 1.918 -1.508 3.477
 1.925 -1.504 3.463
 0 0 0
 0 0 0
 1.771 -1.36 3.111
 1.791 -1.367 3.123
 1.802 -1.367 3.119
 1.813 -1.368 3.114
 1.826 -1.37 3.113
 1.832 -1.366 3.099
 1.834 -1.36 3.079
 1.836 -1.354 3.059
 1.832 -1.342 3.028
 1.825 -1.33 2.995
 1.816 -1.316 2.957
 1.813 -1.307 2.931
 -2.275 -1.644 3.813
 -2.239 -1.628 3.782
 -2.228 -1.63 3.792
 -2.215 -1.629 3.798
 -2.204 -1.631 3.808
 -2.188 -1.629 3.81
 -2.175 -1.629 3.817
 -2.163 -1.63 3.824
 -2.148 -1.628 3.826
 -2.136 -1.629 3.836
 -2.125 -1.631 3.846
 -2.111 -1.63 3.849
 -2.101 -1.632 3.86
 -2.087 -1.632 3.865
 -2.072 -1.63 3.867
 -2.053 -1.625 3.862
 -2.04 -1.626 3.868
 -2.018 -1.619 3.858
 -2.004 -1.618 3.861
 -1.991 -1.618 3.867
 -1.98 -1.619 3.876
 -1.968 -1.62 3.884
 -1.96 -1.624 3.899
 -1.948 -1.625 3.908
 -1.934 -1.624 3.91
 -1.922 -1.625 3.918
 -1.908 -1.624 3.921
 -1.896 -1.625 3.929
 -1.885 -1.627 3.939
 -1.874 -1.629 3.95
 -1.861 -1.629 3.954
 -1.853 -1.633 3.97
 -1.84 -1.633 3.975
 -1.823 -1.63 3.973
 -1.808 -1.629 3.974
 -1.796 -1.629 3.98
 -1.779 -1.626 3.976
 -1.765 -1.625 3.979
 -1.752 -1.625 3.985
 -1.738 -1.624 3.987
 -1.727 -1.626 3.996
 -1.713 -1.625 3.999
 -1.698 -1.623 3.999
 -1.686 -1.624 4.006
 -1.675 -1.626 4.015
 -1.66 -1.625 4.017
 -1.648 -1.625 4.022
 -1.637 -1.627 4.032
 -1.625 -1.628 4.038
 -1.612 -1.628 4.043
 -1.598 -1.627 4.045
 -1.583 -1.625 4.044
 -1.569 -1.624 4.047
 -1.555 -1.623 4.048
 -1.54 -1.621 4.046
 -1.525 -1.619 4.045
 -1.513 -1.62 4.053
 -1.5 -1.62 4.056
 -1.485 -1.617 4.054
 -1.473 -1.619 4.063
 -1.462 -1.621 4.07
 -1.448 -1.62 4.073
 -1.434 -1.618 4.072
 -1.421 -1.619 4.078
 -1.408 -1.619 4.081
 -1.393 -1.616 4.078
 -1.38 -1.617 4.083
 -1.369 -1.619 4.092
 -1.355 -1.617 4.091
 -1.34 -1.614 4.088
 -1.326 -1.614 4.09
 -1.312 -1.612 4.088
 -1.299 -1.612 4.093
 -1.287 -1.614 4.1
 -1.274 -1.613 4.102
 -1.26 -1.612 4.102
 -1.248 -1.613 4.109
 -1.233 -1.61 4.104
 -1.22 -1.61 4.106
 -1.21 -1.614 4.119
 -1.199 -1.616 4.129
 -1.185 -1.615 4.128
 -1.173 -1.616 4.134
 -1.162 -1.619 4.144
 -1.147 -1.616 4.14
 -1.134 -1.616 4.143
 -1.121 -1.615 4.143
 -1.107 -1.613 4.142
 -1.09 -1.608 4.131
 -1.077 -1.607 4.132
 -1.063 -1.606 4.132
 -1.051 -1.608 4.138
 -1.039 -1.608 4.143
 -1.026 -1.609 4.146
 -1.014 -1.609 4.149
 -1 -1.608 4.149
 -0.987 -1.607 4.15
 -0.974 -1.607 4.152
 -0.962 -1.608 4.157
 -0.949 -1.608 4.159
 -0.937 -1.61 4.166
 -0.924 -1.609 4.168
 -0.912 -1.611 4.174
 -0.9 -1.612 4.178
 -0.887 -1.612 4.182
 -0.873 -1.611 4.18
 -0.861 -1.612 4.185
 -0.848 -1.611 4.184
 -0.834 -1.61 4.184
 -0.822 -1.611 4.188
 -0.81 -1.613 4.196
 -0.796 -1.609 4.188
 -0.782 -1.608 4.187
 -0.769 -1.607 4.187
 -0.755 -1.604 4.181
 -0.741 -1.603 4.179
 -0.73 -1.605 4.186
 -0.716 -1.603 4.184
 -0.704 -1.604 4.188
 -0.692 -1.607 4.196
 -0.679 -1.607 4.198
 -0.667 -1.609 4.204
 -0.656 -1.612 4.213
 -0.642 -1.61 4.21
 -0.629 -1.609 4.21
 -0.616 -1.61 4.213
 -0.603 -1.608 4.209
 -0.59 -1.607 4.208
 -0.578 -1.61 4.217
 -0.565 -1.61 4.219
 -0.552 -1.61 4.219
 -0.539 -1.609 4.219
 -0.525 -1.606 4.213
 -0.511 -1.602 4.203
 -0.498 -1.599 4.196
 -0.484 -1.597 4.192
 -0.472 -1.597 4.194
 -0.459 -1.597 4.194
 -0.447 -1.599 4.2
 -0.434 -1.601 4.205
 -0.422 -1.602 4.21
 -0.409 -1.602 4.212
 -0.397 -1.605 4.22
 -0.385 -1.606 4.222
 -0.371 -1.603 4.215
 -0.358 -1.6 4.208
 -0.345 -1.599 4.207
 -0.332 -1.6 4.209
 -0.32 -1.599 4.208
 -0.307 -1.602 4.216
 -0.295 -1.601 4.216
 -0.282 -1.601 4.216
 -0.269 -1.6 4.212
 -0.256 -1.598 4.209
 -0.243 -1.595 4.201
 -0.231 -1.599 4.211
 -0.218 -1.599 4.211
 -0.205 -1.6 4.216
 -0.193 -1.6 4.215
 -0.18 -1.601 4.218
 -0.167 -1.599 4.213
 -0.154 -1.599 4.214
 -0.142 -1.597 4.208
 -0.129 -1.597 4.209
 -0.116 -1.598 4.212
 -0.104 -1.597 4.208
 -0.091 -1.594 4.202
 -0.078 -1.596 4.206
 -0.066 -1.596 4.206
 -0.053 -1.595 4.203
 -0.04 -1.596 4.207
 -0.028 -1.597 4.208
 -0.015 -1.596 4.207
 -0.002 -1.595 4.204
 0.009 -1.596 4.207
 0.022 -1.596 4.206
 0.035 -1.599 4.214
 0.047 -1.598 4.211
 0.06 -1.599 4.212
 0.073 -1.599 4.211
 0.085 -1.598 4.208
 0.098 -1.596 4.204
 0.111 -1.596 4.202
 0.123 -1.595 4.201
 0.136 -1.594 4.198
 0.149 -1.596 4.202
 0.161 -1.594 4.197
 0.174 -1.594 4.195
 0.186 -1.594 4.195
 0.199 -1.597 4.202
 0.212 -1.596 4.199
 0.224 -1.596 4.198
 0.238 -1.6 4.208
 0.251 -1.602 4.212
 0.263 -1.6 4.207
 0.275 -1.597 4.197
 0.288 -1.601 4.206
 0.3 -1.596 4.192
 0.313 -1.596 4.193
 0.326 -1.6 4.203
 0.34 -1.604 4.211
 0.352 -1.601 4.201
 0.365 -1.601 4.202
 0.377 -1.601 4.201
 0.389 -1.599 4.194
 0.402 -1.6 4.194
 0.415 -1.599 4.191
 0.427 -1.599 4.19
 0.44 -1.598 4.187
 0.452 -1.596 4.18
 0.464 -1.596 4.179
 0.478 -1.599 4.185
 0.492 -1.602 4.192
 0.504 -1.602 4.19
 0.517 -1.603 4.192
 0.531 -1.605 4.195
 0.543 -1.605 4.193
 0.555 -1.604 4.188
 0.568 -1.603 4.185
 0.581 -1.605 4.189
 0.593 -1.603 4.18
 0.606 -1.604 4.182
 0.62 -1.607 4.189
 0.633 -1.607 4.186
 0.644 -1.603 4.174
 0.657 -1.604 4.174
 0.669 -1.603 4.17
 0.682 -1.604 4.172
 0.696 -1.607 4.176
 0.71 -1.61 4.183
 0.724 -1.613 4.19
 0.737 -1.613 4.187
 0.75 -1.613 4.184
 0.762 -1.612 4.18
 0.774 -1.611 4.174
 0.786 -1.609 4.168
 0.8 -1.612 4.173
 0.812 -1.61 4.165
 0.825 -1.61 4.164
 0.837 -1.611 4.163
 0.849 -1.607 4.152
 0.861 -1.607 4.149
 0.875 -1.61 4.153
 0.887 -1.609 4.148
 0.902 -1.612 4.154
 0.916 -1.615 4.159
 0.928 -1.614 4.154
 0.941 -1.613 4.15
 0.954 -1.615 4.151
 0.966 -1.614 4.145
 0.981 -1.617 4.152
 0.996 -1.62 4.156
 1.008 -1.619 4.151
 1.021 -1.62 4.15
 1.033 -1.618 4.143
 1.045 -1.618 4.138
 1.057 -1.617 4.134
 1.073 -1.621 4.14
 1.085 -1.621 4.137
 1.099 -1.622 4.138
 1.111 -1.621 4.131
 1.123 -1.619 4.124
 1.135 -1.618 4.117
 1.148 -1.618 4.115
 1.162 -1.62 4.116
 1.175 -1.621 4.116
 1.188 -1.622 4.114
 1.2 -1.62 4.106
 1.213 -1.621 4.105
 1.227 -1.622 4.105
 1.24 -1.622 4.101
 1.254 -1.624 4.102
 1.267 -1.624 4.099
 1.278 -1.622 4.089
 1.288 -1.619 4.079
 1.302 -1.621 4.078
 1.316 -1.622 4.078
 1.331 -1.625 4.082
 1.348 -1.63 4.091
 1.363 -1.633 4.094
 1.375 -1.632 4.088
 1.387 -1.631 4.081
 1.399 -1.63 4.075
 1.409 -1.627 4.063
 1.421 -1.626 4.056
 1.435 -1.627 4.055
 1.449 -1.628 4.053
 1.462 -1.628 4.05
 1.477 -1.631 4.052
 1.491 -1.632 4.05
 1.503 -1.631 4.044
 1.517 -1.632 4.042
 1.529 -1.632 4.036
 1.539 -1.629 4.025
 1.551 -1.627 4.017
 1.562 -1.626 4.008
 1.572 -1.623 3.997
 1.585 -1.623 3.992
 1.597 -1.623 3.988
 1.611 -1.624 3.985
 1.628 -1.628 3.99
 1.64 -1.627 3.983
 1.652 -1.626 3.977
 1.665 -1.627 3.973
 1.678 -1.627 3.967
 1.69 -1.626 3.961
 1.703 -1.627 3.957
 1.713 -1.624 3.945
 1.726 -1.624 3.941
 1.737 -1.622 3.931
 1.75 -1.622 3.926
 1.761 -1.621 3.917
 1.777 -1.625 3.921
 1.79 -1.625 3.916
 1.806 -1.628 3.918
 1.817 -1.626 3.908
 1.83 -1.626 3.903
 1.84 -1.623 3.891
 1.848 -1.62 3.877
 1.853 -1.613 3.854
 1.857 -1.605 3.831
 1.863 -1.6 3.813
 1.865 -1.591 3.785
 1.864 -1.579 3.752
 1.867 -1.572 3.729
 1.873 -1.567 3.71
 1.869 -1.553 3.673
 1.87 -1.544 3.645
 1.876 -1.539 3.627
 1.872 -1.526 3.591
 1.868 -1.513 3.554
 1.872 -1.506 3.534
 1.878 -1.502 3.517
 1.88 -1.494 3.493
 1.894 -1.496 3.491
 1.904 -1.495 3.484
 1.926 -1.503 3.497
 0 0 0
 0 0 0
 0 0 0
 0 0 0
 1.791 -1.356 3.127
 1.806 -1.36 3.129
 1.814 -1.358 3.12
 1.826 -1.358 3.115
 1.834 -1.356 3.106
 1.834 -1.349 3.082
 1.836 -1.342 3.062
 1.835 -1.334 3.038
 1.828 -1.321 3.003
 1.809 -1.301 2.95
 1.796 -1.284 2.907
 0 0 0
 -2.229 -1.608 3.77
 -2.244 -1.628 3.823
 -2.23 -1.627 3.829
 -2.221 -1.63 3.842
 -2.203 -1.627 3.84
 -2.19 -1.627 3.847
 -2.175 -1.626 3.851
 -2.16 -1.625 3.854
 -2.149 -1.626 3.863
 -2.136 -1.626 3.87
 -2.121 -1.625 3.873
 -2.112 -1.628 3.887
 -2.099 -1.628 3.893
 -2.085 -1.627 3.897
 -2.07 -1.626 3.899
 -2.058 -1.627 3.908
 -2.036 -1.62 3.896
 -2.024 -1.621 3.905
 -2.012 -1.621 3.912
 -1.997 -1.62 3.914
 -1.985 -1.621 3.923
 -1.977 -1.625 3.938
 -1.961 -1.623 3.939
 -1.947 -1.623 3.943
 -1.934 -1.622 3.947
 -1.916 -1.619 3.944
 -1.904 -1.619 3.951
 -1.892 -1.621 3.96
 -1.881 -1.622 3.969
 -1.87 -1.624 3.979
 -1.863 -1.629 3.997
 -1.85 -1.629 4.002
 -1.834 -1.627 4.002
 -1.817 -1.623 3.997
 -1.804 -1.623 4.002
 -1.787 -1.62 4
 -1.775 -1.621 4.006
 -1.763 -1.622 4.014
 -1.751 -1.623 4.022
 -1.742 -1.627 4.035
 -1.729 -1.627 4.041
 -1.712 -1.624 4.037
 -1.698 -1.623 4.04
 -1.686 -1.624 4.048
 -1.671 -1.622 4.048
 -1.657 -1.621 4.05
 -1.647 -1.624 4.061
 -1.637 -1.627 4.073
 -1.623 -1.626 4.076
 -1.609 -1.626 4.079
 -1.595 -1.625 4.081
 -1.582 -1.625 4.085
 -1.567 -1.623 4.085
 -1.552 -1.621 4.083
 -1.538 -1.62 4.085
 -1.525 -1.62 4.091
 -1.512 -1.62 4.095
 -1.496 -1.617 4.091
 -1.484 -1.618 4.097
 -1.472 -1.619 4.103
 -1.457 -1.617 4.103
 -1.442 -1.615 4.1
 -1.43 -1.616 4.107
 -1.415 -1.614 4.106
 -1.4 -1.612 4.105
 -1.389 -1.614 4.114
 -1.378 -1.616 4.123
 -1.363 -1.614 4.121
 -1.35 -1.614 4.126
 -1.336 -1.613 4.125
 -1.321 -1.61 4.121
 -1.308 -1.61 4.126
 -1.298 -1.614 4.138
 -1.285 -1.613 4.14
 -1.27 -1.612 4.14
 -1.259 -1.614 4.148
 -1.243 -1.611 4.143
 -1.231 -1.611 4.147
 -1.219 -1.613 4.154
 -1.207 -1.614 4.161
 -1.193 -1.613 4.16
 -1.181 -1.614 4.167
 -1.168 -1.615 4.172
 -1.154 -1.613 4.17
 -1.142 -1.614 4.176
 -1.128 -1.613 4.177
 -1.114 -1.611 4.174
 -1.099 -1.608 4.168
 -1.085 -1.606 4.167
 -1.072 -1.606 4.17
 -1.059 -1.606 4.171
 -1.047 -1.607 4.178
 -1.033 -1.607 4.178
 -1.02 -1.606 4.179
 -1.006 -1.604 4.177
 -0.993 -1.604 4.18
 -0.98 -1.603 4.18
 -0.966 -1.603 4.182
 -0.954 -1.604 4.188
 -0.943 -1.607 4.196
 -0.93 -1.606 4.197
 -0.917 -1.607 4.2
 -0.905 -1.608 4.205
 -0.892 -1.608 4.209
 -0.879 -1.608 4.21
 -0.866 -1.608 4.212
 -0.852 -1.606 4.21
 -0.839 -1.605 4.209
 -0.826 -1.607 4.215
 -0.814 -1.608 4.22
 -0.8 -1.605 4.216
 -0.787 -1.605 4.216
 -0.774 -1.604 4.217
 -0.759 -1.6 4.208
 -0.745 -1.599 4.205
 -0.733 -1.601 4.212
 -0.719 -1.598 4.208
 -0.706 -1.598 4.209
 -0.694 -1.599 4.214
 -0.681 -1.6 4.216
 -0.669 -1.6 4.22
 -0.657 -1.603 4.229
 -0.644 -1.603 4.23
 -0.631 -1.602 4.228
 -0.618 -1.603 4.232
 -0.605 -1.601 4.23
 -0.592 -1.6 4.228
 -0.58 -1.602 4.235
 -0.567 -1.602 4.235
 -0.553 -1.601 4.233
 -0.54 -1.599 4.231
 -0.526 -1.596 4.225
 -0.513 -1.593 4.218
 -0.499 -1.592 4.215
 -0.486 -1.59 4.21
 -0.473 -1.589 4.211
 -0.46 -1.59 4.213
 -0.448 -1.59 4.215
 -0.435 -1.591 4.218
 -0.423 -1.591 4.22
 -0.41 -1.593 4.224
 -0.398 -1.595 4.23
 -0.386 -1.597 4.236
 -0.372 -1.594 4.229
 -0.359 -1.592 4.226
 -0.346 -1.591 4.224
 -0.334 -1.592 4.228
 -0.32 -1.59 4.223
 -0.308 -1.593 4.231
 -0.295 -1.592 4.228
 -0.282 -1.592 4.23
 -0.269 -1.59 4.225
 -0.257 -1.59 4.223
 -0.243 -1.587 4.216
 -0.231 -1.591 4.23
 -0.218 -1.591 4.228
 -0.206 -1.593 4.234
 -0.193 -1.592 4.233
 -0.181 -1.593 4.235
 -0.167 -1.589 4.225
 -0.155 -1.59 4.227
 -0.142 -1.586 4.218
 -0.129 -1.587 4.221
 -0.116 -1.588 4.222
 -0.104 -1.588 4.222
 -0.091 -1.585 4.214
 -0.078 -1.587 4.22
 -0.066 -1.586 4.217
 -0.053 -1.586 4.218
 -0.04 -1.585 4.216
 -0.028 -1.586 4.218
 -0.015 -1.586 4.217
 -0.002 -1.584 4.211
 0.01 -1.585 4.214
 0.022 -1.586 4.218
 0.035 -1.589 4.225
 0.048 -1.588 4.222
 0.06 -1.59 4.227
 0.073 -1.588 4.222
 0.086 -1.588 4.221
 0.098 -1.587 4.217
 0.111 -1.587 4.218
 0.124 -1.589 4.221
 0.136 -1.588 4.22
 0.149 -1.588 4.218
 0.162 -1.586 4.214
 0.174 -1.585 4.208
 0.187 -1.584 4.206
 0.2 -1.586 4.211
 0.212 -1.587 4.211
 0.225 -1.587 4.211
 0.238 -1.591 4.222
 0.251 -1.593 4.225
 0.264 -1.592 4.223
 0.276 -1.59 4.216
 0.289 -1.592 4.221
 0.301 -1.587 4.208
 0.314 -1.588 4.209
 0.327 -1.59 4.214
 0.34 -1.593 4.22
 0.353 -1.592 4.215
 0.366 -1.592 4.216
 0.378 -1.592 4.215
 0.391 -1.591 4.21
 0.404 -1.592 4.213
 0.416 -1.592 4.211
 0.429 -1.591 4.207
 0.441 -1.59 4.204
 0.453 -1.589 4.199
 0.466 -1.589 4.197
 0.479 -1.591 4.201
 0.493 -1.593 4.206
 0.505 -1.593 4.203
 0.518 -1.594 4.204
 0.532 -1.595 4.207
 0.544 -1.595 4.205
 0.557 -1.595 4.204
 0.57 -1.596 4.204
 0.583 -1.598 4.208
 0.595 -1.595 4.199
 0.608 -1.597 4.202
 0.622 -1.599 4.206
 0.635 -1.599 4.203
