 1.826 -1.642 3.726
 1.803 -1.601 3.621
 1.825 -1.599 3.605
 1.818 -1.571 3.533
 1.8 -1.537 3.443
 1.817 -1.531 3.419
 1.804 -1.501 3.343
 1.757 -1.445 3.205
 1.793 -1.455 3.218
 1.781 -1.429 3.148
 1.763 -1.398 3.069
 1.76 -1.379 3.017
 1.76 -1.363 2.97
 1.737 -1.33 2.888
 1.753 -1.327 2.87
 1.749 -1.309 2.821
 -2.173 -1.619 3.639
 -2.159 -1.628 3.67
 -2.124 -1.621 3.667
 -2.101 -1.622 3.682
 -2.072 -1.62 3.688
 -2.051 -1.623 3.709
 -2.026 -1.623 3.72
 -2 -1.623 3.731
 -1.974 -1.623 3.742
 -1.956 -1.628 3.766
 -1.93 -1.628 3.777
 -1.905 -1.628 3.788
 -1.883 -1.631 3.806
 -1.859 -1.632 3.819
 -1.83 -1.63 3.823
 -1.802 -1.627 3.828
 -1.777 -1.627 3.838
 -1.749 -1.625 3.842
 -1.725 -1.626 3.854
 -1.697 -1.624 3.859
 -1.672 -1.624 3.869
 -1.646 -1.623 3.876
 -1.621 -1.624 3.886
 -1.594 -1.622 3.892
 -1.568 -1.622 3.899
 -1.543 -1.622 3.908
 -1.517 -1.621 3.913
 -1.492 -1.621 3.922
 -1.464 -1.618 3.923
 -1.438 -1.617 3.928
 -1.411 -1.615 3.932
 -1.386 -1.615 3.938
 -1.359 -1.613 3.941
 -1.334 -1.614 3.95
 -1.311 -1.616 3.963
 -1.285 -1.615 3.968
 -1.261 -1.617 3.979
 -1.237 -1.618 3.988
 -1.212 -1.618 3.993
 -1.186 -1.617 3.999
 -1.161 -1.617 4.004
 -1.135 -1.616 4.007
 -1.109 -1.615 4.01
 -1.083 -1.614 4.014
 -1.058 -1.613 4.016
 -1.032 -1.611 4.018
 -1.005 -1.609 4.018
 -0.981 -1.61 4.024
 -0.955 -1.609 4.027
 -0.929 -1.608 4.029
 -0.906 -1.611 4.041
 -0.881 -1.61 4.044
 -0.856 -1.61 4.047
 -0.831 -1.61 4.053
 -0.806 -1.611 4.059
 -0.781 -1.61 4.06
 -0.757 -1.612 4.068
 -0.731 -1.61 4.067
 -0.707 -1.611 4.074
 -0.682 -1.611 4.078
 -0.657 -1.611 4.081
 -0.632 -1.612 4.085
 -0.608 -1.614 4.092
 -0.583 -1.615 4.1
 -0.558 -1.615 4.101
 -0.533 -1.615 4.103
 -0.509 -1.617 4.112
 -0.484 -1.619 4.117
 -0.458 -1.617 4.115
 -0.433 -1.616 4.115
 -0.408 -1.614 4.113
 -0.382 -1.612 4.109
 -0.357 -1.611 4.107
 -0.332 -1.609 4.104
 -0.307 -1.609 4.104
 -0.282 -1.611 4.11
 -0.257 -1.609 4.107
 -0.232 -1.609 4.109
 -0.208 -1.611 4.113
 -0.183 -1.612 4.117
 -0.158 -1.612 4.119
 -0.133 -1.614 4.123
 -0.108 -1.613 4.122
 -0.083 -1.613 4.121
 -0.059 -1.615 4.127
 -0.034 -1.615 4.126
 -0.009 -1.616 4.128
 0.015 -1.617 4.132
 0.04 -1.619 4.135
 0.065 -1.617 4.13
 0.09 -1.614 4.122
 0.115 -1.614 4.121
 0.14 -1.613 4.118
 0.164 -1.612 4.112
 0.189 -1.611 4.109
 0.214 -1.614 4.117
 0.239 -1.612 4.11
 0.264 -1.611 4.106
 0.288 -1.611 4.105
 0.313 -1.611 4.102
 0.338 -1.611 4.099
 0.363 -1.613 4.102
 0.388 -1.614 4.103
 0.414 -1.616 4.105
 0.439 -1.618 4.11
 0.464 -1.619 4.107
 0.489 -1.619 4.106
 0.514 -1.619 4.102
 0.539 -1.618 4.098
 0.563 -1.617 4.091
 0.588 -1.617 4.088
 0.614 -1.619 4.091
 0.64 -1.622 4.093
 0.664 -1.621 4.088
 0.69 -1.623 4.088
 0.715 -1.623 4.085
 0.739 -1.621 4.074
 0.763 -1.62 4.068
 0.789 -1.622 4.071
 0.815 -1.625 4.071
 0.84 -1.624 4.065
 0.865 -1.624 4.062
 0.891 -1.626 4.06
 0.916 -1.626 4.055
 0.94 -1.625 4.048
 0.966 -1.627 4.048
 0.992 -1.628 4.044
 1.017 -1.628 4.039
 1.041 -1.627 4.029
 1.067 -1.628 4.025
 1.092 -1.629 4.022
 1.117 -1.629 4.017
 1.142 -1.629 4.009
 1.169 -1.631 4.008
 1.194 -1.632 4.004
 1.22 -1.633 3.998
 1.245 -1.633 3.991
 1.271 -1.634 3.987
 1.298 -1.637 3.986
 1.325 -1.639 3.985
 1.351 -1.64 3.979
 1.377 -1.641 3.973
 1.403 -1.643 3.969
 1.427 -1.641 3.956
 1.451 -1.64 3.946
 1.475 -1.638 3.934
 1.502 -1.641 3.932
 1.526 -1.64 3.92
 1.551 -1.64 3.911
 1.574 -1.637 3.895
 1.601 -1.639 3.89
 1.623 -1.636 3.873
 1.648 -1.637 3.865
 1.672 -1.636 3.853
 1.698 -1.637 3.845
 1.722 -1.635 3.831
 1.744 -1.633 3.816
 1.765 -1.629 3.797
 1.785 -1.625 3.776
 1.8 -1.616 3.743
 1.809 -1.603 3.702
 1.816 -1.587 3.655
 1.816 -1.566 3.596
 1.823 -1.552 3.551
 1.819 -1.529 3.488
 1.82 -1.51 3.434
 1.805 -1.479 3.353
 1.788 -1.447 3.27
 1.767 -1.413 3.18
 1.766 -1.395 3.13
 1.77 -1.382 3.089
 1.768 -1.364 3.038
 1.766 -1.347 2.989
 1.763 -1.329 2.938
 1.757 -1.309 2.884
 1.772 -1.306 2.865
 -2.188 -1.605 3.673
 -2.215 -1.644 3.776
 -2.157 -1.62 3.733
 -2.133 -1.621 3.749
 -2.106 -1.62 3.758
 -2.084 -1.624 3.778
 -2.058 -1.624 3.79
 -2.033 -1.624 3.802
 -2.006 -1.623 3.812
 -1.984 -1.626 3.831
 -1.959 -1.627 3.843
 -1.933 -1.627 3.854
 -1.91 -1.629 3.871
 -1.885 -1.63 3.884
 -1.858 -1.629 3.891
 -1.829 -1.626 3.896
 -1.803 -1.626 3.905
 -1.773 -1.622 3.905
 -1.748 -1.622 3.916
 -1.72 -1.62 3.921
 -1.696 -1.622 3.934
 -1.668 -1.619 3.938
 -1.643 -1.62 3.949
 -1.615 -1.618 3.952
 -1.587 -1.616 3.956
 -1.561 -1.615 3.962
 -1.535 -1.614 3.969
 -1.509 -1.615 3.978
 -1.483 -1.614 3.985
 -1.457 -1.613 3.991
 -1.432 -1.614 4
 -1.406 -1.613 4.005
 -1.379 -1.612 4.01
 -1.354 -1.613 4.019
 -1.33 -1.614 4.03
 -1.303 -1.613 4.033
 -1.28 -1.615 4.045
 -1.254 -1.615 4.053
 -1.228 -1.614 4.057
 -1.203 -1.614 4.064
 -1.176 -1.613 4.067
 -1.15 -1.612 4.07
 -1.124 -1.611 4.073
 -1.098 -1.61 4.077
 -1.072 -1.61 4.082
 -1.047 -1.61 4.087
 -1.02 -1.608 4.088
 -0.996 -1.61 4.097
 -0.97 -1.609 4.099
 -0.944 -1.607 4.1
 -0.92 -1.61 4.111
 -0.894 -1.61 4.116
 -0.869 -1.609 4.119
 -0.843 -1.609 4.123
 -0.819 -1.61 4.13
 -0.792 -1.608 4.129
 -0.767 -1.609 4.135
 -0.741 -1.607 4.133
 -0.716 -1.608 4.14
 -0.69 -1.607 4.139
 -0.665 -1.607 4.144
 -0.64 -1.607 4.145
 -0.615 -1.608 4.152
 -0.59 -1.61 4.159
 -0.565 -1.61 4.163
 -0.54 -1.61 4.165
 -0.515 -1.612 4.172
 -0.49 -1.613 4.176
 -0.464 -1.611 4.175
 -0.438 -1.611 4.175
 -0.413 -1.609 4.172
 -0.387 -1.607 4.17
 -0.361 -1.606 4.167
 -0.336 -1.604 4.164
 -0.31 -1.602 4.16
 -0.285 -1.603 4.165
 -0.26 -1.602 4.163
 -0.235 -1.602 4.163
 -0.21 -1.603 4.166
 -0.185 -1.605 4.172
 -0.16 -1.605 4.173
 -0.135 -1.606 4.175
 -0.109 -1.606 4.176
 -0.084 -1.605 4.175
 -0.059 -1.606 4.177
 -0.034 -1.606 4.177
 -0.009 -1.607 4.178
 0.016 -1.608 4.182
 0.041 -1.61 4.187
 0.066 -1.61 4.185
 0.091 -1.607 4.177
 0.116 -1.606 4.174
 0.141 -1.606 4.172
 0.166 -1.604 4.165
 0.191 -1.603 4.161
 0.217 -1.606 4.168
 0.242 -1.606 4.167
 0.267 -1.604 4.161
 0.292 -1.605 4.16
 0.317 -1.605 4.158
 0.342 -1.604 4.156
 0.367 -1.605 4.154
 0.393 -1.606 4.157
 0.418 -1.608 4.158
 0.444 -1.61 4.161
 0.469 -1.61 4.159
 0.495 -1.612 4.159
 0.52 -1.61 4.154
 0.545 -1.611 4.152
 0.57 -1.61 4.147
 0.595 -1.61 4.144
 0.621 -1.613 4.146
 0.647 -1.614 4.147
 0.671 -1.612 4.138
 0.697 -1.614 4.139
 0.723 -1.615 4.137
 0.747 -1.613 4.129
 0.772 -1.614 4.125
 0.8 -1.618 4.131
 0.826 -1.619 4.13
 0.85 -1.618 4.123
 0.876 -1.619 4.12
 0.902 -1.621 4.12
 0.928 -1.621 4.116
 0.953 -1.62 4.108
 0.979 -1.622 4.108
 1.005 -1.623 4.105
 1.031 -1.625 4.102
 1.055 -1.623 4.092
 1.081 -1.624 4.089
 1.107 -1.626 4.086
 1.133 -1.626 4.08
 1.157 -1.624 4.07
 1.184 -1.627 4.07
 1.211 -1.628 4.066
 1.236 -1.628 4.06
 1.261 -1.628 4.052
 1.288 -1.63 4.049
 1.314 -1.631 4.043
 1.341 -1.633 4.042
 1.367 -1.634 4.035
 1.394 -1.635 4.032
 1.42 -1.637 4.026
 1.445 -1.636 4.016
 1.47 -1.635 4.006
 1.495 -1.635 3.998
 1.523 -1.637 3.994
 1.548 -1.637 3.984
 1.573 -1.637 3.976
 1.597 -1.636 3.962
 1.623 -1.637 3.955
 1.646 -1.634 3.939
 1.671 -1.634 3.928
 1.696 -1.634 3.918
 1.722 -1.634 3.909
 1.747 -1.634 3.897
 1.769 -1.63 3.879
 1.788 -1.625 3.856
 1.804 -1.616 3.824
 1.813 -1.602 3.78
 1.818 -1.585 3.729
 1.821 -1.567 3.674
 1.821 -1.546 3.614
 1.829 -1.533 3.572
 1.829 -1.513 3.515
 1.829 -1.494 3.46
 1.808 -1.459 3.367
 1.782 -1.42 3.266
 1.758 -1.384 3.172
 1.758 -1.367 3.123
 1.767 -1.358 3.092
 1.769 -1.344 3.048
 1.768 -1.327 2.999
 1.765 -1.31 2.949
 1.776 -1.303 2.923
 1.745 -1.267 2.83
 -2.225 -1.607 3.746
 -2.21 -1.614 3.777
 -2.192 -1.621 3.804
 -2.166 -1.621 3.818
 -2.141 -1.621 3.831
 -2.118 -1.624 3.85
 -2.091 -1.623 3.86
 -2.063 -1.622 3.869
 -2.037 -1.622 3.881
 -2.012 -1.623 3.894
 -1.984 -1.621 3.902
 -1.959 -1.622 3.915
 -1.937 -1.626 3.935
 -1.91 -1.625 3.944
 -1.883 -1.624 3.953
 -1.855 -1.623 3.96
 -1.827 -1.622 3.967
 -1.797 -1.618 3.969
 -1.772 -1.619 3.98
 -1.744 -1.617 3.987
 -1.719 -1.618 3.998
 -1.692 -1.617 4.004
 -1.666 -1.617 4.014
 -1.639 -1.616 4.021
 -1.612 -1.615 4.027
 -1.585 -1.614 4.033
 -1.558 -1.613 4.039
 -1.532 -1.613 4.048
 -1.505 -1.612 4.053
 -1.477 -1.61 4.056
 -1.452 -1.611 4.067
 -1.425 -1.61 4.071
 -1.4 -1.61 4.079
 -1.374 -1.61 4.087
 -1.349 -1.612 4.097
 -1.322 -1.61 4.1
 -1.297 -1.611 4.111
 -1.271 -1.61 4.115
 -1.244 -1.61 4.12
 -1.219 -1.61 4.128
 -1.192 -1.609 4.132
 -1.166 -1.609 4.137
 -1.139 -1.608 4.139
 -1.113 -1.607 4.144
 -1.087 -1.606 4.147
 -1.061 -1.606 4.151
 -1.034 -1.604 4.151
 -1.009 -1.605 4.16
 -0.982 -1.604 4.162
 -0.956 -1.603 4.163
 -0.932 -1.605 4.175
 -0.907 -1.607 4.182
 -0.881 -1.606 4.184
 -0.855 -1.605 4.188
 -0.83 -1.607 4.196
 -0.802 -1.603 4.191
 -0.777 -1.603 4.194
 -0.749 -1.6 4.188
 -0.724 -1.6 4.193
 -0.697 -1.597 4.189
 -0.672 -1.598 4.193
 -0.646 -1.597 4.193
 -0.621 -1.599 4.203
 -0.596 -1.601 4.21
 -0.571 -1.601 4.214
 -0.545 -1.602 4.218
 -0.52 -1.602 4.22
 -0.494 -1.602 4.223
 -0.468 -1.601 4.222
 -0.442 -1.6 4.222
 -0.416 -1.599 4.22
 -0.391 -1.598 4.219
 -0.365 -1.595 4.214
 -0.339 -1.594 4.212
 -0.313 -1.593 4.211
 -0.288 -1.593 4.213
 -0.262 -1.593 4.212
 -0.237 -1.593 4.214
 -0.211 -1.592 4.212
 -0.186 -1.593 4.215
 -0.161 -1.593 4.217
 -0.135 -1.594 4.218
 -0.11 -1.593 4.218
 -0.085 -1.593 4.218
 -0.059 -1.593 4.217
 -0.034 -1.594 4.219
 -0.009 -1.595 4.222
 0.016 -1.597 4.226
 0.041 -1.599 4.231
 0.067 -1.6 4.234
 0.092 -1.597 4.227
 0.118 -1.597 4.224
 0.143 -1.597 4.224
 0.168 -1.594 4.215
 0.193 -1.593 4.21
 0.219 -1.594 4.212
 0.244 -1.594 4.211
 0.269 -1.593 4.205
 0.295 -1.594 4.207
 0.32 -1.595 4.207
 0.346 -1.595 4.205
 0.371 -1.594 4.202
 0.397 -1.596 4.204
 0.422 -1.597 4.203
 0.448 -1.598 4.204
 0.473 -1.598 4.202
 0.499 -1.599 4.201
 0.524 -1.599 4.198
 0.55 -1.599 4.196
 0.575 -1.598 4.191
 0.6 -1.599 4.189
 0.627 -1.601 4.191
 0.652 -1.601 4.187
 0.677 -1.6 4.181
 0.703 -1.602 4.181
 0.729 -1.603 4.18
 0.754 -1.602 4.175
 0.78 -1.603 4.172
 0.807 -1.606 4.175
 0.833 -1.608 4.176
 0.859 -1.608 4.171
 0.885 -1.609 4.169
 0.911 -1.611 4.168
 0.938 -1.612 4.167
 0.963 -1.612 4.16
 0.989 -1.613 4.157
 1.015 -1.614 4.155
 1.042 -1.616 4.155
 1.066 -1.614 4.143
 1.093 -1.616 4.141
 1.119 -1.617 4.139
 1.145 -1.617 4.132
 1.17 -1.616 4.122
 1.197 -1.618 4.122
 1.223 -1.619 4.116
 1.249 -1.62 4.111
 1.275 -1.62 4.104
 1.302 -1.622 4.103
 1.329 -1.624 4.099
 1.358 -1.627 4.1
 1.384 -1.628 4.096
 1.411 -1.63 4.091
 1.437 -1.63 4.084
 1.464 -1.631 4.077
 1.489 -1.631 4.068
 1.515 -1.631 4.059
 1.543 -1.633 4.055
 1.569 -1.634 4.049
 1.594 -1.633 4.037
 1.619 -1.632 4.026
 1.646 -1.633 4.018
 1.67 -1.631 4.004
 1.694 -1.63 3.992
 1.722 -1.632 3.985
 1.747 -1.631 3.973
 1.77 -1.629 3.958
 1.789 -1.623 3.933
 1.806 -1.615 3.902
 1.816 -1.602 3.86
 1.823 -1.586 3.811
 1.827 -1.568 3.757
 1.83 -1.55 3.702
 1.832 -1.531 3.644
 1.84 -1.518 3.604
 1.841 -1.499 3.547
 1.843 -1.482 3.495
 1.816 -1.442 3.39
 1.77 -1.388 3.253
 1.746 -1.353 3.158
 1.753 -1.342 3.122
 1.765 -1.336 3.096
 1.772 -1.325 3.06
 1.772 -1.31 3.014
 1.77 -1.293 2.965
 1.799 -1.299 2.969
 1.75 -1.25 2.845
 -2.311 -1.642 3.901
 -2.24 -1.61 3.838
 -2.226 -1.619 3.874
 -2.2 -1.619 3.887
 -2.173 -1.62 3.9
 -2.149 -1.621 3.917
 -2.12 -1.62 3.925
 -2.092 -1.618 3.933
 -2.066 -1.619 3.946
 -2.038 -1.618 3.956
 -2.01 -1.616 3.963
 -1.984 -1.617 3.976
 -1.961 -1.619 3.994
 -1.934 -1.619 4.005
 -1.909 -1.62 4.017
 -1.882 -1.62 4.029
 -1.855 -1.62 4.037
 -1.826 -1.617 4.041
 -1.798 -1.617 4.05
 -1.769 -1.614 4.054
 -1.744 -1.615 4.066
 -1.717 -1.615 4.075
 -1.69 -1.614 4.082
 -1.662 -1.613 4.088
 -1.635 -1.612 4.094
 -1.605 -1.609 4.095
 -1.577 -1.607 4.099
 -1.551 -1.607 4.109
 -1.524 -1.607 4.115
 -1.498 -1.607 4.123
 -1.473 -1.608 4.135
 -1.447 -1.609 4.144
 -1.421 -1.609 4.152
 -1.395 -1.608 4.158
 -1.369 -1.609 4.168
 -1.342 -1.608 4.172
 -1.316 -1.608 4.179
 -1.289 -1.607 4.183
 -1.262 -1.607 4.189
 -1.235 -1.606 4.193
 -1.208 -1.604 4.195
 -1.181 -1.603 4.198
 -1.154 -1.602 4.2
 -1.127 -1.601 4.203
 -1.1 -1.599 4.205
 -1.073 -1.599 4.209
 -1.046 -1.597 4.211
 -1.02 -1.597 4.216
 -0.994 -1.596 4.218
 -0.967 -1.595 4.22
 -0.942 -1.597 4.229
 -0.916 -1.598 4.235
 -0.89 -1.597 4.237
 -0.863 -1.595 4.238
 -0.838 -1.596 4.245
 -0.81 -1.594 4.242
 -0.784 -1.593 4.244
 -0.757 -1.59 4.239
 -0.73 -1.589 4.241
 -0.703 -1.585 4.234
 -0.677 -1.586 4.238
 -0.651 -1.584 4.237
 -0.626 -1.586 4.245
 -0.601 -1.588 4.252
 -0.575 -1.588 4.255
 -0.549 -1.586 4.254
 -0.523 -1.586 4.255
 -0.497 -1.586 4.257
 -0.471 -1.585 4.256
 -0.445 -1.585 4.258
 -0.419 -1.584 4.257
 -0.393 -1.582 4.254
 -0.367 -1.58 4.25
 -0.341 -1.579 4.248
 -0.315 -1.578 4.247
 -0.29 -1.578 4.249
 -0.264 -1.578 4.251
 -0.238 -1.577 4.249
 -0.213 -1.577 4.248
 -0.187 -1.577 4.249
 -0.162 -1.578 4.253
 -0.136 -1.579 4.255
 -0.111 -1.578 4.253
 -0.085 -1.577 4.251
 -0.059 -1.576 4.249
 -0.034 -1.576 4.248
 -0.008 -1.576 4.247
 0.016 -1.579 4.255
 0.042 -1.58 4.259
 0.067 -1.582 4.262
 0.093 -1.579 4.254
 0.118 -1.579 4.252
 0.144 -1.578 4.25
 0.169 -1.576 4.242
 0.194 -1.575 4.238
 0.22 -1.576 4.24
 0.246 -1.577 4.241
 0.271 -1.576 4.236
 0.297 -1.578 4.24
 0.322 -1.577 4.237
 0.348 -1.578 4.236
 0.373 -1.579 4.236
 0.399 -1.58 4.237
 0.425 -1.581 4.237
 0.451 -1.582 4.239
 0.476 -1.583 4.237
 0.502 -1.582 4.233
 0.528 -1.583 4.232
 0.553 -1.583 4.229
 0.578 -1.582 4.224
 0.604 -1.583 4.223
 0.63 -1.584 4.223
 0.656 -1.585 4.221
 0.682 -1.585 4.218
 0.708 -1.586 4.216
 0.733 -1.587 4.213
 0.76 -1.588 4.213
 0.785 -1.588 4.209
 0.812 -1.591 4.211
 0.839 -1.592 4.211
 0.865 -1.594 4.21
 0.891 -1.594 4.206
 0.918 -1.596 4.206
 0.945 -1.599 4.207
 0.971 -1.599 4.203
 0.997 -1.6 4.199
 1.024 -1.601 4.198
 1.051 -1.603 4.197
 1.075 -1.6 4.184
 1.101 -1.602 4.181
 1.128 -1.604 4.181
 1.155 -1.605 4.176
 1.18 -1.605 4.169
 1.208 -1.607 4.168
 1.234 -1.608 4.163
 1.261 -1.609 4.159
 1.287 -1.609 4.153
 1.314 -1.611 4.149
 1.341 -1.612 4.145
 1.37 -1.615 4.146
 1.397 -1.616 4.14
 1.424 -1.618 4.136
 1.452 -1.62 4.133
 1.479 -1.621 4.128
 1.506 -1.622 4.121
 1.533 -1.623 4.115
 1.56 -1.624 4.109
 1.587 -1.626 4.103
 1.613 -1.626 4.094
 1.639 -1.625 4.083
 1.665 -1.625 4.073
 1.69 -1.625 4.062
 1.716 -1.624 4.05
 1.743 -1.626 4.044
 1.767 -1.624 4.029
 1.79 -1.621 4.011
 1.807 -1.613 3.981
 1.821 -1.602 3.943
 1.829 -1.587 3.896
 1.837 -1.573 3.849
 1.844 -1.557 3.799
 1.849 -1.541 3.748
 1.851 -1.522 3.691
 1.863 -1.512 3.656
 1.868 -1.496 3.607
 1.87 -1.479 3.554
 1.844 -1.441 3.45
 1.769 -1.365 3.258
 1.741 -1.327 3.157
 1.754 -1.321 3.132
 1.766 -1.314 3.104
 1.772 -1.304 3.069
 1.776 -1.291 3.028
 1.772 -1.274 2.977
 1.752 -1.245 2.898
 1.758 -1.236 2.866
 -2.324 -1.624 3.934
 -2.283 -1.614 3.923
 -2.257 -1.615 3.938
 -2.231 -1.615 3.952
 -2.203 -1.615 3.964
 -2.18 -1.617 3.982
 -2.148 -1.614 3.986
 -2.12 -1.613 3.996
 -2.092 -1.612 4.006
 -2.066 -1.613 4.02
 -2.036 -1.611 4.025
 -2.012 -1.613 4.042
 -1.987 -1.615 4.058
 -1.961 -1.615 4.07
 -1.935 -1.616 4.083
 -1.908 -1.616 4.094
 -1.88 -1.615 4.102
 -1.851 -1.613 4.107
 -1.823 -1.612 4.115
 -1.793 -1.609 4.118
 -1.768 -1.611 4.132
 -1.74 -1.61 4.139
 -1.713 -1.61 4.148
 -1.686 -1.609 4.156
 -1.658 -1.608 4.162
 -1.628 -1.605 4.162
 -1.601 -1.605 4.171
 -1.573 -1.603 4.175
 -1.545 -1.602 4.181
 -1.518 -1.602 4.189
 -1.493 -1.603 4.2
 -1.465 -1.601 4.203
 -1.439 -1.602 4.212
 -1.411 -1.601 4.218
 -1.386 -1.602 4.228
 -1.358 -1.601 4.23
 -1.332 -1.602 4.24
 -1.304 -1.6 4.244
 -1.277 -1.599 4.247
 -1.249 -1.597 4.249
 -1.221 -1.596 4.251
 -1.193 -1.593 4.25
 -1.165 -1.591 4.25
 -1.137 -1.589 4.25
 -1.11 -1.588 4.253
 -1.083 -1.587 4.257
 -1.056 -1.587 4.26
 -1.03 -1.587 4.266
 -1.004 -1.586 4.27
 -0.976 -1.584 4.268
 -0.95 -1.585 4.275
 -0.923 -1.584 4.277
 -0.896 -1.582 4.275
 -0.869 -1.58 4.276
 -0.843 -1.58 4.28
 -0.815 -1.577 4.276
 -0.788 -1.576 4.276
 -0.761 -1.574 4.276
 -0.735 -1.573 4.276
 -0.707 -1.57 4.27
 -0.681 -1.569 4.272
 -0.655 -1.569 4.274
 -0.629 -1.569 4.277
 -0.604 -1.57 4.281
 -0.578 -1.57 4.285
 -0.551 -1.569 4.284
 -0.525 -1.567 4.281
 -0.499 -1.566 4.281
 -0.473 -1.565 4.281
 -0.447 -1.565 4.284
 -0.421 -1.564 4.281
 -0.394 -1.562 4.279
 -0.368 -1.561 4.276
 -0.342 -1.559 4.274
 -0.316 -1.558 4.271
 -0.291 -1.558 4.273
 -0.265 -1.559 4.275
 -0.239 -1.557 4.272
 -0.213 -1.557 4.272
 -0.188 -1.557 4.273
 -0.162 -1.557 4.275
 -0.136 -1.557 4.274
 -0.111 -1.557 4.274
 -0.085 -1.556 4.272
 -0.059 -1.555 4.27
 -0.034 -1.556 4.27
 -0.008 -1.556 4.271
 0.016 -1.557 4.275
 0.042 -1.559 4.278
 0.068 -1.56 4.282
 0.093 -1.558 4.276
 0.119 -1.557 4.272
 0.144 -1.558 4.271
 0.17 -1.556 4.265
 0.195 -1.554 4.26
 0.221 -1.555 4.26
 0.247 -1.556 4.262
 0.272 -1.556 4.26
 0.298 -1.557 4.262
 0.323 -1.558 4.261
 0.349 -1.558 4.259
 0.375 -1.559 4.259
 0.401 -1.559 4.259
 0.426 -1.559 4.257
 0.452 -1.56 4.256
 0.478 -1.561 4.256
 0.503 -1.561 4.254
 0.529 -1.562 4.253
 0.555 -1.563 4.252
 0.581 -1.563 4.25
 0.607 -1.564 4.248
 0.633 -1.565 4.247
 0.658 -1.564 4.242
 0.684 -1.564 4.237
 0.71 -1.565 4.236
 0.736 -1.566 4.235
 0.762 -1.567 4.234
 0.788 -1.568 4.233
 0.816 -1.572 4.238
 0.843 -1.574 4.239
 0.869 -1.576 4.239
 0.896 -1.577 4.238
 0.922 -1.578 4.236
 0.949 -1.58 4.234
 0.976 -1.581 4.233
 1.002 -1.581 4.228
 1.028 -1.582 4.225
 1.056 -1.585 4.226
 1.081 -1.583 4.215
 1.106 -1.583 4.209
 1.135 -1.587 4.212
 1.161 -1.588 4.208
 1.188 -1.589 4.204
 1.216 -1.591 4.204
 1.243 -1.593 4.201
 1.269 -1.593 4.193
 1.296 -1.594 4.19
 1.323 -1.594 4.184
 1.35 -1.596 4.18
 1.379 -1.6 4.183
 1.407 -1.602 4.18
 1.435 -1.604 4.176
 1.463 -1.606 4.175
 1.492 -1.609 4.174
 1.519 -1.61 4.168
 1.547 -1.612 4.164
 1.574 -1.613 4.155
 1.601 -1.614 4.149
 1.627 -1.613 4.137
 1.654 -1.613 4.129
 1.679 -1.613 4.118
 1.706 -1.613 4.108
 1.73 -1.611 4.094
 1.758 -1.613 4.088
 1.78 -1.609 4.067
 1.8 -1.604 4.044
 1.817 -1.596 4.012
 1.832 -1.586 3.976
 1.839 -1.57 3.926
 1.848 -1.556 3.88
 1.855 -1.541 3.832
 1.861 -1.525 3.781
 1.862 -1.506 3.722
 1.866 -1.49 3.671
 1.864 -1.47 3.609
 0 0 0
 0 0 0
 0 0 0
 1.743 -1.308 3.169
 1.756 -1.302 3.143
 1.765 -1.293 3.111
 1.773 -1.283 3.078
 1.779 -1.273 3.041
 1.777 -1.256 2.991
 1.779 -1.244 2.95
 1.775 -1.228 2.901
 -2.342 -1.609 3.973
 -2.336 -1.624 4.024
 -2.289 -1.611 4.003
 -2.168 -1.544 3.851
 -2.143 -1.545 3.864
 -2.119 -1.546 3.88
 -2.089 -1.544 3.886
 -2.063 -1.544 3.898
 -2.124 -1.61 4.077
 -2.095 -1.609 4.086
 -2.066 -1.607 4.095
 -2.04 -1.609 4.109
 -2.013 -1.608 4.12
 -1.986 -1.609 4.132
 -1.961 -1.61 4.147
 -1.933 -1.61 4.158
 -1.904 -1.609 4.164
 -1.876 -1.608 4.172
 -1.847 -1.606 4.179
 -1.816 -1.603 4.18
 -1.789 -1.603 4.191
 -1.761 -1.602 4.198
 -1.733 -1.602 4.206
 -1.704 -1.6 4.212
 -1.676 -1.599 4.218
 -1.647 -1.597 4.221
 -1.619 -1.596 4.228
 -1.59 -1.594 4.232
 -1.562 -1.593 4.237
 -1.536 -1.594 4.246
 -1.509 -1.594 4.256
 -1.481 -1.593 4.26
 -1.455 -1.593 4.269
 -1.427 -1.592 4.273
 -1.399 -1.591 4.279
 -1.371 -1.589 4.28
 -1.344 -1.589 4.288
 -1.315 -1.587 4.287
 -1.288 -1.586 4.292
 -1.259 -1.584 4.292
 -1.23 -1.58 4.29
 -1.201 -1.577 4.287
 -1.172 -1.575 4.288
 -1.144 -1.573 4.287
 -1.116 -1.571 4.288
 -1.09 -1.572 4.295
 -1.064 -1.571 4.299
 -1.036 -1.57 4.302
 -1.009 -1.569 4.304
 -0.982 -1.568 4.304
 -0.954 -1.566 4.303
 -0.927 -1.564 4.304
 -0.9 -1.563 4.304
 -0.873 -1.562 4.305
 -0.846 -1.56 4.306
 -0.819 -1.558 4.303
 -0.792 -1.557 4.303
 -0.764 -1.555 4.301
 -0.738 -1.553 4.3
 -0.71 -1.55 4.296
 -0.684 -1.551 4.3
 -0.658 -1.549 4.3
 -0.631 -1.548 4.3
 -0.605 -1.547 4.3
 -0.579 -1.547 4.301
 -0.552 -1.546 4.3
 -0.525 -1.543 4.295
 -0.499 -1.543 4.296
 -0.473 -1.541 4.293
 -0.447 -1.541 4.296
 -0.421 -1.539 4.291
 -0.395 -1.538 4.291
 -0.369 -1.537 4.29
 -0.343 -1.537 4.292
 -0.317 -1.536 4.29
 -0.291 -1.536 4.292
 -0.265 -1.536 4.292
 -0.239 -1.534 4.287
 -0.214 -1.533 4.286
 -0.188 -1.534 4.288
 -0.162 -1.533 4.287
 -0.136 -1.534 4.288
 -0.111 -1.533 4.287
 -0.085 -1.532 4.284
 -0.059 -1.53 4.279
 -0.034 -1.531 4.281
 -0.008 -1.53 4.279
 0.016 -1.531 4.281
 0.042 -1.532 4.283
 0.068 -1.533 4.286
 0.093 -1.532 4.281
 0.119 -1.531 4.278
 0.144 -1.531 4.278
 0.17 -1.531 4.276
 0.195 -1.53 4.271
 0.221 -1.53 4.269
 0.247 -1.531 4.272
 0.272 -1.532 4.271
 0.298 -1.532 4.272
 0.324 -1.533 4.271
 0.35 -1.534 4.272
 0.375 -1.534 4.272
 0.401 -1.535 4.272
 0.427 -1.535 4.268
 0.452 -1.535 4.266
 0.478 -1.535 4.264
 0.504 -1.536 4.263
 0.53 -1.536 4.261
 0.555 -1.537 4.26
 0.581 -1.538 4.26
 0.607 -1.539 4.259
 0.633 -1.539 4.256
 0.659 -1.539 4.253
 0.685 -1.54 4.25
 0.711 -1.54 4.248
 0.737 -1.541 4.247
 0.763 -1.542 4.244
 0.789 -1.543 4.244
 0.816 -1.546 4.247
 0.843 -1.548 4.248
 0.87 -1.55 4.249
 0.897 -1.553 4.252
 0.924 -1.555 4.251
 0.951 -1.557 4.252
 0.978 -1.558 4.25
 1.004 -1.559 4.247
 1.031 -1.56 4.242
 1.058 -1.562 4.243
 1.084 -1.562 4.236
 1.11 -1.562 4.231
 1.138 -1.565 4.232
 1.165 -1.566 4.229
 1.192 -1.567 4.226
 1.22 -1.569 4.224
 1.248 -1.572 4.224
 1.275 -1.573 4.221
 1.303 -1.576 4.22
 1.329 -1.576 4.214
 1.357 -1.577 4.209
 1.385 -1.58 4.209
 1.413 -1.582 4.206
 1.441 -1.583 4.201
 1.471 -1.588 4.204
 1.501 -1.592 4.206
 1.529 -1.593 4.202
 1.558 -1.596 4.2
 1.585 -1.597 4.194
 1.613 -1.599 4.189
 1.639 -1.598 4.178
 1.667 -1.599 4.171
 1.693 -1.599 4.161
 1.72 -1.6 4.152
 1.745 -1.598 4.139
 1.773 -1.6 4.131
 1.794 -1.595 4.108
 1.813 -1.588 4.08
 1.828 -1.579 4.045
 1.839 -1.566 4.002
 1.848 -1.551 3.953
 1.858 -1.539 3.909
 1.866 -1.524 3.862
 1.874 -1.51 3.815
 1.882 -1.498 3.772
 1.887 -1.482 3.72
 0 0 0
 0 0 0
 0 0 0
 0 0 0
 1.74 -1.284 3.17
 1.754 -1.278 3.146
 1.763 -1.27 3.114
 1.774 -1.263 3.086
 1.782 -1.254 3.054
 1.785 -1.242 3.013
 1.78 -1.224 2.959
 1.764 -1.2 2.889
 -2.365 -1.598 4.024
 -2.343 -1.602 4.046
 -2.037 -1.409 3.57
 -1.921 -1.345 3.418
 -1.895 -1.343 3.423
 -1.874 -1.345 3.438
 -1.847 -1.342 3.443
 -1.825 -1.343 3.454
 -1.975 -1.472 3.8
 -1.949 -1.471 3.809
 -1.921 -1.47 3.815
 -1.898 -1.471 3.83
 -1.872 -1.471 3.84
 -1.848 -1.471 3.852
 -1.905 -1.539 4.039
 -1.958 -1.603 4.221
 -1.929 -1.602 4.229
 -1.9 -1.601 4.235
 -1.871 -1.6 4.244
 -1.839 -1.596 4.242
 -1.81 -1.594 4.248
 -1.781 -1.593 4.255
 -1.752 -1.592 4.262
 -1.722 -1.589 4.264
 -1.695 -1.589 4.273
 -1.665 -1.587 4.277
 -1.637 -1.586 4.283
 -1.607 -1.583 4.284
 -1.577 -1.581 4.287
 -1.549 -1.581 4.293
 -1.521 -1.58 4.299
 -1.492 -1.578 4.301
 -1.465 -1.578 4.309
 -1.436 -1.575 4.31
 -1.407 -1.573 4.312
 -1.379 -1.572 4.315
 -1.352 -1.572 4.321
 -1.322 -1.569 4.32
 -1.294 -1.568 4.324
 -1.266 -1.565 4.324
 -1.236 -1.562 4.322
 -1.206 -1.558 4.317
 -1.178 -1.556 4.318
 -1.15 -1.555 4.318
 -1.122 -1.552 4.317
 -1.094 -1.551 4.32
 -1.067 -1.55 4.322
 -1.039 -1.548 4.322
 -1.012 -1.547 4.322
 -0.984 -1.544 4.32
 -0.956 -1.542 4.318
 -0.928 -1.54 4.317
 -0.901 -1.538 4.316
 -0.873 -1.536 4.316
 -0.847 -1.536 4.318
 -0.82 -1.534 4.318
 -0.792 -1.532 4.317
 -0.765 -1.53 4.315
 -0.738 -1.528 4.31
 -0.711 -1.525 4.307
 -0.684 -1.524 4.307
 -0.658 -1.523 4.308
 -0.631 -1.523 4.308
 -0.605 -1.522 4.31
 -0.579 -1.521 4.309
 -0.552 -1.519 4.307
 -0.525 -1.518 4.304
 -0.499 -1.517 4.306
 -0.473 -1.516 4.304
 -0.447 -1.515 4.304
 -0.421 -1.514 4.302
 -0.395 -1.513 4.3
 -0.369 -1.512 4.299
 -0.343 -1.511 4.298
 -0.317 -1.51 4.298
 -0.291 -1.511 4.3
 -0.265 -1.511 4.3
 -0.239 -1.508 4.295
 -0.213 -1.508 4.294
 -0.188 -1.508 4.295
 -0.162 -1.507 4.293
 -0.136 -1.507 4.293
 -0.111 -1.507 4.292
 -0.085 -1.506 4.29
 -0.059 -1.505 4.287
 -0.034 -1.505 4.287
 -0.008 -1.505 4.287
 0.017 -1.505 4.288
 0.042 -1.505 4.288
 0.068 -1.506 4.289
 0.093 -1.505 4.284
 0.119 -1.504 4.281
 0.144 -1.503 4.279
 0.17 -1.503 4.278
 0.195 -1.503 4.275
 0.221 -1.504 4.276
 0.247 -1.504 4.276
 0.273 -1.506 4.279
 0.298 -1.506 4.278
 0.324 -1.506 4.276
 0.349 -1.507 4.276
 0.375 -1.508 4.277
 0.401 -1.508 4.276
 0.427 -1.509 4.275
 0.453 -1.509 4.274
 0.478 -1.509 4.271
 0.504 -1.51 4.27
 0.53 -1.51 4.269
 0.555 -1.51 4.265
 0.581 -1.511 4.265
 0.607 -1.513 4.266
 0.634 -1.514 4.265
 0.659 -1.514 4.263
 0.686 -1.516 4.263
 0.711 -1.516 4.26
 0.737 -1.516 4.257
 0.763 -1.517 4.255
 0.79 -1.519 4.254
 0.816 -1.521 4.256
 0.843 -1.522 4.256
 0.871 -1.525 4.259
 0.898 -1.527 4.261
 0.924 -1.529 4.259
 0.951 -1.53 4.259
 0.978 -1.533 4.259
 1.005 -1.533 4.256
 1.031 -1.534 4.251
 1.059 -1.536 4.252
 1.085 -1.537 4.249
 1.112 -1.538 4.244
 1.14 -1.541 4.247
 1.168 -1.543 4.246
 1.195 -1.544 4.243
 1.221 -1.545 4.239
 1.25 -1.548 4.239
 1.277 -1.549 4.235
 1.305 -1.551 4.233
 1.332 -1.552 4.229
 1.36 -1.555 4.228
 1.389 -1.558 4.228
 1.417 -1.56 4.226
 1.445 -1.561 4.222
 1.475 -1.566 4.225
 1.505 -1.569 4.226
 1.534 -1.571 4.223
 1.563 -1.574 4.222
 1.591 -1.575 4.216
 1.619 -1.577 4.211
 1.646 -1.578 4.203
 1.673 -1.579 4.196
 1.7 -1.579 4.186
 1.728 -1.58 4.179
 1.753 -1.579 4.166
 1.78 -1.578 4.155
 1.801 -1.574 4.133
 1.817 -1.565 4.098
 1.831 -1.555 4.061
 1.843 -1.543 4.019
 1.853 -1.53 3.974
 1.866 -1.519 3.935
 1.881 -1.511 3.902
 1.896 -1.503 3.87
 1.914 -1.497 3.843
 0 0 0
 0 0 0
 0 0 0
 0 0 0
 0 0 0
 1.746 -1.267 3.189
 1.761 -1.262 3.167
 1.771 -1.254 3.136
 1.78 -1.246 3.105
 1.793 -1.24 3.079
 1.796 -1.228 3.039
 1.799 -1.216 2.998
 1.807 -1.209 2.967
 -2.403 -1.596 4.098
 -2.372 -1.594 4.107
 -1.594 -1.084 2.798
 -1.484 -1.022 2.643
 -1.462 -1.019 2.645
 -1.445 -1.019 2.654
 -1.424 -1.017 2.657
 -1.496 -1.082 2.837
 -1.65 -1.209 3.18
 -1.629 -1.209 3.189
 -1.604 -1.206 3.191
 -1.669 -1.271 3.374
 -1.563 -1.207 3.21
 -1.542 -1.207 3.22
 -1.602 -1.272 3.403
 -1.74 -1.4 3.757
 -1.713 -1.398 3.762
 -1.763 -1.46 3.938
 -1.812 -1.523 4.119
 -1.856 -1.583 4.293
 -1.826 -1.581 4.296
 -1.795 -1.579 4.3
 -1.766 -1.577 4.305
 -1.734 -1.573 4.304
 -1.705 -1.571 4.308
 -1.675 -1.57 4.312
 -1.647 -1.569 4.32
 -1.617 -1.567 4.321
 -1.588 -1.565 4.325
 -1.56 -1.564 4.332
 -1.531 -1.563 4.337
 -1.501 -1.56 4.335
 -1.472 -1.558 4.338
 -1.442 -1.556 4.339
 -1.413 -1.553 4.34
 -1.384 -1.551 4.341
 -1.357 -1.551 4.346
 -1.327 -1.548 4.346
 -1.299 -1.546 4.347
 -1.269 -1.543 4.345
 -1.239 -1.539 4.34
 -1.209 -1.535 4.335
 -1.18 -1.533 4.334
 -1.152 -1.53 4.333
 -1.123 -1.528 4.332
 -1.096 -1.527 4.336
 -1.069 -1.526 4.337
 -1.041 -1.524 4.338
 -1.013 -1.522 4.335
 -0.984 -1.518 4.331
 -0.956 -1.516 4.327
 -0.928 -1.513 4.325
 -0.9 -1.511 4.323
 -0.873 -1.51 4.325
 -0.847 -1.51 4.327
 -0.82 -1.509 4.329
 -0.792 -1.506 4.324
 -0.765 -1.505 4.323
 -0.738 -1.502 4.319
 -0.711 -1.5 4.318
 -0.684 -1.499 4.318
 -0.658 -1.499 4.321
 -0.632 -1.498 4.32
 -0.605 -1.497 4.32
 -0.579 -1.495 4.318
 -0.552 -1.493 4.314
 -0.525 -1.491 4.31
 -0.499 -1.491 4.311
 -0.473 -1.489 4.309
 -0.446 -1.488 4.308
 -0.42 -1.487 4.307
 -0.394 -1.487 4.308
 -0.369 -1.486 4.308
 -0.343 -1.486 4.307
 -0.317 -1.484 4.304
 -0.291 -1.485 4.307
 -0.265 -1.484 4.306
 -0.239 -1.482 4.3
 -0.213 -1.481 4.299
 -0.188 -1.482 4.301
 -0.162 -1.481 4.298
 -0.136 -1.481 4.299
 -0.11 -1.48 4.299
 -0.085 -1.48 4.296
 -0.059 -1.479 4.295
 -0.033 -1.478 4.291
 -0.008 -1.477 4.287
 0.017 -1.477 4.289
 0.042 -1.477 4.288
 0.068 -1.477 4.287
 0.093 -1.477 4.286
 0.119 -1.477 4.287
 0.144 -1.476 4.282
 0.17 -1.477 4.282
 0.196 -1.477 4.283
 0.221 -1.479 4.286
 0.247 -1.478 4.282
 0.273 -1.48 4.286
 0.298 -1.481 4.286
 0.324 -1.48 4.282
 0.349 -1.479 4.279
 0.375 -1.481 4.28
 0.401 -1.481 4.279
 0.426 -1.481 4.277
 0.452 -1.482 4.277
 0.478 -1.482 4.273
 0.504 -1.483 4.274
 0.529 -1.483 4.272
 0.555 -1.483 4.269
 0.581 -1.484 4.268
 0.607 -1.485 4.268
 0.633 -1.487 4.27
 0.659 -1.488 4.27
 0.685 -1.489 4.269
 0.712 -1.49 4.267
 0.737 -1.491 4.265
 0.763 -1.491 4.261
 0.789 -1.491 4.259
 0.816 -1.494 4.26
 0.842 -1.495 4.258
 0.869 -1.497 4.261
 0.897 -1.499 4.263
 0.923 -1.501 4.262
 0.951 -1.503 4.263
 0.978 -1.506 4.266
 1.005 -1.508 4.265
 1.031 -1.507 4.259
 1.059 -1.51 4.26
 1.085 -1.511 4.257
 1.111 -1.511 4.25
 1.139 -1.514 4.252
 1.167 -1.516 4.252
 1.194 -1.517 4.249
 1.221 -1.519 4.246
 1.251 -1.523 4.25
 1.278 -1.524 4.246
 1.306 -1.526 4.245
 1.333 -1.527 4.242
 1.361 -1.529 4.24
 1.389 -1.531 4.237
 1.417 -1.533 4.234
 1.446 -1.536 4.233
 1.476 -1.539 4.235
 1.506 -1.543 4.237
 1.534 -1.545 4.234
 1.564 -1.548 4.233
 1.592 -1.55 4.227
 1.62 -1.551 4.221
 1.647 -1.552 4.215
 1.675 -1.553 4.209
 1.703 -1.554 4.202
 1.732 -1.556 4.198
 1.759 -1.556 4.187
 1.784 -1.555 4.174
 1.804 -1.55 4.148
 1.82 -1.541 4.114
 1.836 -1.532 4.079
 1.85 -1.522 4.041
 1.861 -1.51 3.999
 1.879 -1.504 3.972
 1.898 -1.499 3.946
 1.917 -1.493 3.921
 0 0 0
 0 0 0
 0 0 0
 0 0 0
 0 0 0
 0 0 0
 1.837 -1.31 3.362
 1.816 -1.279 3.273
 1.777 -1.237 3.154
 1.788 -1.23 3.124
 1.802 -1.225 3.102
 1.808 -1.215 3.066
 1.829 -1.215 3.054
 1.871 -1.23 3.08
 -0.014 -0.011 0.012
 -0.082 -0.056 0.13
 -1.153 -0.771 2.025
 -1.049 -0.71 1.87
 -1.032 -0.707 1.868
 -1.019 -0.707 1.873
 -1.002 -0.704 1.871
 -1.077 -0.766 2.042
 -1.234 -0.888 2.38
 -1.215 -0.886 2.381
 -1.195 -0.883 2.38
 -1.265 -0.947 2.56
 -1.163 -0.883 2.392
 -1.229 -0.946 2.57
 -1.374 -1.072 2.922
 -1.593 -1.26 3.448
 -1.647 -1.321 3.625
 -1.776 -1.445 3.975
 -1.824 -1.507 4.156
 -1.868 -1.566 4.33
 -1.837 -1.563 4.333
 -1.807 -1.561 4.336
 -1.777 -1.559 4.34
 -1.745 -1.555 4.339
 -1.714 -1.553 4.342
 -1.685 -1.551 4.346
 -1.655 -1.549 4.349
 -1.624 -1.546 4.348
 -1.594 -1.543 4.35
 -1.565 -1.542 4.355
 -1.534 -1.539 4.354
 -1.504 -1.536 4.352
 -1.474 -1.533 4.353
 -1.444 -1.53 4.353
 -1.414 -1.527 4.35
 -1.384 -1.524 4.35
 -1.356 -1.523 4.353
 -1.326 -1.52 4.352
 -1.298 -1.518 4.353
 -1.269 -1.516 4.352
 -1.238 -1.511 4.346
 -1.208 -1.507 4.341
 -1.179 -1.505 4.34
 -1.151 -1.503 4.339
 -1.123 -1.5 4.338
 -1.095 -1.499 4.34
 -1.068 -1.498 4.342
 -1.04 -1.497 4.343
 -1.012 -1.494 4.339
 -0.983 -1.49 4.333
 -0.955 -1.489 4.333
 -0.928 -1.487 4.332
 -0.899 -1.484 4.328
 -0.873 -1.483 4.33
 -0.846 -1.482 4.332
 -0.819 -1.48 4.329
 -0.791 -1.478 4.326
 -0.764 -1.476 4.324
 -0.737 -1.474 4.322
 -0.71 -1.473 4.323
 -0.684 -1.473 4.324
 -0.658 -1.473 4.327
 -0.631 -1.472 4.327
 -0.605 -1.47 4.326
 -0.578 -1.469 4.324
 -0.552 -1.467 4.321
 -0.525 -1.464 4.315
 -0.499 -1.464 4.316
 -0.472 -1.463 4.314
 -0.446 -1.461 4.312
 -0.42 -1.461 4.312
 -0.394 -1.46 4.312
 -0.368 -1.459 4.31
 -0.342 -1.458 4.309
 -0.316 -1.456 4.305
 -0.29 -1.456 4.305
 -0.264 -1.456 4.307
 -0.239 -1.455 4.304
 -0.213 -1.454 4.301
 -0.187 -1.455 4.304
 -0.161 -1.454 4.302
 -0.136 -1.453 4.3
 -0.11 -1.452 4.297
 -0.084 -1.452 4.297
 -0.059 -1.451 4.295
 -0.033 -1.45 4.293
 -0.008 -1.45 4.291
 0.017 -1.451 4.293
 0.042 -1.451 4.295
 0.068 -1.451 4.294
 0.094 -1.451 4.293
 0.119 -1.451 4.293
 0.145 -1.45 4.287
 0.17 -1.449 4.284
 0.196 -1.451 4.287
 0.221 -1.452 4.289
 0.247 -1.452 4.287
 0.273 -1.453 4.291
 0.298 -1.454 4.291
 0.324 -1.453 4.286
 0.349 -1.453 4.282
 0.375 -1.453 4.282
 0.4 -1.453 4.281
 0.426 -1.454 4.279
 0.452 -1.455 4.28
 0.477 -1.455 4.277
 0.503 -1.456 4.278
 0.529 -1.455 4.273
 0.554 -1.456 4.271
 0.58 -1.456 4.268
 0.606 -1.458 4.27
 0.632 -1.459 4.27
 0.659 -1.461 4.273
 0.685 -1.461 4.27
 0.711 -1.462 4.268
 0.736 -1.462 4.264
 0.762 -1.462 4.259
 0.788 -1.462 4.257
 0.815 -1.465 4.26
 0.841 -1.467 4.26
 0.868 -1.469 4.263
 0.896 -1.473 4.268
 0.923 -1.474 4.267
 0.95 -1.475 4.265
 0.977 -1.478 4.267
 1.004 -1.48 4.267
 1.03 -1.479 4.261
 1.057 -1.482 4.262
 1.085 -1.484 4.261
 1.111 -1.484 4.256
 1.138 -1.486 4.256
 1.166 -1.488 4.255
 1.193 -1.49 4.253
 1.221 -1.492 4.252
 1.25 -1.495 4.255
 1.277 -1.497 4.253
 1.306 -1.499 4.252
 1.333 -1.501 4.25
 1.361 -1.503 4.248
 1.389 -1.505 4.244
 1.417 -1.507 4.243
 1.446 -1.509 4.242
 1.476 -1.513 4.243
 1.505 -1.516 4.243
 1.533 -1.517 4.239
 1.562 -1.52 4.237
 1.59 -1.521 4.231
 1.618 -1.523 4.226
 1.646 -1.524 4.22
 1.675 -1.526 4.215
 1.703 -1.527 4.21
 1.732 -1.529 4.206
 1.759 -1.53 4.196
 1.785 -1.529 4.185
 1.807 -1.525 4.163
 1.824 -1.517 4.131
 1.84 -1.509 4.098
 1.855 -1.5 4.061
 1.868 -1.489 4.022
 1.882 -1.48 3.986
 1.9 -1.474 3.959
 0 0 0
 0 0 0
 0 0 0
 0 0 0
 0 0 0
 0 0 0
 0 0 0
 1.582 -1.109 2.902
 1.669 -1.155 3.014
 1.781 -1.218 3.167
 1.794 -1.213 3.142
 1.81 -1.21 3.123
 1.82 -1.203 3.094
 0 0 0
 0 0 0
 -0.055 -0.037 0.082
 -0.059 -0.04 0.091
 -0.714 -0.469 1.252
 -0.61 -0.406 1.085
 -0.597 -0.402 1.077
 -0.586 -0.4 1.075
 -0.574 -0.397 1.069
 -0.653 -0.457 1.237
 -0.815 -0.577 1.571
 -0.799 -0.573 1.565
 -0.869 -0.632 1.731
 -0.941 -0.692 1.905
 -0.926 -0.691 1.905
 -1.077 -0.814 2.254
 -1.303 -0.999 2.777
 -1.523 -1.183 3.302
 -1.657 -1.305 3.654
 -1.784 -1.426 4.003
 -1.832 -1.486 4.183
 -1.876 -1.545 4.358
 -1.845 -1.542 4.359
 -1.813 -1.538 4.36
 -1.781 -1.535 4.361
 -1.748 -1.531 4.357
 -1.717 -1.528 4.358
 -1.687 -1.525 4.36
 -1.655 -1.522 4.359
 -1.625 -1.52 4.361
 -1.595 -1.517 4.363
 -1.566 -1.515 4.366
 -1.536 -1.513 4.367
 -1.506 -1.511 4.369
 -1.475 -1.507 4.364
 -1.444 -1.504 4.362
 -1.414 -1.5 4.36
 -1.384 -1.497 4.358
 -1.354 -1.494 4.356
 -1.325 -1.492 4.356
 -1.297 -1.49 4.359
 -1.268 -1.488 4.358
 -1.237 -1.483 4.35
 -1.207 -1.479 4.344
 -1.179 -1.478 4.346
 -1.15 -1.475 4.344
 -1.122 -1.473 4.342
 -1.094 -1.472 4.344
 -1.067 -1.471 4.346
 -1.039 -1.469 4.346
 -1.01 -1.465 4.34
 -0.981 -1.462 4.336
 -0.954 -1.461 4.337
 -0.927 -1.459 4.336
 -0.899 -1.457 4.334
 -0.872 -1.455 4.333
 -0.845 -1.455 4.335
 -0.817 -1.452 4.332
 -0.79 -1.449 4.326
 -0.763 -1.448 4.325
 -0.736 -1.447 4.325
 -0.71 -1.446 4.326
 -0.683 -1.444 4.325
 -0.657 -1.445 4.329
 -0.63 -1.444 4.328
 -0.604 -1.442 4.327
 -0.577 -1.441 4.325
 -0.551 -1.44 4.325
 -0.524 -1.437 4.319
 -0.498 -1.436 4.319
 -0.472 -1.435 4.316
 -0.445 -1.433 4.312
 -0.419 -1.433 4.313
 -0.393 -1.432 4.314
 -0.367 -1.431 4.312
 -0.341 -1.43 4.309
 -0.315 -1.429 4.309
 -0.29 -1.428 4.307
 -0.264 -1.428 4.307
 -0.238 -1.427 4.306
 -0.212 -1.426 4.303
 -0.187 -1.426 4.304
 -0.161 -1.426 4.303
 -0.135 -1.426 4.303
 -0.11 -1.425 4.301
 -0.084 -1.425 4.302
 -0.059 -1.425 4.301
 -0.033 -1.423 4.296
 -0.007 -1.422 4.292
 0.017 -1.422 4.292
 0.043 -1.424 4.295
 0.068 -1.423 4.293
 0.094 -1.423 4.293
 0.119 -1.424 4.293
 0.145 -1.423 4.291
 0.17 -1.422 4.287
 0.196 -1.424 4.289
 0.221 -1.425 4.293
 0.247 -1.425 4.291
 0.273 -1.426 4.293
 0.298 -1.426 4.291
 0.323 -1.424 4.282
 0.348 -1.423 4.277
 0.374 -1.423 4.276
 0.399 -1.424 4.275
 0.425 -1.424 4.275
 0.452 -1.427 4.282
 0.477 -1.427 4.278
 0.503 -1.429 4.28
 0.529 -1.429 4.278
 0.554 -1.428 4.272
 0.579 -1.427 4.267
 0.605 -1.429 4.268
 0.631 -1.429 4.266
 0.657 -1.431 4.267
 0.683 -1.432 4.267
 0.709 -1.433 4.266
 0.735 -1.434 4.266
 0.761 -1.434 4.262
 0.787 -1.435 4.259
 0.814 -1.437 4.262
 0.841 -1.439 4.263
 0.867 -1.441 4.264
 0.895 -1.444 4.267
 0.922 -1.446 4.269
 0.949 -1.448 4.269
 0.976 -1.45 4.269
 1.003 -1.452 4.271
 1.029 -1.452 4.266
 1.056 -1.454 4.265
 1.084 -1.456 4.264
 1.11 -1.456 4.26
 1.137 -1.458 4.257
 1.164 -1.46 4.257
 1.192 -1.461 4.255
 1.219 -1.463 4.254
 1.248 -1.467 4.257
 1.277 -1.469 4.258
 1.305 -1.472 4.257
 1.332 -1.473 4.253
 1.36 -1.475 4.252
 1.388 -1.476 4.248
 1.415 -1.478 4.244
 1.445 -1.481 4.245
 1.475 -1.485 4.248
 1.504 -1.487 4.246
 1.532 -1.489 4.243
 1.561 -1.492 4.242
 1.589 -1.493 4.237
 1.616 -1.494 4.229
 1.644 -1.495 4.223
 1.673 -1.497 4.219
 1.701 -1.499 4.214
 1.73 -1.501 4.21
 1.76 -1.503 4.206
 1.786 -1.503 4.196
 1.81 -1.501 4.18
 1.83 -1.495 4.152
 1.848 -1.488 4.122
 1.861 -1.478 4.083
 1.873 -1.467 4.042
 1.884 -1.455 3.998
 0 0 0
 0 0 0
 0 0 0
 0 0 0
 0 0 0
 0.603 -0.433 1.156
 0.61 -0.433 1.152
 0.618 -0.433 1.148
 1.341 -0.924 2.464
 1.651 -1.123 2.988
 1.784 -1.199 3.181
 1.801 -1.196 3.161
 1.819 -1.194 3.145
 1.719 -1.116 2.928
 0 0 0
 0 0 0
 -0.045 -0.03 0.065
 -0.141 -0.091 0.233
 -0.266 -0.173 0.459
 -0.259 -0.17 0.453
 -0.247 -0.164 0.439
 -0.24 -0.161 0.433
 -0.229 -0.156 0.419
 -0.31 -0.214 0.581
 -0.387 -0.269 0.74
 -0.375 -0.265 0.73
 -0.449 -0.321 0.89
 -0.526 -0.381 1.061
 -0.599 -0.439 1.231
 -0.836 -0.621 1.752
 -1.147 -0.863 2.447
 -1.449 -1.106 3.149
 -1.662 -1.286 3.674
 -1.789 -1.404 4.023
 -1.837 -1.463 4.201
 -1.881 -1.52 4.377
 -1.847 -1.516 4.374
 -1.815 -1.513 4.375
 -1.784 -1.51 4.376
 -1.751 -1.505 4.372
 -1.719 -1.502 4.371
 -1.689 -1.5 4.375
 -1.657 -1.496 4.373
 -1.626 -1.493 4.372
 -1.595 -1.49 4.371
 -1.565 -1.487 4.372
 -1.534 -1.484 4.37
 -1.505 -1.482 4.373
 -1.473 -1.478 4.369
 -1.444 -1.476 4.37
 -1.413 -1.473 4.366
 -1.383 -1.47 4.365
 -1.354 -1.467 4.363
 -1.324 -1.464 4.362
 -1.295 -1.461 4.36
 -1.266 -1.46 4.361
 -1.236 -1.455 4.354
 -1.205 -1.451 4.347
 -1.177 -1.449 4.348
 -1.149 -1.448 4.35
 -1.12 -1.444 4.344
 -1.092 -1.443 4.346
 -1.065 -1.442 4.347
 -1.037 -1.44 4.346
 -1.008 -1.436 4.34
 -0.979 -1.433 4.335
 -0.952 -1.432 4.336
 -0.924 -1.429 4.333
 -0.897 -1.428 4.333
 -0.869 -1.426 4.33
 -0.844 -1.426 4.336
 -0.816 -1.423 4.33
 -0.79 -1.424 4.336
 -0.763 -1.422 4.333
 -0.737 -1.422 4.337
 -0.71 -1.421 4.337
 -0.683 -1.42 4.337
 -0.656 -1.417 4.331
 -0.629 -1.416 4.33
 -0.603 -1.415 4.33
 -0.577 -1.413 4.328
 -0.55 -1.413 4.328
 -0.523 -1.41 4.322
 -0.497 -1.409 4.322
 -0.471 -1.408 4.32
 -0.445 -1.406 4.316
 -0.419 -1.406 4.319
 -0.393 -1.405 4.317
 -0.367 -1.405 4.318
 -0.341 -1.402 4.311
 -0.315 -1.401 4.308
 -0.289 -1.4 4.305
 -0.263 -1.4 4.307
 -0.237 -1.399 4.303
 -0.212 -1.398 4.302
 -0.186 -1.398 4.303
 -0.161 -1.399 4.306
 -0.135 -1.399 4.305
 -0.109 -1.398 4.303
 -0.084 -1.398 4.304
 -0.058 -1.398 4.304
 -0.033 -1.395 4.296
 -0.007 -1.395 4.294
 0.017 -1.396 4.295
 0.043 -1.397 4.3
 0.068 -1.396 4.297
 0.094 -1.397 4.298
 0.119 -1.397 4.296
 0.145 -1.396 4.293
 0.17 -1.395 4.289
 0.196 -1.397 4.293
 0.221 -1.399 4.299
 0.247 -1.399 4.297
 0.273 -1.4 4.299
 0.298 -1.4 4.297
 0.323 -1.398 4.287
 0.348 -1.395 4.279
 0.373 -1.396 4.277
 0.399 -1.396 4.275
 0.424 -1.396 4.274
 0.451 -1.4 4.284
 0.477 -1.401 4.283
 0.503 -1.403 4.286
 0.529 -1.403 4.285
 0.554 -1.403 4.28
 0.579 -1.401 4.272
 0.605 -1.402 4.272
 0.631 -1.403 4.271
 0.657 -1.405 4.273
 0.683 -1.406 4.273
 0.709 -1.407 4.273
 0.735 -1.408 4.271
 0.761 -1.408 4.267
 0.786 -1.408 4.263
 0.813 -1.41 4.266
 0.84 -1.412 4.267
 0.867 -1.414 4.269
 0.894 -1.417 4.272
 0.923 -1.421 4.279
 0.949 -1.422 4.278
 0.976 -1.424 4.276
 1.003 -1.425 4.275
 1.029 -1.425 4.269
 1.055 -1.426 4.266
 1.082 -1.428 4.266
 1.109 -1.428 4.261
 1.136 -1.43 4.259
 1.163 -1.432 4.259
 1.19 -1.433 4.256
 1.218 -1.435 4.255
 1.247 -1.438 4.259
 1.274 -1.44 4.257
 1.302 -1.442 4.256
 1.33 -1.444 4.253
 1.358 -1.446 4.253
 1.385 -1.447 4.248
 1.414 -1.45 4.248
 1.443 -1.453 4.249
 1.473 -1.456 4.249
 1.501 -1.458 4.247
 1.53 -1.46 4.244
 1.559 -1.463 4.243
 1.586 -1.464 4.237
 1.613 -1.464 4.229
 1.642 -1.466 4.225
 1.67 -1.468 4.22
 1.698 -1.469 4.215
 1.729 -1.473 4.214
 1.758 -1.475 4.212
 1.785 -1.475 4.201
 1.81 -1.474 4.187
 1.831 -1.47 4.164
 1.85 -1.464 4.136
 1.868 -1.457 4.107
 1.882 -1.447 4.068
 0 0 0
 0 0 0
 0 0 0
 0 0 0
 0 0 0
 0 0 0
 0.603 -0.425 1.159
 0.61 -0.425 1.155
 0.618 -0.425 1.151
 1.276 -0.864 2.349
 1.627 -1.087 2.951
 1.795 -1.184 3.206
 1.81 -1.181 3.185
 1.831 -1.181 3.173
 1.503 -0.958 2.564
 0 0 0
 0 0 0
 -0.166 -0.104 0.273
 -0.144 -0.091 0.24
 -0.094 -0.061 0.154
 -0.085 -0.056 0.141
 -0.078 -0.052 0.131
 -0.071 -0.048 0.12
 -0.061 -0.042 0.103
 -0.143 -0.097 0.261
 -0.133 -0.092 0.247
 -0.122 -0.086 0.23
 -0.2 -0.141 0.389
 -0.277 -0.197 0.553
 -0.352 -0.254 0.72
 -0.674 -0.491 1.412
 -0.986 -0.728 2.106
 -1.29 -0.966 2.806
 -1.585 -1.204 3.509
 -1.791 -1.38 4.035
 -1.838 -1.437 4.212
 -1.881 -1.493 4.388
 -1.847 -1.488 4.384
 -1.814 -1.484 4.38
 -1.782 -1.481 4.38
 -1.75 -1.477 4.379
 -1.718 -1.473 4.377
 -1.687 -1.471 4.38
 -1.656 -1.468 4.379
 -1.625 -1.465 4.379
 -1.594 -1.462 4.378
 -1.564 -1.459 4.377
 -1.533 -1.456 4.376
 -1.503 -1.454 4.377
 -1.472 -1.449 4.372
 -1.442 -1.447 4.371
 -1.411 -1.444 4.369
 -1.381 -1.44 4.365
 -1.352 -1.438 4.365
 -1.322 -1.435 4.364
 -1.293 -1.432 4.362
 -1.264 -1.43 4.362
 -1.233 -1.426 4.354
 -1.202 -1.421 4.345
 -1.174 -1.419 4.346
 -1.147 -1.418 4.347
 -1.118 -1.415 4.343
 -1.091 -1.415 4.349
 -1.065 -1.415 4.354
 -1.037 -1.413 4.352
 -1.008 -1.409 4.347
 -0.979 -1.406 4.341
 -0.952 -1.405 4.342
 -0.924 -1.402 4.338
 -0.897 -1.401 4.339
 -0.869 -1.399 4.335
 -0.843 -1.399 4.34
 -0.815 -1.395 4.333
 -0.789 -1.397 4.341
 -0.762 -1.395 4.338
 -0.736 -1.396 4.344
 -0.71 -1.395 4.344
 -0.684 -1.395 4.347
 -0.656 -1.391 4.339
 -0.629 -1.39 4.337
 -0.603 -1.389 4.336
 -0.576 -1.387 4.334
 -0.55 -1.386 4.334
 -0.523 -1.383 4.327
 -0.497 -1.383 4.327
 -0.47 -1.381 4.323
 -0.444 -1.38 4.321
 -0.419 -1.38 4.323
 -0.392 -1.377 4.316
 -0.366 -1.376 4.314
 -0.34 -1.375 4.311
 -0.314 -1.373 4.307
 -0.288 -1.371 4.303
 -0.263 -1.372 4.305
 -0.237 -1.371 4.303
 -0.211 -1.369 4.299
 -0.186 -1.37 4.301
 -0.16 -1.371 4.304
 -0.135 -1.371 4.306
 -0.109 -1.37 4.304
 -0.084 -1.37 4.303
 -0.058 -1.37 4.302
 -0.033 -1.368 4.296
 -0.007 -1.367 4.294
 0.017 -1.367 4.294
 0.043 -1.371 4.305
 0.068 -1.371 4.303
 0.094 -1.371 4.304
 0.119 -1.372 4.305
 0.145 -1.372 4.304
 0.17 -1.371 4.3
 0.196 -1.372 4.303
 0.222 -1.375 4.309
 0.247 -1.374 4.307
 0.273 -1.375 4.306
 0.298 -1.374 4.303
 0.323 -1.372 4.293
 0.348 -1.369 4.282
 0.373 -1.368 4.279
 0.399 -1.369 4.279
 0.424 -1.369 4.277
 0.451 -1.374 4.288
 0.477 -1.374 4.288
 0.503 -1.377 4.292
 0.528 -1.376 4.288
 0.554 -1.376 4.283
 0.579 -1.374 4.275
 0.604 -1.375 4.273
 0.63 -1.375 4.27
 0.656 -1.377 4.273
 0.682 -1.378 4.273
 0.708 -1.379 4.273
 0.735 -1.381 4.275
 0.76 -1.381 4.269
 0.786 -1.38 4.264
 0.813 -1.384 4.27
 0.84 -1.386 4.272
 0.866 -1.387 4.272
 0.894 -1.39 4.276
 0.923 -1.395 4.285
 0.949 -1.396 4.283
 0.975 -1.396 4.278
 1.002 -1.397 4.276
 1.027 -1.397 4.271
 1.054 -1.398 4.267
 1.08 -1.399 4.264
 1.107 -1.4 4.261
 1.134 -1.401 4.259
 1.161 -1.402 4.257
 1.187 -1.403 4.253
 1.215 -1.405 4.253
 1.244 -1.409 4.256
 1.272 -1.411 4.255
 1.3 -1.414 4.257
 1.328 -1.416 4.255
 1.356 -1.417 4.253
 1.383 -1.419 4.249
 1.412 -1.421 4.249
 1.441 -1.424 4.25
 1.47 -1.427 4.248
 1.499 -1.429 4.247
 1.527 -1.431 4.245
 1.556 -1.433 4.243
 1.583 -1.434 4.235
 1.61 -1.434 4.227
 1.638 -1.436 4.222
 1.666 -1.438 4.218
 1.695 -1.44 4.214
 1.726 -1.443 4.216
 1.757 -1.447 4.217
 1.785 -1.448 4.21
 1.811 -1.448 4.198
 1.836 -1.446 4.182
 1.859 -1.443 4.163
 1.876 -1.436 4.131
 0 0 0
 0 0 0
 0 0 0
 0 0 0
 0 0 0
 0 0 0
 0 0 0
 0.603 -0.418 1.162
 0.61 -0.417 1.158
 0.618 -0.417 1.154
 1.176 -0.782 2.168
 1.574 -1.032 2.859
 1.788 -1.158 3.201
 1.809 -1.158 3.189
 1.586 -1.004 2.753
 1.144 -0.717 1.954
 0 0 0
 0.467 -0.288 0.77
 -0.121 -0.075 0.197
 -0.107 -0.067 0.176
 -0.106 -0.067 0.176
 -0.095 -0.061 0.16
 -0.087 -0.057 0.147
 -0.079 -0.052 0.134
 -0.067 -0.045 0.114
 -0.057 -0.039 0.096
 -0.047 -0.033 0.079
 -0.036 -0.026 0.059
 -0.2 -0.138 0.39
 -0.191 -0.134 0.38
 -0.435 -0.308 0.894
 -0.837 -0.599 1.761
 -1.228 -0.89 2.633
 -1.448 -1.064 3.159
 -1.821 -1.357 4.043
 -1.946 -1.471 4.394
 -1.914 -1.468 4.396
 -1.88 -1.464 4.394
 -1.847 -1.46 4.391
 -1.812 -1.454 4.384
 -1.78 -1.451 4.385
 -1.748 -1.448 4.383
 -1.716 -1.444 4.381
 -1.685 -1.441 4.382
 -1.654 -1.438 4.381
 -1.623 -1.435 4.38
 -1.592 -1.432 4.379
 -1.561 -1.429 4.377
 -1.529 -1.425 4.374
 -1.501 -1.424 4.378
 -1.469 -1.419 4.371
 -1.438 -1.416 4.369
 -1.409 -1.414 4.369
 -1.379 -1.411 4.367
 -1.349 -1.409 4.366
 -1.32 -1.406 4.366
 -1.291 -1.404 4.364
 -1.262 -1.402 4.364
 -1.232 -1.398 4.358
 -1.201 -1.392 4.346
 -1.173 -1.391 4.348
 -1.145 -1.39 4.35
 -1.116 -1.386 4.344
 -1.089 -1.386 4.349
 -1.063 -1.386 4.355
 -1.035 -1.384 4.352
 -1.006 -1.381 4.346
 -0.977 -1.378 4.342
 -0.95 -1.377 4.344
 -0.922 -1.374 4.338
 -0.896 -1.374 4.342
 -0.867 -1.37 4.335
 -0.842 -1.371 4.341
 -0.813 -1.366 4.33
 -0.789 -1.37 4.346
 -0.762 -1.368 4.344
 -0.736 -1.37 4.352
 -0.71 -1.369 4.351
 -0.684 -1.37 4.357
 -0.655 -1.363 4.34
 -0.628 -1.361 4.334
 -0.601 -1.359 4.333
 -0.575 -1.358 4.33
 -0.549 -1.358 4.332
 -0.522 -1.355 4.326
 -0.496 -1.355 4.327
 -0.47 -1.353 4.322
 -0.443 -1.352 4.32
 -0.418 -1.352 4.324
 -0.39 -1.346 4.307
 -0.365 -1.346 4.306
 -0.339 -1.345 4.307
 -0.313 -1.344 4.304
 -0.287 -1.343 4.3
 -0.262 -1.344 4.304
 -0.236 -1.343 4.304
 -0.211 -1.341 4.298
 -0.185 -1.342 4.299
 -0.16 -1.343 4.303
 -0.134 -1.343 4.306
 -0.109 -1.342 4.303
 -0.083 -1.342 4.3
 -0.058 -1.342 4.3
 -0.032 -1.341 4.297
 -0.007 -1.34 4.296
 0.017 -1.341 4.296
 0.043 -1.347 4.316
 0.069 -1.347 4.314
 0.094 -1.346 4.312
 0.119 -1.345 4.307
 0.145 -1.346 4.31
 0.17 -1.345 4.306
 0.196 -1.346 4.306
 0.222 -1.347 4.31
 0.247 -1.349 4.315
 0.273 -1.349 4.313
 0.298 -1.347 4.304
 0.323 -1.344 4.293
 0.348 -1.342 4.285
 0.373 -1.341 4.28
 0.398 -1.342 4.28
 0.424 -1.343 4.282
 0.451 -1.349 4.296
 0.477 -1.349 4.296
 0.503 -1.351 4.3
 0.529 -1.351 4.294
 0.553 -1.349 4.285
 0.578 -1.346 4.274
 0.603 -1.347 4.273
 0.628 -1.346 4.266
 0.655 -1.348 4.27
 0.681 -1.35 4.272
 0.707 -1.351 4.272
 0.734 -1.353 4.274
 0.759 -1.353 4.269
 0.784 -1.353 4.265
 0.812 -1.357 4.273
 0.84 -1.36 4.279
 0.866 -1.361 4.277
 0.894 -1.365 4.284
 0.923 -1.37 4.295
 0.949 -1.369 4.289
 0.974 -1.368 4.279
 1 -1.368 4.275
 1.026 -1.369 4.271
 1.052 -1.369 4.265
 1.078 -1.369 4.261
 1.105 -1.372 4.263
 1.133 -1.373 4.262
 1.16 -1.375 4.259
 1.186 -1.376 4.256
 1.214 -1.378 4.258
 1.242 -1.381 4.257
 1.27 -1.383 4.257
 1.299 -1.386 4.259
 1.327 -1.388 4.259
 1.355 -1.39 4.257
 1.383 -1.391 4.254
 1.411 -1.394 4.253
 1.439 -1.396 4.251
 1.467 -1.397 4.248
 1.495 -1.399 4.245
 1.524 -1.401 4.242
 1.553 -1.403 4.241
 1.58 -1.405 4.235
 1.607 -1.405 4.228
 1.636 -1.407 4.225
 1.664 -1.409 4.221
 1.693 -1.411 4.216
 1.724 -1.414 4.217
 1.756 -1.419 4.221
 1.785 -1.421 4.217
 1.814 -1.423 4.213
 1.843 -1.425 4.207
 1.872 -1.426 4.2
 0 0 0
 0 0 0
 0 0 0
 0 0 0
 0 0 0
 0 0 0
 0 0 0
 0 0 0
 0 0 0
 0 0 0
 0 0 0
 0 0 0
 0 0 0
 0 0 0
 0 0 0
 1.113 -0.693 1.934
 0.716 -0.442 1.223
 0 0 0
 0.484 -0.293 0.8
 -0.149 -0.09 0.246
 -0.109 -0.067 0.179
 -0.112 -0.069 0.187
 -0.097 -0.061 0.163
 -0.089 -0.057 0.151
 -0.079 -0.052 0.136
 -0.066 -0.044 0.113
 -0.056 -0.038 0.095
 -0.045 -0.031 0.076
 -0.035 -0.025 0.057
 -0.284 -0.192 0.562
 -0.359 -0.246 0.725
 -0.685 -0.474 1.417
 -1.083 -0.76 2.286
 -1.47 -1.045 3.161
 -1.606 -1.158 3.512
 -1.897 -1.387 4.22
 -1.942 -1.44 4.395
 -1.911 -1.438 4.397
 -1.877 -1.434 4.396
 -1.843 -1.429 4.391
 -1.808 -1.424 4.384
 -1.777 -1.421 4.385
 -1.744 -1.417 4.382
 -1.712 -1.414 4.38
 -1.681 -1.411 4.38
 -1.651 -1.409 4.383
 -1.621 -1.406 4.384
 -1.59 -1.404 4.384
 -1.559 -1.4 4.38
 -1.528 -1.397 4.377
 -1.498 -1.394 4.377
 -1.466 -1.39 4.37
 -1.434 -1.386 4.365
 -1.406 -1.384 4.367
 -1.377 -1.382 4.368
 -1.348 -1.38 4.369
 -1.319 -1.378 4.368
 -1.291 -1.377 4.371
 -1.262 -1.375 4.371
 -1.232 -1.371 4.366
 -1.2 -1.365 4.35
 -1.172 -1.363 4.351
 -1.144 -1.362 4.352
 -1.114 -1.357 4.344
 -1.087 -1.357 4.349
 -1.062 -1.359 4.358
 -1.033 -1.355 4.351
 -1.004 -1.352 4.346
 -0.976 -1.35 4.343
 -0.949 -1.348 4.343
 -0.92 -1.344 4.334
 -0.894 -1.346 4.343
 -0.865 -1.341 4.333
 -0.84 -1.343 4.342
 -0.811 -1.338 4.329
 -0.789 -1.345 4.356
 -0.762 -1.343 4.353
 -0.738 -1.346 4.366
 -0.71 -1.344 4.363
 -0.685 -1.346 4.371
 -0.653 -1.334 4.337
 -0.626 -1.331 4.329
 -0.6 -1.331 4.33
 -0.573 -1.329 4.327
 -0.548 -1.331 4.336
 -0.522 -1.329 4.33
 -0.495 -1.328 4.33
 -0.468 -1.323 4.317
 -0.442 -1.323 4.317
 -0.417 -1.324 4.322
 -0.389 -1.317 4.301
 -0.364 -1.319 4.309
 -0.339 -1.32 4.313
 -0.313 -1.318 4.308
 -0.287 -1.317 4.305
 -0.262 -1.318 4.309
 -0.236 -1.316 4.304
 -0.21 -1.314 4.299
 -0.185 -1.315 4.302
 -0.159 -1.315 4.303
 -0.134 -1.316 4.306
 -0.109 -1.316 4.305
 -0.083 -1.314 4.301
 -0.058 -1.314 4.301
 -0.032 -1.314 4.3
 -0.007 -1.312 4.294
 0.017 -1.31 4.287
 0.043 -1.319 4.314
 0.069 -1.318 4.311
 0.094 -1.316 4.304
 0.119 -1.315 4.298
 0.145 -1.321 4.318
 0.171 -1.321 4.316
 0.196 -1.319 4.308
 0.222 -1.324 4.323
 0.248 -1.326 4.33
 0.273 -1.323 4.316
 0.298 -1.319 4.303
 0.323 -1.317 4.296
 0.347 -1.314 4.282
 0.372 -1.312 4.273
 0.397 -1.313 4.274
 0.423 -1.314 4.276
 0.451 -1.321 4.295
 0.476 -1.321 4.293
 0.503 -1.325 4.304
 0.529 -1.326 4.305
 0.554 -1.323 4.293
 0.577 -1.32 4.278
 0.602 -1.318 4.269
 0.627 -1.316 4.26
 0.652 -1.317 4.258
 0.679 -1.319 4.263
 0.705 -1.321 4.264
 0.734 -1.327 4.279
 0.759 -1.326 4.273
