 1.159 -1.627 4.077
 1.185 -1.628 4.071
 1.21 -1.628 4.066
 1.237 -1.63 4.063
 1.264 -1.632 4.061
 1.291 -1.634 4.058
 1.318 -1.636 4.057
 1.345 -1.638 4.053
 1.37 -1.638 4.045
 1.396 -1.638 4.038
 1.421 -1.638 4.029
 1.445 -1.636 4.016
 1.469 -1.634 4.003
 1.494 -1.634 3.995
 1.52 -1.635 3.988
 1.546 -1.635 3.98
 1.572 -1.636 3.971
 1.598 -1.637 3.965
 1.623 -1.636 3.954
 1.647 -1.634 3.94
 1.669 -1.632 3.924
 1.693 -1.63 3.91
 1.718 -1.63 3.899
 1.742 -1.629 3.885
 1.766 -1.628 3.874
 1.789 -1.626 3.858
 1.812 -1.623 3.841
 1.83 -1.618 3.817
 1.847 -1.61 3.788
 1.856 -1.597 3.745
 1.867 -1.585 3.707
 1.875 -1.571 3.662
 1.878 -1.554 3.611
 1.879 -1.535 3.555
 1.886 -1.522 3.513
 1.891 -1.507 3.467
 1.871 -1.473 3.376
 1.845 -1.435 3.279
 1.833 -1.408 3.206
 1.831 -1.391 3.155
 1.837 -1.379 3.118
 1.84 -1.365 3.075
 1.875 -1.375 3.086
 1.835 -1.331 2.975
 -2.232 -1.612 3.758
 -2.229 -1.628 3.809
 -2.202 -1.628 3.821
 -2.176 -1.628 3.835
 -2.147 -1.626 3.843
 -2.122 -1.627 3.857
 -2.095 -1.626 3.868
 -2.069 -1.627 3.881
 -2.044 -1.628 3.895
 -2.019 -1.629 3.908
 -1.991 -1.627 3.916
 -1.963 -1.626 3.925
 -1.937 -1.626 3.936
 -1.91 -1.625 3.945
 -1.883 -1.625 3.954
 -1.858 -1.626 3.968
 -1.832 -1.626 3.978
 -1.804 -1.624 3.983
 -1.778 -1.625 3.995
 -1.752 -1.625 4.005
 -1.722 -1.621 4.006
 -1.696 -1.621 4.015
 -1.671 -1.622 4.026
 -1.644 -1.621 4.033
 -1.616 -1.62 4.039
 -1.593 -1.622 4.054
 -1.566 -1.622 4.061
 -1.539 -1.62 4.066
 -1.512 -1.62 4.072
 -1.487 -1.62 4.082
 -1.459 -1.618 4.085
 -1.432 -1.617 4.089
 -1.406 -1.617 4.097
 -1.378 -1.615 4.099
 -1.351 -1.614 4.103
 -1.324 -1.613 4.108
 -1.299 -1.613 4.116
 -1.273 -1.613 4.122
 -1.248 -1.615 4.133
 -1.222 -1.614 4.138
 -1.197 -1.615 4.147
 -1.171 -1.616 4.154
 -1.143 -1.613 4.154
 -1.117 -1.613 4.159
 -1.091 -1.613 4.163
 -1.064 -1.61 4.162
 -1.037 -1.608 4.163
 -1.012 -1.61 4.173
 -0.986 -1.609 4.175
 -0.96 -1.609 4.18
 -0.934 -1.609 4.184
 -0.908 -1.608 4.187
 -0.881 -1.606 4.186
 -0.855 -1.605 4.187
 -0.828 -1.604 4.187
 -0.802 -1.603 4.189
 -0.776 -1.602 4.19
 -0.749 -1.6 4.189
 -0.723 -1.599 4.191
 -0.697 -1.598 4.192
 -0.672 -1.599 4.197
 -0.647 -1.599 4.2
 -0.621 -1.6 4.204
 -0.596 -1.602 4.212
 -0.571 -1.603 4.22
 -0.546 -1.603 4.221
 -0.52 -1.602 4.222
 -0.494 -1.602 4.222
 -0.468 -1.6 4.22
 -0.442 -1.598 4.216
 -0.416 -1.597 4.215
 -0.39 -1.596 4.215
 -0.365 -1.596 4.217
 -0.339 -1.595 4.215
 -0.314 -1.594 4.215
 -0.288 -1.594 4.215
 -0.263 -1.594 4.217
 -0.237 -1.595 4.219
 -0.212 -1.595 4.221
 -0.187 -1.596 4.223
 -0.161 -1.595 4.222
 -0.136 -1.594 4.22
 -0.11 -1.593 4.218
 -0.085 -1.594 4.219
 -0.059 -1.593 4.217
 -0.034 -1.593 4.217
 -0.009 -1.593 4.218
 0.016 -1.593 4.217
 0.041 -1.592 4.215
 0.067 -1.593 4.216
 0.092 -1.593 4.215
 0.117 -1.594 4.215
 0.143 -1.595 4.217
 0.168 -1.594 4.215
 0.193 -1.594 4.213
 0.219 -1.594 4.212
 0.244 -1.593 4.207
 0.269 -1.592 4.204
 0.294 -1.592 4.203
 0.32 -1.593 4.202
 0.346 -1.594 4.204
 0.371 -1.596 4.206
 0.397 -1.597 4.207
 0.422 -1.598 4.206
 0.448 -1.599 4.206
 0.473 -1.598 4.201
 0.499 -1.599 4.201
 0.524 -1.598 4.197
 0.55 -1.599 4.196
 0.575 -1.6 4.195
 0.601 -1.602 4.196
 0.627 -1.602 4.194
 0.653 -1.603 4.193
 0.679 -1.605 4.194
 0.705 -1.605 4.191
 0.731 -1.607 4.19
 0.757 -1.608 4.188
 0.782 -1.608 4.185
 0.808 -1.608 4.182
 0.834 -1.61 4.182
 0.859 -1.61 4.175
 0.885 -1.61 4.172
 0.911 -1.611 4.17
 0.937 -1.612 4.167
 0.962 -1.611 4.157
 0.989 -1.613 4.157
 1.015 -1.614 4.154
 1.041 -1.615 4.151
 1.067 -1.615 4.147
 1.094 -1.617 4.146
 1.119 -1.617 4.138
 1.145 -1.617 4.132
 1.171 -1.618 4.128
 1.197 -1.619 4.122
 1.224 -1.62 4.119
 1.252 -1.623 4.119
 1.279 -1.625 4.117
 1.305 -1.626 4.113
 1.334 -1.629 4.113
 1.36 -1.631 4.109
 1.386 -1.631 4.101
 1.412 -1.631 4.094
 1.439 -1.632 4.087
 1.462 -1.629 4.073
 1.487 -1.628 4.062
 1.513 -1.629 4.054
 1.54 -1.63 4.048
 1.566 -1.63 4.039
 1.592 -1.63 4.031
 1.618 -1.631 4.023
 1.643 -1.63 4.012
 1.667 -1.628 3.997
 1.69 -1.626 3.981
 1.714 -1.625 3.968
 1.74 -1.625 3.959
 1.764 -1.624 3.945
 1.789 -1.622 3.931
 1.811 -1.62 3.914
 1.831 -1.615 3.892
 1.847 -1.607 3.861
 1.862 -1.598 3.827
 1.868 -1.582 3.778
 1.875 -1.567 3.732
 1.883 -1.553 3.686
 1.886 -1.536 3.635
 1.886 -1.516 3.577
 1.895 -1.505 3.538
 1.901 -1.491 3.494
 1.872 -1.451 3.387
 1.829 -1.4 3.259
 1.817 -1.375 3.187
 1.823 -1.363 3.149
 1.836 -1.357 3.123
 1.842 -1.346 3.087
 1.862 -1.344 3.072
 1.836 -1.311 2.985
 -2.3 -1.634 3.883
 -2.271 -1.632 3.892
 -2.231 -1.623 3.882
 -2.204 -1.623 3.895
 -2.176 -1.622 3.905
 -2.15 -1.622 3.919
 -2.124 -1.623 3.932
 -2.099 -1.624 3.947
 -2.073 -1.624 3.96
 -2.047 -1.625 3.973
 -2.019 -1.623 3.981
 -1.991 -1.622 3.99
 -1.964 -1.622 4.001
 -1.937 -1.622 4.011
 -1.909 -1.621 4.019
 -1.884 -1.622 4.032
 -1.857 -1.622 4.042
 -1.83 -1.621 4.052
 -1.804 -1.622 4.063
 -1.778 -1.622 4.073
 -1.748 -1.619 4.075
 -1.72 -1.618 4.082
 -1.694 -1.618 4.091
 -1.665 -1.615 4.094
 -1.637 -1.615 4.101
 -1.613 -1.616 4.115
 -1.585 -1.615 4.12
 -1.556 -1.613 4.122
 -1.531 -1.613 4.132
 -1.503 -1.612 4.138
 -1.475 -1.61 4.14
 -1.449 -1.61 4.148
 -1.423 -1.611 4.157
 -1.395 -1.608 4.158
 -1.368 -1.608 4.164
 -1.341 -1.607 4.168
 -1.314 -1.606 4.174
 -1.287 -1.605 4.177
 -1.261 -1.606 4.186
 -1.235 -1.605 4.191
 -1.209 -1.605 4.198
 -1.182 -1.605 4.202
 -1.155 -1.603 4.204
 -1.127 -1.602 4.205
 -1.1 -1.6 4.208
 -1.073 -1.599 4.209
 -1.045 -1.596 4.207
 -1.02 -1.597 4.214
 -0.994 -1.597 4.219
 -0.968 -1.596 4.223
 -0.941 -1.596 4.226
 -0.915 -1.596 4.23
 -0.888 -1.594 4.231
 -0.861 -1.592 4.228
 -0.834 -1.59 4.228
 -0.808 -1.588 4.228
 -0.781 -1.587 4.228
 -0.755 -1.586 4.227
 -0.728 -1.584 4.227
 -0.702 -1.583 4.227
 -0.676 -1.584 4.233
 -0.651 -1.584 4.236
 -0.625 -1.584 4.239
 -0.6 -1.586 4.247
 -0.575 -1.587 4.252
 -0.548 -1.586 4.252
 -0.522 -1.584 4.25
 -0.496 -1.583 4.249
 -0.47 -1.581 4.246
 -0.444 -1.58 4.244
 -0.418 -1.579 4.244
 -0.392 -1.579 4.246
 -0.367 -1.579 4.248
 -0.341 -1.578 4.247
 -0.315 -1.578 4.248
 -0.289 -1.577 4.247
 -0.264 -1.576 4.246
 -0.238 -1.577 4.247
 -0.213 -1.577 4.248
 -0.187 -1.576 4.246
 -0.161 -1.575 4.244
 -0.136 -1.574 4.244
 -0.11 -1.574 4.242
 -0.085 -1.574 4.242
 -0.059 -1.574 4.242
 -0.034 -1.574 4.243
 -0.008 -1.574 4.242
 0.016 -1.574 4.242
 0.042 -1.574 4.241
 0.067 -1.575 4.243
 0.093 -1.575 4.244
 0.118 -1.576 4.244
 0.144 -1.576 4.245
 0.169 -1.576 4.243
 0.194 -1.575 4.239
 0.22 -1.574 4.236
 0.245 -1.574 4.233
 0.27 -1.573 4.23
 0.296 -1.574 4.23
 0.322 -1.575 4.229
 0.347 -1.576 4.232
 0.373 -1.577 4.232
 0.399 -1.579 4.234
 0.424 -1.579 4.233
 0.45 -1.58 4.233
 0.476 -1.58 4.23
 0.501 -1.581 4.229
 0.527 -1.58 4.226
 0.552 -1.581 4.223
 0.578 -1.581 4.221
 0.604 -1.583 4.222
 0.63 -1.584 4.221
 0.656 -1.585 4.22
 0.682 -1.587 4.222
 0.708 -1.588 4.22
 0.734 -1.589 4.219
 0.761 -1.59 4.218
 0.787 -1.591 4.217
 0.812 -1.591 4.213
 0.839 -1.593 4.212
 0.865 -1.593 4.207
 0.891 -1.594 4.205
 0.917 -1.595 4.202
 0.943 -1.596 4.201
 0.969 -1.596 4.195
 0.996 -1.598 4.194
 1.022 -1.599 4.191
 1.049 -1.601 4.19
 1.076 -1.602 4.188
 1.103 -1.604 4.186
 1.128 -1.604 4.179
 1.154 -1.604 4.174
 1.181 -1.605 4.171
 1.207 -1.606 4.165
 1.234 -1.607 4.162
 1.262 -1.61 4.163
 1.29 -1.612 4.161
 1.317 -1.614 4.156
 1.344 -1.616 4.155
 1.372 -1.618 4.152
 1.398 -1.618 4.144
 1.425 -1.619 4.138
 1.452 -1.62 4.133
 1.477 -1.619 4.123
 1.503 -1.619 4.113
 1.529 -1.62 4.106
 1.556 -1.62 4.099
 1.582 -1.621 4.091
 1.608 -1.621 4.082
 1.636 -1.622 4.075
 1.662 -1.622 4.066
 1.687 -1.621 4.054
 1.711 -1.619 4.039
 1.736 -1.619 4.028
 1.762 -1.619 4.017
 1.785 -1.617 4.001
 1.809 -1.614 3.984
 1.828 -1.609 3.96
 1.846 -1.602 3.932
 1.859 -1.591 3.895
 1.871 -1.58 3.855
 1.875 -1.562 3.801
 1.882 -1.548 3.754
 1.889 -1.533 3.707
 1.893 -1.517 3.656
 1.891 -1.496 3.595
 1.902 -1.486 3.558
 1.908 -1.473 3.515
 1.876 -1.43 3.402
 1.819 -1.37 3.248
 1.812 -1.349 3.185
 1.823 -1.341 3.157
 1.837 -1.336 3.134
 1.845 -1.326 3.099
 1.843 -1.31 3.05
 1.832 -1.288 2.987
 -2.325 -1.625 3.935
 -2.278 -1.611 3.914
 -2.258 -1.616 3.94
 -2.233 -1.617 3.955
 -2.205 -1.616 3.967
 -2.177 -1.616 3.978
 -2.153 -1.617 3.994
 -2.127 -1.619 4.009
 -2.1 -1.618 4.02
 -2.074 -1.62 4.036
 -2.045 -1.618 4.044
 -2.016 -1.616 4.05
 -1.988 -1.615 4.06
 -1.961 -1.616 4.071
 -1.932 -1.614 4.078
 -1.907 -1.615 4.091
 -1.881 -1.616 4.104
 -1.855 -1.617 4.117
 -1.829 -1.617 4.129
 -1.802 -1.617 4.139
 -1.772 -1.615 4.142
 -1.744 -1.614 4.148
 -1.715 -1.612 4.153
 -1.685 -1.609 4.154
 -1.658 -1.608 4.161
 -1.632 -1.609 4.172
 -1.603 -1.607 4.176
 -1.574 -1.604 4.179
 -1.548 -1.605 4.188
 -1.519 -1.602 4.189
 -1.491 -1.601 4.194
 -1.464 -1.601 4.201
 -1.437 -1.601 4.208
 -1.409 -1.599 4.212
 -1.383 -1.599 4.218
 -1.354 -1.596 4.218
 -1.326 -1.594 4.221
 -1.298 -1.593 4.223
 -1.271 -1.592 4.228
 -1.243 -1.59 4.23
 -1.217 -1.59 4.235
 -1.19 -1.589 4.239
 -1.162 -1.588 4.241
 -1.135 -1.586 4.243
 -1.108 -1.585 4.246
 -1.08 -1.583 4.246
 -1.052 -1.58 4.244
 -1.025 -1.579 4.245
 -0.999 -1.578 4.249
 -0.972 -1.578 4.251
 -0.946 -1.577 4.255
 -0.919 -1.577 4.259
 -0.893 -1.576 4.261
 -0.865 -1.574 4.259
 -0.838 -1.572 4.258
 -0.811 -1.57 4.257
 -0.785 -1.569 4.256
 -0.758 -1.567 4.255
 -0.731 -1.566 4.256
 -0.705 -1.565 4.255
 -0.679 -1.564 4.258
 -0.653 -1.565 4.262
 -0.627 -1.564 4.264
 -0.602 -1.565 4.268
 -0.576 -1.565 4.27
 -0.55 -1.564 4.271
 -0.523 -1.562 4.269
 -0.497 -1.561 4.268
 -0.471 -1.559 4.265
 -0.445 -1.558 4.264
 -0.419 -1.557 4.263
 -0.393 -1.557 4.264
 -0.367 -1.556 4.264
 -0.342 -1.557 4.266
 -0.316 -1.556 4.266
 -0.29 -1.555 4.263
 -0.264 -1.554 4.262
 -0.238 -1.554 4.262
 -0.213 -1.553 4.262
 -0.187 -1.553 4.261
 -0.162 -1.552 4.259
 -0.136 -1.551 4.257
 -0.11 -1.551 4.258
 -0.085 -1.551 4.257
 -0.059 -1.551 4.258
 -0.034 -1.552 4.261
 -0.008 -1.553 4.262
 0.016 -1.553 4.261
 0.042 -1.552 4.259
 0.067 -1.553 4.26
 0.093 -1.552 4.259
 0.118 -1.552 4.258
 0.144 -1.552 4.257
 0.169 -1.552 4.255
 0.195 -1.551 4.251
 0.22 -1.551 4.249
 0.246 -1.551 4.248
 0.271 -1.551 4.246
 0.297 -1.552 4.247
 0.322 -1.553 4.248
 0.348 -1.554 4.249
 0.374 -1.555 4.249
 0.4 -1.556 4.251
 0.425 -1.557 4.25
 0.451 -1.558 4.25
 0.477 -1.558 4.248
 0.503 -1.559 4.248
 0.528 -1.559 4.245
 0.554 -1.56 4.244
 0.58 -1.561 4.243
 0.606 -1.562 4.242
 0.632 -1.563 4.243
 0.658 -1.564 4.243
 0.684 -1.566 4.242
 0.71 -1.566 4.239
 0.736 -1.567 4.238
 0.762 -1.568 4.236
 0.789 -1.569 4.235
 0.815 -1.57 4.232
 0.841 -1.571 4.232
 0.868 -1.572 4.23
 0.894 -1.574 4.229
 0.921 -1.575 4.227
 0.947 -1.577 4.226
 0.973 -1.577 4.222
 1 -1.579 4.221
 1.026 -1.579 4.216
 1.053 -1.58 4.214
 1.081 -1.583 4.215
 1.108 -1.585 4.214
 1.134 -1.586 4.209
 1.161 -1.587 4.206
 1.188 -1.588 4.203
 1.214 -1.588 4.196
 1.241 -1.59 4.193
 1.27 -1.593 4.196
 1.297 -1.595 4.193
 1.325 -1.597 4.19
 1.352 -1.599 4.188
 1.38 -1.601 4.185
 1.406 -1.601 4.177
 1.434 -1.603 4.173
 1.461 -1.604 4.169
 1.488 -1.605 4.163
 1.514 -1.605 4.154
 1.542 -1.606 4.148
 1.569 -1.608 4.143
 1.596 -1.608 4.136
 1.623 -1.609 4.128
 1.651 -1.611 4.123
 1.678 -1.611 4.114
 1.704 -1.611 4.103
 1.729 -1.61 4.09
 1.754 -1.609 4.078
 1.78 -1.609 4.067
 1.803 -1.606 4.049
 1.824 -1.601 4.027
 1.842 -1.594 3.998
 1.858 -1.586 3.966
 1.869 -1.574 3.925
 1.88 -1.562 3.884
 1.886 -1.546 3.833
 1.894 -1.532 3.787
 1.902 -1.518 3.741
 1.904 -1.501 3.687
 1.898 -1.478 3.617
 1.904 -1.464 3.572
 1.904 -1.446 3.516
 0 0 0
 1.812 -1.343 3.243
 1.821 -1.334 3.21
 1.831 -1.325 3.178
 1.842 -1.318 3.149
 1.848 -1.307 3.111
 1.845 -1.29 3.06
 1.828 -1.264 2.987
 -2.345 -1.611 3.979
 -2.326 -1.617 4.007
 -2.287 -1.609 4.001
 -2.262 -1.611 4.017
 -2.235 -1.611 4.031
 -2.207 -1.611 4.042
 -2.183 -1.613 4.062
 -2.158 -1.615 4.077
 -2.131 -1.615 4.09
 -2.104 -1.615 4.103
 -2.074 -1.614 4.111
 -2.044 -1.612 4.117
 -2.016 -1.611 4.126
 -1.988 -1.611 4.137
 -1.959 -1.609 4.143
 -1.931 -1.609 4.154
 -1.903 -1.608 4.162
 -1.877 -1.609 4.175
 -1.85 -1.609 4.186
 -1.822 -1.609 4.195
 -1.793 -1.607 4.201
 -1.764 -1.605 4.206
 -1.734 -1.602 4.208
 -1.703 -1.599 4.209
 -1.675 -1.598 4.215
 -1.647 -1.597 4.221
 -1.618 -1.594 4.223
 -1.588 -1.592 4.226
 -1.561 -1.592 4.233
 -1.532 -1.589 4.234
 -1.504 -1.588 4.24
 -1.477 -1.588 4.247
 -1.449 -1.587 4.253
 -1.421 -1.586 4.256
 -1.393 -1.584 4.26
 -1.364 -1.582 4.259
 -1.336 -1.58 4.261
 -1.307 -1.577 4.261
 -1.278 -1.575 4.261
 -1.25 -1.572 4.26
 -1.221 -1.57 4.261
 -1.194 -1.568 4.263
 -1.167 -1.568 4.267
 -1.139 -1.566 4.269
 -1.112 -1.565 4.271
 -1.085 -1.564 4.273
 -1.057 -1.561 4.271
 -1.029 -1.559 4.27
 -1.002 -1.558 4.273
 -0.976 -1.558 4.277
 -0.949 -1.557 4.279
 -0.922 -1.556 4.282
 -0.896 -1.556 4.284
 -0.868 -1.553 4.281
 -0.841 -1.551 4.279
 -0.814 -1.549 4.278
 -0.787 -1.547 4.277
 -0.76 -1.545 4.275
 -0.734 -1.545 4.277
 -0.707 -1.544 4.279
 -0.681 -1.544 4.282
 -0.655 -1.544 4.283
 -0.629 -1.542 4.281
 -0.602 -1.541 4.282
 -0.576 -1.54 4.281
 -0.55 -1.539 4.281
 -0.523 -1.537 4.278
 -0.497 -1.536 4.277
 -0.471 -1.534 4.276
 -0.445 -1.534 4.275
 -0.419 -1.532 4.273
 -0.393 -1.532 4.275
 -0.367 -1.532 4.275
 -0.342 -1.531 4.275
 -0.316 -1.531 4.275
 -0.29 -1.53 4.274
 -0.264 -1.529 4.272
 -0.238 -1.528 4.271
 -0.213 -1.528 4.272
 -0.187 -1.528 4.27
 -0.161 -1.527 4.269
 -0.136 -1.527 4.268
 -0.11 -1.526 4.268
 -0.085 -1.526 4.268
 -0.059 -1.526 4.267
 -0.034 -1.526 4.267
 -0.008 -1.526 4.266
 0.016 -1.526 4.266
 0.042 -1.526 4.265
 0.067 -1.526 4.266
 0.093 -1.527 4.267
 0.119 -1.527 4.268
 0.144 -1.527 4.267
 0.17 -1.527 4.264
 0.195 -1.527 4.262
 0.221 -1.527 4.262
 0.246 -1.527 4.261
 0.272 -1.527 4.26
 0.297 -1.528 4.259
 0.323 -1.528 4.258
 0.348 -1.528 4.257
 0.374 -1.529 4.255
 0.4 -1.53 4.256
 0.425 -1.53 4.255
 0.451 -1.531 4.255
 0.477 -1.531 4.253
 0.503 -1.532 4.253
 0.528 -1.533 4.251
 0.554 -1.533 4.25
 0.58 -1.534 4.248
 0.606 -1.535 4.247
 0.632 -1.536 4.248
 0.658 -1.537 4.247
 0.684 -1.538 4.246
 0.71 -1.539 4.244
 0.736 -1.541 4.245
 0.762 -1.542 4.243
 0.789 -1.544 4.244
 0.815 -1.544 4.242
 0.842 -1.546 4.242
 0.868 -1.546 4.238
 0.895 -1.548 4.239
 0.921 -1.549 4.236
 0.948 -1.551 4.236
 0.974 -1.552 4.234
 1.002 -1.555 4.234
 1.028 -1.555 4.229
 1.055 -1.557 4.229
 1.083 -1.56 4.233
 1.11 -1.562 4.231
 1.137 -1.563 4.228
 1.164 -1.565 4.226
 1.191 -1.566 4.223
 1.218 -1.567 4.218
 1.245 -1.569 4.216
 1.273 -1.572 4.216
 1.301 -1.574 4.215
 1.329 -1.576 4.213
 1.357 -1.578 4.212
 1.385 -1.58 4.209
 1.412 -1.581 4.203
 1.44 -1.583 4.201
 1.468 -1.585 4.198
 1.495 -1.586 4.191
 1.523 -1.587 4.186
 1.551 -1.589 4.182
 1.579 -1.591 4.178
 1.607 -1.592 4.172
 1.635 -1.594 4.166
 1.663 -1.596 4.161
 1.69 -1.596 4.153
 1.716 -1.596 4.143
 1.743 -1.596 4.133
 1.769 -1.596 4.122
 1.794 -1.595 4.108
 1.817 -1.591 4.089
 1.838 -1.587 4.066
 1.854 -1.579 4.035
 1.869 -1.569 3.999
 1.88 -1.557 3.957
 1.89 -1.544 3.913
 1.896 -1.528 3.861
 1.902 -1.513 3.811
 1.907 -1.498 3.76
 1.91 -1.481 3.706
 1.91 -1.462 3.648
 0 0 0
 0 0 0
 0 0 0
 0 0 0
 1.824 -1.313 3.222
 1.831 -1.303 3.185
 1.841 -1.295 3.155
 1.847 -1.285 3.118
 1.868 -1.285 3.106
 1.832 -1.246 3.001
 0 0 0
 -2.337 -1.598 4.036
 -2.32 -1.605 4.068
 -2.294 -1.606 4.084
 -2.268 -1.608 4.101
 -2.24 -1.607 4.113
 -2.216 -1.61 4.132
 -2.189 -1.61 4.146
 -2.16 -1.609 4.156
 -2.13 -1.608 4.165
 -2.1 -1.606 4.172
 -2.069 -1.604 4.178
 -2.039 -1.602 4.184
 -2.011 -1.601 4.194
 -1.981 -1.6 4.201
 -1.952 -1.598 4.208
 -1.923 -1.597 4.215
 -1.897 -1.598 4.228
 -1.869 -1.598 4.238
 -1.839 -1.596 4.243
 -1.81 -1.595 4.25
 -1.781 -1.593 4.255
 -1.749 -1.589 4.255
 -1.718 -1.586 4.256
 -1.688 -1.584 4.258
 -1.659 -1.582 4.262
 -1.629 -1.579 4.263
 -1.599 -1.576 4.265
 -1.571 -1.575 4.27
 -1.541 -1.572 4.271
 -1.513 -1.571 4.276
 -1.485 -1.57 4.28
 -1.456 -1.568 4.282
 -1.427 -1.566 4.284
 -1.399 -1.565 4.288
 -1.369 -1.561 4.286
 -1.34 -1.558 4.283
 -1.311 -1.555 4.283
 -1.282 -1.553 4.282
 -1.253 -1.55 4.281
 -1.224 -1.547 4.28
 -1.197 -1.546 4.283
 -1.17 -1.545 4.286
 -1.141 -1.543 4.285
 -1.114 -1.541 4.285
 -1.086 -1.54 4.288
 -1.058 -1.537 4.285
 -1.03 -1.534 4.282
 -1.003 -1.533 4.284
 -0.976 -1.532 4.286
 -0.949 -1.531 4.288
 -0.922 -1.53 4.29
 -0.896 -1.529 4.292
 -0.868 -1.527 4.289
 -0.84 -1.524 4.286
 -0.813 -1.522 4.284
 -0.787 -1.521 4.284
 -0.76 -1.52 4.285
 -0.734 -1.519 4.286
 -0.707 -1.519 4.288
 -0.681 -1.518 4.289
 -0.655 -1.516 4.288
 -0.628 -1.515 4.286
 -0.602 -1.514 4.288
 -0.576 -1.513 4.286
 -0.55 -1.513 4.288
 -0.523 -1.511 4.285
 -0.497 -1.51 4.284
 -0.47 -1.508 4.28
 -0.445 -1.507 4.281
 -0.419 -1.506 4.279
 -0.393 -1.507 4.282
 -0.367 -1.506 4.281
 -0.341 -1.505 4.282
 -0.316 -1.505 4.281
 -0.29 -1.503 4.279
 -0.264 -1.502 4.275
 -0.238 -1.502 4.278
 -0.212 -1.502 4.276
 -0.187 -1.501 4.276
 -0.161 -1.501 4.277
 -0.136 -1.501 4.276
 -0.11 -1.5 4.274
 -0.085 -1.5 4.274
 -0.059 -1.499 4.272
 -0.033 -1.499 4.271
 -0.008 -1.499 4.271
 0.017 -1.499 4.271
 0.042 -1.5 4.272
 0.068 -1.5 4.272
 0.093 -1.5 4.271
 0.119 -1.501 4.272
 0.144 -1.5 4.27
 0.17 -1.5 4.268
 0.195 -1.5 4.267
 0.221 -1.501 4.268
 0.246 -1.501 4.268
 0.272 -1.502 4.268
 0.297 -1.502 4.266
 0.323 -1.503 4.266
 0.349 -1.503 4.264
 0.374 -1.503 4.262
 0.4 -1.504 4.262
 0.425 -1.504 4.261
 0.451 -1.505 4.261
 0.477 -1.505 4.258
 0.502 -1.506 4.258
 0.528 -1.506 4.256
 0.554 -1.507 4.255
 0.58 -1.507 4.252
 0.605 -1.508 4.252
 0.631 -1.509 4.252
 0.658 -1.51 4.251
 0.683 -1.511 4.249
 0.71 -1.512 4.249
 0.736 -1.514 4.25
 0.762 -1.515 4.249
 0.789 -1.517 4.249
 0.815 -1.518 4.247
 0.841 -1.519 4.246
 0.867 -1.519 4.243
 0.894 -1.521 4.244
 0.92 -1.522 4.241
 0.947 -1.524 4.241
 0.974 -1.526 4.241
 1.001 -1.528 4.241
 1.028 -1.529 4.237
 1.055 -1.53 4.236
 1.083 -1.534 4.239
 1.11 -1.535 4.237
 1.137 -1.537 4.236
 1.164 -1.539 4.234
 1.192 -1.54 4.232
 1.218 -1.541 4.227
 1.246 -1.544 4.227
 1.275 -1.546 4.228
 1.303 -1.549 4.228
 1.332 -1.552 4.229
 1.36 -1.555 4.229
 1.388 -1.557 4.225
 1.415 -1.558 4.221
 1.444 -1.56 4.219
 1.472 -1.562 4.216
 1.499 -1.563 4.211
 1.528 -1.566 4.208
 1.556 -1.568 4.204
 1.585 -1.57 4.2
 1.612 -1.571 4.194
 1.641 -1.573 4.191
 1.669 -1.575 4.185
 1.697 -1.576 4.18
 1.725 -1.577 4.173
 1.752 -1.578 4.164
 1.778 -1.577 4.152
 1.803 -1.576 4.138
 1.826 -1.573 4.118
 1.845 -1.566 4.091
 1.862 -1.558 4.059
 1.876 -1.549 4.023
 1.888 -1.537 3.981
 1.898 -1.525 3.938
 1.905 -1.51 3.889
 1.912 -1.496 3.84
 1.918 -1.481 3.791
 1.921 -1.464 3.736
 0 0 0
 0 0 0
 0 0 0
 0 0 0
 0 0 0
 1.816 -1.286 3.215
 1.83 -1.281 3.192
 1.84 -1.273 3.161
 1.846 -1.262 3.123
 1.878 -1.27 3.13
 1.828 -1.223 3.002
 0 0 0
 -2.379 -1.598 4.118
 -2.356 -1.602 4.141
 -2.327 -1.601 4.152
 -2.301 -1.603 4.171
 -2.272 -1.602 4.181
 -2.244 -1.602 4.195
 -2.216 -1.602 4.208
 -2.186 -1.601 4.216
 -2.155 -1.599 4.223
 -2.124 -1.596 4.229
 -2.092 -1.594 4.233
 -2.061 -1.591 4.238
 -2.031 -1.59 4.247
 -2.001 -1.588 4.252
 -1.97 -1.586 4.257
 -1.94 -1.584 4.262
 -1.911 -1.583 4.271
 -1.881 -1.581 4.276
 -1.85 -1.578 4.278
 -1.82 -1.576 4.284
 -1.79 -1.574 4.287
 -1.758 -1.57 4.286
 -1.727 -1.567 4.286
 -1.698 -1.565 4.291
 -1.667 -1.562 4.29
 -1.636 -1.559 4.291
 -1.606 -1.556 4.292
 -1.577 -1.554 4.295
 -1.546 -1.55 4.293
 -1.518 -1.549 4.298
 -1.489 -1.548 4.301
 -1.46 -1.545 4.302
 -1.431 -1.543 4.304
 -1.402 -1.541 4.305
 -1.371 -1.537 4.301
 -1.341 -1.532 4.295
 -1.312 -1.53 4.295
 -1.283 -1.528 4.295
 -1.254 -1.525 4.295
 -1.226 -1.523 4.294
 -1.198 -1.521 4.296
 -1.171 -1.52 4.298
 -1.142 -1.517 4.295
 -1.113 -1.514 4.293
 -1.086 -1.513 4.294
 -1.058 -1.51 4.293
 -1.029 -1.507 4.288
 -1.002 -1.506 4.29
 -0.975 -1.505 4.291
 -0.949 -1.504 4.294
 -0.922 -1.503 4.296
 -0.895 -1.503 4.299
 -0.868 -1.5 4.296
 -0.84 -1.498 4.295
 -0.813 -1.496 4.292
 -0.787 -1.495 4.293
 -0.76 -1.494 4.294
 -0.734 -1.493 4.295
 -0.707 -1.493 4.296
 -0.68 -1.49 4.293
 -0.654 -1.489 4.292
 -0.627 -1.487 4.289
 -0.601 -1.487 4.29
 -0.575 -1.486 4.29
 -0.549 -1.486 4.294
 -0.523 -1.484 4.291
 -0.496 -1.483 4.289
 -0.47 -1.481 4.285
 -0.444 -1.48 4.284
 -0.418 -1.479 4.282
 -0.392 -1.479 4.285
 -0.367 -1.479 4.285
 -0.341 -1.479 4.288
 -0.315 -1.478 4.285
 -0.289 -1.477 4.283
 -0.263 -1.475 4.28
 -0.238 -1.475 4.281
 -0.212 -1.474 4.279
 -0.187 -1.475 4.281
 -0.161 -1.475 4.282
 -0.135 -1.474 4.281
 -0.11 -1.474 4.28
 -0.084 -1.474 4.28
 -0.059 -1.473 4.277
 -0.033 -1.472 4.274
 -0.008 -1.473 4.276
 0.017 -1.473 4.276
 0.042 -1.473 4.277
 0.068 -1.474 4.277
 0.093 -1.474 4.277
 0.119 -1.474 4.276
 0.144 -1.473 4.273
 0.17 -1.472 4.27
 0.195 -1.473 4.271
 0.221 -1.474 4.272
 0.246 -1.475 4.272
 0.272 -1.475 4.271
 0.297 -1.475 4.271
 0.323 -1.476 4.27
 0.348 -1.476 4.269
 0.374 -1.476 4.267
 0.4 -1.477 4.267
 0.425 -1.478 4.268
 0.451 -1.479 4.268
 0.477 -1.479 4.265
 0.502 -1.48 4.264
 0.528 -1.48 4.262
 0.554 -1.48 4.259
 0.579 -1.48 4.256
 0.605 -1.48 4.254
 0.631 -1.481 4.253
 0.657 -1.483 4.255
 0.683 -1.484 4.253
 0.709 -1.485 4.251
 0.735 -1.487 4.253
 0.762 -1.488 4.252
 0.788 -1.488 4.25
 0.814 -1.49 4.25
 0.84 -1.491 4.248
 0.866 -1.492 4.245
 0.893 -1.494 4.246
 0.92 -1.495 4.245
 0.946 -1.496 4.244
 0.973 -1.499 4.245
 1.001 -1.501 4.246
 1.027 -1.502 4.243
 1.054 -1.503 4.241
 1.082 -1.506 4.243
 1.109 -1.508 4.242
 1.137 -1.51 4.242
 1.164 -1.512 4.239
 1.191 -1.514 4.239
 1.218 -1.515 4.236
 1.247 -1.518 4.237
 1.275 -1.52 4.237
 1.303 -1.523 4.237
 1.332 -1.526 4.237
 1.36 -1.528 4.236
 1.388 -1.53 4.233
 1.415 -1.531 4.227
 1.444 -1.533 4.226
 1.472 -1.536 4.224
 1.501 -1.538 4.222
 1.529 -1.54 4.22
 1.558 -1.543 4.217
 1.587 -1.545 4.214
 1.615 -1.547 4.21
 1.644 -1.549 4.207
 1.673 -1.552 4.204
 1.703 -1.554 4.201
 1.732 -1.556 4.197
 1.759 -1.557 4.189
 1.786 -1.557 4.178
 1.811 -1.556 4.164
 1.833 -1.552 4.143
 1.851 -1.544 4.113
 1.866 -1.535 4.077
 1.88 -1.526 4.04
 1.892 -1.514 3.998
 1.903 -1.502 3.956
 1.913 -1.49 3.912
 1.926 -1.481 3.875
 1.933 -1.467 3.828
 0 0 0
 0 0 0
 0 0 0
 0 0 0
 0 0 0
 0 0 0
 1.806 -1.257 3.205
 1.821 -1.253 3.183
 1.834 -1.247 3.157
 1.842 -1.238 3.124
 1.853 -1.231 3.095
 1.857 -1.22 3.056
 -2.43 -1.586 4.154
 -2.42 -1.598 4.2
 -2.39 -1.597 4.211
 -2.357 -1.594 4.216
 -2.329 -1.594 4.231
 -2.297 -1.592 4.238
 -2.267 -1.591 4.248
 -2.236 -1.589 4.256
 -2.206 -1.587 4.264
 -2.173 -1.584 4.269
 -2.141 -1.581 4.273
 -2.106 -1.577 4.272
 -2.075 -1.574 4.277
 -2.045 -1.573 4.284
 -2.014 -1.571 4.29
 -1.982 -1.568 4.293
 -1.951 -1.565 4.296
 -1.92 -1.562 4.3
 -1.888 -1.559 4.302
 -1.855 -1.555 4.3
 -1.825 -1.553 4.304
 -1.795 -1.551 4.309
 -1.763 -1.547 4.306
 -1.732 -1.544 4.307
 -1.702 -1.541 4.31
 -1.67 -1.537 4.308
 -1.639 -1.534 4.308
 -1.609 -1.532 4.309
 -1.578 -1.528 4.308
 -1.548 -1.525 4.307
 -1.519 -1.524 4.311
 -1.49 -1.521 4.312
 -1.46 -1.518 4.311
 -1.431 -1.517 4.314
 -1.402 -1.514 4.315
 -1.372 -1.51 4.31
 -1.341 -1.506 4.304
 -1.312 -1.504 4.306
 -1.283 -1.501 4.304
 -1.254 -1.499 4.303
 -1.226 -1.497 4.303
 -1.197 -1.494 4.302
 -1.169 -1.492 4.302
 -1.141 -1.49 4.301
 -1.113 -1.487 4.3
 -1.085 -1.485 4.298
 -1.057 -1.484 4.3
 -1.029 -1.481 4.296
 -1.001 -1.479 4.296
 -0.974 -1.478 4.296
 -0.948 -1.477 4.3
 -0.921 -1.476 4.3
 -0.894 -1.475 4.301
 -0.867 -1.473 4.3
 -0.839 -1.471 4.298
 -0.812 -1.469 4.296
 -0.786 -1.468 4.296
 -0.759 -1.467 4.297
 -0.733 -1.466 4.297
 -0.706 -1.465 4.299
 -0.679 -1.463 4.295
 -0.653 -1.461 4.292
 -0.626 -1.459 4.291
 -0.6 -1.459 4.292
 -0.574 -1.458 4.291
 -0.548 -1.459 4.296
 -0.522 -1.458 4.296
 -0.496 -1.456 4.293
 -0.469 -1.454 4.289
 -0.443 -1.453 4.288
 -0.417 -1.451 4.285
 -0.392 -1.451 4.285
 -0.366 -1.451 4.287
 -0.34 -1.451 4.289
 -0.315 -1.45 4.287
 -0.289 -1.449 4.285
 -0.263 -1.449 4.284
 -0.238 -1.449 4.285
 -0.212 -1.448 4.283
 -0.186 -1.448 4.285
 -0.161 -1.448 4.286
 -0.135 -1.448 4.285
 -0.11 -1.448 4.284
 -0.084 -1.448 4.286
 -0.059 -1.447 4.282
 -0.033 -1.446 4.28
 -0.008 -1.447 4.284
 0.017 -1.447 4.282
 0.042 -1.447 4.282
 0.068 -1.447 4.28
 0.093 -1.446 4.278
 0.119 -1.445 4.275
 0.144 -1.445 4.272
 0.169 -1.445 4.27
 0.195 -1.446 4.273
 0.221 -1.447 4.275
 0.246 -1.448 4.275
 0.272 -1.449 4.276
 0.297 -1.449 4.276
 0.323 -1.449 4.272
 0.348 -1.449 4.27
 0.374 -1.449 4.27
 0.399 -1.449 4.268
 0.425 -1.45 4.268
 0.451 -1.451 4.269
 0.476 -1.451 4.266
 0.502 -1.451 4.264
 0.527 -1.452 4.262
 0.553 -1.452 4.26
 0.579 -1.453 4.258
 0.605 -1.454 4.258
 0.631 -1.455 4.258
 0.657 -1.457 4.26
 0.682 -1.456 4.255
 0.708 -1.457 4.254
 0.735 -1.459 4.255
 0.761 -1.46 4.253
 0.786 -1.46 4.25
 0.813 -1.463 4.253
 0.84 -1.464 4.252
 0.866 -1.464 4.249
 0.893 -1.466 4.25
 0.919 -1.467 4.248
 0.945 -1.469 4.246
 0.972 -1.47 4.246
 1 -1.473 4.247
 1.026 -1.474 4.246
 1.054 -1.476 4.246
 1.082 -1.479 4.249
 1.109 -1.481 4.249
 1.136 -1.483 4.248
 1.163 -1.485 4.246
 1.191 -1.487 4.245
 1.218 -1.488 4.24
 1.246 -1.49 4.241
 1.274 -1.493 4.242
 1.303 -1.496 4.242
 1.331 -1.498 4.242
 1.36 -1.501 4.242
 1.387 -1.502 4.237
 1.414 -1.503 4.233
 1.443 -1.506 4.232
 1.472 -1.508 4.231
 1.5 -1.511 4.229
 1.529 -1.513 4.227
 1.558 -1.516 4.225
 1.587 -1.518 4.222
 1.615 -1.52 4.218
 1.645 -1.522 4.216
 1.674 -1.525 4.214
 1.704 -1.528 4.212
 1.733 -1.53 4.208
 1.761 -1.531 4.2
 1.787 -1.531 4.189
 1.812 -1.53 4.176
 1.834 -1.526 4.154
 1.853 -1.519 4.125
 1.87 -1.512 4.094
 1.886 -1.503 4.06
 1.899 -1.493 4.021
 1.912 -1.483 3.983
 1.926 -1.474 3.948
 1.94 -1.466 3.913
 0 0 0
 0 0 0
 0 0 0
 0 0 0
 0 0 0
 0 0 0
 0 0 0
 1.795 -1.228 3.192
 1.815 -1.227 3.179
 1.831 -1.223 3.159
 1.84 -1.215 3.126
 1.842 -1.203 3.084
 1.846 -1.192 3.044
 -2.467 -1.581 4.228
 -2.426 -1.573 4.22
 -2.416 -1.585 4.267
 -2.383 -1.583 4.274
 -2.353 -1.582 4.284
 -2.319 -1.578 4.289
 -2.286 -1.575 4.293
 -2.252 -1.572 4.297
 -2.22 -1.569 4.301
 -2.186 -1.565 4.303
 -2.152 -1.561 4.305
 -2.117 -1.557 4.304
 -2.085 -1.554 4.307
 -2.054 -1.552 4.313
 -2.022 -1.549 4.315
 -1.988 -1.545 4.315
 -1.956 -1.541 4.316
 -1.924 -1.538 4.317
 -1.891 -1.534 4.317
 -1.858 -1.53 4.316
 -1.827 -1.527 4.318
 -1.797 -1.525 4.322
 -1.764 -1.521 4.319
 -1.733 -1.518 4.32
 -1.703 -1.515 4.321
 -1.671 -1.511 4.319
 -1.64 -1.508 4.319
 -1.609 -1.504 4.317
 -1.577 -1.5 4.313
 -1.547 -1.498 4.315
 -1.519 -1.496 4.318
 -1.488 -1.493 4.317
 -1.459 -1.491 4.318
 -1.43 -1.489 4.32
 -1.401 -1.486 4.319
 -1.37 -1.482 4.315
 -1.34 -1.479 4.311
 -1.312 -1.477 4.313
 -1.283 -1.475 4.313
 -1.254 -1.472 4.311
 -1.226 -1.47 4.312
 -1.197 -1.467 4.31
 -1.168 -1.465 4.308
 -1.14 -1.462 4.305
 -1.112 -1.46 4.304
 -1.083 -1.457 4.3
 -1.056 -1.456 4.302
 -1.028 -1.454 4.302
 -1.001 -1.452 4.303
 -0.974 -1.451 4.303
 -0.947 -1.451 4.307
 -0.92 -1.449 4.305
 -0.893 -1.446 4.303
 -0.865 -1.444 4.299
 -0.838 -1.442 4.296
 -0.811 -1.44 4.296
 -0.784 -1.44 4.298
 -0.758 -1.439 4.3
 -0.732 -1.439 4.302
 -0.706 -1.439 4.305
 -0.678 -1.435 4.297
 -0.652 -1.433 4.294
 -0.625 -1.432 4.294
 -0.599 -1.432 4.295
 -0.573 -1.43 4.293
 -0.548 -1.431 4.299
 -0.522 -1.43 4.298
 -0.495 -1.427 4.29
 -0.468 -1.424 4.285
 -0.442 -1.424 4.286
 -0.417 -1.424 4.286
 -0.391 -1.423 4.286
 -0.365 -1.424 4.289
 -0.34 -1.424 4.292
 -0.314 -1.422 4.288
 -0.288 -1.421 4.286
 -0.263 -1.421 4.286
 -0.237 -1.422 4.288
 -0.211 -1.421 4.286
 -0.186 -1.421 4.289
 -0.161 -1.422 4.29
 -0.135 -1.42 4.287
 -0.109 -1.419 4.284
 -0.084 -1.42 4.286
 -0.058 -1.419 4.281
 -0.033 -1.418 4.28
 -0.007 -1.419 4.284
 0.017 -1.42 4.285
 0.042 -1.42 4.285
 0.068 -1.42 4.285
 0.093 -1.42 4.282
 0.119 -1.419 4.28
 0.144 -1.419 4.278
 0.17 -1.419 4.277
 0.195 -1.421 4.281
 0.221 -1.421 4.28
 0.246 -1.421 4.28
 0.272 -1.422 4.279
 0.297 -1.422 4.28
 0.322 -1.421 4.274
 0.348 -1.422 4.273
 0.373 -1.422 4.272
 0.399 -1.423 4.272
 0.424 -1.422 4.268
 0.45 -1.424 4.27
 0.476 -1.423 4.266
 0.501 -1.423 4.263
 0.527 -1.423 4.261
 0.552 -1.424 4.26
 0.578 -1.424 4.257
 0.604 -1.427 4.261
 0.63 -1.427 4.258
 0.656 -1.428 4.259
 0.681 -1.428 4.255
 0.708 -1.43 4.256
 0.734 -1.431 4.257
 0.761 -1.434 4.26
 0.787 -1.435 4.26
 0.814 -1.437 4.262
 0.84 -1.439 4.261
 0.866 -1.439 4.257
 0.892 -1.439 4.254
 0.918 -1.439 4.249
 0.944 -1.441 4.249
 0.971 -1.442 4.247
 0.998 -1.445 4.249
 1.026 -1.447 4.251
 1.053 -1.45 4.252
 1.081 -1.452 4.252
 1.108 -1.453 4.25
 1.134 -1.454 4.248
 1.162 -1.456 4.247
 1.19 -1.459 4.248
 1.216 -1.46 4.244
 1.245 -1.463 4.245
 1.273 -1.465 4.246
 1.301 -1.468 4.246
 1.329 -1.47 4.243
 1.358 -1.472 4.244
 1.385 -1.474 4.24
 1.413 -1.476 4.238
 1.441 -1.477 4.235
 1.47 -1.48 4.234
 1.499 -1.483 4.234
 1.528 -1.485 4.232
 1.557 -1.488 4.229
 1.586 -1.49 4.227
 1.614 -1.492 4.223
 1.643 -1.494 4.22
 1.673 -1.497 4.22
 1.703 -1.5 4.217
 1.732 -1.502 4.214
 1.76 -1.504 4.208
 1.788 -1.505 4.2
 1.813 -1.503 4.186
 1.836 -1.501 4.168
 1.856 -1.495 4.141
 1.874 -1.488 4.111
 1.89 -1.48 4.078
 1.904 -1.471 4.041
 1.92 -1.463 4.008
 1.935 -1.455 3.974
 0 0 0
 0 0 0
 0 0 0
 0 0 0
 0 0 0
 0 0 0
 0 0 0
 0 0 0
 1.786 -1.2 3.183
 1.808 -1.201 3.174
 1.827 -1.199 3.159
 1.837 -1.192 3.129
 1.855 -1.19 3.112
 1.856 -1.177 3.068
 -2.471 -1.555 4.244
 -2.48 -1.579 4.323
 -2.434 -1.568 4.308
 -2.403 -1.567 4.319
 -2.369 -1.564 4.323
 -2.335 -1.56 4.327
 -2.299 -1.555 4.326
 -2.263 -1.551 4.326
 -2.227 -1.545 4.324
 -2.192 -1.541 4.325
 -2.157 -1.537 4.325
 -2.122 -1.532 4.322
 -2.089 -1.529 4.324
 -2.057 -1.526 4.328
 -2.024 -1.522 4.329
 -1.99 -1.518 4.328
 -1.957 -1.514 4.328
 -1.924 -1.511 4.328
 -1.891 -1.507 4.327
 -1.858 -1.502 4.323
 -1.825 -1.498 4.323
 -1.795 -1.496 4.325
 -1.762 -1.492 4.323
 -1.731 -1.488 4.323
 -1.701 -1.486 4.325
 -1.669 -1.483 4.324
 -1.639 -1.48 4.324
 -1.607 -1.476 4.321
 -1.576 -1.472 4.32
 -1.547 -1.47 4.321
 -1.518 -1.468 4.323
 -1.488 -1.466 4.324
 -1.458 -1.463 4.324
 -1.43 -1.462 4.326
 -1.4 -1.459 4.326
 -1.37 -1.455 4.321
 -1.339 -1.451 4.315
 -1.31 -1.449 4.316
 -1.282 -1.447 4.316
 -1.253 -1.444 4.315
 -1.225 -1.443 4.317
 -1.197 -1.44 4.316
 -1.167 -1.437 4.312
 -1.138 -1.433 4.306
 -1.11 -1.431 4.304
 -1.082 -1.429 4.303
 -1.054 -1.427 4.303
 -1.027 -1.426 4.306
 -1.001 -1.426 4.309
 -0.973 -1.424 4.309
 -0.947 -1.424 4.311
 -0.919 -1.422 4.31
 -0.892 -1.419 4.307
 -0.864 -1.416 4.302
 -0.837 -1.414 4.3
 -0.81 -1.413 4.3
 -0.784 -1.413 4.302
 -0.758 -1.412 4.304
 -0.731 -1.412 4.306
 -0.705 -1.411 4.308
 -0.677 -1.407 4.297
 -0.65 -1.405 4.293
 -0.624 -1.404 4.295
 -0.599 -1.404 4.298
 -0.572 -1.403 4.296
 -0.547 -1.405 4.304
 -0.521 -1.404 4.304
 -0.494 -1.401 4.296
 -0.468 -1.398 4.289
 -0.442 -1.397 4.29
 -0.416 -1.397 4.29
 -0.39 -1.396 4.288
 -0.365 -1.395 4.287
 -0.339 -1.396 4.29
 -0.313 -1.394 4.286
 -0.287 -1.393 4.283
 -0.262 -1.393 4.285
 -0.237 -1.394 4.288
 -0.211 -1.393 4.287
 -0.186 -1.394 4.291
 -0.16 -1.395 4.293
 -0.135 -1.394 4.29
 -0.109 -1.392 4.285
 -0.084 -1.392 4.286
 -0.058 -1.39 4.28
 -0.033 -1.39 4.28
 -0.007 -1.392 4.285
 0.017 -1.393 4.288
 0.043 -1.394 4.289
 0.068 -1.395 4.292
 0.093 -1.393 4.287
 0.119 -1.392 4.281
 0.144 -1.391 4.279
 0.169 -1.391 4.278
 0.195 -1.393 4.282
 0.221 -1.393 4.281
 0.246 -1.394 4.282
 0.272 -1.395 4.281
 0.297 -1.396 4.284
 0.322 -1.395 4.279
 0.348 -1.396 4.279
 0.374 -1.396 4.279
 0.399 -1.397 4.28
 0.425 -1.397 4.276
 0.451 -1.398 4.278
 0.476 -1.398 4.274
 0.501 -1.397 4.269
 0.527 -1.397 4.267
 0.552 -1.398 4.266
 0.578 -1.398 4.264
 0.604 -1.401 4.268
 0.63 -1.401 4.265
 0.656 -1.402 4.266
 0.681 -1.402 4.261
 0.707 -1.403 4.261
 0.734 -1.405 4.261
 0.76 -1.407 4.265
 0.786 -1.408 4.263
 0.813 -1.41 4.266
 0.84 -1.412 4.266
 0.866 -1.412 4.262
 0.891 -1.412 4.258
 0.917 -1.413 4.254
 0.944 -1.415 4.254
 0.971 -1.416 4.253
 0.998 -1.418 4.255
 1.026 -1.421 4.257
 1.053 -1.422 4.256
 1.079 -1.424 4.255
 1.107 -1.426 4.254
 1.133 -1.427 4.25
 1.16 -1.428 4.249
 1.189 -1.431 4.251
 1.215 -1.432 4.247
 1.243 -1.435 4.247
 1.272 -1.438 4.249
 1.3 -1.44 4.248
 1.327 -1.441 4.246
 1.356 -1.444 4.245
 1.383 -1.445 4.24
 1.41 -1.446 4.236
 1.438 -1.448 4.233
 1.467 -1.45 4.233
 1.496 -1.453 4.233
 1.525 -1.456 4.232
 1.554 -1.458 4.23
 1.583 -1.461 4.229
 1.612 -1.463 4.225
 1.641 -1.465 4.222
 1.671 -1.468 4.222
 1.7 -1.471 4.22
 1.73 -1.473 4.217
 1.758 -1.475 4.211
 1.786 -1.476 4.204
 1.812 -1.475 4.191
 1.837 -1.474 4.176
 1.857 -1.469 4.152
 1.877 -1.464 4.127
 1.895 -1.457 4.096
 1.91 -1.449 4.062
 1.927 -1.442 4.03
 0 0 0
 0 0 0
 0 0 0
 0 0 0
 0 0 0
 0 0 0
 0 0 0
 0 0 0
 0 0 0
 0 0 0
 1.806 -1.178 3.178
 1.827 -1.178 3.166
 1.836 -1.17 3.134
 1.884 -1.187 3.169
 1.832 -1.141 3.035
 -2.518 -1.555 4.334
 -2.501 -1.563 4.371
 -2.445 -1.546 4.337
 -2.413 -1.544 4.346
 -2.377 -1.54 4.348
 -2.342 -1.536 4.35
 -2.305 -1.531 4.347
 -2.268 -1.526 4.346
 -2.231 -1.52 4.342
 -2.196 -1.516 4.342
 -2.161 -1.511 4.341
 -2.125 -1.506 4.337
 -2.092 -1.502 4.339
 -2.059 -1.499 4.341
 -2.024 -1.494 4.338
 -1.99 -1.49 4.336
 -1.956 -1.485 4.334
 -1.922 -1.481 4.332
 -1.889 -1.477 4.331
 -1.856 -1.473 4.328
 -1.824 -1.469 4.328
 -1.793 -1.467 4.329
 -1.76 -1.463 4.327
 -1.729 -1.459 4.327
 -1.699 -1.457 4.33
 -1.668 -1.454 4.328
 -1.637 -1.451 4.328
 -1.606 -1.447 4.326
 -1.575 -1.444 4.324
 -1.545 -1.442 4.326
 -1.516 -1.44 4.328
 -1.487 -1.438 4.328
 -1.457 -1.435 4.328
 -1.428 -1.433 4.329
 -1.397 -1.429 4.325
 -1.367 -1.426 4.322
 -1.338 -1.423 4.319
 -1.309 -1.421 4.321
 -1.281 -1.42 4.323
 -1.253 -1.418 4.323
 -1.225 -1.416 4.325
 -1.196 -1.414 4.322
 -1.167 -1.41 4.317
 -1.137 -1.406 4.31
 -1.109 -1.404 4.308
 -1.08 -1.401 4.305
 -1.053 -1.399 4.306
 -1.027 -1.4 4.311
 -1 -1.399 4.315
 -0.973 -1.398 4.315
 -0.947 -1.397 4.319
 -0.919 -1.396 4.318
 -0.891 -1.392 4.312
 -0.863 -1.39 4.307
 -0.836 -1.388 4.305
 -0.809 -1.387 4.305
 -0.783 -1.386 4.307
 -0.757 -1.386 4.31
 -0.731 -1.386 4.312
 -0.705 -1.385 4.313
 -0.677 -1.381 4.303
 -0.65 -1.379 4.3
 -0.624 -1.379 4.303
 -0.598 -1.378 4.304
 -0.572 -1.377 4.303
 -0.547 -1.379 4.311
 -0.521 -1.378 4.31
 -0.494 -1.374 4.3
 -0.467 -1.372 4.294
 -0.442 -1.371 4.294
 -0.416 -1.37 4.292
 -0.39 -1.368 4.289
 -0.364 -1.366 4.284
 -0.338 -1.366 4.284
 -0.312 -1.365 4.283
 -0.287 -1.364 4.281
 -0.261 -1.365 4.283
 -0.236 -1.366 4.287
 -0.211 -1.366 4.289
 -0.185 -1.366 4.291
 -0.16 -1.367 4.291
 -0.134 -1.366 4.29
 -0.109 -1.365 4.288
 -0.083 -1.364 4.286
 -0.058 -1.363 4.281
 -0.033 -1.364 4.284
 -0.007 -1.366 4.289
 0.017 -1.367 4.291
 0.043 -1.367 4.293
 0.068 -1.37 4.301
 0.094 -1.368 4.294
 0.119 -1.366 4.286
 0.144 -1.365 4.283
 0.17 -1.366 4.283
 0.195 -1.368 4.29
 0.221 -1.367 4.286
 0.246 -1.368 4.287
 0.272 -1.369 4.287
 0.297 -1.371 4.291
 0.322 -1.369 4.283
 0.348 -1.369 4.284
 0.374 -1.37 4.284
 0.399 -1.371 4.285
 0.425 -1.37 4.28
 0.451 -1.372 4.283
 0.476 -1.372 4.279
 0.501 -1.371 4.274
 0.526 -1.371 4.271
 0.552 -1.372 4.271
 0.578 -1.372 4.268
 0.604 -1.375 4.274
 0.63 -1.375 4.272
 0.656 -1.376 4.272
 0.681 -1.376 4.267
 0.707 -1.377 4.267
 0.734 -1.379 4.267
 0.761 -1.381 4.271
 0.787 -1.383 4.272
 0.814 -1.385 4.273
 0.84 -1.386 4.274
 0.866 -1.387 4.271
 0.892 -1.387 4.266
 0.917 -1.387 4.261
 0.944 -1.389 4.261
 0.97 -1.39 4.259
 0.998 -1.392 4.26
 1.025 -1.394 4.263
 1.052 -1.395 4.26
 1.079 -1.397 4.258
 1.106 -1.399 4.258
 1.133 -1.4 4.255
 1.16 -1.401 4.253
 1.188 -1.404 4.255
 1.215 -1.405 4.252
 1.242 -1.407 4.251
 1.271 -1.41 4.252
 1.298 -1.411 4.25
 1.325 -1.412 4.246
 1.353 -1.414 4.244
 1.38 -1.416 4.24
 1.408 -1.417 4.237
 1.436 -1.419 4.234
 1.465 -1.422 4.235
 1.495 -1.425 4.235
 1.523 -1.427 4.234
 1.551 -1.429 4.23
 1.581 -1.432 4.23
 1.609 -1.434 4.225
 1.638 -1.436 4.223
 1.668 -1.439 4.223
 1.698 -1.442 4.222
 1.727 -1.444 4.217
 1.755 -1.446 4.212
 1.784 -1.447 4.207
 1.81 -1.447 4.195
 1.836 -1.446 4.182
 1.859 -1.444 4.164
 1.882 -1.441 4.144
 1.9 -1.435 4.116
 1.915 -1.426 4.081
 0 0 0
 0 0 0
 0 0 0
 0 0 0
 0 0 0
 0 0 0
 0 0 0
 0 0 0
 0 0 0
 0 0 0
 0 0 0
 1.8 -1.153 3.173
 1.824 -1.154 3.168
 1.832 -1.146 3.134
 1.888 -1.168 3.182
 1.851 -1.132 3.072
 -2.531 -1.534 4.365
 -2.501 -1.534 4.38
 -2.45 -1.52 4.355
 -2.416 -1.518 4.362
 -2.378 -1.512 4.359
 -2.342 -1.508 4.359
 -2.305 -1.502 4.357
 -2.268 -1.497 4.354
 -2.23 -1.491 4.349
 -2.196 -1.487 4.351
 -2.161 -1.483 4.35
 -2.125 -1.477 4.346
 -2.091 -1.474 4.347
 -2.057 -1.47 4.346
 -2.022 -1.465 4.343
 -1.987 -1.46 4.34
 -1.953 -1.456 4.337
 -1.921 -1.452 4.337
 -1.889 -1.449 4.339
 -1.855 -1.445 4.335
 -1.823 -1.441 4.335
 -1.792 -1.439 4.337
 -1.76 -1.435 4.334
 -1.728 -1.431 4.332
 -1.697 -1.428 4.333
 -1.666 -1.425 4.332
 -1.635 -1.422 4.331
 -1.603 -1.418 4.326
 -1.572 -1.415 4.325
 -1.543 -1.413 4.328
 -1.514 -1.411 4.329
 -1.484 -1.408 4.328
 -1.454 -1.406 4.328
 -1.425 -1.404 4.33
 -1.396 -1.401 4.328
 -1.366 -1.398 4.327
 -1.337 -1.396 4.326
 -1.309 -1.395 4.329
 -1.28 -1.392 4.328
 -1.252 -1.391 4.329
 -1.224 -1.389 4.33
 -1.195 -1.386 4.327
 -1.166 -1.382 4.321
 -1.136 -1.378 4.314
 -1.108 -1.376 4.312
 -1.079 -1.373 4.308
 -1.052 -1.372 4.309
 -1.026 -1.372 4.316
 -1 -1.373 4.321
 -0.973 -1.371 4.322
 -0.946 -1.371 4.326
 -0.919 -1.369 4.324
 -0.89 -1.366 4.316
 -0.862 -1.362 4.309
 -0.834 -1.359 4.304
 -0.808 -1.358 4.305
 -0.782 -1.358 4.308
 -0.756 -1.358 4.311
 -0.73 -1.358 4.313
 -0.704 -1.358 4.316
 -0.676 -1.353 4.305
 -0.649 -1.351 4.302
 -0.624 -1.352 4.308
 -0.598 -1.353 4.311
 -0.572 -1.351 4.307
 -0.546 -1.352 4.314
 -0.52 -1.351 4.313
 -0.493 -1.346 4.299
 -0.466 -1.343 4.292
 -0.441 -1.343 4.293
 -0.415 -1.342 4.293
 -0.389 -1.34 4.288
 -0.362 -1.337 4.279
 -0.337 -1.337 4.279
 -0.311 -1.337 4.279
 -0.286 -1.336 4.28
 -0.261 -1.337 4.282
 -0.235 -1.338 4.286
 -0.21 -1.338 4.288
 -0.185 -1.338 4.289
 -0.159 -1.338 4.289
 -0.134 -1.337 4.286
 -0.108 -1.337 4.285
 -0.083 -1.336 4.282
 -0.058 -1.335 4.279
 -0.032 -1.336 4.282
 -0.007 -1.337 4.286
 0.017 -1.338 4.289
 0.043 -1.34 4.293
 0.068 -1.344 4.305
 0.094 -1.34 4.293
 0.119 -1.339 4.287
 0.144 -1.338 4.284
 0.17 -1.34 4.288
 0.196 -1.343 4.299
 0.221 -1.341 4.291
 0.246 -1.343 4.295
 0.272 -1.343 4.294
 0.298 -1.345 4.299
 0.322 -1.343 4.289
 0.348 -1.343 4.288
 0.373 -1.343 4.285
 0.399 -1.344 4.288
 0.424 -1.342 4.279
 0.45 -1.344 4.281
 0.475 -1.344 4.278
 0.5 -1.342 4.271
 0.525 -1.343 4.269
 0.552 -1.344 4.272
 0.577 -1.345 4.27
 0.604 -1.349 4.279
 0.63 -1.349 4.277
 0.655 -1.349 4.274
 0.68 -1.349 4.268
 0.707 -1.351 4.271
 0.733 -1.352 4.272
 0.761 -1.356 4.279
 0.788 -1.359 4.285
 0.815 -1.361 4.288
 0.842 -1.363 4.287
 0.868 -1.363 4.284
 0.892 -1.362 4.276
 0.917 -1.36 4.266
 0.944 -1.363 4.268
 0.97 -1.363 4.263
 0.997 -1.364 4.262
 1.024 -1.367 4.264
 1.051 -1.368 4.262
 1.077 -1.369 4.259
 1.105 -1.371 4.259
 1.131 -1.372 4.256
 1.158 -1.373 4.255
 1.186 -1.376 4.255
 1.213 -1.376 4.251
 1.24 -1.378 4.249
 1.268 -1.38 4.249
 1.295 -1.382 4.246
 1.323 -1.383 4.244
 1.351 -1.385 4.243
 1.378 -1.387 4.241
 1.407 -1.389 4.24
 1.435 -1.391 4.238
 1.463 -1.394 4.237
 1.493 -1.397 4.238
 1.522 -1.399 4.237
 1.55 -1.401 4.233
 1.579 -1.404 4.233
 1.607 -1.405 4.227
 1.635 -1.407 4.224
 1.665 -1.41 4.222
 1.694 -1.412 4.219
 1.723 -1.414 4.214
 1.751 -1.415 4.21
 1.781 -1.418 4.206
 1.808 -1.418 4.197
 1.834 -1.418 4.186
 1.86 -1.418 4.174
 1.888 -1.418 4.166
 1.907 -1.413 4.139
 0 0 0
 0 0 0
 0 0 0
 0 0 0
 0 0 0
 0 0 0
 0 0 0
 0 0 0
 0 0 0
 0 0 0
 0 0 0
 0 0 0
 1.807 -1.136 3.193
 1.827 -1.135 3.18
 1.833 -1.125 3.142
 1.873 -1.137 3.163
 1.852 -1.112 3.081
 -2.515 -1.495 4.348
 -2.474 -1.488 4.342
 -2.451 -1.492 4.367
 -2.416 -1.488 4.37
 -2.376 -1.482 4.364
 -2.339 -1.477 4.363
 -2.302 -1.471 4.36
 -2.266 -1.467 4.359
 -2.227 -1.461 4.353
 -2.194 -1.457 4.356
 -2.159 -1.453 4.355
 -2.123 -1.448 4.352
 -2.088 -1.444 4.349
 -2.053 -1.439 4.347
 -2.018 -1.434 4.343
 -1.984 -1.43 4.34
 -1.95 -1.425 4.338
 -1.918 -1.422 4.34
 -1.886 -1.419 4.34
 -1.853 -1.415 4.338
 -1.821 -1.412 4.338
 -1.79 -1.409 4.338
 -1.758 -1.406 4.337
 -1.726 -1.403 4.337
 -1.695 -1.4 4.337
 -1.664 -1.396 4.335
 -1.632 -1.393 4.332
 -1.6 -1.388 4.327
 -1.569 -1.385 4.325
 -1.54 -1.383 4.328
 -1.511 -1.381 4.328
 -1.481 -1.379 4.328
 -1.451 -1.376 4.328
 -1.422 -1.373 4.327
 -1.392 -1.371 4.325
 -1.363 -1.369 4.325
 -1.335 -1.367 4.327
 -1.308 -1.366 4.331
 -1.28 -1.365 4.334
 -1.252 -1.364 4.337
 -1.224 -1.362 4.336
 -1.196 -1.36 4.336
 -1.165 -1.356 4.327
 -1.134 -1.351 4.316
 -1.106 -1.348 4.314
 -1.078 -1.346 4.313
 -1.05 -1.344 4.31
 -1.025 -1.345 4.318
 -0.999 -1.346 4.326
 -0.973 -1.345 4.329
 -0.946 -1.344 4.33
 -0.918 -1.342 4.328
 -0.889 -1.338 4.319
 -0.861 -1.334 4.31
 -0.832 -1.329 4.298
 -0.806 -1.329 4.301
 -0.781 -1.33 4.308
 -0.755 -1.331 4.313
 -0.73 -1.332 4.32
 -0.705 -1.334 4.329
 -0.676 -1.328 4.313
 -0.649 -1.326 4.311
 -0.625 -1.329 4.322
 -0.599 -1.329 4.324
 -0.572 -1.326 4.319
 -0.547 -1.328 4.325
 -0.52 -1.326 4.321
 -0.491 -1.317 4.294
 -0.464 -1.313 4.282
 -0.439 -1.312 4.282
 0 0 0
 0 0 0
 -0.36 -1.304 4.259
 -0.335 -1.305 4.265
 -0.31 -1.307 4.271
 -0.285 -1.307 4.275
 -0.26 -1.308 4.278
 -0.235 -1.309 4.282
 -0.21 -1.31 4.286
 -0.184 -1.311 4.29
 -0.159 -1.311 4.289
 -0.134 -1.31 4.287
 -0.108 -1.31 4.287
 -0.083 -1.309 4.283
 -0.057 -1.307 4.278
 -0.032 -1.308 4.28
 -0.007 -1.308 4.28
 0.017 -1.308 4.28
 0.043 -1.309 4.284
 0 0 0
 0 0 0
 0 0 0
 0 0 0
 0 0 0
 0 0 0
 0 0 0
 0 0 0
 0.272 -1.316 4.296
 0.298 -1.321 4.308
 0.323 -1.317 4.294
 0.348 -1.318 4.295
 0.373 -1.317 4.291
 0.4 -1.32 4.299
 0.424 -1.317 4.285
 0.451 -1.32 4.293
 0.476 -1.319 4.287
 0.5 -1.317 4.278
 0.526 -1.318 4.278
 0.552 -1.32 4.282
 0.577 -1.318 4.273
 0.605 -1.324 4.289
 0.63 -1.323 4.283
 0.655 -1.322 4.276
 0.68 -1.322 4.272
 0.707 -1.325 4.279
 0.734 -1.328 4.283
 0.763 -1.333 4.296
 0.791 -1.338 4.307
 0.817 -1.338 4.301
 0.844 -1.34 4.303
 0.869 -1.339 4.297
 0.893 -1.337 4.284
 0.917 -1.334 4.272
 0.946 -1.339 4.28
 0.971 -1.339 4.275
 0.998 -1.339 4.272
 1.024 -1.341 4.271
 1.05 -1.34 4.265
 1.076 -1.341 4.261
 1.103 -1.342 4.259
 1.13 -1.344 4.257
 1.156 -1.345 4.254
 1.184 -1.347 4.255
 1.211 -1.348 4.251
 1.238 -1.35 4.249
 1.266 -1.351 4.248
 1.293 -1.353 4.247
 1.321 -1.355 4.246
 1.349 -1.357 4.244
 1.377 -1.359 4.243
 1.405 -1.361 4.241
 1.433 -1.363 4.24
 1.461 -1.365 4.238
 1.491 -1.368 4.24
 1.519 -1.371 4.237
 1.547 -1.372 4.233
 1.576 -1.375 4.232
 1.604 -1.376 4.226
 1.632 -1.377 4.221
 1.661 -1.379 4.219
 1.689 -1.381 4.215
 1.718 -1.383 4.211
 1.747 -1.385 4.207
 1.777 -1.388 4.204
 1.804 -1.388 4.197
 1.833 -1.39 4.191
 1.86 -1.39 4.181
 1.889 -1.393 4.177
 0 0 0
 0 0 0
 0 0 0
 0 0 0
 0 0 0
 0 0 0
 0 0 0
 0 0 0
 0 0 0
 0 0 0
 0 0 0
 0 0 0
 0 0 0
 1.81 -1.116 3.203
 1.826 -1.113 3.184
 1.832 -1.104 3.147
 1.847 -1.1 3.125
 1.833 -1.079 3.055
 -2.527 -1.473 4.378
 -2.481 -1.463 4.364
 -2.449 -1.462 4.372
 -2.411 -1.457 4.371
 -2.371 -1.449 4.363
 -2.334 -1.445 4.362
 -2.297 -1.44 4.36
 -2.261 -1.435 4.359
 -2.225 -1.43 4.356
 -2.191 -1.427 4.36
 -2.156 -1.423 4.359
 -2.12 -1.418 4.354
 -2.085 -1.414 4.352
 -2.049 -1.408 4.346
 -2.014 -1.403 4.343
 -1.98 -1.399 4.34
 -1.946 -1.395 4.339
 -1.913 -1.391 4.337
 -1.883 -1.389 4.341
 -1.849 -1.385 4.338
 -1.817 -1.382 4.337
 -1.785 -1.378 4.336
 -1.754 -1.376 4.337
 -1.722 -1.372 4.335
 -1.693 -1.37 4.338
 -1.661 -1.367 4.336
 -1.63 -1.364 4.334
 -1.598 -1.36 4.33
 -1.568 -1.357 4.329
 -1.538 -1.355 4.329
 -1.508 -1.352 4.328
 -1.479 -1.35 4.329
 -1.449 -1.347 4.328
 -1.419 -1.344 4.325
 -1.39 -1.342 4.325
 -1.361 -1.34 4.327
 -1.333 -1.339 4.328
 -1.305 -1.337 4.33
 -1.278 -1.336 4.333
 -1.251 -1.336 4.339
 -1.222 -1.333 4.336
 -1.194 -1.332 4.337
 -1.164 -1.328 4.33
 -1.133 -1.322 4.317
 -1.104 -1.319 4.313
 -1.078 -1.32 4.321
 -1.05 -1.318 4.319
 -1.025 -1.32 4.328
 -1.001 -1.322 4.341
 0 0 0
 0 0 0
 0 0 0
 0 0 0
 0 0 0
 0 0 0
 0 0 0
 0 0 0
 0 0 0
 0 0 0
 0 0 0
 0 0 0
 0 0 0
 -0.632 -1.319 4.381
 -0.606 -1.319 4.385
 0 0 0
 -0.555 -1.321 4.397
 0 0 0
 0 0 0
 0 0 0
 0 0 0
 0 0 0
 0 0 0
 -0.362 -1.287 4.293
 -0.334 -1.278 4.264
 -0.31 -1.279 4.271
 -0.284 -1.28 4.274
 -0.259 -1.281 4.277
 -0.234 -1.282 4.281
 -0.209 -1.283 4.286
 -0.184 -1.284 4.29
 -0.159 -1.284 4.29
 -0.133 -1.284 4.29
 -0.108 -1.284 4.291
 -0.083 -1.282 4.286
 -0.057 -1.281 4.281
 -0.032 -1.281 4.281
 -0.007 -1.28 4.279
 0.018 -1.279 4.274
 0.043 -1.28 4.276
 0 0 0
 0 0 0
 0 0 0
 0 0 0
 0 0 0
 0 0 0
 0 0 0
 0 0 0
 0 0 0
 0 0 0
 0 0 0
 0 0 0
 0 0 0
 0 0 0
 0 0 0
 0 0 0
 0 0 0
 0 0 0
 0 0 0
 0 0 0
 0 0 0
 0 0 0
 0 0 0
 0 0 0
 0 0 0
 0 0 0
 0 0 0
 0 0 0
 0 0 0
 0 0 0
 0 0 0
 0 0 0
 0 0 0
 0 0 0
 0 0 0
 0.971 -1.312 4.281
 0.997 -1.312 4.274
 1.023 -1.312 4.27
 1.049 -1.313 4.265
 1.075 -1.314 4.263
 1.102 -1.315 4.261
 1.129 -1.317 4.261
 1.156 -1.318 4.259
 1.183 -1.32 4.258
 1.21 -1.321 4.255
 1.237 -1.322 4.253
 1.264 -1.324 4.25
 1.291 -1.325 4.247
 1.319 -1.327 4.246
 1.347 -1.329 4.244
 1.375 -1.331 4.243
 1.403 -1.333 4.242
 1.432 -1.335 4.242
 1.46 -1.337 4.24
 1.489 -1.34 4.241
 1.517 -1.342 4.238
 1.545 -1.344 4.234
 1.574 -1.346 4.233
 1.602 -1.347 4.228
 1.63 -1.349 4.224
 1.658 -1.351 4.22
 1.687 -1.352 4.215
 1.715 -1.354 4.211
 1.744 -1.356 4.206
 1.773 -1.358 4.203
 1.802 -1.359 4.197
 1.831 -1.362 4.193
 1.858 -1.362 4.185
 1.89 -1.366 4.185
 0 0 0
 0 0 0
 0 0 0
 0 0 0
 0 0 0
 0 0 0
 0 0 0
 0 0 0
 0 0 0
 0 0 0
 0 0 0
 0 0 0
 0 0 0
 1.807 -1.092 3.205
 1.823 -1.089 3.185
 1.831 -1.082 3.151
 1.846 -1.078 3.129
 1.846 -1.066 3.083
 -2.518 -1.439 4.372
 -2.493 -1.441 4.394
 -2.446 -1.431 4.376
 -2.407 -1.425 4.372
 -2.367 -1.419 4.366
 -2.331 -1.414 4.366
 -2.294 -1.409 4.363
 -2.257 -1.404 4.359
 -2.221 -1.4 4.357
 -2.187 -1.396 4.359
 -2.151 -1.391 4.356
 -2.115 -1.386 4.352
 -2.08 -1.382 4.35
 -2.044 -1.377 4.345
 -2.009 -1.372 4.342
 -1.976 -1.368 4.339
 -1.943 -1.365 4.34
 -1.911 -1.362 4.34
 -1.881 -1.361 4.346
 -1.848 -1.357 4.343
 -1.816 -1.354 4.343
 -1.784 -1.35 4.34
 -1.753 -1.347 4.342
 -1.721 -1.344 4.34
 -1.69 -1.341 4.34
 -1.659 -1.338 4.338
 -1.628 -1.335 4.336
 -1.597 -1.331 4.333
 -1.566 -1.328 4.331
 -1.536 -1.326 4.331
 -1.505 -1.323 4.329
 -1.476 -1.32 4.328
 -1.445 -1.317 4.325
 -1.414 -1.313 4.319
 -1.385 -1.311 4.319
 -1.357 -1.309 4.319
 -1.329 -1.308 4.321
 -1.3 -1.306 4.322
 0 0 0
 0 0 0
 0 0 0
 0 0 0
 0 0 0
 0 0 0
 0 0 0
 0 0 0
 0 0 0
 0 0 0
 0 0 0
 0 0 0
 0 0 0
 0 0 0
 0 0 0
 0 0 0
 0 0 0
 0 0 0
 0 0 0
 0 0 0
 0 0 0
 0 0 0
 0 0 0
 -0.656 -1.288 4.37
 -0.63 -1.289 4.374
 -0.604 -1.289 4.377
 -0.579 -1.291 4.388
 -0.555 -1.296 4.404
 0 0 0
 0 0 0
 0 0 0
 0 0 0
 0 0 0
 0 0 0
 -0.363 -1.263 4.305
 -0.335 -1.253 4.273
 -0.31 -1.254 4.279
 -0.284 -1.255 4.281
 -0.259 -1.255 4.281
 -0.234 -1.255 4.283
 -0.209 -1.256 4.287
 -0.183 -1.256 4.288
 -0.158 -1.255 4.286
 -0.133 -1.255 4.285
 -0.108 -1.256 4.287
 -0.082 -1.254 4.281
 -0.057 -1.253 4.278
 -0.032 -1.253 4.279
 -0.007 -1.254 4.279
 0.018 -1.252 4.272
 0.043 -1.254 4.28
 0 0 0
 0 0 0
 0 0 0
 0 0 0
 0 0 0
 0 0 0
 0 0 0
 0 0 0
 0 0 0
 0 0 0
 0 0 0
 0 0 0
 0 0 0
 0 0 0
 0 0 0
 0 0 0
 0 0 0
 0 0 0
 0 0 0
 0 0 0
 0 0 0
 0 0 0
 0 0 0
 0 0 0
 0 0 0
 0 0 0
 0 0 0
 0 0 0
 0 0 0
 0 0 0
 0 0 0
 0 0 0
 0 0 0
 0 0 0
 0 0 0
 0.971 -1.286 4.284
 0.996 -1.285 4.276
 1.021 -1.285 4.27
 1.047 -1.285 4.267
 1.074 -1.286 4.265
 1.1 -1.287 4.262
 1.128 -1.289 4.262
 1.154 -1.29 4.26
 1.181 -1.292 4.258
 1.208 -1.293 4.254
 1.235 -1.294 4.252
 1.262 -1.296 4.25
 1.29 -1.297 4.249
 1.318 -1.299 4.248
 1.345 -1.301 4.245
 1.374 -1.304 4.247
 1.402 -1.305 4.245
 1.43 -1.308 4.245
 1.459 -1.31 4.244
 1.489 -1.313 4.246
 1.516 -1.314 4.241
 1.543 -1.315 4.236
 1.572 -1.318 4.234
 1.6 -1.319 4.23
 1.628 -1.32 4.224
 1.655 -1.322 4.219
 1.684 -1.324 4.217
 1.713 -1.325 4.212
 1.742 -1.327 4.208
 1.771 -1.329 4.205
 1.799 -1.331 4.199
 1.827 -1.332 4.193
 1.856 -1.333 4.186
 1.886 -1.336 4.184
 0 0 0
 0 0 0
 0 0 0
 0 0 0
 0 0 0
 0 0 0
 0 0 0
 0 0 0
 0 0 0
 0 0 0
 0 0 0
 0 0 0
 0 0 0
 1.807 -1.071 3.212
 1.824 -1.068 3.192
 1.833 -1.061 3.16
 1.867 -1.069 3.171
 1.853 -1.049 3.102
 -2.542 -1.423 4.422
 -2.506 -1.419 4.425
 -2.443 -1.4 4.379
 -2.403 -1.393 4.372
 -2.362 -1.387 4.365
 -2.326 -1.383 4.364
 -2.289 -1.378 4.362
 -2.252 -1.373 4.359
 -2.218 -1.369 4.359
 -2.182 -1.365 4.357
 -2.146 -1.36 4.354
 -2.109 -1.355 4.349
 -2.074 -1.35 4.344
 -2.037 -1.345 4.339
 -2.004 -1.341 4.337
 -1.97 -1.337 4.336
 -1.939 -1.335 4.339
 -1.908 -1.333 4.342
 -1.879 -1.332 4.35
 -1.845 -1.327 4.345
 -1.813 -1.324 4.343
