 0.339 -1.614 4.107
 0.363 -1.614 4.105
 0.388 -1.615 4.105
 0.413 -1.614 4.101
 0.438 -1.614 4.099
 0.463 -1.615 4.099
 0.488 -1.616 4.097
 0.513 -1.615 4.091
 0.538 -1.617 4.094
 0.564 -1.619 4.096
 0.588 -1.618 4.089
 0.614 -1.619 4.091
 0.639 -1.621 4.09
 0.663 -1.619 4.082
 0.688 -1.618 4.077
 0.713 -1.619 4.075
 0.738 -1.619 4.07
 0.764 -1.621 4.072
 0.789 -1.623 4.071
 0.815 -1.625 4.072
 0.84 -1.625 4.066
 0.865 -1.624 4.06
 0.889 -1.623 4.054
 0.915 -1.624 4.051
 0.94 -1.624 4.046
 0.967 -1.627 4.048
 0.993 -1.629 4.047
 1.019 -1.631 4.047
 1.045 -1.632 4.043
 1.069 -1.632 4.036
 1.094 -1.631 4.028
 1.12 -1.633 4.026
 1.146 -1.634 4.023
 1.171 -1.634 4.015
 1.198 -1.637 4.016
 1.224 -1.638 4.011
 1.249 -1.638 4.005
 1.273 -1.637 3.994
 1.301 -1.64 3.995
 1.325 -1.64 3.986
 1.351 -1.64 3.979
 1.377 -1.641 3.974
 1.403 -1.642 3.968
 1.426 -1.64 3.954
 1.45 -1.639 3.944
 1.477 -1.64 3.938
 1.5 -1.638 3.924
 1.524 -1.637 3.914
 1.549 -1.638 3.906
 1.575 -1.638 3.897
 1.599 -1.637 3.886
 1.624 -1.638 3.877
 1.649 -1.637 3.866
 1.673 -1.636 3.854
 1.698 -1.636 3.844
 1.723 -1.636 3.834
 1.744 -1.632 3.814
 1.765 -1.629 3.796
 1.783 -1.623 3.771
 1.796 -1.612 3.735
 1.805 -1.599 3.693
 1.814 -1.585 3.651
 1.82 -1.569 3.603
 1.824 -1.553 3.555
 1.828 -1.537 3.506
 1.831 -1.52 3.456
 1.814 -1.487 3.369
 1.788 -1.447 3.269
 1.784 -1.426 3.211
 1.777 -1.404 3.149
 1.777 -1.387 3.101
 1.776 -1.37 3.052
 1.772 -1.351 2.999
 1.767 -1.332 2.945
 1.75 -1.304 2.872
 1.762 -1.299 2.85
 -2.235 -1.639 3.752
 -2.191 -1.626 3.735
 -2.17 -1.63 3.757
 -2.148 -1.633 3.775
 -2.123 -1.633 3.789
 -2.094 -1.632 3.797
 -2.069 -1.632 3.809
 -2.039 -1.629 3.815
 -2.013 -1.629 3.825
 -1.986 -1.628 3.835
 -1.957 -1.625 3.84
 -1.93 -1.624 3.848
 -1.905 -1.625 3.861
 -1.877 -1.623 3.867
 -1.851 -1.622 3.876
 -1.829 -1.626 3.895
 -1.805 -1.627 3.908
 -1.779 -1.627 3.918
 -1.753 -1.627 3.928
 -1.726 -1.626 3.936
 -1.699 -1.625 3.941
 -1.669 -1.62 3.94
 -1.642 -1.619 3.947
 -1.616 -1.619 3.954
 -1.589 -1.618 3.961
 -1.563 -1.617 3.968
 -1.538 -1.618 3.979
 -1.513 -1.619 3.988
 -1.487 -1.618 3.995
 -1.461 -1.618 4.002
 -1.435 -1.617 4.008
 -1.408 -1.615 4.011
 -1.381 -1.614 4.016
 -1.356 -1.614 4.023
 -1.33 -1.614 4.03
 -1.304 -1.614 4.036
 -1.282 -1.618 4.053
 -1.257 -1.618 4.06
 -1.232 -1.619 4.07
 -1.205 -1.618 4.073
 -1.181 -1.62 4.084
 -1.153 -1.616 4.081
 -1.126 -1.613 4.079
 -1.099 -1.611 4.08
 -1.073 -1.612 4.086
 -1.047 -1.61 4.087
 -1.021 -1.609 4.091
 -0.997 -1.611 4.099
 -0.97 -1.609 4.101
 -0.944 -1.608 4.103
 -0.919 -1.608 4.107
 -0.893 -1.607 4.108
 -0.867 -1.606 4.111
 -0.841 -1.605 4.113
 -0.816 -1.605 4.117
 -0.79 -1.604 4.117
 -0.765 -1.605 4.123
 -0.74 -1.606 4.129
 -0.715 -1.607 4.135
 -0.69 -1.607 4.14
 -0.666 -1.608 4.146
 -0.641 -1.611 4.156
 -0.615 -1.609 4.154
 -0.59 -1.61 4.16
 -0.565 -1.611 4.165
 -0.539 -1.607 4.157
 -0.513 -1.607 4.159
 -0.488 -1.607 4.161
 -0.462 -1.605 4.158
 -0.437 -1.605 4.161
 -0.413 -1.609 4.171
 -0.387 -1.606 4.165
 -0.362 -1.607 4.17
 -0.336 -1.605 4.168
 -0.311 -1.605 4.167
 -0.286 -1.605 4.168
 -0.26 -1.604 4.169
 -0.235 -1.603 4.165
 -0.21 -1.605 4.172
 -0.185 -1.603 4.166
 -0.159 -1.602 4.166
 -0.134 -1.604 4.17
 -0.109 -1.606 4.176
 -0.084 -1.606 4.176
 -0.059 -1.608 4.182
 -0.034 -1.608 4.183
 -0.009 -1.608 4.182
 0.016 -1.609 4.184
 0.041 -1.609 4.183
 0.066 -1.606 4.175
 0.091 -1.604 4.17
 0.116 -1.602 4.163
 0.141 -1.6 4.158
 0.166 -1.602 4.16
 0.191 -1.604 4.165
 0.217 -1.605 4.167
 0.242 -1.607 4.17
 0.267 -1.607 4.168
 0.292 -1.607 4.165
 0.317 -1.607 4.163
 0.342 -1.606 4.16
 0.367 -1.606 4.157
 0.393 -1.606 4.157
 0.418 -1.605 4.151
 0.443 -1.605 4.148
 0.468 -1.607 4.151
 0.493 -1.607 4.149
 0.518 -1.606 4.142
 0.544 -1.609 4.147
 0.57 -1.61 4.145
 0.594 -1.609 4.14
 0.62 -1.611 4.142
 0.646 -1.613 4.145
 0.671 -1.611 4.135
 0.696 -1.612 4.133
 0.722 -1.613 4.133
 0.747 -1.613 4.127
 0.773 -1.614 4.127
 0.799 -1.616 4.126
 0.825 -1.617 4.126
 0.85 -1.617 4.121
 0.875 -1.617 4.116
 0.9 -1.617 4.11
 0.927 -1.619 4.111
 0.952 -1.62 4.107
 0.978 -1.621 4.105
 1.005 -1.623 4.105
 1.032 -1.626 4.105
 1.057 -1.626 4.099
 1.082 -1.626 4.094
 1.108 -1.627 4.089
 1.135 -1.628 4.086
 1.161 -1.629 4.082
 1.185 -1.628 4.073
 1.212 -1.63 4.071
 1.239 -1.632 4.068
 1.264 -1.632 4.062
 1.289 -1.632 4.054
 1.318 -1.636 4.055
 1.343 -1.636 4.048
 1.368 -1.635 4.038
 1.394 -1.636 4.033
 1.42 -1.637 4.026
 1.444 -1.635 4.013
 1.469 -1.635 4.004
 1.495 -1.636 3.998
 1.519 -1.634 3.985
 1.545 -1.634 3.976
 1.571 -1.635 3.97
 1.598 -1.636 3.963
 1.624 -1.637 3.955
 1.649 -1.637 3.946
 1.673 -1.636 3.933
 1.697 -1.634 3.919
 1.721 -1.633 3.906
 1.745 -1.632 3.892
 1.765 -1.626 3.87
 1.786 -1.623 3.851
 1.8 -1.613 3.817
 1.81 -1.6 3.774
 1.816 -1.584 3.725
 1.823 -1.569 3.679
 1.827 -1.551 3.626
 1.832 -1.536 3.579
 1.838 -1.52 3.532
 1.841 -1.504 3.482
 1.814 -1.463 3.377
 1.776 -1.416 3.256
 1.775 -1.398 3.204
 1.772 -1.378 3.147
 1.777 -1.366 3.109
 1.779 -1.352 3.066
 1.775 -1.333 3.012
 1.769 -1.313 2.957
 1.76 -1.292 2.898
 1.753 -1.272 2.842
 -2.238 -1.616 3.767
 -2.215 -1.618 3.786
 -2.202 -1.628 3.822
 -2.179 -1.63 3.84
 -2.152 -1.63 3.852
 -2.123 -1.627 3.858
 -2.099 -1.629 3.875
 -2.068 -1.626 3.878
 -2.042 -1.626 3.89
 -2.016 -1.626 3.902
 -1.988 -1.625 3.91
 -1.959 -1.623 3.917
 -1.934 -1.623 3.93
 -1.905 -1.621 3.935
 -1.88 -1.622 3.947
 -1.855 -1.623 3.96
 -1.83 -1.624 3.972
 -1.805 -1.625 3.986
 -1.779 -1.625 3.996
 -1.75 -1.623 4.001
 -1.724 -1.622 4.009
 -1.693 -1.618 4.007
 -1.665 -1.616 4.011
 -1.638 -1.615 4.018
 -1.611 -1.614 4.025
 -1.584 -1.614 4.032
 -1.561 -1.616 4.046
 -1.535 -1.617 4.056
 -1.508 -1.615 4.061
 -1.482 -1.615 4.069
 -1.455 -1.614 4.074
 -1.428 -1.612 4.078
 -1.401 -1.612 4.084
 -1.375 -1.611 4.089
 -1.348 -1.61 4.094
 -1.322 -1.61 4.1
 -1.297 -1.612 4.112
 -1.272 -1.613 4.121
 -1.248 -1.615 4.133
 -1.221 -1.613 4.136
 -1.196 -1.615 4.145
 -1.169 -1.612 4.145
 -1.14 -1.609 4.142
 -1.114 -1.608 4.146
 -1.088 -1.608 4.151
 -1.062 -1.607 4.154
 -1.035 -1.605 4.155
 -1.009 -1.605 4.159
 -0.982 -1.604 4.162
 -0.957 -1.604 4.167
 -0.931 -1.604 4.171
 -0.905 -1.603 4.174
 -0.88 -1.604 4.18
 -0.854 -1.603 4.182
 -0.827 -1.601 4.181
 -0.8 -1.599 4.18
 -0.774 -1.599 4.182
 -0.749 -1.599 4.186
 -0.723 -1.599 4.19
 -0.698 -1.6 4.195
 -0.672 -1.599 4.198
 -0.648 -1.602 4.207
 -0.621 -1.6 4.205
 -0.596 -1.6 4.208
 -0.571 -1.602 4.215
 -0.544 -1.599 4.211
 -0.519 -1.6 4.216
 -0.493 -1.6 4.217
 -0.467 -1.597 4.213
 -0.442 -1.597 4.214
 -0.417 -1.6 4.223
 -0.391 -1.597 4.218
 -0.365 -1.597 4.22
 -0.339 -1.596 4.218
 -0.314 -1.595 4.215
 -0.288 -1.594 4.215
 -0.262 -1.593 4.213
 -0.237 -1.592 4.213
 -0.212 -1.594 4.218
 -0.186 -1.592 4.214
 -0.161 -1.592 4.215
 -0.135 -1.593 4.217
 -0.11 -1.593 4.218
 -0.085 -1.593 4.218
 -0.059 -1.594 4.221
 -0.034 -1.594 4.22
 -0.009 -1.593 4.218
 0.016 -1.594 4.218
 0.041 -1.593 4.217
 0.066 -1.591 4.211
 0.092 -1.591 4.209
 0.117 -1.59 4.205
 0.142 -1.589 4.203
 0.168 -1.591 4.206
 0.193 -1.593 4.211
 0.219 -1.594 4.211
 0.244 -1.595 4.213
 0.27 -1.595 4.212
 0.295 -1.595 4.209
 0.32 -1.594 4.206
 0.345 -1.593 4.202
 0.371 -1.594 4.201
 0.396 -1.594 4.2
 0.421 -1.594 4.197
 0.447 -1.594 4.193
 0.472 -1.595 4.194
 0.498 -1.595 4.191
 0.522 -1.593 4.183
 0.549 -1.596 4.188
 0.574 -1.597 4.186
 0.6 -1.597 4.183
 0.626 -1.599 4.185
 0.652 -1.602 4.189
 0.677 -1.599 4.179
 0.702 -1.6 4.177
 0.728 -1.601 4.176
 0.753 -1.601 4.171
 0.78 -1.603 4.171
 0.805 -1.603 4.168
 0.832 -1.605 4.169
 0.857 -1.605 4.164
 0.882 -1.605 4.158
 0.907 -1.604 4.151
 0.936 -1.609 4.158
 0.962 -1.61 4.155
 0.988 -1.612 4.155
 1.015 -1.615 4.157
 1.043 -1.618 4.159
 1.068 -1.617 4.152
 1.095 -1.619 4.149
 1.121 -1.619 4.144
 1.148 -1.621 4.142
 1.174 -1.622 4.138
 1.198 -1.62 4.127
 1.225 -1.622 4.124
 1.253 -1.625 4.124
 1.278 -1.624 4.116
 1.303 -1.623 4.106
 1.332 -1.627 4.108
 1.358 -1.627 4.101
 1.382 -1.626 4.09
 1.41 -1.628 4.087
 1.437 -1.63 4.082
 1.461 -1.628 4.07
 1.488 -1.629 4.063
 1.515 -1.63 4.058
 1.539 -1.629 4.045
 1.565 -1.629 4.036
 1.592 -1.631 4.032
 1.618 -1.631 4.024
 1.644 -1.631 4.014
 1.67 -1.631 4.004
 1.695 -1.631 3.993
 1.718 -1.629 3.978
 1.743 -1.627 3.964
 1.766 -1.625 3.948
 1.784 -1.618 3.921
 1.801 -1.611 3.893
 1.814 -1.6 3.855
 1.822 -1.585 3.808
 1.825 -1.566 3.752
 1.832 -1.552 3.706
 1.835 -1.534 3.651
 1.843 -1.52 3.608
 1.848 -1.505 3.56
 1.855 -1.491 3.518
 1.816 -1.442 3.39
 1.762 -1.382 3.237
 1.765 -1.367 3.192
 1.765 -1.351 3.144
 1.776 -1.344 3.115
 1.781 -1.332 3.076
 1.778 -1.314 3.025
 1.774 -1.296 2.972
 1.765 -1.275 2.912
 1.789 -1.277 2.908
 -2.271 -1.613 3.834
 -2.277 -1.636 3.902
 -2.232 -1.624 3.884
 -2.208 -1.626 3.902
 -2.182 -1.626 3.915
 -2.152 -1.623 3.921
 -2.127 -1.625 3.937
 -2.097 -1.622 3.942
 -2.071 -1.622 3.955
 -2.044 -1.622 3.967
 -2.016 -1.622 3.976
 -1.987 -1.619 3.982
 -1.961 -1.62 3.995
 -1.932 -1.617 3.999
 -1.906 -1.618 4.012
 -1.88 -1.618 4.023
 -1.854 -1.619 4.036
 -1.829 -1.621 4.05
 -1.804 -1.622 4.062
 -1.775 -1.62 4.067
 -1.747 -1.618 4.074
 -1.718 -1.615 4.076
 -1.689 -1.613 4.08
 -1.661 -1.612 4.086
 -1.634 -1.611 4.092
 -1.608 -1.611 4.101
 -1.583 -1.612 4.113
 -1.555 -1.611 4.119
 -1.528 -1.611 4.125
 -1.502 -1.61 4.133
 -1.475 -1.61 4.14
 -1.447 -1.608 4.142
 -1.42 -1.608 4.149
 -1.393 -1.606 4.152
 -1.366 -1.606 4.159
 -1.339 -1.604 4.162
 -1.313 -1.605 4.17
 -1.288 -1.606 4.181
 -1.262 -1.607 4.19
 -1.235 -1.605 4.192
 -1.209 -1.606 4.198
 -1.181 -1.604 4.199
 -1.153 -1.6 4.197
 -1.125 -1.599 4.198
 -1.099 -1.598 4.202
 -1.073 -1.599 4.209
 -1.047 -1.599 4.214
 -1.02 -1.598 4.217
 -0.994 -1.597 4.22
 -0.968 -1.596 4.223
 -0.941 -1.596 4.227
 -0.914 -1.594 4.226
 -0.888 -1.594 4.229
 -0.862 -1.593 4.232
 -0.835 -1.591 4.23
 -0.808 -1.589 4.23
 -0.782 -1.589 4.232
 -0.756 -1.588 4.233
 -0.73 -1.587 4.236
 -0.704 -1.588 4.242
 -0.678 -1.587 4.242
 -0.653 -1.588 4.248
 -0.626 -1.587 4.248
 -0.601 -1.588 4.253
 -0.575 -1.589 4.258
 -0.549 -1.586 4.254
 -0.523 -1.588 4.26
 -0.497 -1.587 4.26
 -0.471 -1.585 4.256
 -0.445 -1.583 4.254
 -0.42 -1.585 4.262
 -0.393 -1.583 4.257
 -0.367 -1.582 4.255
 -0.341 -1.58 4.252
 -0.315 -1.579 4.251
 -0.29 -1.578 4.248
 -0.264 -1.576 4.245
 -0.238 -1.576 4.245
 -0.213 -1.577 4.25
 -0.187 -1.576 4.246
 -0.162 -1.577 4.25
 -0.136 -1.578 4.252
 -0.111 -1.579 4.257
 -0.085 -1.578 4.254
 -0.06 -1.579 4.257
 -0.034 -1.579 4.255
 -0.008 -1.579 4.256
 0.016 -1.578 4.254
 0.042 -1.578 4.253
 0.067 -1.577 4.248
 0.093 -1.576 4.245
 0.118 -1.575 4.241
 0.143 -1.575 4.242
 0.169 -1.575 4.24
 0.195 -1.576 4.243
 0.22 -1.577 4.244
 0.246 -1.578 4.243
 0.271 -1.577 4.239
 0.297 -1.577 4.239
 0.322 -1.577 4.237
 0.347 -1.577 4.234
 0.373 -1.577 4.233
 0.399 -1.578 4.232
 0.424 -1.578 4.228
 0.45 -1.578 4.228
 0.475 -1.579 4.227
 0.501 -1.579 4.225
 0.526 -1.579 4.221
 0.552 -1.581 4.223
 0.577 -1.58 4.217
 0.603 -1.58 4.215
 0.63 -1.583 4.218
 0.656 -1.585 4.22
 0.681 -1.584 4.215
 0.708 -1.586 4.216
 0.734 -1.587 4.216
 0.759 -1.587 4.211
 0.786 -1.589 4.211
 0.811 -1.589 4.207
 0.838 -1.591 4.207
 0.863 -1.59 4.201
 0.888 -1.589 4.193
 0.914 -1.59 4.189
 0.942 -1.595 4.197
 0.968 -1.595 4.193
 0.995 -1.597 4.191
 1.023 -1.6 4.195
 1.051 -1.603 4.197
 1.076 -1.602 4.189
 1.102 -1.604 4.186
 1.129 -1.605 4.184
 1.156 -1.607 4.181
 1.182 -1.607 4.175
 1.208 -1.607 4.169
 1.236 -1.61 4.168
 1.264 -1.613 4.169
 1.29 -1.613 4.162
 1.316 -1.613 4.156
 1.344 -1.616 4.155
 1.37 -1.616 4.147
 1.395 -1.615 4.137
 1.423 -1.617 4.134
 1.45 -1.618 4.129
 1.476 -1.618 4.12
 1.503 -1.62 4.115
 1.531 -1.621 4.11
 1.557 -1.622 4.102
 1.584 -1.622 4.095
 1.611 -1.624 4.09
 1.638 -1.625 4.083
 1.665 -1.626 4.075
 1.691 -1.626 4.065
 1.716 -1.624 4.051
 1.739 -1.622 4.034
 1.763 -1.62 4.019
 1.783 -1.615 3.996
 1.799 -1.606 3.964
 1.816 -1.598 3.933
 1.826 -1.585 3.89
 1.831 -1.567 3.835
 1.834 -1.549 3.78
 1.842 -1.535 3.734
 1.846 -1.518 3.681
 1.857 -1.507 3.644
 1.867 -1.496 3.605
 1.881 -1.488 3.576
 0 0 0
 1.737 -1.34 3.198
 1.753 -1.337 3.18
 1.766 -1.33 3.153
 1.778 -1.323 3.126
 1.785 -1.313 3.09
 1.784 -1.297 3.042
 1.782 -1.281 2.993
 1.757 -1.249 2.906
 1.769 -1.243 2.883
 -2.302 -1.609 3.897
 -2.288 -1.618 3.932
 -2.263 -1.619 3.948
 -2.239 -1.621 3.966
 -2.211 -1.621 3.978
 -2.182 -1.619 3.986
 -2.156 -1.62 4.001
 -2.126 -1.618 4.008
 -2.101 -1.619 4.023
 -2.074 -1.619 4.034
 -2.046 -1.619 4.046
 -2.016 -1.616 4.051
 -1.99 -1.617 4.063
 -1.96 -1.614 4.067
 -1.934 -1.615 4.08
 -1.906 -1.614 4.089
 -1.881 -1.616 4.104
 -1.855 -1.617 4.117
 -1.829 -1.618 4.13
 -1.801 -1.616 4.136
 -1.772 -1.614 4.14
 -1.74 -1.61 4.139
 -1.711 -1.608 4.144
 -1.683 -1.606 4.149
 -1.655 -1.605 4.154
 -1.629 -1.606 4.164
 -1.603 -1.606 4.175
 -1.574 -1.605 4.179
 -1.546 -1.603 4.184
 -1.52 -1.603 4.192
 -1.493 -1.604 4.201
 -1.465 -1.602 4.204
 -1.439 -1.603 4.214
 -1.411 -1.601 4.218
 -1.384 -1.601 4.224
 -1.355 -1.597 4.222
 -1.329 -1.598 4.23
 -1.302 -1.598 4.236
 -1.275 -1.597 4.24
 -1.246 -1.594 4.24
 -1.22 -1.595 4.248
 -1.192 -1.592 4.248
 -1.164 -1.59 4.248
 -1.137 -1.589 4.25
 -1.11 -1.588 4.253
 -1.083 -1.587 4.257
 -1.057 -1.587 4.262
 -1.029 -1.585 4.261
 -1.002 -1.584 4.265
 -0.975 -1.582 4.264
 -0.948 -1.582 4.267
 -0.92 -1.579 4.263
 -0.894 -1.578 4.266
 -0.867 -1.577 4.267
 -0.84 -1.575 4.267
 -0.813 -1.573 4.265
 -0.786 -1.572 4.266
 -0.76 -1.571 4.267
 -0.734 -1.572 4.271
 -0.708 -1.572 4.275
 -0.682 -1.571 4.276
 -0.657 -1.573 4.285
 -0.63 -1.572 4.284
 -0.604 -1.571 4.284
 -0.578 -1.572 4.289
 -0.551 -1.569 4.285
 -0.525 -1.568 4.286
 -0.499 -1.567 4.285
 -0.473 -1.565 4.281
 -0.446 -1.564 4.279
 -0.421 -1.564 4.281
 -0.394 -1.561 4.275
 -0.368 -1.56 4.273
 -0.342 -1.559 4.272
 -0.316 -1.558 4.272
 -0.291 -1.558 4.272
 -0.265 -1.557 4.271
 -0.239 -1.558 4.273
 -0.213 -1.558 4.275
 -0.188 -1.556 4.269
 -0.162 -1.557 4.273
 -0.137 -1.558 4.277
 -0.111 -1.559 4.279
 -0.085 -1.559 4.279
 -0.06 -1.56 4.282
 -0.034 -1.559 4.279
 -0.008 -1.558 4.277
 0.016 -1.556 4.272
 0.042 -1.555 4.267
 0.067 -1.554 4.264
 0.093 -1.553 4.261
 0.118 -1.553 4.259
 0.144 -1.553 4.26
 0.17 -1.554 4.261
 0.195 -1.554 4.26
 0.221 -1.555 4.261
 0.246 -1.555 4.258
 0.272 -1.555 4.256
 0.297 -1.555 4.257
 0.323 -1.556 4.257
 0.349 -1.555 4.253
 0.374 -1.556 4.253
 0.4 -1.556 4.25
 0.425 -1.556 4.248
 0.451 -1.557 4.248
 0.477 -1.558 4.248
 0.503 -1.559 4.248
 0.529 -1.56 4.248
 0.554 -1.561 4.246
 0.58 -1.56 4.241
 0.605 -1.56 4.239
 0.632 -1.562 4.239
 0.657 -1.562 4.237
 0.683 -1.563 4.235
 0.71 -1.564 4.235
 0.736 -1.566 4.236
 0.762 -1.567 4.235
 0.789 -1.57 4.238
 0.815 -1.571 4.236
 0.842 -1.573 4.236
 0.868 -1.573 4.232
 0.893 -1.572 4.225
 0.919 -1.572 4.219
 0.947 -1.576 4.226
 0.973 -1.577 4.222
 1 -1.578 4.219
 1.028 -1.582 4.223
 1.056 -1.586 4.228
 1.082 -1.586 4.222
 1.109 -1.587 4.22
 1.137 -1.589 4.219
 1.164 -1.591 4.216
 1.189 -1.59 4.208
 1.215 -1.59 4.202
 1.243 -1.592 4.199
 1.271 -1.595 4.201
 1.297 -1.596 4.194
 1.324 -1.597 4.19
 1.353 -1.599 4.189
 1.38 -1.601 4.185
 1.406 -1.6 4.176
 1.433 -1.602 4.172
 1.461 -1.603 4.167
 1.488 -1.604 4.161
 1.515 -1.606 4.156
 1.544 -1.608 4.153
 1.571 -1.61 4.148
 1.599 -1.611 4.143
 1.627 -1.613 4.138
 1.654 -1.614 4.13
 1.681 -1.615 4.123
 1.707 -1.615 4.113
 1.732 -1.613 4.097
 1.753 -1.608 4.076
 1.776 -1.605 4.058
 1.794 -1.598 4.03
 1.809 -1.589 3.994
 1.825 -1.58 3.961
 1.836 -1.567 3.919
 1.842 -1.551 3.867
 1.846 -1.534 3.813
 1.855 -1.52 3.768
 1.858 -1.503 3.714
 1.863 -1.488 3.665
 1.871 -1.475 3.622
 0 0 0
 0 0 0
 1.732 -1.315 3.197
 1.752 -1.314 3.185
 1.767 -1.31 3.163
 1.78 -1.303 3.137
 1.789 -1.295 3.105
 1.79 -1.281 3.06
 1.79 -1.266 3.014
 1.775 -1.241 2.943
 1.793 -1.24 2.93
 -2.314 -1.59 3.926
 -2.312 -1.608 3.983
 -2.198 -1.547 3.844
 -2.267 -1.614 4.026
 -2.24 -1.615 4.04
 -2.211 -1.613 4.049
 -2.184 -1.614 4.063
 -2.156 -1.613 4.073
 -2.13 -1.615 4.09
 -2.101 -1.613 4.098
 -2.073 -1.613 4.109
 -2.043 -1.611 4.116
 -2.016 -1.611 4.127
 -1.987 -1.609 4.134
 -1.96 -1.609 4.145
 -1.931 -1.608 4.153
 -1.906 -1.61 4.169
 -1.878 -1.61 4.178
 -1.851 -1.609 4.187
 -1.822 -1.608 4.195
 -1.793 -1.607 4.2
 -1.762 -1.603 4.201
 -1.733 -1.602 4.206
 -1.704 -1.6 4.21
 -1.675 -1.598 4.214
 -1.648 -1.598 4.223
 -1.62 -1.597 4.231
 -1.592 -1.596 4.236
 -1.564 -1.595 4.242
 -1.538 -1.595 4.251
 -1.511 -1.595 4.259
 -1.481 -1.593 4.26
 -1.455 -1.593 4.269
 -1.425 -1.59 4.268
 -1.398 -1.589 4.274
 -1.368 -1.587 4.273
 -1.341 -1.586 4.279
 -1.313 -1.584 4.28
 -1.285 -1.583 4.284
 -1.256 -1.58 4.283
 -1.229 -1.579 4.286
 -1.2 -1.577 4.286
 -1.173 -1.575 4.288
 -1.145 -1.574 4.289
 -1.117 -1.571 4.288
 -1.089 -1.57 4.291
 -1.063 -1.57 4.295
 -1.035 -1.568 4.294
 -1.008 -1.567 4.297
 -0.98 -1.565 4.297
 -0.954 -1.565 4.301
 -0.925 -1.561 4.294
 -0.898 -1.559 4.295
 -0.871 -1.559 4.297
 -0.845 -1.558 4.298
 -0.817 -1.556 4.298
 -0.791 -1.555 4.298
 -0.764 -1.553 4.297
 -0.737 -1.551 4.295
 -0.71 -1.55 4.296
 -0.683 -1.548 4.293
 -0.657 -1.549 4.298
 -0.631 -1.548 4.298
 -0.605 -1.548 4.301
 -0.579 -1.547 4.301
 -0.552 -1.545 4.299
 -0.526 -1.545 4.3
 -0.5 -1.544 4.3
 -0.473 -1.542 4.296
 -0.447 -1.541 4.294
 -0.421 -1.54 4.296
 -0.395 -1.539 4.293
 -0.369 -1.537 4.29
 -0.343 -1.536 4.289
 -0.317 -1.536 4.289
 -0.291 -1.535 4.287
 -0.265 -1.534 4.287
 -0.239 -1.534 4.287
 -0.214 -1.534 4.287
 -0.188 -1.532 4.283
 -0.162 -1.533 4.287
 -0.136 -1.533 4.287
 -0.111 -1.534 4.29
 -0.085 -1.534 4.288
 -0.059 -1.534 4.29
 -0.034 -1.533 4.286
 -0.008 -1.533 4.286
 0.016 -1.532 4.283
 0.042 -1.531 4.279
 0.068 -1.53 4.277
 0.093 -1.531 4.277
 0.119 -1.53 4.275
 0.144 -1.53 4.275
 0.17 -1.532 4.277
 0.196 -1.531 4.275
 0.221 -1.532 4.275
 0.247 -1.531 4.272
 0.272 -1.53 4.267
 0.298 -1.53 4.265
 0.323 -1.531 4.265
 0.349 -1.529 4.259
 0.374 -1.53 4.259
 0.4 -1.53 4.258
 0.426 -1.532 4.259
 0.452 -1.533 4.26
 0.478 -1.534 4.261
 0.504 -1.535 4.26
 0.53 -1.537 4.262
 0.555 -1.536 4.257
 0.581 -1.536 4.254
 0.606 -1.536 4.251
 0.633 -1.538 4.252
 0.658 -1.538 4.249
 0.684 -1.539 4.249
 0.71 -1.54 4.247
 0.737 -1.543 4.251
 0.763 -1.544 4.249
 0.791 -1.547 4.254
 0.817 -1.547 4.249
 0.844 -1.549 4.25
 0.869 -1.549 4.246
 0.895 -1.55 4.242
 0.921 -1.55 4.237
 0.95 -1.554 4.244
 0.976 -1.556 4.243
 1.003 -1.556 4.239
 1.03 -1.559 4.241
 1.059 -1.562 4.244
 1.085 -1.563 4.239
 1.111 -1.564 4.235
 1.139 -1.566 4.236
 1.166 -1.568 4.233
 1.193 -1.568 4.228
 1.219 -1.569 4.223
 1.247 -1.572 4.223
 1.277 -1.575 4.227
 1.304 -1.577 4.223
 1.332 -1.579 4.221
 1.361 -1.583 4.223
 1.389 -1.584 4.219
 1.414 -1.583 4.209
 1.442 -1.586 4.207
 1.47 -1.587 4.202
 1.497 -1.588 4.195
 1.525 -1.589 4.191
 1.553 -1.591 4.188
 1.582 -1.593 4.184
 1.609 -1.595 4.178
 1.638 -1.596 4.173
 1.666 -1.598 4.168
 1.693 -1.599 4.16
 1.718 -1.598 4.147
 1.744 -1.597 4.136
 1.766 -1.593 4.115
 1.787 -1.588 4.091
 1.803 -1.58 4.059
 1.818 -1.57 4.024
 1.834 -1.561 3.989
 1.845 -1.549 3.947
 1.852 -1.534 3.897
 1.859 -1.519 3.848
 1.868 -1.506 3.804
 1.867 -1.486 3.741
 1.87 -1.469 3.688
 0 0 0
 0 0 0
 0 0 0
 0 0 0
 1.753 -1.293 3.194
 1.769 -1.289 3.173
 1.78 -1.282 3.144
 1.79 -1.274 3.115
 1.796 -1.263 3.077
 1.797 -1.25 3.033
 1.79 -1.231 2.975
 1.802 -1.225 2.951
 -2.38 -1.608 4.048
 -2.362 -1.614 4.078
 -1.947 -1.347 3.412
 -1.926 -1.349 3.427
 -1.904 -1.349 3.44
 -1.876 -1.346 3.443
 -1.853 -1.346 3.454
 -1.829 -1.346 3.463
 -1.895 -1.413 3.646
 -1.955 -1.476 3.821
 -2.016 -1.542 4.004
 -1.987 -1.54 4.011
 -2.044 -1.605 4.193
 -2.013 -1.603 4.198
 -1.984 -1.602 4.206
 -1.955 -1.601 4.214
 -1.929 -1.602 4.228
 -1.899 -1.6 4.234
 -1.872 -1.601 4.246
 -1.843 -1.6 4.253
 -1.813 -1.597 4.256
 -1.782 -1.594 4.257
 -1.752 -1.592 4.262
 -1.721 -1.589 4.263
 -1.694 -1.588 4.271
 -1.666 -1.588 4.279
 -1.638 -1.587 4.286
 -1.609 -1.586 4.291
 -1.58 -1.585 4.296
 -1.552 -1.583 4.3
 -1.524 -1.582 4.305
 -1.493 -1.579 4.304
 -1.465 -1.577 4.308
 -1.434 -1.573 4.305
 -1.405 -1.571 4.306
 -1.376 -1.569 4.306
 -1.348 -1.567 4.31
 -1.319 -1.565 4.309
 -1.291 -1.564 4.314
 -1.263 -1.562 4.314
 -1.234 -1.56 4.314
 -1.206 -1.557 4.314
 -1.179 -1.557 4.319
 -1.15 -1.555 4.318
 -1.121 -1.552 4.316
 -1.094 -1.551 4.318
 -1.067 -1.55 4.321
 -1.038 -1.546 4.317
 -1.01 -1.545 4.317
 -0.983 -1.544 4.319
 -0.956 -1.542 4.318
 -0.927 -1.538 4.312
 -0.9 -1.536 4.311
 -0.874 -1.537 4.317
 -0.846 -1.534 4.315
 -0.819 -1.533 4.314
 -0.792 -1.532 4.315
 -0.765 -1.53 4.313
 -0.737 -1.526 4.306
 -0.71 -1.525 4.306
 -0.683 -1.523 4.304
 -0.657 -1.522 4.305
 -0.631 -1.522 4.306
 -0.605 -1.521 4.307
 -0.578 -1.52 4.307
 -0.552 -1.518 4.304
 -0.525 -1.517 4.303
 -0.499 -1.515 4.299
 -0.472 -1.513 4.296
 -0.446 -1.512 4.295
 -0.42 -1.512 4.296
 -0.394 -1.511 4.295
 -0.368 -1.51 4.295
 -0.342 -1.51 4.296
 -0.317 -1.51 4.297
 -0.291 -1.51 4.297
 -0.265 -1.51 4.297
 -0.239 -1.51 4.298
 -0.214 -1.509 4.299
 -0.188 -1.507 4.293
 -0.162 -1.508 4.297
 -0.136 -1.508 4.296
 -0.111 -1.508 4.297
 -0.085 -1.507 4.294
 -0.059 -1.508 4.295
 -0.034 -1.506 4.292
 -0.008 -1.506 4.291
 0.017 -1.506 4.29
 0.042 -1.504 4.285
 0.068 -1.504 4.284
 0.093 -1.505 4.284
 0.119 -1.504 4.28
 0.144 -1.503 4.279
 0.17 -1.504 4.28
 0.196 -1.503 4.277
 0.221 -1.503 4.275
 0.247 -1.503 4.272
 0.272 -1.502 4.269
 0.297 -1.502 4.267
 0.323 -1.503 4.267
 0.349 -1.503 4.265
 0.374 -1.504 4.266
 0.4 -1.505 4.266
 0.426 -1.507 4.27
 0.452 -1.509 4.272
 0.478 -1.509 4.269
 0.504 -1.51 4.271
 0.53 -1.511 4.271
 0.555 -1.51 4.265
 0.581 -1.51 4.262
 0.606 -1.51 4.259
 0.633 -1.512 4.259
 0.658 -1.512 4.255
 0.685 -1.514 4.257
 0.711 -1.515 4.256
 0.738 -1.517 4.26
 0.764 -1.518 4.258
 0.791 -1.522 4.263
 0.817 -1.522 4.259
 0.844 -1.523 4.258
 0.87 -1.524 4.256
 0.896 -1.525 4.253
 0.922 -1.525 4.25
 0.95 -1.529 4.255
 0.978 -1.531 4.255
 1.004 -1.532 4.253
 1.031 -1.534 4.253
 1.059 -1.536 4.252
 1.085 -1.537 4.248
 1.111 -1.537 4.243
 1.139 -1.54 4.244
 1.167 -1.542 4.243
 1.195 -1.545 4.244
 1.221 -1.545 4.239
 1.251 -1.549 4.242
 1.279 -1.552 4.242
 1.306 -1.553 4.24
 1.333 -1.554 4.234
 1.362 -1.557 4.233
 1.39 -1.558 4.23
 1.417 -1.56 4.226
 1.445 -1.561 4.222
 1.473 -1.564 4.219
 1.502 -1.566 4.217
 1.53 -1.567 4.213
 1.558 -1.57 4.21
 1.588 -1.573 4.209
 1.617 -1.575 4.206
 1.645 -1.577 4.201
 1.674 -1.579 4.197
 1.7 -1.579 4.187
 1.725 -1.577 4.173
 1.751 -1.577 4.162
 1.774 -1.574 4.143
 1.794 -1.568 4.117
 1.812 -1.561 4.088
 1.828 -1.552 4.055
 1.843 -1.542 4.018
 1.854 -1.531 3.976
 1.864 -1.518 3.932
 1.873 -1.505 3.886
 1.882 -1.492 3.841
 1.88 -1.471 3.775
 0 0 0
 0 0 0
 0 0 0
 0 0 0
 0 0 0
 1.757 -1.275 3.209
 1.773 -1.271 3.188
 1.783 -1.263 3.157
 1.796 -1.257 3.133
 1.805 -1.249 3.1
 1.809 -1.237 3.06
 1.776 -1.201 2.96
 1.818 -1.216 2.985
 -0.006 -0.006 -0.001
 -2.363 -1.588 4.091
 -1.502 -1.022 2.636
 -1.487 -1.024 2.65
 -1.47 -1.024 2.659
 -1.448 -1.022 2.661
 -1.429 -1.021 2.666
 -1.415 -1.023 2.681
 -1.484 -1.087 2.859
 -1.547 -1.149 3.029
 -1.613 -1.213 3.21
 -1.675 -1.276 3.386
 -1.734 -1.339 3.563
 -1.79 -1.401 3.74
 -1.763 -1.399 3.745
 -1.818 -1.463 3.926
 -1.792 -1.463 3.936
 -1.84 -1.524 4.112
 -1.813 -1.524 4.12
 -1.861 -1.587 4.303
 -1.828 -1.583 4.302
 -1.796 -1.579 4.302
 -1.766 -1.577 4.306
 -1.735 -1.574 4.306
 -1.707 -1.573 4.313
 -1.678 -1.572 4.32
 -1.65 -1.571 4.326
 -1.62 -1.569 4.329
 -1.59 -1.567 4.332
 -1.56 -1.564 4.332
 -1.531 -1.563 4.336
 -1.5 -1.559 4.332
 -1.471 -1.557 4.335
 -1.441 -1.554 4.335
 -1.412 -1.552 4.336
 -1.382 -1.549 4.336
 -1.355 -1.549 4.341
 -1.325 -1.545 4.339
 -1.297 -1.544 4.341
 -1.268 -1.542 4.341
 -1.238 -1.538 4.339
 -1.209 -1.536 4.336
 -1.182 -1.535 4.34
 -1.152 -1.531 4.335
 -1.123 -1.528 4.332
 -1.095 -1.526 4.332
 -1.068 -1.525 4.335
 -1.039 -1.522 4.33
 -1.011 -1.52 4.33
 -0.984 -1.519 4.331
 -0.956 -1.516 4.328
 -0.927 -1.511 4.32
 -0.899 -1.509 4.317
 -0.873 -1.509 4.322
 -0.845 -1.507 4.32
 -0.818 -1.506 4.32
 -0.792 -1.505 4.321
 -0.765 -1.503 4.32
 -0.737 -1.5 4.313
 -0.71 -1.499 4.313
 -0.683 -1.497 4.312
 -0.657 -1.496 4.312
 -0.631 -1.496 4.313
 -0.604 -1.495 4.315
 -0.578 -1.493 4.31
 -0.551 -1.491 4.307
 -0.525 -1.49 4.306
 -0.498 -1.487 4.301
 -0.471 -1.485 4.298
 -0.446 -1.485 4.299
 -0.42 -1.484 4.298
 -0.394 -1.484 4.299
 -0.368 -1.484 4.299
 -0.342 -1.484 4.301
 -0.316 -1.484 4.302
 -0.291 -1.484 4.304
 -0.265 -1.483 4.303
 -0.239 -1.483 4.304
 -0.213 -1.482 4.302
 -0.187 -1.48 4.297
 -0.162 -1.481 4.299
 -0.136 -1.48 4.297
 -0.11 -1.481 4.299
 -0.085 -1.481 4.3
 -0.059 -1.481 4.299
 -0.033 -1.48 4.296
 -0.008 -1.479 4.294
 0.017 -1.479 4.293
 0.042 -1.477 4.287
 0.068 -1.477 4.287
 0.093 -1.477 4.287
 0.119 -1.477 4.286
 0.145 -1.477 4.284
 0.17 -1.477 4.284
 0.196 -1.477 4.281
 0.221 -1.477 4.279
 0.247 -1.476 4.277
 0.272 -1.477 4.276
 0.298 -1.477 4.275
 0.323 -1.478 4.276
 0.349 -1.478 4.274
 0.374 -1.478 4.273
 0.4 -1.478 4.269
 0.426 -1.479 4.272
 0.452 -1.48 4.272
 0.477 -1.481 4.271
 0.503 -1.482 4.272
 0.53 -1.484 4.273
 0.555 -1.484 4.27
 0.581 -1.484 4.267
 0.606 -1.484 4.264
 0.632 -1.485 4.265
 0.658 -1.485 4.26
 0.684 -1.487 4.263
 0.711 -1.488 4.262
 0.737 -1.49 4.263
 0.763 -1.491 4.261
 0.79 -1.494 4.265
 0.816 -1.494 4.261
 0.843 -1.495 4.26
 0.869 -1.497 4.26
 0.896 -1.498 4.26
 0.923 -1.5 4.259
 0.95 -1.503 4.262
 0.977 -1.504 4.261
 1.003 -1.505 4.257
 1.03 -1.507 4.256
 1.058 -1.509 4.256
 1.085 -1.51 4.253
 1.112 -1.511 4.251
 1.14 -1.514 4.254
 1.168 -1.516 4.253
 1.195 -1.518 4.252
 1.222 -1.519 4.247
 1.251 -1.522 4.25
 1.278 -1.524 4.247
 1.306 -1.526 4.246
 1.333 -1.527 4.242
 1.362 -1.53 4.242
 1.39 -1.532 4.238
 1.418 -1.534 4.236
 1.445 -1.535 4.232
 1.475 -1.538 4.232
 1.503 -1.541 4.23
 1.531 -1.542 4.226
 1.56 -1.545 4.223
 1.59 -1.548 4.222
 1.618 -1.55 4.218
 1.647 -1.552 4.215
 1.676 -1.554 4.212
 1.704 -1.555 4.205
 1.73 -1.555 4.193
 1.756 -1.554 4.181
 1.779 -1.551 4.163
 1.8 -1.546 4.139
 1.817 -1.539 4.108
 1.834 -1.531 4.076
 1.851 -1.523 4.044
 1.864 -1.512 4.005
 1.875 -1.501 3.962
 1.889 -1.492 3.928
 1.899 -1.48 3.884
 0 0 0
 0 0 0
 0 0 0
 0 0 0
 0 0 0
 0 0 0
 1.838 -1.31 3.364
 1.823 -1.284 3.285
 1.789 -1.245 3.175
 1.804 -1.241 3.154
 1.815 -1.234 3.125
 1.82 -1.224 3.087
 1.838 -1.222 3.071
 0 0 0
 -2.413 -1.574 4.124
 -0.048 -0.033 0.071
 -1.059 -0.708 1.859
 -1.048 -0.71 1.868
 -1.036 -0.71 1.874
 -1.02 -0.707 1.874
 -1.004 -0.705 1.874
 -0.995 -0.708 1.886
 -1.156 -0.832 2.228
 -1.223 -0.892 2.396
 -1.291 -0.954 2.571
 -1.356 -1.016 2.746
 -1.501 -1.139 3.09
 -1.56 -1.2 3.265
 -1.616 -1.261 3.44
 -1.752 -1.386 3.792
 -1.805 -1.448 3.973
 -1.853 -1.508 4.149
 -1.824 -1.507 4.156
 -1.871 -1.568 4.337
 -1.839 -1.565 4.338
 -1.806 -1.56 4.334
 -1.776 -1.559 4.34
 -1.745 -1.556 4.34
 -1.716 -1.554 4.345
 -1.686 -1.552 4.349
 -1.657 -1.551 4.355
 -1.627 -1.549 4.358
 -1.596 -1.545 4.356
 -1.565 -1.542 4.356
 -1.535 -1.539 4.355
 -1.503 -1.535 4.351
 -1.473 -1.532 4.351
 -1.444 -1.53 4.351
 -1.413 -1.527 4.35
 -1.384 -1.524 4.349
 -1.356 -1.523 4.353
 -1.326 -1.519 4.35
 -1.297 -1.517 4.351
 -1.268 -1.515 4.349
 -1.239 -1.512 4.348
 -1.209 -1.509 4.345
 -1.182 -1.508 4.347
 -1.152 -1.504 4.342
 -1.123 -1.501 4.339
 -1.095 -1.499 4.338
 -1.067 -1.497 4.338
 -1.038 -1.493 4.333
 -1.01 -1.492 4.333
 -0.983 -1.491 4.335
 -0.955 -1.488 4.332
 -0.926 -1.485 4.327
 -0.899 -1.483 4.326
 -0.873 -1.483 4.33
 -0.845 -1.481 4.327
 -0.818 -1.48 4.327
 -0.791 -1.478 4.328
 -0.764 -1.476 4.325
 -0.736 -1.473 4.319
 -0.71 -1.472 4.32
 -0.683 -1.47 4.317
 -0.656 -1.469 4.317
 -0.63 -1.469 4.318
 -0.604 -1.468 4.318
 -0.577 -1.465 4.312
 -0.55 -1.464 4.312
 -0.524 -1.462 4.307
 -0.497 -1.459 4.303
 -0.471 -1.458 4.301
 -0.445 -1.458 4.303
 -0.419 -1.456 4.299
 -0.393 -1.457 4.303
 -0.368 -1.457 4.305
 -0.342 -1.457 4.306
 -0.316 -1.457 4.307
 -0.29 -1.457 4.307
 -0.264 -1.455 4.305
 -0.239 -1.455 4.304
 -0.213 -1.454 4.303
 -0.187 -1.453 4.299
 -0.161 -1.453 4.301
 -0.136 -1.454 4.302
 -0.11 -1.454 4.303
 -0.085 -1.454 4.304
 -0.059 -1.452 4.298
 -0.033 -1.451 4.295
 -0.008 -1.451 4.293
 0.017 -1.45 4.292
 0.042 -1.448 4.285
 0.068 -1.45 4.29
 0.093 -1.45 4.289
 0.119 -1.45 4.287
 0.144 -1.449 4.284
 0.17 -1.45 4.286
 0.195 -1.449 4.282
 0.221 -1.449 4.281
 0.246 -1.449 4.278
 0.272 -1.45 4.28
 0.298 -1.45 4.279
 0.323 -1.452 4.281
 0.349 -1.452 4.28
 0.375 -1.452 4.279
 0.4 -1.451 4.274
 0.426 -1.452 4.274
 0.451 -1.453 4.273
 0.477 -1.453 4.271
 0.503 -1.454 4.273
 0.529 -1.456 4.274
 0.555 -1.457 4.273
 0.581 -1.458 4.273
 0.606 -1.458 4.271
 0.632 -1.459 4.271
 0.658 -1.459 4.268
 0.684 -1.46 4.267
 0.71 -1.461 4.266
 0.737 -1.463 4.267
 0.763 -1.463 4.264
 0.79 -1.466 4.268
 0.816 -1.466 4.264
 0.842 -1.468 4.264
 0.868 -1.469 4.263
 0.896 -1.472 4.266
 0.922 -1.473 4.264
 0.95 -1.476 4.267
 0.976 -1.477 4.265
 1.003 -1.478 4.262
 1.029 -1.479 4.259
 1.057 -1.48 4.258
 1.084 -1.482 4.257
 1.111 -1.484 4.256
 1.139 -1.487 4.257
 1.166 -1.488 4.254
 1.193 -1.49 4.254
 1.22 -1.49 4.248
 1.248 -1.493 4.25
 1.275 -1.494 4.246
 1.304 -1.497 4.247
 1.331 -1.499 4.243
 1.36 -1.502 4.245
 1.388 -1.504 4.242
 1.417 -1.506 4.241
 1.444 -1.508 4.237
 1.474 -1.511 4.237
 1.503 -1.513 4.237
 1.531 -1.515 4.231
 1.56 -1.517 4.23
 1.589 -1.52 4.229
 1.617 -1.522 4.223
 1.646 -1.524 4.22
 1.675 -1.526 4.217
 1.703 -1.527 4.21
 1.73 -1.527 4.201
 1.758 -1.529 4.193
 1.782 -1.527 4.177
 1.803 -1.522 4.155
 1.822 -1.516 4.127
 1.84 -1.509 4.097
 1.857 -1.501 4.066
 1.87 -1.491 4.027
 1.89 -1.487 4.003
 1.911 -1.483 3.981
 0 0 0
 0 0 0
 0 0 0
 0 0 0
 0 0 0
 0 0 0
 0 0 0
 1.583 -1.11 2.903
 1.841 -1.274 3.325
 1.792 -1.226 3.187
 1.807 -1.222 3.166
 1.821 -1.217 3.142
 1.827 -1.207 3.105
 0 0 0
 0 0 0
 -0.034 -0.023 0.045
 -0.069 -0.046 0.107
 -0.634 -0.417 1.11
 -0.606 -0.404 1.077
 -0.598 -0.403 1.079
 -0.587 -0.401 1.076
 -0.577 -0.399 1.074
 -0.569 -0.398 1.076
 -0.735 -0.52 1.415
 -0.806 -0.578 1.578
 -0.878 -0.638 1.749
 -0.949 -0.698 1.921
 -1.182 -0.881 2.436
 -1.243 -0.939 2.604
 -1.303 -0.998 2.776
 -1.522 -1.182 3.299
 -1.655 -1.304 3.65
 -1.704 -1.363 3.824
 -1.756 -1.424 4.008
 -1.879 -1.547 4.364
 -1.847 -1.544 4.365
 -1.814 -1.539 4.362
 -1.784 -1.537 4.367
 -1.752 -1.534 4.367
 -1.721 -1.532 4.369
 -1.691 -1.529 4.371
 -1.663 -1.529 4.379
 -1.631 -1.525 4.378
 -1.6 -1.522 4.376
 -1.568 -1.518 4.373
 -1.536 -1.513 4.368
 -1.504 -1.508 4.361
 -1.473 -1.505 4.359
 -1.442 -1.501 4.355
 -1.411 -1.497 4.352
 -1.383 -1.496 4.353
 -1.354 -1.494 4.356
 -1.324 -1.491 4.353
 -1.296 -1.49 4.356
 -1.268 -1.488 4.359
 -1.239 -1.486 4.358
 -1.209 -1.482 4.354
 -1.182 -1.482 4.357
 -1.152 -1.477 4.35
 -1.122 -1.473 4.344
 -1.094 -1.471 4.343
 -1.066 -1.469 4.342
 -1.037 -1.466 4.337
 -1.009 -1.464 4.337
 -0.982 -1.463 4.34
 -0.954 -1.461 4.336
 -0.926 -1.458 4.333
 -0.899 -1.457 4.335
 -0.873 -1.457 4.338
 -0.845 -1.455 4.335
 -0.818 -1.454 4.336
 -0.791 -1.452 4.336
 -0.763 -1.449 4.328
 -0.735 -1.445 4.321
 -0.709 -1.444 4.322
 -0.682 -1.442 4.317
 -0.655 -1.44 4.314
 -0.628 -1.439 4.315
 -0.602 -1.438 4.316
 -0.575 -1.435 4.309
 -0.549 -1.435 4.311
 -0.523 -1.433 4.307
 -0.496 -1.432 4.305
 -0.47 -1.431 4.306
 -0.445 -1.432 4.309
 -0.418 -1.429 4.303
 -0.393 -1.431 4.31
 -0.367 -1.431 4.31
 -0.341 -1.429 4.307
 -0.315 -1.429 4.307
 -0.29 -1.429 4.309
 -0.264 -1.427 4.305
 -0.238 -1.428 4.307
 -0.212 -1.427 4.306
 -0.187 -1.427 4.304
 -0.161 -1.426 4.304
 -0.135 -1.426 4.304
 -0.11 -1.425 4.302
 -0.084 -1.425 4.301
 -0.059 -1.422 4.292
 -0.033 -1.422 4.292
 -0.007 -1.422 4.291
 0.017 -1.422 4.291
 0.042 -1.421 4.288
 0.068 -1.424 4.295
 0.094 -1.422 4.29
 0.119 -1.421 4.287
 0.144 -1.422 4.286
 0.17 -1.423 4.288
 0.195 -1.422 4.285
 0.221 -1.423 4.287
 0.247 -1.424 4.288
 0.272 -1.425 4.289
 0.298 -1.424 4.286
 0.323 -1.425 4.285
 0.349 -1.425 4.285
 0.374 -1.425 4.281
 0.399 -1.423 4.274
 0.425 -1.424 4.275
 0.451 -1.426 4.277
 0.476 -1.425 4.271
 0.502 -1.426 4.273
 0.528 -1.428 4.275
 0.554 -1.428 4.273
 0.579 -1.428 4.269
 0.606 -1.43 4.273
 0.632 -1.432 4.275
 0.658 -1.433 4.273
 0.684 -1.434 4.274
 0.711 -1.436 4.275
 0.737 -1.437 4.274
 0.763 -1.437 4.27
 0.789 -1.439 4.271
 0.815 -1.439 4.267
 0.841 -1.44 4.265
 0.867 -1.441 4.264
 0.895 -1.444 4.267
 0.922 -1.446 4.268
 0.949 -1.448 4.27
 0.976 -1.449 4.268
 1.002 -1.45 4.265
 1.029 -1.451 4.263
 1.055 -1.453 4.261
 1.082 -1.454 4.258
 1.109 -1.455 4.257
 1.137 -1.458 4.258
 1.163 -1.458 4.253
 1.191 -1.46 4.251
 1.217 -1.461 4.247
 1.246 -1.464 4.25
 1.273 -1.465 4.246
 1.302 -1.469 4.249
 1.331 -1.472 4.249
 1.36 -1.474 4.25
 1.387 -1.476 4.246
 1.416 -1.478 4.246
 1.444 -1.48 4.244
 1.473 -1.483 4.242
 1.502 -1.485 4.241
 1.53 -1.487 4.237
 1.559 -1.489 4.235
 1.587 -1.492 4.232
 1.615 -1.493 4.225
 1.644 -1.495 4.222
 1.673 -1.497 4.22
 1.701 -1.499 4.214
 1.729 -1.5 4.207
 1.758 -1.502 4.203
 1.783 -1.5 4.188
 1.805 -1.497 4.168
 1.826 -1.492 4.144
 1.846 -1.487 4.118
 1.864 -1.48 4.089
 1.882 -1.474 4.06
 1.906 -1.473 4.045
 0 0 0
 0 0 0
 0 0 0
 0 0 0
 0 0 0
 0.648 -0.465 1.245
 0.656 -0.465 1.24
 0.665 -0.465 1.236
 1.318 -0.908 2.42
 1.859 -1.264 3.365
 1.792 -1.204 3.195
 1.811 -1.203 3.18
 1.829 -1.201 3.163
 1.695 -1.1 2.887
 0 0 0
 0 0 0
 -0.06 -0.039 0.09
 -0.084 -0.055 0.133
 -0.265 -0.172 0.458
 -0.161 -0.107 0.278
 -0.156 -0.104 0.273
 -0.148 -0.1 0.262
 -0.14 -0.096 0.252
 -0.136 -0.094 0.247
 -0.303 -0.212 0.578
 -0.379 -0.268 0.737
 -0.457 -0.327 0.906
 -0.618 -0.447 1.249
 -0.854 -0.626 1.761
 -1.003 -0.745 2.104
 -1.147 -0.863 2.448
 -1.447 -1.104 3.144
 -1.58 -1.223 3.491
 -1.709 -1.341 3.841
 -1.759 -1.401 4.023
 -1.881 -1.521 4.379
 -1.849 -1.518 4.379
 -1.816 -1.514 4.378
 -1.786 -1.512 4.382
 -1.753 -1.507 4.379
 -1.722 -1.505 4.38
 -1.691 -1.502 4.381
 -1.661 -1.5 4.384
 -1.629 -1.496 4.382
 -1.598 -1.493 4.38
 -1.566 -1.488 4.375
 -1.534 -1.484 4.37
 -1.502 -1.48 4.365
 -1.471 -1.476 4.362
 -1.441 -1.474 4.362
 -1.411 -1.47 4.359
 -1.381 -1.468 4.358
 -1.352 -1.465 4.359
 -1.323 -1.462 4.357
 -1.294 -1.461 4.359
 -1.267 -1.46 4.363
 -1.238 -1.458 4.363
 -1.209 -1.455 4.359
 -1.181 -1.454 4.361
 -1.15 -1.448 4.351
 -1.12 -1.444 4.344
 -1.092 -1.442 4.343
 -1.064 -1.44 4.342
 -1.034 -1.436 4.336
 -1.007 -1.435 4.336
 -0.98 -1.434 4.339
 -0.952 -1.432 4.335
 -0.925 -1.43 4.334
 -0.898 -1.429 4.335
 -0.87 -1.427 4.335
 -0.843 -1.425 4.332
 -0.817 -1.426 4.338
 -0.79 -1.425 4.339
 -0.763 -1.422 4.335
 -0.736 -1.421 4.333
 -0.71 -1.42 4.336
 -0.681 -1.415 4.323
 -0.654 -1.414 4.321
 -0.628 -1.413 4.322
 -0.602 -1.412 4.321
 -0.575 -1.409 4.315
 -0.549 -1.409 4.317
 -0.522 -1.407 4.312
 -0.496 -1.405 4.309
 -0.47 -1.405 4.311
 -0.444 -1.405 4.314
 -0.418 -1.402 4.307
 -0.393 -1.404 4.313
 -0.366 -1.402 4.31
 -0.34 -1.401 4.307
 -0.315 -1.401 4.306
 -0.289 -1.401 4.308
 -0.263 -1.399 4.303
 -0.238 -1.4 4.307
 -0.212 -1.4 4.308
 -0.186 -1.399 4.306
 -0.161 -1.398 4.304
 -0.135 -1.399 4.305
 -0.11 -1.398 4.304
 -0.084 -1.398 4.304
 -0.058 -1.395 4.295
 -0.033 -1.396 4.298
 -0.007 -1.395 4.295
 0.017 -1.395 4.293
 0.043 -1.394 4.29
 0.068 -1.398 4.301
 0.094 -1.395 4.292
 0.119 -1.395 4.291
 0.144 -1.395 4.29
 0.17 -1.396 4.291
 0.195 -1.395 4.286
 0.221 -1.396 4.289
 0.246 -1.397 4.289
 0.272 -1.397 4.29
 0.298 -1.398 4.289
 0.323 -1.398 4.287
 0.349 -1.4 4.291
 0.374 -1.399 4.288
 0.399 -1.397 4.28
 0.425 -1.398 4.281
 0.451 -1.4 4.282
 0.476 -1.398 4.275
 0.502 -1.399 4.276
 0.528 -1.401 4.278
 0.554 -1.401 4.276
 0.579 -1.401 4.272
 0.605 -1.403 4.276
 0.632 -1.405 4.278
 0.658 -1.406 4.277
 0.684 -1.408 4.278
 0.711 -1.41 4.281
 0.737 -1.41 4.278
 0.762 -1.411 4.276
 0.789 -1.412 4.276
 0.815 -1.413 4.272
 0.841 -1.413 4.27
 0.867 -1.415 4.269
 0.894 -1.416 4.27
 0.921 -1.418 4.271
 0.948 -1.421 4.273
 0.974 -1.421 4.269
 1 -1.421 4.264
 1.027 -1.423 4.264
 1.054 -1.425 4.263
 1.081 -1.426 4.26
 1.108 -1.428 4.259
 1.136 -1.43 4.261
 1.162 -1.43 4.255
 1.189 -1.432 4.252
 1.216 -1.432 4.248
 1.244 -1.435 4.25
 1.271 -1.437 4.246
 1.3 -1.44 4.249
 1.328 -1.442 4.248
 1.357 -1.445 4.248
 1.384 -1.446 4.245
 1.414 -1.449 4.246
 1.442 -1.451 4.243
 1.471 -1.454 4.244
 1.5 -1.457 4.244
 1.528 -1.459 4.24
 1.557 -1.461 4.238
 1.586 -1.464 4.237
 1.614 -1.465 4.231
 1.642 -1.467 4.227
 1.672 -1.469 4.224
 1.7 -1.471 4.219
 1.728 -1.472 4.212
 1.756 -1.473 4.205
 1.781 -1.472 4.191
 1.805 -1.47 4.176
 1.828 -1.467 4.157
 1.849 -1.463 4.134
 1.868 -1.457 4.107
 1.89 -1.453 4.085
 0 0 0
 0 0 0
 0 0 0
 0 0 0
 0 0 0
 0 0 0
 0.649 -0.457 1.248
 0.657 -0.457 1.243
 0.665 -0.457 1.239
 1.225 -0.829 2.255
 1.89 -1.262 3.429
 1.796 -1.186 3.209
 1.818 -1.186 3.198
 1.839 -1.185 3.186
 1.444 -0.921 2.463
 0 0 0
 0 0 0
 0 0 0
 -0.112 -0.072 0.184
 -0.086 -0.056 0.14
 -0.082 -0.054 0.136
 -0.075 -0.05 0.126
 -0.068 -0.046 0.114
 -0.059 -0.041 0.1
 -0.054 -0.037 0.09
 -0.133 -0.092 0.246
 -0.125 -0.088 0.235
 -0.119 -0.084 0.226
 -0.282 -0.201 0.565
 -0.523 -0.376 1.075
 -0.759 -0.554 1.593
 -0.988 -0.73 2.11
 -1.37 -1.026 2.981
 -1.582 -1.202 3.503
 -1.71 -1.318 3.853
 -1.759 -1.375 4.031
 -1.88 -1.492 4.385
 -1.848 -1.489 4.385
 -1.815 -1.485 4.383
 -1.785 -1.483 4.388
 -1.753 -1.48 4.387
 -1.721 -1.476 4.385
 -1.69 -1.473 4.385
 -1.659 -1.471 4.387
 -1.627 -1.467 4.384
 -1.595 -1.463 4.38
 -1.564 -1.459 4.378
 -1.532 -1.455 4.373
 -1.501 -1.451 4.37
 -1.471 -1.449 4.37
 -1.441 -1.446 4.37
 -1.41 -1.442 4.365
 -1.38 -1.439 4.363
 -1.351 -1.437 4.363
 -1.321 -1.434 4.359
 -1.291 -1.431 4.357
 -1.264 -1.431 4.363
 -1.236 -1.429 4.365
 -1.208 -1.427 4.365
 -1.181 -1.427 4.369
 -1.151 -1.423 4.363
 -1.121 -1.419 4.356
 -1.092 -1.416 4.353
 -1.064 -1.413 4.349
 -1.034 -1.409 4.34
 -1.006 -1.408 4.341
 -0.979 -1.407 4.343
 -0.951 -1.404 4.34
 -0.924 -1.403 4.339
 -0.897 -1.402 4.341
 -0.87 -1.4 4.339
 -0.842 -1.397 4.335
 -0.817 -1.399 4.343
 -0.79 -1.398 4.344
 -0.762 -1.395 4.338
 -0.736 -1.394 4.34
 -0.71 -1.395 4.345
 -0.681 -1.389 4.331
 -0.654 -1.388 4.329
 -0.628 -1.388 4.331
 -0.602 -1.387 4.33
 -0.575 -1.384 4.323
 -0.549 -1.384 4.326
 -0.522 -1.381 4.32
 -0.496 -1.38 4.319
 -0.47 -1.381 4.322
 -0.445 -1.381 4.324
 -0.418 -1.377 4.314
 -0.392 -1.378 4.318
 -0.366 -1.375 4.311
 -0.34 -1.373 4.306
 -0.314 -1.372 4.305
 -0.288 -1.373 4.308
 -0.263 -1.371 4.304
 -0.237 -1.373 4.309
 -0.212 -1.372 4.309
 -0.186 -1.372 4.308
 -0.16 -1.37 4.303
 -0.135 -1.37 4.301
 -0.109 -1.369 4.301
 -0.084 -1.369 4.3
 -0.058 -1.367 4.293
 -0.033 -1.368 4.296
 -0.007 -1.368 4.296
 0.017 -1.367 4.293
 0.043 -1.366 4.29
 0.068 -1.371 4.304
 0.094 -1.368 4.295
 0.119 -1.368 4.293
 0.145 -1.369 4.295
 0.17 -1.37 4.297
 0.195 -1.368 4.291
 0.221 -1.371 4.297
 0.247 -1.372 4.3
 0.273 -1.373 4.301
 0.298 -1.373 4.299
 0.323 -1.373 4.297
 0.349 -1.375 4.3
 0.375 -1.373 4.294
 0.399 -1.371 4.283
 0.425 -1.371 4.282
 0.451 -1.373 4.286
 0.476 -1.371 4.277
 0.502 -1.373 4.279
 0.528 -1.375 4.283
 0.554 -1.376 4.283
 0.579 -1.375 4.279
 0.606 -1.378 4.284
 0.632 -1.38 4.286
 0.658 -1.38 4.283
 0.684 -1.382 4.284
 0.71 -1.383 4.286
 0.736 -1.383 4.282
 0.762 -1.384 4.281
 0.789 -1.386 4.282
 0.815 -1.386 4.278
 0.841 -1.387 4.276
 0.867 -1.388 4.274
 0.893 -1.39 4.274
 0.92 -1.391 4.273
 0.947 -1.393 4.275
 0.973 -1.392 4.268
 0.998 -1.393 4.263
 1.025 -1.394 4.262
 1.052 -1.396 4.261
 1.079 -1.397 4.258
 1.107 -1.399 4.26
 1.135 -1.402 4.262
 1.161 -1.403 4.258
 1.188 -1.404 4.255
 1.214 -1.405 4.251
 1.243 -1.407 4.252
 1.27 -1.409 4.249
 1.298 -1.412 4.25
 1.326 -1.414 4.249
 1.355 -1.416 4.249
 1.382 -1.418 4.246
 1.411 -1.421 4.247
 1.439 -1.422 4.243
 1.468 -1.425 4.243
 1.497 -1.428 4.243
 1.526 -1.43 4.241
 1.554 -1.432 4.238
 1.584 -1.435 4.239
 1.612 -1.436 4.233
 1.64 -1.438 4.229
 1.668 -1.439 4.223
 1.698 -1.442 4.221
 1.726 -1.443 4.215
 1.756 -1.447 4.215
 1.782 -1.446 4.202
 1.81 -1.447 4.194
 1.833 -1.444 4.176
 1.856 -1.442 4.158
 1.868 -1.43 4.114
 0 0 0
 0 0 0
 0 0 0
 0 0 0
 0 0 0
 0 0 0
 0 0 0
 0.649 -0.449 1.25
 0.657 -0.449 1.246
 0.665 -0.449 1.242
 1.089 -0.724 2.008
 0 0 0
 0 0 0
 0 0 0
 0 0 0
 1.139 -0.714 1.945
 0 0 0
 0.407 -0.252 0.67
 -0.129 -0.08 0.211
 -0.117 -0.073 0.193
 -0.097 -0.062 0.161
 -0.089 -0.057 0.149
 -0.082 -0.054 0.138
 -0.074 -0.049 0.125
 -0.064 -0.043 0.109
 -0.055 -0.038 0.093
 -0.135 -0.092 0.251
 -0.126 -0.087 0.237
 -0.202 -0.14 0.394
 -0.279 -0.195 0.56
 -0.604 -0.427 1.247
 -0.838 -0.599 1.762
 -1.146 -0.831 2.456
 -1.447 -1.063 3.156
 -1.737 -1.295 3.856
 -1.785 -1.349 4.029
 -1.833 -1.406 4.209
 -1.878 -1.463 4.389
 -1.847 -1.46 4.391
 -1.815 -1.457 4.391
 -1.784 -1.454 4.394
 -1.752 -1.451 4.393
 -1.719 -1.447 4.389
 -1.688 -1.444 4.389
 -1.656 -1.441 4.388
 -1.625 -1.437 4.386
 -1.593 -1.434 4.383
 -1.562 -1.431 4.382
 -1.531 -1.426 4.378
 -1.499 -1.423 4.374
 -1.469 -1.42 4.372
 -1.439 -1.417 4.371
 -1.408 -1.414 4.367
 -1.378 -1.411 4.365
 -1.349 -1.408 4.365
 -1.319 -1.405 4.362
 -1.289 -1.402 4.357
 -1.262 -1.402 4.364
 -1.235 -1.401 4.367
 -1.206 -1.399 4.366
 -1.179 -1.398 4.371
 -1.15 -1.395 4.368
 -1.12 -1.392 4.361
 -1.092 -1.389 4.359
 -1.063 -1.387 4.356
 -1.033 -1.382 4.345
 -1.006 -1.381 4.346
 -0.979 -1.38 4.348
 -0.951 -1.378 4.346
 -0.924 -1.376 4.346
 -0.897 -1.376 4.348
 -0.869 -1.373 4.344
 -0.841 -1.371 4.341
 -0.817 -1.373 4.351
 -0.79 -1.372 4.352
 -0.762 -1.369 4.345
 -0.736 -1.37 4.351
 -0.71 -1.37 4.354
 -0.68 -1.362 4.333
 -0.653 -1.359 4.327
 -0.627 -1.36 4.332
 -0.601 -1.359 4.332
 -0.574 -1.357 4.328
 -0.549 -1.358 4.334
 -0.522 -1.355 4.326
 -0.496 -1.355 4.327
 -0.47 -1.355 4.329
 -0.444 -1.354 4.327
 -0.417 -1.349 4.312
 -0.391 -1.349 4.314
 -0.365 -1.346 4.307
 -0.339 -1.344 4.301
 -0.313 -1.344 4.303
 -0.288 -1.345 4.308
 -0.262 -1.344 4.307
 -0.237 -1.346 4.312
 -0.211 -1.346 4.313
 -0.186 -1.345 4.311
 -0.16 -1.343 4.305
 -0.134 -1.343 4.304
 -0.109 -1.342 4.3
 -0.083 -1.342 4.302
 -0.058 -1.34 4.297
 -0.032 -1.342 4.302
 -0.007 -1.343 4.304
 0.017 -1.343 4.303
 0.043 -1.341 4.297
 0.069 -1.346 4.313
 0.094 -1.342 4.3
 0.119 -1.34 4.292
 0.145 -1.342 4.296
 0.17 -1.344 4.301
 0.195 -1.341 4.292
 0.221 -1.345 4.302
 0.247 -1.347 4.307
 0.272 -1.346 4.304
 0.298 -1.346 4.302
 0.323 -1.346 4.298
 0.349 -1.348 4.303
 0.374 -1.347 4.297
 0.399 -1.345 4.288
 0.425 -1.345 4.286
 0.451 -1.348 4.296
 0.476 -1.345 4.284
 0.502 -1.348 4.287
 0.528 -1.35 4.293
 0.554 -1.35 4.291
 0.579 -1.349 4.282
 0.606 -1.353 4.291
 0.632 -1.354 4.292
 0.658 -1.354 4.289
 0.684 -1.356 4.291
 0.711 -1.358 4.295
 0.736 -1.358 4.29
 0.763 -1.359 4.289
 0.789 -1.361 4.291
 0.815 -1.361 4.288
 0.842 -1.363 4.288
 0.867 -1.363 4.283
 0.894 -1.364 4.283
 0.92 -1.365 4.281
 0.947 -1.366 4.278
 0.971 -1.364 4.268
 0.997 -1.365 4.264
 1.024 -1.366 4.263
 1.05 -1.367 4.261
 1.077 -1.369 4.259
 1.105 -1.371 4.26
 1.133 -1.373 4.262
 1.158 -1.373 4.254
 1.185 -1.375 4.253
 1.213 -1.377 4.252
 1.241 -1.379 4.251
 1.268 -1.38 4.249
 1.297 -1.383 4.252
 1.324 -1.385 4.249
 1.352 -1.387 4.248
 1.38 -1.389 4.246
 1.409 -1.391 4.246
 1.436 -1.393 4.242
 1.465 -1.396 4.242
 1.494 -1.398 4.241
 1.522 -1.4 4.239
 1.551 -1.402 4.236
 1.581 -1.406 4.239
 1.609 -1.407 4.233
 1.638 -1.409 4.23
 1.667 -1.411 4.226
 1.696 -1.413 4.223
 1.724 -1.415 4.218
 1.755 -1.418 4.218
 1.782 -1.419 4.21
 1.811 -1.42 4.204
 1.839 -1.422 4.197
 1.866 -1.422 4.186
 0 0 0
 0 0 0
 0 0 0
 0 0 0
 0 0 0
 0 0 0
 0 0 0
 0.147 -0.104 0.283
 0.149 -0.104 0.282
 0 0 0
 0 0 0
 0 0 0
 0 0 0
 0 0 0
 0 0 0
 0 0 0
 0 0 0
 0 0 0
 0.463 -0.281 0.765
 -0.121 -0.074 0.197
 -0.118 -0.073 0.195
 -0.103 -0.064 0.17
 -0.092 -0.058 0.154
 -0.085 -0.054 0.143
 -0.076 -0.05 0.13
 -0.066 -0.044 0.113
 -0.056 -0.038 0.095
 -0.049 -0.034 0.083
 -0.04 -0.028 0.066
 -0.116 -0.08 0.222
 -0.194 -0.134 0.386
 -0.519 -0.36 1.071
 -0.835 -0.586 1.761
 -1.144 -0.814 2.457
 -1.445 -1.042 3.159
 -1.736 -1.269 3.861
 -1.783 -1.322 4.033
 -1.83 -1.377 4.212
 -1.876 -1.433 4.391
 -1.844 -1.43 4.393
 -1.812 -1.427 4.393
 -1.782 -1.425 4.397
 -1.749 -1.421 4.395
 -1.717 -1.417 4.392
 -1.686 -1.415 4.392
 -1.654 -1.411 4.39
 -1.621 -1.407 4.385
 -1.591 -1.404 4.384
 -1.56 -1.401 4.382
 -1.528 -1.397 4.377
 -1.497 -1.394 4.375
 -1.467 -1.391 4.375
 -1.438 -1.389 4.376
 -1.408 -1.386 4.373
 -1.378 -1.384 4.373
 -1.349 -1.382 4.373
 -1.32 -1.379 4.371
 -1.288 -1.374 4.361
 -1.262 -1.375 4.371
 -1.235 -1.374 4.375
 -1.206 -1.372 4.375
 -1.18 -1.373 4.382
 -1.152 -1.371 4.383
 -1.121 -1.367 4.374
 -1.093 -1.364 4.37
 -1.064 -1.362 4.368
 -1.033 -1.356 4.353
 -1.005 -1.354 4.352
 -0.978 -1.353 4.353
 -0.951 -1.351 4.353
 -0.923 -1.35 4.352
 -0.896 -1.349 4.353
 -0.868 -1.345 4.345
 -0.84 -1.343 4.342
 -0.816 -1.346 4.356
 -0.79 -1.345 4.357
 -0.762 -1.343 4.354
 -0.738 -1.346 4.367
 -0.711 -1.345 4.367
 -0.679 -1.333 4.331
 -0.651 -1.33 4.324
 -0.626 -1.331 4.33
 -0.6 -1.331 4.331
 -0.574 -1.33 4.33
 -0.548 -1.33 4.332
 -0.521 -1.326 4.322
 -0.495 -1.325 4.321
 -0.469 -1.326 4.325
 -0.443 -1.325 4.324
 -0.416 -1.321 4.311
 -0.39 -1.32 4.312
 -0.364 -1.317 4.303
 -0.338 -1.316 4.3
 -0.312 -1.316 4.302
 -0.287 -1.318 4.308
 -0.262 -1.317 4.308
 -0.237 -1.319 4.315
 -0.211 -1.319 4.314
 -0.185 -1.318 4.312
 -0.159 -1.315 4.303
 -0.134 -1.314 4.3
 -0.108 -1.313 4.297
 -0.083 -1.314 4.3
 -0.058 -1.314 4.299
 -0.032 -1.316 4.307
 -0.007 -1.317 4.309
 0.018 -1.317 4.309
 0.043 -1.316 4.305
 0.069 -1.321 4.32
 0.094 -1.314 4.297
 0.119 -1.311 4.288
 0.144 -1.314 4.295
 0.17 -1.317 4.304
 0.195 -1.315 4.295
 0.222 -1.321 4.314
 0.248 -1.326 4.328
 0.273 -1.324 4.322
 0.298 -1.322 4.314
 0.323 -1.319 4.301
 0.349 -1.322 4.31
 0.374 -1.319 4.296
 0.398 -1.316 4.285
 0.424 -1.316 4.284
 0.452 -1.323 4.303
 0.475 -1.318 4.282
 0.502 -1.32 4.289
 0.528 -1.323 4.296
 0.553 -1.323 4.291
 0.577 -1.319 4.276
 0.605 -1.325 4.292
 0.632 -1.328 4.299
 0.657 -1.327 4.292
 0.685 -1.331 4.301
 0.712 -1.334 4.308
 0.737 -1.333 4.298
 0.763 -1.334 4.298
 0.79 -1.336 4.301
 0.815 -1.335 4.294
 0.842 -1.336 4.293
 0.867 -1.336 4.288
 0.893 -1.337 4.285
 0.92 -1.339 4.286
 0.946 -1.339 4.282
 0.971 -1.338 4.273
 0.996 -1.338 4.267
 1.023 -1.339 4.266
 1.05 -1.341 4.265
 1.076 -1.341 4.261
 1.104 -1.344 4.262
 1.132 -1.346 4.264
 1.158 -1.347 4.26
 1.185 -1.348 4.258
 1.213 -1.35 4.259
 1.24 -1.352 4.256
 1.268 -1.354 4.256
 1.296 -1.356 4.257
 1.324 -1.358 4.254
 1.351 -1.359 4.251
 1.379 -1.361 4.249
 1.407 -1.364 4.249
 1.435 -1.365 4.246
 1.465 -1.368 4.247
 1.493 -1.371 4.246
 1.522 -1.373 4.245
 1.55 -1.375 4.241
 1.58 -1.378 4.242
 1.608 -1.379 4.237
 1.637 -1.381 4.234
 1.665 -1.383 4.231
 1.693 -1.384 4.225
 1.721 -1.386 4.219
 1.752 -1.389 4.218
 1.779 -1.389 4.209
 1.807 -1.39 4.202
 1.836 -1.393 4.198
 1.866 -1.395 4.195
 0 0 0
 0 0 0
 0 0 0
 0 0 0
 0 0 0
 0 0 0
 0 0 0
 0.197 -0.136 0.383
 0 0 0
 0 0 0
 0 0 0
 0 0 0
 0 0 0
 0 0 0
 0 0 0
 0 0 0
 0.44 -0.268 0.75
 0 0 0
 0 0 0
 -0.135 -0.08 0.222
 -0.109 -0.066 0.179
 -0.104 -0.064 0.174
 -0.091 -0.056 0.153
 -0.083 -0.052 0.14
 -0.074 -0.047 0.125
 -0.062 -0.04 0.105
 -0.052 -0.035 0.088
 -0.045 -0.03 0.075
 -0.036 -0.025 0.058
 -0.111 -0.074 0.211
 -0.274 -0.185 0.552
 -0.598 -0.407 1.24
 -0.997 -0.686 2.109
 -1.386 -0.966 2.984
 -1.684 -1.19 3.69
 -1.893 -1.357 4.22
 -1.938 -1.409 4.393
 -1.905 -1.406 4.393
 -1.873 -1.403 4.395
 -1.842 -1.4 4.395
 -1.808 -1.396 4.392
 -1.778 -1.394 4.396
 -1.745 -1.39 4.393
 -1.712 -1.386 4.387
 -1.681 -1.383 4.387
 -1.65 -1.38 4.387
 -1.617 -1.376 4.382
 -1.586 -1.373 4.381
 -1.556 -1.371 4.381
 -1.525 -1.367 4.377
 -1.494 -1.364 4.375
 -1.465 -1.362 4.377
 -1.436 -1.361 4.379
 -1.407 -1.358 4.379
 -1.378 -1.356 4.378
 -1.349 -1.355 4.38
 -1.32 -1.352 4.379
 -1.287 -1.346 4.365
 -1.261 -1.347 4.373
 -1.234 -1.346 4.378
 -1.206 -1.345 4.38
 -1.179 -1.345 4.387
 -1.152 -1.344 4.389
 -1.122 -1.341 4.382
 -1.093 -1.338 4.38
 -1.064 -1.335 4.373
 -1.03 -1.326 4.35
 -0.865 -1.143 3.751
 -0.842 -1.141 3.749
 -0.819 -1.141 3.753
 -0.796 -1.141 3.754
 -0.771 -1.137 3.747
 -0.864 -1.313 4.331
 -0.837 -1.312 4.332
 -0.814 -1.317 4.353
 -0.788 -1.317 4.358
 0 0 0
 0 0 0
 0 0 0
 0 0 0
 0 0 0
 0 0 0
 0 0 0
 0 0 0
 0 0 0
 0 0 0
 0 0 0
 0 0 0
 0 0 0
 0 0 0
 -0.388 -1.287 4.293
 -0.363 -1.288 4.297
 -0.337 -1.288 4.298
 -0.312 -1.289 4.303
 -0.287 -1.29 4.306
 -0.261 -1.29 4.309
 -0.236 -1.292 4.314
 -0.21 -1.291 4.314
 -0.185 -1.29 4.31
