 1.24 -1.634 4.074
 1.266 -1.635 4.069
 1.293 -1.636 4.064
 1.319 -1.637 4.059
 1.345 -1.638 4.054
 1.37 -1.638 4.045
 1.394 -1.635 4.031
 1.42 -1.636 4.026
 1.446 -1.637 4.019
 1.469 -1.635 4.004
 1.496 -1.636 3.999
 1.521 -1.636 3.991
 1.545 -1.635 3.978
 1.571 -1.634 3.968
 1.598 -1.636 3.964
 1.622 -1.636 3.952
 1.649 -1.637 3.946
 1.675 -1.637 3.936
 1.699 -1.636 3.923
 1.722 -1.634 3.908
 1.748 -1.634 3.899
 1.771 -1.632 3.883
 1.79 -1.627 3.86
 1.809 -1.621 3.836
 1.822 -1.61 3.799
 1.831 -1.596 3.754
 1.831 -1.576 3.695
 1.838 -1.56 3.648
 1.837 -1.54 3.588
 1.839 -1.521 3.534
 1.835 -1.499 3.472
 1.829 -1.476 3.406
 1.793 -1.428 3.286
 1.777 -1.399 3.206
 1.78 -1.384 3.162
 1.776 -1.365 3.107
 1.776 -1.349 3.059
 1.773 -1.331 3.009
 1.771 -1.314 2.959
 1.753 -1.287 2.886
 1.747 -1.268 2.833
 -2.227 -1.608 3.749
 -2.211 -1.615 3.78
 -2.192 -1.62 3.804
 -2.167 -1.621 3.819
 -2.145 -1.624 3.838
 -2.114 -1.621 3.842
 -2.089 -1.622 3.857
 -2.062 -1.621 3.866
 -2.035 -1.62 3.877
 -2.01 -1.621 3.891
 -1.984 -1.622 3.903
 -1.96 -1.624 3.919
 -1.934 -1.623 3.929
 -1.906 -1.622 3.937
 -1.878 -1.62 3.942
 -1.85 -1.619 3.95
 -1.823 -1.618 3.957
 -1.799 -1.619 3.972
 -1.776 -1.622 3.989
 -1.748 -1.621 3.995
 -1.724 -1.622 4.008
 -1.697 -1.622 4.017
 -1.667 -1.618 4.017
 -1.64 -1.617 4.022
 -1.615 -1.618 4.034
 -1.589 -1.618 4.043
 -1.562 -1.618 4.051
 -1.537 -1.618 4.061
 -1.511 -1.619 4.07
 -1.484 -1.617 4.074
 -1.456 -1.615 4.076
 -1.428 -1.612 4.078
 -1.401 -1.611 4.083
 -1.373 -1.61 4.085
 -1.348 -1.61 4.093
 -1.321 -1.608 4.096
 -1.296 -1.61 4.108
 -1.271 -1.611 4.118
 -1.246 -1.612 4.127
 -1.222 -1.614 4.137
 -1.197 -1.615 4.147
 -1.171 -1.615 4.152
 -1.144 -1.614 4.156
 -1.116 -1.612 4.156
 -1.089 -1.61 4.157
 -1.063 -1.609 4.158
 -1.036 -1.607 4.159
 -1.01 -1.606 4.163
 -0.985 -1.608 4.171
 -0.957 -1.604 4.168
 -0.932 -1.606 4.176
 -0.907 -1.607 4.183
 -0.882 -1.607 4.189
 -0.855 -1.605 4.188
 -0.83 -1.607 4.197
 -0.804 -1.606 4.199
 -0.776 -1.603 4.193
 -0.749 -1.6 4.188
 -0.724 -1.6 4.193
 -0.698 -1.6 4.195
 -0.672 -1.599 4.195
 -0.647 -1.601 4.204
 -0.622 -1.603 4.212
 -0.597 -1.604 4.218
 -0.572 -1.605 4.223
 -0.546 -1.603 4.222
 -0.52 -1.604 4.226
 -0.495 -1.603 4.227
 -0.469 -1.602 4.225
 -0.442 -1.6 4.221
 -0.417 -1.6 4.225
 -0.391 -1.6 4.224
 -0.366 -1.599 4.225
 -0.34 -1.598 4.222
 -0.315 -1.6 4.229
 -0.289 -1.6 4.231
 -0.263 -1.599 4.229
 -0.238 -1.599 4.229
 -0.212 -1.599 4.23
 -0.187 -1.597 4.226
 -0.161 -1.596 4.225
 -0.136 -1.594 4.22
 -0.11 -1.595 4.224
 -0.085 -1.595 4.224
 -0.059 -1.596 4.225
 -0.034 -1.597 4.227
 -0.009 -1.597 4.229
 0.016 -1.598 4.229
 0.041 -1.597 4.227
 0.067 -1.599 4.232
 0.092 -1.6 4.232
 0.118 -1.6 4.232
 0.143 -1.6 4.231
 0.169 -1.601 4.233
 0.194 -1.599 4.226
 0.219 -1.599 4.224
 0.245 -1.599 4.223
 0.27 -1.599 4.222
 0.296 -1.599 4.222
 0.322 -1.601 4.223
 0.347 -1.601 4.222
 0.372 -1.601 4.219
 0.397 -1.599 4.211
 0.423 -1.599 4.209
 0.448 -1.598 4.205
 0.473 -1.598 4.203
 0.499 -1.6 4.204
 0.525 -1.6 4.201
 0.55 -1.601 4.201
 0.576 -1.603 4.203
 0.602 -1.604 4.202
 0.629 -1.606 4.205
 0.655 -1.609 4.208
 0.681 -1.61 4.207
 0.707 -1.61 4.203
 0.733 -1.611 4.202
 0.758 -1.61 4.195
 0.783 -1.61 4.189
 0.808 -1.608 4.181
 0.833 -1.608 4.176
 0.858 -1.607 4.168
 0.884 -1.608 4.166
 0.91 -1.609 4.163
 0.937 -1.611 4.164
 0.963 -1.613 4.163
 0.991 -1.616 4.165
 1.016 -1.616 4.16
 1.044 -1.618 4.161
 1.07 -1.619 4.157
 1.095 -1.619 4.15
 1.12 -1.618 4.142
 1.148 -1.622 4.144
 1.174 -1.621 4.137
 1.2 -1.622 4.131
 1.227 -1.624 4.129
 1.254 -1.626 4.128
 1.28 -1.627 4.122
 1.307 -1.627 4.116
 1.332 -1.627 4.108
 1.359 -1.628 4.103
 1.384 -1.628 4.094
 1.409 -1.627 4.084
 1.436 -1.628 4.079
 1.463 -1.63 4.075
 1.487 -1.629 4.063
 1.514 -1.63 4.057
 1.541 -1.631 4.051
 1.566 -1.63 4.04
 1.592 -1.631 4.032
 1.62 -1.633 4.028
 1.646 -1.633 4.018
 1.672 -1.633 4.009
 1.698 -1.633 3.999
 1.721 -1.632 3.985
 1.744 -1.629 3.968
 1.768 -1.627 3.954
 1.79 -1.624 3.935
 1.806 -1.615 3.903
 1.822 -1.607 3.872
 1.832 -1.594 3.83
 1.837 -1.576 3.776
 1.837 -1.556 3.716
 1.845 -1.542 3.672
 1.847 -1.524 3.617
 1.848 -1.505 3.56
 1.844 -1.482 3.496
 1.837 -1.459 3.429
 1.781 -1.397 3.273
 1.758 -1.362 3.179
 1.768 -1.353 3.148
 1.769 -1.338 3.103
 1.773 -1.326 3.063
 1.773 -1.31 3.016
 1.77 -1.293 2.965
 1.763 -1.273 2.909
 1.778 -1.27 2.89
 -2.282 -1.621 3.853
 -2.226 -1.6 3.816
 -2.227 -1.62 3.874
 -2.202 -1.621 3.89
 -2.177 -1.622 3.907
 -2.147 -1.62 3.913
 -2.123 -1.622 3.93
 -2.095 -1.621 3.94
 -2.066 -1.619 3.946
 -2.041 -1.62 3.961
 -2.013 -1.619 3.97
 -1.988 -1.62 3.983
 -1.96 -1.619 3.993
 -1.935 -1.62 4.006
 -1.907 -1.619 4.013
 -1.88 -1.618 4.023
 -1.852 -1.617 4.03
 -1.827 -1.619 4.044
 -1.802 -1.62 4.057
 -1.773 -1.618 4.062
 -1.748 -1.619 4.076
 -1.721 -1.619 4.084
 -1.691 -1.615 4.085
 -1.664 -1.614 4.091
 -1.638 -1.615 4.102
 -1.611 -1.615 4.11
 -1.585 -1.615 4.119
 -1.558 -1.614 4.125
 -1.532 -1.615 4.137
 -1.505 -1.614 4.141
 -1.477 -1.612 4.145
 -1.448 -1.61 4.146
 -1.422 -1.61 4.154
 -1.393 -1.607 4.154
 -1.366 -1.606 4.159
 -1.338 -1.604 4.161
 -1.313 -1.605 4.169
 -1.287 -1.606 4.179
 -1.261 -1.606 4.186
 -1.236 -1.607 4.196
 -1.211 -1.608 4.205
 -1.185 -1.608 4.212
 -1.156 -1.605 4.209
 -1.129 -1.603 4.21
 -1.101 -1.601 4.21
 -1.074 -1.6 4.212
 -1.046 -1.597 4.21
 -1.021 -1.598 4.218
 -0.996 -1.6 4.227
 -0.968 -1.597 4.226
 -0.942 -1.597 4.23
 -0.916 -1.597 4.234
 -0.889 -1.596 4.236
 -0.862 -1.593 4.232
 -0.837 -1.595 4.24
 -0.81 -1.594 4.243
 -0.783 -1.59 4.237
 -0.756 -1.589 4.237
 -0.731 -1.591 4.244
 -0.705 -1.59 4.247
 -0.678 -1.589 4.246
 -0.653 -1.59 4.253
 -0.627 -1.59 4.256
 -0.601 -1.589 4.257
 -0.575 -1.587 4.254
 -0.549 -1.587 4.254
 -0.523 -1.587 4.258
 -0.497 -1.587 4.26
 -0.471 -1.586 4.259
 -0.446 -1.587 4.263
 -0.42 -1.587 4.265
 -0.394 -1.586 4.266
 -0.368 -1.584 4.262
 -0.342 -1.583 4.261
 -0.316 -1.584 4.264
 -0.291 -1.584 4.265
 -0.265 -1.583 4.263
 -0.239 -1.584 4.266
 -0.214 -1.583 4.266
 -0.188 -1.582 4.263
 -0.162 -1.581 4.261
 -0.136 -1.579 4.256
 -0.111 -1.579 4.257
 -0.085 -1.579 4.257
 -0.06 -1.579 4.256
 -0.034 -1.58 4.258
 -0.008 -1.581 4.261
 0.016 -1.58 4.26
 0.042 -1.58 4.257
 0.067 -1.581 4.26
 0.093 -1.581 4.26
 0.118 -1.581 4.258
 0.144 -1.581 4.258
 0.17 -1.582 4.259
 0.195 -1.581 4.255
 0.22 -1.58 4.25
 0.246 -1.58 4.25
 0.272 -1.58 4.249
 0.297 -1.581 4.247
 0.323 -1.582 4.249
 0.349 -1.583 4.249
 0.374 -1.582 4.246
 0.399 -1.581 4.241
 0.425 -1.582 4.241
 0.451 -1.582 4.238
 0.476 -1.582 4.236
 0.503 -1.584 4.239
 0.528 -1.584 4.236
 0.554 -1.585 4.236
 0.58 -1.587 4.236
 0.606 -1.588 4.237
 0.632 -1.59 4.237
 0.659 -1.592 4.241
 0.685 -1.594 4.24
 0.711 -1.593 4.234
 0.737 -1.595 4.235
 0.762 -1.594 4.229
 0.788 -1.594 4.223
 0.813 -1.593 4.217
 0.84 -1.595 4.217
 0.865 -1.593 4.208
 0.891 -1.595 4.207
 0.917 -1.595 4.204
 0.944 -1.597 4.202
 0.97 -1.598 4.2
 0.998 -1.601 4.202
 1.024 -1.602 4.199
 1.052 -1.605 4.201
 1.078 -1.606 4.197
 1.104 -1.606 4.192
 1.13 -1.606 4.186
 1.157 -1.608 4.185
 1.183 -1.609 4.179
 1.21 -1.61 4.176
 1.237 -1.611 4.172
 1.265 -1.614 4.173
 1.292 -1.615 4.168
 1.319 -1.616 4.163
 1.345 -1.616 4.156
 1.372 -1.618 4.153
 1.398 -1.618 4.144
 1.424 -1.618 4.136
 1.451 -1.619 4.131
 1.479 -1.621 4.128
 1.504 -1.621 4.117
 1.531 -1.622 4.112
 1.558 -1.622 4.104
 1.585 -1.624 4.098
 1.612 -1.625 4.092
 1.64 -1.627 4.087
 1.667 -1.627 4.078
 1.693 -1.628 4.069
 1.717 -1.626 4.054
 1.741 -1.624 4.039
 1.763 -1.62 4.02
 1.786 -1.617 4.002
 1.806 -1.612 3.978
 1.82 -1.601 3.942
 1.833 -1.591 3.905
 1.844 -1.578 3.863
 1.848 -1.561 3.809
 1.85 -1.542 3.751
 1.861 -1.53 3.711
 1.864 -1.513 3.659
 1.869 -1.498 3.61
 1.876 -1.484 3.566
 0 0 0
 1.768 -1.365 3.257
 1.741 -1.328 3.157
 1.759 -1.325 3.14
 1.766 -1.315 3.106
 1.774 -1.305 3.072
 1.775 -1.291 3.028
 1.772 -1.274 2.976
 1.764 -1.254 2.919
 1.766 -1.241 2.878
 -2.316 -1.618 3.919
 -2.27 -1.605 3.901
 -2.258 -1.616 3.94
 -2.233 -1.617 3.956
 -2.207 -1.617 3.969
 -2.178 -1.616 3.979
 -2.151 -1.617 3.992
 -2.122 -1.615 4.001
 -2.092 -1.613 4.007
 -2.066 -1.613 4.019
 -2.038 -1.612 4.029
 -2.014 -1.614 4.045
 -1.988 -1.615 4.059
 -1.962 -1.616 4.073
 -1.937 -1.618 4.088
 -1.91 -1.618 4.098
 -1.881 -1.616 4.104
 -1.854 -1.616 4.115
 -1.828 -1.617 4.127
 -1.799 -1.614 4.131
 -1.772 -1.615 4.141
 -1.745 -1.615 4.152
 -1.715 -1.612 4.153
 -1.686 -1.609 4.156
 -1.658 -1.609 4.163
 -1.632 -1.609 4.173
 -1.604 -1.608 4.179
 -1.576 -1.607 4.185
 -1.55 -1.607 4.195
 -1.523 -1.607 4.203
 -1.496 -1.606 4.208
 -1.467 -1.604 4.209
 -1.44 -1.603 4.216
 -1.412 -1.602 4.219
 -1.383 -1.599 4.219
 -1.354 -1.596 4.219
 -1.328 -1.596 4.226
 -1.302 -1.597 4.235
 -1.274 -1.596 4.238
 -1.249 -1.597 4.248
 -1.223 -1.598 4.256
 -1.196 -1.597 4.26
 -1.167 -1.594 4.258
 -1.14 -1.593 4.261
 -1.112 -1.591 4.261
 -1.084 -1.589 4.261
 -1.057 -1.588 4.263
 -1.031 -1.588 4.269
 -1.005 -1.589 4.276
 -0.977 -1.586 4.275
 -0.951 -1.586 4.279
 -0.924 -1.584 4.279
 -0.897 -1.583 4.28
 -0.869 -1.581 4.277
 -0.843 -1.581 4.281
 -0.816 -1.579 4.281
 -0.788 -1.576 4.276
 -0.761 -1.573 4.273
 -0.735 -1.574 4.278
 -0.709 -1.573 4.279
 -0.682 -1.572 4.279
 -0.657 -1.573 4.286
 -0.631 -1.573 4.288
 -0.604 -1.572 4.287
 -0.578 -1.57 4.284
 -0.551 -1.568 4.283
 -0.525 -1.567 4.283
 -0.499 -1.567 4.284
 -0.473 -1.566 4.283
 -0.447 -1.566 4.286
 -0.421 -1.566 4.287
 -0.395 -1.566 4.288
 -0.369 -1.564 4.286
 -0.343 -1.563 4.282
 -0.317 -1.563 4.284
 -0.291 -1.563 4.285
 -0.265 -1.562 4.284
 -0.24 -1.562 4.286
 -0.214 -1.563 4.289
 -0.188 -1.562 4.286
 -0.163 -1.561 4.286
 -0.137 -1.56 4.281
 -0.111 -1.559 4.28
 -0.085 -1.559 4.279
 -0.06 -1.558 4.277
 -0.034 -1.559 4.279
 -0.008 -1.559 4.281
 0.016 -1.56 4.282
 0.042 -1.56 4.281
 0.068 -1.561 4.283
 0.093 -1.56 4.28
 0.119 -1.56 4.279
 0.145 -1.559 4.275
 0.17 -1.559 4.275
 0.196 -1.558 4.271
 0.221 -1.558 4.268
 0.247 -1.558 4.269
 0.273 -1.559 4.267
 0.298 -1.559 4.265
 0.324 -1.56 4.267
 0.35 -1.561 4.268
 0.375 -1.561 4.266
 0.401 -1.562 4.267
 0.427 -1.563 4.267
 0.453 -1.562 4.262
 0.478 -1.562 4.259
 0.504 -1.563 4.259
 0.53 -1.562 4.254
 0.555 -1.563 4.252
 0.582 -1.564 4.254
 0.608 -1.566 4.255
 0.634 -1.567 4.254
 0.661 -1.57 4.259
 0.687 -1.572 4.26
 0.713 -1.572 4.255
 0.739 -1.573 4.255
 0.765 -1.573 4.251
 0.79 -1.572 4.244
 0.816 -1.572 4.24
 0.843 -1.575 4.242
 0.869 -1.575 4.236
 0.896 -1.576 4.236
 0.922 -1.577 4.234
 0.948 -1.578 4.229
 0.974 -1.578 4.224
 1.001 -1.58 4.225
 1.028 -1.582 4.224
 1.056 -1.585 4.227
 1.083 -1.587 4.226
 1.11 -1.589 4.224
 1.137 -1.59 4.22
 1.164 -1.591 4.218
 1.191 -1.593 4.215
 1.218 -1.594 4.213
 1.245 -1.595 4.208
 1.273 -1.598 4.208
 1.301 -1.599 4.204
 1.327 -1.6 4.199
 1.353 -1.6 4.191
 1.381 -1.602 4.189
 1.408 -1.603 4.183
 1.436 -1.605 4.179
 1.463 -1.606 4.174
 1.492 -1.609 4.172
 1.518 -1.609 4.165
 1.546 -1.61 4.159
 1.572 -1.611 4.151
 1.601 -1.613 4.147
 1.628 -1.614 4.141
 1.655 -1.615 4.134
 1.682 -1.615 4.125
 1.708 -1.615 4.114
 1.733 -1.613 4.1
 1.757 -1.612 4.085
 1.779 -1.608 4.066
 1.801 -1.604 4.044
 1.819 -1.598 4.017
 1.83 -1.584 3.972
 1.84 -1.571 3.927
 1.849 -1.557 3.882
 1.855 -1.541 3.832
 1.859 -1.524 3.777
 1.872 -1.514 3.743
 1.88 -1.501 3.699
 1.889 -1.489 3.656
 0 0 0
 0 0 0
 0 0 0
 1.742 -1.307 3.166
 1.759 -1.304 3.149
 1.767 -1.294 3.115
 1.775 -1.285 3.081
 1.777 -1.271 3.038
 1.773 -1.254 2.986
 1.758 -1.229 2.916
 1.739 -1.203 2.842
 -2.342 -1.61 3.974
 -2.323 -1.615 4.002
 -2.288 -1.61 4.002
 -2.171 -1.546 3.854
 -2.145 -1.546 3.867
 -2.117 -1.545 3.877
 -2.091 -1.545 3.89
 -2.064 -1.545 3.9
 -2.122 -1.608 4.073
 -2.095 -1.609 4.087
 -2.067 -1.608 4.097
 -2.043 -1.611 4.115
 -2.017 -1.612 4.128
 -1.991 -1.612 4.142
 -1.964 -1.613 4.154
 -1.936 -1.613 4.164
 -1.905 -1.609 4.167
 -1.878 -1.609 4.177
 -1.85 -1.609 4.187
 -1.822 -1.609 4.195
 -1.795 -1.609 4.205
 -1.769 -1.609 4.217
 -1.738 -1.606 4.218
 -1.709 -1.604 4.222
 -1.679 -1.602 4.225
 -1.651 -1.6 4.23
 -1.622 -1.599 4.235
 -1.594 -1.597 4.24
 -1.567 -1.598 4.249
 -1.539 -1.597 4.256
 -1.512 -1.597 4.262
 -1.482 -1.594 4.264
 -1.455 -1.593 4.269
 -1.426 -1.591 4.271
 -1.396 -1.588 4.27
 -1.367 -1.585 4.27
 -1.34 -1.585 4.275
 -1.314 -1.586 4.284
 -1.285 -1.583 4.285
 -1.259 -1.584 4.293
 -1.232 -1.584 4.299
 -1.204 -1.582 4.299
 -1.174 -1.578 4.295
 -1.147 -1.577 4.298
 -1.119 -1.575 4.298
 -1.092 -1.574 4.301
 -1.065 -1.574 4.306
 -1.038 -1.572 4.307
 -1.011 -1.572 4.311
 -0.983 -1.57 4.309
 -0.956 -1.568 4.309
 -0.927 -1.565 4.306
 -0.901 -1.564 4.308
 -0.873 -1.562 4.305
 -0.846 -1.56 4.305
 -0.818 -1.557 4.301
 -0.791 -1.555 4.297
 -0.763 -1.552 4.294
 -0.737 -1.552 4.297
 -0.71 -1.551 4.298
 -0.684 -1.55 4.298
 -0.658 -1.551 4.304
 -0.632 -1.55 4.305
 -0.605 -1.548 4.302
 -0.579 -1.547 4.301
 -0.552 -1.546 4.3
 -0.526 -1.544 4.298
 -0.5 -1.543 4.298
 -0.474 -1.543 4.3
 -0.448 -1.542 4.3
 -0.422 -1.542 4.302
 -0.396 -1.542 4.303
 -0.37 -1.541 4.301
 -0.343 -1.538 4.295
 -0.317 -1.539 4.298
 -0.292 -1.538 4.297
 -0.266 -1.538 4.296
 -0.24 -1.537 4.296
 -0.214 -1.537 4.297
 -0.188 -1.535 4.292
 -0.162 -1.535 4.291
 -0.136 -1.533 4.288
 -0.111 -1.533 4.286
 -0.085 -1.533 4.287
 -0.059 -1.534 4.289
 -0.034 -1.535 4.292
 -0.008 -1.535 4.292
 0.017 -1.535 4.292
 0.042 -1.535 4.292
 0.068 -1.535 4.29
 0.093 -1.534 4.286
 0.119 -1.534 4.285
 0.145 -1.534 4.284
 0.17 -1.533 4.282
 0.196 -1.534 4.283
 0.221 -1.533 4.279
 0.247 -1.534 4.28
 0.273 -1.534 4.277
 0.298 -1.533 4.273
 0.324 -1.533 4.273
 0.35 -1.534 4.273
 0.375 -1.534 4.27
 0.401 -1.536 4.273
 0.427 -1.537 4.274
 0.453 -1.536 4.268
 0.479 -1.537 4.269
 0.504 -1.538 4.268
 0.53 -1.537 4.263
 0.556 -1.538 4.262
 0.582 -1.54 4.265
 0.608 -1.54 4.263
 0.634 -1.541 4.262
 0.661 -1.545 4.267
 0.688 -1.547 4.269
 0.714 -1.547 4.267
 0.74 -1.548 4.265
 0.766 -1.549 4.265
 0.792 -1.548 4.258
 0.818 -1.549 4.255
 0.845 -1.551 4.256
 0.871 -1.552 4.253
 0.897 -1.553 4.25
 0.924 -1.554 4.249
 0.95 -1.554 4.245
 0.976 -1.555 4.24
 1.003 -1.556 4.238
 1.03 -1.559 4.24
 1.058 -1.562 4.242
 1.085 -1.563 4.24
 1.113 -1.566 4.241
 1.14 -1.568 4.241
 1.168 -1.57 4.238
 1.195 -1.571 4.235
 1.223 -1.574 4.236
 1.25 -1.575 4.232
 1.278 -1.577 4.231
 1.305 -1.579 4.228
 1.333 -1.581 4.226
 1.361 -1.582 4.222
 1.388 -1.583 4.218
 1.416 -1.585 4.214
 1.443 -1.587 4.21
 1.471 -1.588 4.205
 1.499 -1.59 4.201
 1.527 -1.591 4.196
 1.554 -1.592 4.189
 1.581 -1.593 4.183
 1.61 -1.595 4.18
 1.638 -1.597 4.174
 1.665 -1.598 4.167
 1.693 -1.599 4.159
 1.719 -1.599 4.15
 1.744 -1.597 4.136
 1.767 -1.594 4.117
 1.789 -1.591 4.097
 1.81 -1.585 4.073
 1.827 -1.577 4.042
 1.837 -1.564 3.997
 1.847 -1.551 3.953
 1.856 -1.537 3.907
 1.862 -1.521 3.855
 1.867 -1.505 3.801
 1.883 -1.498 3.774
 1.894 -1.488 3.735
 0 0 0
 0 0 0
 0 0 0
 0 0 0
 1.743 -1.286 3.176
 1.758 -1.281 3.153
 1.766 -1.272 3.12
 1.774 -1.263 3.087
 1.778 -1.251 3.047
 1.774 -1.234 2.994
 1.773 -1.219 2.947
 1.772 -1.205 2.903
 -2.375 -1.605 4.041
 -2.365 -1.617 4.085
 -1.942 -1.344 3.404
 -1.83 -1.281 3.255
 -1.715 -1.216 3.098
 -1.694 -1.215 3.106
 -1.674 -1.216 3.118
 -1.74 -1.281 3.294
 -1.801 -1.342 3.463
 -1.864 -1.408 3.644
 -1.925 -1.473 3.824
 -1.986 -1.54 4.01
 -1.961 -1.54 4.022
 -2.017 -1.607 4.207
 -1.99 -1.607 4.219
 -1.961 -1.606 4.228
 -1.93 -1.603 4.231
 -1.902 -1.603 4.242
 -1.874 -1.602 4.25
 -1.846 -1.602 4.259
 -1.817 -1.601 4.266
 -1.789 -1.601 4.276
 -1.757 -1.596 4.273
 -1.726 -1.593 4.275
 -1.694 -1.589 4.271
 -1.666 -1.588 4.279
 -1.636 -1.585 4.281
 -1.608 -1.585 4.287
 -1.58 -1.584 4.293
 -1.553 -1.584 4.303
 -1.524 -1.582 4.306
 -1.494 -1.579 4.305
 -1.465 -1.577 4.307
 -1.435 -1.575 4.308
 -1.405 -1.571 4.305
 -1.376 -1.568 4.305
 -1.348 -1.567 4.309
 -1.321 -1.568 4.317
 -1.292 -1.565 4.316
 -1.265 -1.565 4.323
 -1.237 -1.564 4.325
 -1.209 -1.562 4.326
 -1.179 -1.558 4.322
 -1.152 -1.557 4.325
 -1.124 -1.555 4.325
 -1.097 -1.554 4.329
 -1.069 -1.553 4.33
 -1.041 -1.551 4.33
 -1.014 -1.55 4.332
 -0.985 -1.547 4.328
 -0.957 -1.544 4.325
 -0.929 -1.542 4.324
 -0.902 -1.541 4.324
 -0.874 -1.538 4.321
 -0.848 -1.537 4.322
 -0.82 -1.534 4.318
 -0.792 -1.531 4.314
 -0.765 -1.53 4.313
 -0.739 -1.529 4.315
 -0.712 -1.528 4.314
 -0.685 -1.527 4.314
 -0.659 -1.527 4.319
 -0.633 -1.526 4.318
 -0.605 -1.523 4.313
 -0.579 -1.522 4.312
 -0.552 -1.521 4.31
 -0.526 -1.518 4.306
 -0.5 -1.518 4.307
 -0.474 -1.518 4.31
 -0.448 -1.517 4.31
 -0.422 -1.517 4.312
 -0.396 -1.517 4.311
 -0.37 -1.516 4.31
 -0.343 -1.514 4.305
 -0.317 -1.514 4.307
 -0.291 -1.512 4.304
 -0.266 -1.512 4.306
 -0.24 -1.512 4.305
 -0.214 -1.511 4.304
 -0.188 -1.51 4.301
 -0.162 -1.51 4.301
 -0.136 -1.509 4.299
 -0.111 -1.508 4.295
 -0.085 -1.509 4.298
 -0.059 -1.509 4.299
 -0.034 -1.509 4.3
 -0.008 -1.509 4.299
 0.017 -1.51 4.301
 0.042 -1.509 4.298
 0.068 -1.508 4.295
 0.094 -1.507 4.29
 0.119 -1.506 4.289
 0.145 -1.505 4.285
 0.17 -1.505 4.283
 0.196 -1.506 4.285
 0.221 -1.506 4.283
 0.247 -1.507 4.283
 0.273 -1.506 4.28
 0.298 -1.506 4.279
 0.324 -1.506 4.276
 0.349 -1.507 4.276
 0.375 -1.507 4.275
 0.401 -1.509 4.279
 0.427 -1.511 4.28
 0.453 -1.51 4.275
 0.479 -1.511 4.276
 0.504 -1.511 4.273
 0.53 -1.511 4.27
 0.556 -1.511 4.268
 0.582 -1.514 4.271
 0.608 -1.514 4.27
 0.634 -1.515 4.269
 0.661 -1.518 4.274
 0.687 -1.52 4.274
 0.713 -1.52 4.272
 0.739 -1.521 4.269
 0.766 -1.522 4.268
 0.791 -1.521 4.262
 0.817 -1.522 4.26
 0.845 -1.525 4.263
 0.871 -1.527 4.263
 0.898 -1.528 4.262
 0.924 -1.529 4.259
 0.951 -1.531 4.259
 0.977 -1.531 4.254
 1.004 -1.533 4.254
 1.032 -1.535 4.256
 1.06 -1.538 4.258
 1.086 -1.539 4.253
 1.114 -1.541 4.252
 1.141 -1.542 4.249
 1.167 -1.542 4.244
 1.195 -1.544 4.243
 1.223 -1.547 4.243
 1.25 -1.549 4.241
 1.279 -1.551 4.241
 1.307 -1.554 4.241
 1.335 -1.556 4.239
 1.362 -1.557 4.235
 1.39 -1.559 4.232
 1.419 -1.562 4.231
 1.447 -1.563 4.227
 1.474 -1.565 4.223
 1.502 -1.566 4.217
 1.53 -1.568 4.213
 1.558 -1.569 4.209
 1.586 -1.571 4.205
 1.616 -1.574 4.203
 1.645 -1.577 4.2
 1.673 -1.578 4.194
 1.7 -1.579 4.186
 1.727 -1.579 4.178
 1.753 -1.578 4.165
 1.776 -1.575 4.147
 1.798 -1.571 4.125
 1.815 -1.563 4.093
 1.829 -1.553 4.057
 1.841 -1.542 4.015
 1.852 -1.529 3.972
 1.863 -1.517 3.928
 1.869 -1.501 3.877
 1.872 -1.483 3.82
 1.886 -1.476 3.788
 0 0 0
 0 0 0
 0 0 0
 0 0 0
 0 0 0
 1.738 -1.261 3.174
 1.755 -1.258 3.155
 1.765 -1.25 3.124
 1.773 -1.241 3.091
 1.78 -1.231 3.056
 1.776 -1.215 3.004
 1.751 -1.184 2.918
 1.767 -1.181 2.9
 -2.382 -1.582 4.062
 -2.369 -1.592 4.101
 -1.503 -1.023 2.638
 -1.394 -0.96 2.483
 -1.284 -0.895 2.322
 -1.266 -0.893 2.324
 -1.251 -0.894 2.332
 -1.324 -0.958 2.509
 -1.389 -1.018 2.674
 -1.456 -1.081 2.849
 -1.523 -1.145 3.029
 -1.588 -1.21 3.21
 -1.566 -1.21 3.218
 -1.711 -1.339 3.574
 -1.688 -1.34 3.585
 -1.742 -1.402 3.763
 -1.793 -1.464 3.939
 -1.843 -1.526 4.118
 -1.815 -1.525 4.125
 -1.863 -1.589 4.307
 -1.833 -1.587 4.312
 -1.804 -1.586 4.32
 -1.772 -1.582 4.319
 -1.74 -1.579 4.32
 -1.708 -1.574 4.316
 -1.679 -1.573 4.321
 -1.647 -1.569 4.32
 -1.618 -1.567 4.324
 -1.588 -1.565 4.326
 -1.561 -1.565 4.333
 -1.53 -1.562 4.333
 -1.5 -1.559 4.334
 -1.47 -1.556 4.333
 -1.441 -1.554 4.335
 -1.41 -1.55 4.331
 -1.382 -1.549 4.334
 -1.352 -1.546 4.333
 -1.325 -1.546 4.339
 -1.296 -1.543 4.338
 -1.268 -1.542 4.341
 -1.239 -1.539 4.34
 -1.21 -1.537 4.34
 -1.181 -1.533 4.336
 -1.153 -1.531 4.336
 -1.124 -1.528 4.333
 -1.096 -1.528 4.337
 -1.07 -1.527 4.341
 -1.042 -1.526 4.341
 -1.013 -1.523 4.339
 -0.985 -1.521 4.336
 -0.957 -1.517 4.332
 -0.928 -1.514 4.327
 -0.901 -1.512 4.325
 -0.874 -1.511 4.327
 -0.847 -1.51 4.327
 -0.819 -1.507 4.322
 -0.792 -1.505 4.322
 -0.766 -1.505 4.325
 -0.739 -1.503 4.324
 -0.712 -1.503 4.324
 -0.686 -1.502 4.326
 -0.659 -1.502 4.328
 -0.633 -1.5 4.327
 -0.606 -1.498 4.324
 -0.579 -1.497 4.322
 -0.553 -1.496 4.322
 -0.526 -1.494 4.319
 -0.5 -1.493 4.318
 -0.474 -1.493 4.32
 -0.448 -1.493 4.321
 -0.422 -1.492 4.32
 -0.395 -1.49 4.316
 -0.369 -1.489 4.314
 -0.343 -1.486 4.309
 -0.317 -1.485 4.306
 -0.291 -1.484 4.304
 -0.265 -1.485 4.309
 -0.239 -1.484 4.307
 -0.213 -1.483 4.304
 -0.188 -1.483 4.305
 -0.162 -1.483 4.306
 -0.136 -1.482 4.304
 -0.11 -1.481 4.299
 -0.085 -1.482 4.302
 -0.059 -1.482 4.303
 -0.033 -1.482 4.303
 -0.008 -1.481 4.301
 0.017 -1.482 4.302
 0.042 -1.482 4.301
 0.068 -1.48 4.297
 0.094 -1.479 4.293
 0.119 -1.479 4.291
 0.145 -1.478 4.288
 0.17 -1.478 4.287
 0.196 -1.48 4.291
 0.222 -1.48 4.289
 0.247 -1.481 4.29
 0.273 -1.481 4.29
 0.299 -1.482 4.289
 0.324 -1.481 4.285
 0.35 -1.482 4.287
 0.376 -1.482 4.285
 0.401 -1.483 4.285
 0.427 -1.484 4.284
 0.452 -1.482 4.277
 0.478 -1.482 4.274
 0.503 -1.482 4.272
 0.529 -1.483 4.271
 0.555 -1.483 4.268
 0.581 -1.485 4.271
 0.607 -1.486 4.271
 0.633 -1.488 4.271
 0.66 -1.49 4.274
 0.687 -1.491 4.275
 0.713 -1.492 4.274
 0.739 -1.493 4.271
 0.764 -1.493 4.268
 0.79 -1.493 4.264
 0.817 -1.495 4.263
 0.844 -1.497 4.266
 0.871 -1.499 4.267
 0.898 -1.501 4.268
 0.925 -1.503 4.268
 0.952 -1.505 4.267
 0.978 -1.505 4.264
 1.005 -1.507 4.262
 1.032 -1.509 4.264
 1.06 -1.511 4.264
 1.086 -1.512 4.261
 1.114 -1.514 4.26
 1.141 -1.516 4.258
 1.168 -1.517 4.254
 1.195 -1.518 4.252
 1.222 -1.52 4.249
 1.25 -1.522 4.248
 1.278 -1.524 4.248
 1.306 -1.526 4.246
 1.334 -1.529 4.245
 1.363 -1.532 4.246
 1.391 -1.533 4.242
 1.419 -1.535 4.24
 1.448 -1.538 4.24
 1.477 -1.54 4.238
 1.505 -1.542 4.233
 1.533 -1.543 4.229
 1.561 -1.545 4.224
 1.589 -1.547 4.22
 1.617 -1.549 4.216
 1.647 -1.551 4.213
 1.675 -1.553 4.209
 1.703 -1.554 4.202
 1.731 -1.555 4.194
 1.756 -1.555 4.182
 1.78 -1.552 4.166
 1.802 -1.548 4.144
 1.82 -1.541 4.114
 1.836 -1.532 4.08
 1.85 -1.522 4.042
 1.861 -1.51 4
 1.874 -1.5 3.96
 1.887 -1.49 3.923
 1.892 -1.474 3.87
 0 0 0
 0 0 0
 0 0 0
 0 0 0
 0 0 0
 0 0 0
 1.738 -1.239 3.18
 1.756 -1.237 3.165
 1.768 -1.231 3.138
 1.776 -1.222 3.104
 1.784 -1.213 3.07
 1.782 -1.198 3.022
 1.785 -1.187 2.982
 1.761 -1.158 2.898
 -0.049 -0.033 0.071
 -2.395 -1.581 4.157
 -1.104 -0.738 1.938
 -0.959 -0.65 1.709
 -0.853 -0.585 1.542
 -0.837 -0.581 1.536
 -0.826 -0.581 1.54
 -0.904 -0.643 1.713
 -0.973 -0.701 1.874
 -1.043 -0.761 2.042
 -1.116 -0.825 2.221
 -1.185 -0.887 2.397
 -1.169 -0.887 2.403
 -1.398 -1.075 2.924
 -1.46 -1.139 3.106
 -1.517 -1.2 3.281
 -1.649 -1.323 3.63
 -1.779 -1.447 3.982
 -1.751 -1.446 3.988
 -1.799 -1.507 4.168
 -1.842 -1.568 4.345
 -1.813 -1.567 4.352
 -1.781 -1.562 4.35
 -1.748 -1.559 4.349
 -1.716 -1.554 4.346
 -1.686 -1.552 4.35
 -1.653 -1.548 4.346
 -1.624 -1.546 4.349
 -1.594 -1.544 4.351
 -1.564 -1.541 4.352
 -1.534 -1.538 4.353
 -1.505 -1.536 4.355
 -1.474 -1.533 4.352
 -1.444 -1.53 4.353
 -1.414 -1.527 4.35
 -1.384 -1.524 4.351
 -1.354 -1.521 4.348
 -1.325 -1.519 4.348
 -1.296 -1.516 4.346
 -1.267 -1.514 4.347
 -1.238 -1.511 4.344
 -1.209 -1.508 4.343
 -1.179 -1.505 4.34
 -1.151 -1.503 4.34
 -1.122 -1.5 4.337
 -1.095 -1.499 4.339
 -1.068 -1.499 4.344
 -1.041 -1.498 4.345
 -1.012 -1.495 4.343
 -0.984 -1.493 4.34
 -0.956 -1.49 4.338
 -0.928 -1.487 4.333
 -0.9 -1.485 4.332
 -0.874 -1.485 4.336
 -0.847 -1.484 4.336
 -0.819 -1.481 4.332
 -0.792 -1.479 4.331
 -0.765 -1.478 4.33
 -0.738 -1.476 4.327
 -0.711 -1.475 4.328
 -0.684 -1.474 4.327
 -0.658 -1.473 4.328
 -0.632 -1.473 4.33
 -0.605 -1.471 4.327
 -0.579 -1.47 4.327
 -0.553 -1.47 4.33
 -0.526 -1.468 4.326
 -0.499 -1.466 4.324
 -0.474 -1.467 4.328
 -0.447 -1.466 4.326
 -0.421 -1.465 4.324
 -0.395 -1.463 4.322
 -0.369 -1.463 4.323
 -0.342 -1.46 4.315
 -0.316 -1.459 4.312
 -0.29 -1.457 4.31
 -0.265 -1.458 4.313
 -0.239 -1.456 4.308
 -0.213 -1.456 4.307
 -0.187 -1.455 4.307
 -0.162 -1.455 4.306
 -0.136 -1.454 4.303
 -0.11 -1.454 4.302
 -0.085 -1.454 4.304
 -0.059 -1.455 4.306
 -0.033 -1.454 4.305
 -0.008 -1.454 4.304
 0.017 -1.454 4.304
 0.043 -1.454 4.303
 0.068 -1.453 4.298
 0.094 -1.452 4.295
 0.119 -1.451 4.293
 0.145 -1.451 4.289
 0.17 -1.451 4.288
 0.196 -1.452 4.291
 0.222 -1.453 4.293
 0.247 -1.453 4.292
 0.273 -1.454 4.292
 0.298 -1.454 4.291
 0.324 -1.453 4.286
 0.349 -1.454 4.286
 0.375 -1.454 4.284
 0.401 -1.455 4.285
 0.426 -1.455 4.283
 0.452 -1.455 4.281
 0.478 -1.456 4.279
 0.503 -1.456 4.278
 0.529 -1.457 4.278
 0.555 -1.457 4.276
 0.581 -1.459 4.277
 0.607 -1.459 4.275
 0.633 -1.46 4.275
 0.659 -1.462 4.275
 0.685 -1.463 4.275
 0.712 -1.465 4.276
 0.738 -1.465 4.272
 0.764 -1.466 4.271
 0.79 -1.466 4.269
 0.816 -1.468 4.268
 0.843 -1.469 4.267
 0.87 -1.472 4.271
 0.897 -1.474 4.271
 0.924 -1.476 4.273
 0.951 -1.478 4.273
 0.978 -1.479 4.27
 1.004 -1.48 4.268
 1.032 -1.482 4.269
 1.058 -1.483 4.265
 1.085 -1.484 4.263
 1.113 -1.487 4.265
 1.14 -1.488 4.261
 1.167 -1.489 4.258
 1.194 -1.491 4.257
 1.221 -1.492 4.253
 1.248 -1.493 4.25
 1.276 -1.496 4.249
 1.304 -1.498 4.248
 1.332 -1.5 4.246
 1.361 -1.503 4.247
 1.389 -1.504 4.243
 1.417 -1.507 4.242
 1.446 -1.51 4.243
 1.476 -1.513 4.243
 1.503 -1.514 4.237
 1.532 -1.516 4.236
 1.56 -1.518 4.231
 1.588 -1.519 4.226
 1.616 -1.521 4.222
 1.646 -1.523 4.219
 1.674 -1.525 4.215
 1.702 -1.526 4.208
 1.73 -1.528 4.201
 1.757 -1.528 4.192
 1.782 -1.527 4.178
 1.803 -1.522 4.155
 1.822 -1.516 4.127
 1.839 -1.508 4.095
 1.854 -1.499 4.06
 1.868 -1.489 4.022
 1.882 -1.48 3.985
 1.898 -1.473 3.954
 0 0 0
 0 0 0
 0 0 0
 0 0 0
 0 0 0
 0 0 0
 0 0 0
 1.49 -1.045 2.732
 1.611 -1.116 2.909
 1.77 -1.211 3.148
 1.778 -1.202 3.114
 1.786 -1.193 3.081
 1.785 -1.18 3.034
 1.776 -1.16 2.972
 1.774 -1.146 2.926
 -0.094 -0.062 0.149
 -0.065 -0.043 0.1
 -0.641 -0.422 1.122
 -0.519 -0.346 0.92
 -0.419 -0.283 0.752
 -0.406 -0.277 0.74
 -0.399 -0.276 0.738
 -0.48 -0.336 0.906
 -0.554 -0.392 1.063
 -0.628 -0.451 1.227
 -0.704 -0.512 1.4
 -0.777 -0.572 1.57
 -0.847 -0.632 1.741
 -1.162 -0.879 2.435
 -1.225 -0.939 2.609
 -1.364 -1.06 2.957
 -1.578 -1.244 3.48
 -1.708 -1.366 3.832
 -1.68 -1.363 3.834
 -1.804 -1.486 4.19
 -1.848 -1.544 4.367
 -1.817 -1.542 4.37
 -1.784 -1.538 4.367
 -1.752 -1.534 4.367
 -1.719 -1.53 4.364
 -1.688 -1.527 4.364
 -1.656 -1.523 4.361
 -1.627 -1.521 4.366
 -1.597 -1.519 4.368
 -1.567 -1.517 4.369
 -1.536 -1.513 4.367
 -1.506 -1.511 4.369
 -1.475 -1.507 4.364
 -1.445 -1.504 4.363
 -1.414 -1.5 4.359
 -1.385 -1.498 4.361
 -1.354 -1.494 4.357
 -1.325 -1.492 4.356
 -1.295 -1.488 4.352
 -1.266 -1.486 4.353
 -1.237 -1.483 4.349
 -1.208 -1.48 4.348
 -1.178 -1.477 4.342
 -1.15 -1.475 4.344
 -1.121 -1.472 4.341
 -1.094 -1.471 4.343
 -1.067 -1.471 4.349
 -1.04 -1.471 4.352
 -1.011 -1.467 4.347
 -0.983 -1.465 4.344
 -0.955 -1.463 4.342
 -0.927 -1.459 4.337
 -0.899 -1.457 4.333
 -0.872 -1.456 4.336
 -0.845 -1.455 4.335
 -0.817 -1.452 4.33
 -0.79 -1.45 4.328
 -0.763 -1.449 4.329
 -0.736 -1.447 4.326
 -0.71 -1.447 4.329
 -0.683 -1.445 4.327
 -0.657 -1.444 4.327
 -0.631 -1.444 4.329
 -0.604 -1.443 4.329
 -0.578 -1.442 4.328
 -0.552 -1.444 4.336
 -0.526 -1.442 4.332
 -0.499 -1.44 4.33
 -0.474 -1.441 4.336
 -0.447 -1.44 4.335
 -0.421 -1.438 4.329
 -0.395 -1.437 4.328
 -0.369 -1.436 4.327
 -0.342 -1.433 4.32
 -0.316 -1.431 4.315
 -0.29 -1.43 4.313
 -0.264 -1.43 4.314
 -0.238 -1.428 4.308
 -0.212 -1.427 4.306
 -0.187 -1.427 4.307
 -0.161 -1.427 4.305
 -0.135 -1.426 4.302
 -0.11 -1.426 4.304
 -0.084 -1.426 4.304
 -0.059 -1.427 4.306
 -0.033 -1.427 4.306
 -0.008 -1.426 4.304
 0.017 -1.425 4.3
 0.043 -1.425 4.299
 0.068 -1.422 4.291
 0.093 -1.422 4.288
 0.119 -1.421 4.286
 0.144 -1.421 4.286
 0.17 -1.422 4.285
 0.196 -1.425 4.293
 0.221 -1.426 4.295
 0.247 -1.426 4.295
 0.273 -1.427 4.296
 0.298 -1.428 4.296
 0.324 -1.426 4.289
 0.349 -1.427 4.289
 0.375 -1.428 4.29
 0.401 -1.428 4.289
 0.426 -1.428 4.285
 0.452 -1.429 4.286
 0.478 -1.43 4.285
 0.503 -1.43 4.284
 0.529 -1.431 4.285
 0.555 -1.432 4.285
 0.581 -1.432 4.282
 0.607 -1.432 4.279
 0.632 -1.433 4.277
 0.658 -1.434 4.276
 0.684 -1.435 4.275
 0.711 -1.437 4.278
 0.737 -1.438 4.277
 0.763 -1.439 4.275
 0.79 -1.441 4.276
 0.816 -1.442 4.275
 0.843 -1.443 4.274
 0.87 -1.445 4.276
 0.897 -1.447 4.276
 0.923 -1.448 4.275
 0.951 -1.451 4.278
 0.977 -1.451 4.273
 1.004 -1.453 4.273
 1.031 -1.455 4.273
 1.057 -1.455 4.268
 1.084 -1.456 4.265
 1.112 -1.458 4.266
 1.138 -1.459 4.262
 1.165 -1.461 4.26
 1.193 -1.463 4.26
 1.22 -1.464 4.256
 1.247 -1.465 4.253
 1.276 -1.468 4.254
 1.303 -1.469 4.25
 1.331 -1.472 4.249
 1.36 -1.474 4.25
 1.387 -1.475 4.245
 1.415 -1.477 4.243
 1.444 -1.48 4.243
 1.473 -1.483 4.241
 1.5 -1.484 4.237
 1.529 -1.487 4.236
 1.558 -1.489 4.233
 1.587 -1.491 4.23
 1.615 -1.493 4.226
 1.644 -1.495 4.222
 1.673 -1.497 4.219
 1.7 -1.498 4.211
 1.729 -1.5 4.207
 1.757 -1.501 4.199
 1.784 -1.501 4.191
 1.806 -1.498 4.17
 1.827 -1.493 4.147
 1.845 -1.486 4.116
 1.864 -1.48 4.088
 1.877 -1.47 4.05
 1.894 -1.463 4.02
 0 0 0
 0 0 0
 0 0 0
 0 0 0
 0 0 0
 0 0 0
 0 0 0
 0 0 0
 1.25 -0.861 2.295
 1.604 -1.091 2.903
 1.774 -1.193 3.163
 1.781 -1.183 3.127
 1.791 -1.176 3.096
 1.79 -1.162 3.049
 1.796 -1.152 3.013
 1.787 -1.134 2.953
 0 0 0
 -0.123 -0.08 0.202
 -0.174 -0.113 0.296
 -0.166 -0.109 0.286
 -0.068 -0.047 0.112
 -0.058 -0.04 0.094
 -0.055 -0.039 0.091
 -0.139 -0.096 0.253
 -0.128 -0.09 0.237
 -0.205 -0.145 0.392
 -0.369 -0.264 0.729
 -0.445 -0.322 0.896
 -0.518 -0.38 1.063
 -0.92 -0.683 1.928
 -1.067 -0.803 2.277
 -1.21 -0.923 2.626
 -1.505 -1.165 3.326
 -1.714 -1.345 3.853
 -1.686 -1.343 3.855
 -1.808 -1.462 4.207
 -1.849 -1.518 4.38
 -1.817 -1.514 4.378
 -1.784 -1.51 4.376
 -1.752 -1.506 4.376
 -1.72 -1.503 4.375
 -1.69 -1.501 4.377
 -1.657 -1.496 4.373
 -1.627 -1.494 4.375
 -1.596 -1.491 4.375
 -1.565 -1.488 4.374
 -1.534 -1.484 4.371
 -1.504 -1.482 4.372
 -1.474 -1.478 4.369
 -1.443 -1.475 4.367
 -1.413 -1.472 4.365
 -1.384 -1.47 4.366
 -1.353 -1.466 4.361
 -1.323 -1.463 4.359
 -1.293 -1.459 4.353
 -1.263 -1.456 4.351
 -1.234 -1.453 4.349
 -1.205 -1.451 4.348
 -1.176 -1.447 4.342
 -1.148 -1.446 4.345
 -1.119 -1.443 4.342
 -1.092 -1.442 4.342
 -1.064 -1.441 4.345
 -1.038 -1.441 4.351
 -1.01 -1.438 4.347
 -0.982 -1.436 4.345
 -0.953 -1.433 4.341
 -0.926 -1.431 4.339
 -0.897 -1.428 4.333
 -0.871 -1.428 4.337
 -0.844 -1.428 4.34
 -0.818 -1.427 4.342
 -0.789 -1.423 4.332
 -0.763 -1.422 4.334
 -0.735 -1.419 4.329
 -0.709 -1.419 4.331
 -0.682 -1.416 4.326
 -0.657 -1.418 4.335
 -0.631 -1.418 4.338
 -0.604 -1.418 4.339
 -0.578 -1.416 4.337
 -0.552 -1.418 4.345
 -0.526 -1.416 4.34
 -0.499 -1.414 4.336
 -0.473 -1.415 4.341
 -0.447 -1.415 4.342
 -0.42 -1.411 4.334
 -0.394 -1.409 4.328
 -0.368 -1.408 4.326
 -0.341 -1.405 4.319
 -0.315 -1.402 4.312
 -0.289 -1.401 4.31
 -0.264 -1.403 4.315
 -0.238 -1.4 4.309
 -0.212 -1.399 4.306
 -0.186 -1.399 4.307
 -0.161 -1.399 4.306
 -0.135 -1.398 4.303
 -0.11 -1.398 4.305
 -0.084 -1.398 4.303
 -0.058 -1.399 4.305
 -0.033 -1.399 4.307
 -0.007 -1.399 4.305
 0.017 -1.398 4.302
 0.043 -1.398 4.302
 0.068 -1.395 4.293
 0.094 -1.395 4.291
 0.119 -1.394 4.289
 0.144 -1.394 4.286
 0.17 -1.394 4.286
 0.196 -1.397 4.295
 0.221 -1.399 4.298
 0.247 -1.4 4.299
 0.273 -1.401 4.301
 0.299 -1.402 4.302
 0.324 -1.4 4.293
 0.349 -1.4 4.293
 0.375 -1.402 4.295
 0.401 -1.402 4.294
 0.426 -1.401 4.29
 0.452 -1.403 4.293
 0.478 -1.404 4.293
 0.503 -1.404 4.29
 0.53 -1.406 4.293
 0.556 -1.407 4.294
 0.581 -1.407 4.289
 0.607 -1.406 4.285
 0.633 -1.407 4.284
 0.658 -1.408 4.282
 0.684 -1.408 4.28
 0.711 -1.411 4.284
 0.737 -1.411 4.282
 0.763 -1.412 4.278
 0.79 -1.414 4.281
 0.816 -1.415 4.28
 0.842 -1.416 4.279
 0.87 -1.419 4.282
 0.897 -1.421 4.283
 0.923 -1.421 4.278
 0.95 -1.423 4.28
 0.976 -1.424 4.277
 1.003 -1.425 4.276
 1.03 -1.427 4.276
 1.057 -1.428 4.272
 1.084 -1.429 4.271
 1.111 -1.431 4.269
 1.137 -1.431 4.264
 1.164 -1.432 4.261
 1.192 -1.435 4.261
 1.218 -1.435 4.257
 1.245 -1.436 4.253
 1.274 -1.439 4.255
 1.301 -1.441 4.251
 1.329 -1.443 4.251
 1.358 -1.446 4.251
 1.386 -1.448 4.249
 1.413 -1.448 4.243
 1.441 -1.451 4.243
 1.47 -1.453 4.241
 1.498 -1.455 4.237
 1.527 -1.458 4.237
 1.556 -1.46 4.235
 1.586 -1.463 4.235
 1.614 -1.465 4.231
 1.642 -1.466 4.226
 1.671 -1.468 4.222
 1.698 -1.469 4.215
 1.727 -1.471 4.21
 1.756 -1.473 4.205
 1.785 -1.475 4.202
 1.809 -1.473 4.184
 1.832 -1.47 4.165
 1.851 -1.464 4.138
 1.869 -1.457 4.108
 1.878 -1.445 4.06
 0 0 0
 0 0 0
 0 0 0
 0 0 0
 0 0 0
 0 0 0
 0 0 0
 0 0 0
 0 0 0
 1.242 -0.841 2.286
 1.6 -1.069 2.901
 1.773 -1.17 3.168
 1.781 -1.161 3.133
 1.79 -1.154 3.102
 1.793 -1.142 3.06
 1.784 -1.124 3
 1.783 -1.111 2.953
 -0.096 -0.061 0.153
 -0.092 -0.059 0.149
 -0.097 -0.063 0.16
 -0.091 -0.06 0.151
 -0.085 -0.057 0.143
 -0.073 -0.049 0.123
 -0.067 -0.046 0.115
 -0.061 -0.043 0.105
 -0.051 -0.036 0.086
 -0.04 -0.029 0.066
 -0.12 -0.085 0.228
 -0.113 -0.081 0.218
 -0.189 -0.137 0.38
 -0.594 -0.433 1.242
 -0.826 -0.611 1.763
 -1.051 -0.788 2.284
 -1.427 -1.084 3.158
 -1.714 -1.321 3.861
 -1.685 -1.318 3.862
 -1.806 -1.434 4.212
 -1.847 -1.488 4.384
 -1.815 -1.484 4.382
 -1.782 -1.481 4.38
 -1.751 -1.478 4.381
 -1.72 -1.475 4.382
 -1.689 -1.473 4.385
 -1.657 -1.469 4.381
 -1.626 -1.466 4.382
 -1.596 -1.463 4.381
 -1.564 -1.459 4.377
 -1.532 -1.455 4.373
 -1.502 -1.452 4.373
 -1.471 -1.449 4.371
 -1.44 -1.445 4.367
 -1.411 -1.443 4.366
 -1.381 -1.441 4.367
 -1.351 -1.437 4.363
 -1.321 -1.434 4.359
 -1.291 -1.43 4.354
 -1.261 -1.427 4.351
 -1.232 -1.424 4.349
 -1.203 -1.422 4.347
 -1.174 -1.418 4.343
 -1.146 -1.418 4.346
 -1.118 -1.415 4.343
 -1.09 -1.414 4.346
 -1.064 -1.414 4.35
 -1.038 -1.415 4.358
 -1.009 -1.412 4.354
 -0.982 -1.411 4.355
 -0.954 -1.408 4.351
 -0.926 -1.406 4.35
 -0.898 -1.403 4.344
 -0.871 -1.402 4.345
 -0.844 -1.401 4.345
 -0.817 -1.4 4.348
 -0.789 -1.396 4.336
 -0.762 -1.394 4.336
 -0.734 -1.392 4.332
 -0.708 -1.392 4.336
 -0.681 -1.388 4.327
 -0.655 -1.39 4.335
 -0.63 -1.39 4.339
 -0.604 -1.39 4.342
 -0.577 -1.388 4.337
 -0.552 -1.391 4.347
 -0.525 -1.389 4.344
 -0.498 -1.387 4.34
 -0.473 -1.388 4.344
 -0.447 -1.388 4.347
 -0.42 -1.384 4.336
 -0.393 -1.381 4.329
 -0.367 -1.379 4.324
 -0.34 -1.376 4.316
 -0.314 -1.374 4.309
 -0.289 -1.374 4.311
 -0.263 -1.374 4.312
 -0.237 -1.372 4.307
 -0.211 -1.371 4.304
 -0.186 -1.371 4.307
 -0.16 -1.37 4.304
 -0.135 -1.369 4.301
 -0.109 -1.37 4.304
 -0.084 -1.37 4.303
 -0.058 -1.37 4.302
 -0.033 -1.37 4.303
 -0.007 -1.37 4.304
 0.017 -1.369 4.299
 0.043 -1.37 4.302
 0.068 -1.367 4.292
 0.094 -1.367 4.29
 0.119 -1.367 4.289
 0.144 -1.367 4.288
 0.17 -1.368 4.289
 0.196 -1.371 4.3
 0.221 -1.373 4.303
 0.247 -1.374 4.305
 0.273 -1.375 4.308
 0.299 -1.376 4.308
 0.323 -1.373 4.296
 0.349 -1.374 4.298
 0.375 -1.376 4.301
 0.401 -1.376 4.3
 0.426 -1.375 4.294
 0.452 -1.378 4.301
 0.478 -1.378 4.298
 0.504 -1.378 4.296
 0.53 -1.38 4.3
 0.556 -1.382 4.303
 0.581 -1.381 4.296
 0.607 -1.38 4.291
 0.632 -1.381 4.288
 0.658 -1.38 4.283
 0.684 -1.381 4.284
 0.711 -1.384 4.288
 0.737 -1.385 4.286
 0.763 -1.386 4.284
 0.79 -1.388 4.289
 0.816 -1.389 4.287
 0.842 -1.39 4.285
 0.87 -1.392 4.288
 0.896 -1.394 4.288
 0.922 -1.394 4.282
 0.949 -1.396 4.284
 0.975 -1.396 4.278
 1.001 -1.397 4.276
 1.028 -1.398 4.273
 1.054 -1.398 4.269
 1.081 -1.4 4.267
 1.109 -1.402 4.268
 1.135 -1.403 4.264
 1.162 -1.404 4.262
 1.19 -1.406 4.262
 1.217 -1.407 4.258
 1.243 -1.408 4.254
 1.271 -1.41 4.254
 1.299 -1.412 4.251
 1.327 -1.414 4.25
 1.354 -1.416 4.248
 1.383 -1.418 4.247
 1.41 -1.42 4.244
 1.44 -1.423 4.245
 1.468 -1.425 4.244
 1.498 -1.428 4.244
 1.527 -1.43 4.243
 1.555 -1.433 4.241
 1.584 -1.435 4.238
 1.613 -1.437 4.236
 1.641 -1.438 4.23
 1.67 -1.44 4.226
 1.697 -1.441 4.22
 1.726 -1.443 4.214
 1.752 -1.443 4.204
 1.782 -1.445 4.201
 1.806 -1.444 4.186
 1.832 -1.443 4.174
 1.856 -1.441 4.156
 1.881 -1.44 4.143
 0 0 0
 0 0 0
 0 0 0
 0 0 0
 0 0 0
 0 0 0
 0 0 0
 0 0 0
 0 0 0
 0 0 0
 1.236 -0.821 2.28
 1.594 -1.046 2.897
 1.768 -1.146 3.165
 1.777 -1.138 3.132
 1.788 -1.132 3.104
 1.791 -1.121 3.064
 1.787 -1.106 3.011
 1.774 -1.085 2.945
 -0.135 -0.083 0.221
 -0.118 -0.074 0.195
 -0.108 -0.069 0.181
 -0.1 -0.064 0.168
 -0.092 -0.06 0.157
 -0.081 -0.053 0.138
 -0.072 -0.048 0.124
 -0.062 -0.043 0.107
 -0.052 -0.036 0.088
 -0.041 -0.029 0.069
 -0.205 -0.142 0.4
 -0.196 -0.138 0.39
 -0.356 -0.252 0.729
 -0.758 -0.542 1.593
 -1.068 -0.774 2.287
 -1.209 -0.889 2.636
 -1.582 -1.179 3.51
 -1.788 -1.352 4.036
 -1.758 -1.349 4.036
 -1.802 -1.403 4.211
 -1.844 -1.458 4.384
 -1.812 -1.454 4.384
 -1.78 -1.451 4.383
 -1.748 -1.448 4.382
 -1.717 -1.445 4.385
 -1.686 -1.443 4.385
 -1.654 -1.439 4.383
 -1.624 -1.437 4.384
 -1.594 -1.435 4.387
 -1.563 -1.431 4.383
 -1.532 -1.427 4.38
 -1.502 -1.425 4.381
 -1.47 -1.421 4.376
 -1.437 -1.415 4.365
 -1.407 -1.412 4.364
 -1.378 -1.41 4.363
 -1.348 -1.407 4.36
 -1.318 -1.404 4.358
 -1.289 -1.402 4.357
 -1.26 -1.399 4.355
 -1.231 -1.397 4.354
 -1.202 -1.394 4.352
 -1.172 -1.39 4.346
 -1.146 -1.391 4.353
 -1.118 -1.389 4.351
 -1.09 -1.387 4.352
 -1.063 -1.386 4.355
 -1.038 -1.388 4.365
 -1.009 -1.385 4.361
 -0.981 -1.383 4.359
 -0.953 -1.38 4.354
 -0.925 -1.379 4.354
 -0.897 -1.375 4.346
 -0.87 -1.374 4.348
 -0.843 -1.374 4.35
 -0.818 -1.375 4.357
 -0.788 -1.369 4.343
 -0.761 -1.368 4.341
 -0.734 -1.365 4.336
 -0.708 -1.365 4.338
 -0.679 -1.359 4.323
 -0.654 -1.362 4.334
 -0.629 -1.363 4.342
 -0.603 -1.363 4.343
 -0.576 -1.361 4.339
 -0.551 -1.364 4.352
 -0.525 -1.362 4.348
 -0.498 -1.36 4.344
 -0.473 -1.362 4.352
 -0.447 -1.362 4.355
 -0.42 -1.358 4.343
 -0.393 -1.354 4.332
 -0.366 -1.352 4.325
 -0.34 -1.349 4.317
 -0.314 -1.348 4.315
 -0.288 -1.348 4.316
 -0.263 -1.346 4.313
 -0.237 -1.345 4.308
 -0.211 -1.343 4.303
 -0.185 -1.343 4.303
 -0.16 -1.341 4.299
 -0.134 -1.342 4.301
 -0.109 -1.343 4.305
 -0.083 -1.343 4.305
 -0.058 -1.343 4.304
 -0.032 -1.343 4.306
 -0.007 -1.343 4.305
 0.017 -1.342 4.299
 0.043 -1.343 4.302
 0.068 -1.339 4.29
 0.093 -1.339 4.289
 0.119 -1.339 4.289
 0.144 -1.34 4.292
 0.17 -1.341 4.293
 0.196 -1.346 4.306
 0.222 -1.347 4.309
 0.247 -1.348 4.31
 0.273 -1.348 4.31
 0.299 -1.349 4.312
 0.323 -1.345 4.298
 0.349 -1.347 4.3
 0.375 -1.349 4.304
 0.401 -1.35 4.306
 0.426 -1.348 4.298
 0.453 -1.353 4.31
 0.479 -1.354 4.311
 0.504 -1.354 4.308
 0.531 -1.356 4.312
 0.557 -1.359 4.317
 0.582 -1.357 4.307
 0.607 -1.355 4.3
 0.633 -1.355 4.295
 0.658 -1.354 4.29
 0.684 -1.355 4.288
 0.711 -1.358 4.295
 0.737 -1.359 4.293
 0.764 -1.361 4.297
 0.791 -1.365 4.303
 0.817 -1.365 4.299
 0.844 -1.366 4.299
 0.871 -1.368 4.3
 0.897 -1.368 4.296
 0.921 -1.367 4.285
 0.949 -1.37 4.291
 0.975 -1.37 4.284
 1.002 -1.371 4.283
 1.028 -1.372 4.281
 1.054 -1.372 4.276
 1.081 -1.373 4.273
 1.108 -1.375 4.273
 1.134 -1.375 4.267
 1.16 -1.375 4.261
 1.188 -1.378 4.261
 1.215 -1.379 4.259
 1.242 -1.38 4.255
 1.269 -1.382 4.254
 1.298 -1.384 4.255
 1.326 -1.387 4.255
 1.354 -1.388 4.252
 1.381 -1.39 4.25
 1.41 -1.393 4.25
 1.438 -1.395 4.249
 1.467 -1.397 4.247
 1.496 -1.4 4.248
 1.526 -1.403 4.249
 1.554 -1.405 4.245
 1.583 -1.408 4.244
 1.612 -1.409 4.24
 1.639 -1.41 4.233
 1.667 -1.411 4.228
 1.696 -1.413 4.223
 1.724 -1.415 4.218
 1.751 -1.415 4.208
 1.78 -1.417 4.204
 1.805 -1.416 4.191
 1.832 -1.416 4.181
 1.855 -1.414 4.163
 0 0 0
 0 0 0
 0 0 0
 0 0 0
 0 0 0
 0 0 0
 0 0 0
 0 0 0
 0 0 0
 0 0 0
 0 0 0
 1.155 -0.753 2.134
 1.579 -1.017 2.876
 1.769 -1.125 3.172
 1.777 -1.117 3.139
 1.788 -1.111 3.112
 1.792 -1.101 3.072
 1.793 -1.089 3.028
 1.774 -1.065 2.95
 -0.16 -0.097 0.265
 -0.121 -0.074 0.199
 -0.113 -0.07 0.188
 -0.101 -0.063 0.17
 -0.091 -0.058 0.155
 -0.079 -0.051 0.134
 -0.07 -0.046 0.12
 -0.06 -0.04 0.102
 -0.051 -0.035 0.087
 -0.042 -0.029 0.07
 -0.29 -0.196 0.573
 -0.28 -0.192 0.562
 -0.437 -0.303 0.901
 -0.838 -0.588 1.766
 -1.147 -0.816 2.463
 -1.287 -0.928 2.812
 -1.659 -1.213 3.689
 -1.863 -1.382 4.215
 -1.831 -1.378 4.214
 -1.875 -1.432 4.39
 -1.841 -1.427 4.385
 -1.809 -1.424 4.385
 -1.778 -1.422 4.387
 -1.746 -1.419 4.388
 -1.715 -1.416 4.387
 -1.684 -1.414 4.389
 -1.653 -1.41 4.387
 -1.622 -1.407 4.386
 -1.592 -1.405 4.388
 -1.561 -1.402 4.387
 -1.529 -1.398 4.382
 -1.499 -1.396 4.382
 -1.468 -1.391 4.376
 -1.435 -1.386 4.367
 -1.406 -1.384 4.367
 -1.377 -1.382 4.368
 -1.347 -1.379 4.365
 -1.319 -1.378 4.368
 -1.289 -1.375 4.366
 -1.259 -1.372 4.362
 -1.23 -1.369 4.359
 -1.202 -1.367 4.358
 -1.172 -1.363 4.352
 -1.145 -1.363 4.357
 -1.118 -1.362 4.359
 -1.09 -1.361 4.36
 -1.063 -1.361 4.364
 -1.038 -1.362 4.374
 -1.009 -1.359 4.369
 -0.981 -1.357 4.366
 -0.952 -1.353 4.359
 -0.925 -1.352 4.359
 -0.896 -1.347 4.348
 -0.869 -1.346 4.349
 -0.842 -1.345 4.35
 -0.817 -1.347 4.36
 -0.786 -1.34 4.34
 -0.76 -1.339 4.341
 -0.732 -1.336 4.334
 -0.706 -1.337 4.338
 -0.676 -1.328 4.314
 -0.654 -1.335 4.34
 -0.628 -1.336 4.344
 -0.603 -1.338 4.354
 -0.576 -1.334 4.344
 -0.551 -1.338 4.358
 -0.524 -1.336 4.354
 -0.498 -1.335 4.354
 -0.472 -1.335 4.356
 -0.447 -1.337 4.365
 -0.42 -1.332 4.35
 -0.391 -1.323 4.322
 -0.364 -1.319 4.311
 -0.339 -1.318 4.309
 -0.313 -1.318 4.307
 -0.287 -1.318 4.31
 -0.262 -1.317 4.309
 -0.236 -1.317 4.306
 -0.21 -1.315 4.302
 -0.185 -1.316 4.305
 -0.159 -1.315 4.302
 -0.134 -1.316 4.305
 -0.109 -1.317 4.309
 -0.083 -1.316 4.307
 -0.058 -1.315 4.304
 -0.032 -1.316 4.307
 -0.007 -1.314 4.301
 0.017 -1.311 4.289
 0.043 -1.312 4.293
 0.068 -1.307 4.276
 0.093 -1.307 4.274
 0.119 -1.309 4.278
 0.144 -1.314 4.294
 0.17 -1.314 4.294
 0.196 -1.321 4.317
 0.222 -1.32 4.313
 0.248 -1.323 4.319
 0.273 -1.323 4.319
 0.299 -1.325 4.323
 0.323 -1.32 4.305
 0.35 -1.324 4.314
 0.376 -1.327 4.323
 0.402 -1.327 4.321
 0.426 -1.322 4.302
 0.453 -1.326 4.313
 0.478 -1.326 4.312
 0.504 -1.326 4.307
 0.53 -1.329 4.314
 0.557 -1.332 4.322
 0.582 -1.331 4.314
 0.608 -1.33 4.308
 0.633 -1.329 4.301
 0.658 -1.328 4.296
 0.685 -1.332 4.303
 0.713 -1.335 4.31
 0.738 -1.335 4.307
 0.765 -1.337 4.307
 0.793 -1.341 4.318
 0.818 -1.34 4.31
 0.846 -1.343 4.315
 0.872 -1.344 4.312
 0.898 -1.344 4.309
 0.92 -1.338 4.284
 0.948 -1.342 4.292
 0.974 -1.342 4.285
 1 -1.343 4.283
 1.027 -1.344 4.281
 1.053 -1.345 4.278
 1.08 -1.346 4.275
 1.107 -1.347 4.273
 1.133 -1.348 4.269
 1.159 -1.348 4.265
 1.187 -1.35 4.264
 1.214 -1.351 4.262
 1.241 -1.353 4.261
 1.269 -1.355 4.259
 1.296 -1.356 4.257
 1.325 -1.359 4.257
 1.352 -1.36 4.253
 1.379 -1.362 4.25
 1.408 -1.365 4.252
 1.437 -1.367 4.252
 1.466 -1.369 4.251
 1.495 -1.372 4.252
 1.524 -1.375 4.251
 1.551 -1.376 4.245
 1.581 -1.378 4.244
 1.609 -1.38 4.239
 1.636 -1.381 4.233
 1.665 -1.383 4.229
 1.694 -1.385 4.225
 1.722 -1.386 4.219
 1.749 -1.386 4.211
 1.778 -1.388 4.207
 1.804 -1.388 4.196
 1.833 -1.39 4.191
 1.859 -1.39 4.18
 0 0 0
 0 0 0
 0 0 0
 0 0 0
 0 0 0
 0 0 0
 0 0 0
 0 0 0
 0 0 0
 0 0 0
 0 0 0
 1.295 -0.828 2.398
 1.753 -1.107 3.2
 1.769 -1.104 3.179
 1.778 -1.096 3.147
 1.789 -1.09 3.119
 1.794 -1.08 3.08
 1.793 -1.068 3.034
 1.766 -1.04 2.943
 -0.151 -0.089 0.25
 -0.118 -0.071 0.196
 -0.11 -0.067 0.183
 -0.098 -0.06 0.165
 -0.086 -0.054 0.146
 -0.076 -0.048 0.129
 -0.067 -0.044 0.115
 -0.057 -0.038 0.097
 -0.049 -0.033 0.083
 -0.04 -0.028 0.067
 -0.373 -0.248 0.744
 -0.447 -0.3 0.907
 -0.603 -0.41 1.249
 -0.999 -0.687 2.113
 -1.388 -0.968 2.99
 -1.446 -1.022 3.166
 -1.736 -1.245 3.869
 -1.939 -1.41 4.396
 -1.906 -1.407 4.396
 -1.873 -1.403 4.394
 -1.839 -1.398 4.389
 -1.807 -1.395 4.388
 -1.776 -1.392 4.39
 -1.745 -1.39 4.391
 -1.713 -1.387 4.39
 -1.683 -1.385 4.393
 -1.651 -1.381 4.39
 -1.62 -1.378 4.388
 -1.589 -1.375 4.387
 -1.558 -1.372 4.385
 -1.525 -1.367 4.379
 -1.496 -1.365 4.379
 -1.464 -1.361 4.373
 -1.431 -1.356 4.364
 -1.403 -1.354 4.365
 -1.374 -1.353 4.368
 -1.344 -1.35 4.365
 -1.317 -1.349 4.37
 -1.29 -1.349 4.375
 -1.259 -1.345 4.368
 -1.23 -1.342 4.365
 -1.201 -1.34 4.363
 -1.171 -1.336 4.357
 -1.144 -1.335 4.359
 -1.117 -1.335 4.362
 -1.089 -1.333 4.364
 -1.061 -1.331 4.361
 -1.036 -1.333 4.372
 -1.007 -1.331 4.369
 -0.979 -1.328 4.366
 -0.95 -1.324 4.355
 -0.923 -1.323 4.358
 -0.894 -1.319 4.349
 -0.869 -1.321 4.358
 -0.844 -1.322 4.367
 -0.821 -1.328 4.39
 -0.788 -1.317 4.356
 -0.761 -1.316 4.356
 0 0 0
 0 0 0
 0 0 0
 0 0 0
 0 0 0
 0 0 0
 0 0 0
 0 0 0
 0 0 0
 0 0 0
 0 0 0
 0 0 0
 0 0 0
 -0.387 -1.286 4.289
 -0.362 -1.287 4.296
 -0.338 -1.29 4.304
 -0.312 -1.291 4.309
 -0.287 -1.291 4.312
 -0.262 -1.291 4.313
 -0.236 -1.291 4.312
 -0.21 -1.289 4.307
 -0.185 -1.29 4.309
 -0.159 -1.289 4.307
 -0.134 -1.29 4.31
 -0.108 -1.29 4.312
 -0.083 -1.289 4.309
 -0.057 -1.288 4.304
 -0.032 -1.288 4.304
 -0.007 -1.286 4.296
 0.018 -1.282 4.285
 0 0 0
 0 0 0
 0 0 0
 0 0 0
 0 0 0
 0 0 0
 0 0 0
 0 0 0
 0 0 0
 0 0 0
 0 0 0
 0 0 0
 0 0 0
 0 0 0
 0 0 0
 0 0 0
 0 0 0
 0 0 0
 0 0 0
 0 0 0
 0 0 0
 0 0 0
 0 0 0
 0 0 0
 0 0 0
 0 0 0
 0 0 0
 0 0 0
 0 0 0
 0 0 0
 0 0 0
 0 0 0
 0 0 0
 0 0 0
 0 0 0
 0.946 -1.313 4.287
 0.973 -1.314 4.286
 0.998 -1.314 4.28
 1.025 -1.315 4.279
 1.052 -1.316 4.278
 1.078 -1.318 4.276
 1.105 -1.319 4.274
 1.132 -1.32 4.271
 1.158 -1.32 4.265
 1.184 -1.321 4.261
 1.211 -1.322 4.257
 1.238 -1.323 4.255
 1.266 -1.326 4.256
 1.294 -1.328 4.256
 1.322 -1.33 4.256
 1.35 -1.332 4.254
 1.378 -1.334 4.252
 1.407 -1.336 4.253
 1.435 -1.338 4.252
 1.464 -1.341 4.251
 1.493 -1.344 4.252
 1.522 -1.347 4.253
 1.549 -1.347 4.245
 1.578 -1.349 4.244
 1.606 -1.351 4.238
 1.634 -1.352 4.234
 1.662 -1.354 4.23
 1.692 -1.356 4.228
 1.719 -1.357 4.221
 1.747 -1.358 4.215
 1.774 -1.359 4.206
 1.8 -1.358 4.193
 1.827 -1.358 4.184
 1.852 -1.358 4.172
 0 0 0
 0 0 0
 0 0 0
 0 0 0
 0 0 0
 0 0 0
 0 0 0
 0 0 0
 0 0 0
 0 0 0
 0 0 0
 0 0 0
 1.745 -1.08 3.191
 1.764 -1.079 3.176
 1.773 -1.072 3.144
 1.785 -1.067 3.118
 1.792 -1.059 3.084
 1.804 -1.053 3.058
 1.781 -1.029 2.975
 -0.142 -0.083 0.234
 -0.139 -0.082 0.233
 -0.11 -0.066 0.184
 -0.096 -0.059 0.163
 -0.082 -0.051 0.139
 -0.071 -0.045 0.121
 -0.062 -0.04 0.106
 -0.052 -0.034 0.088
 -0.044 -0.029 0.074
 -0.037 -0.025 0.061
 -0.372 -0.242 0.742
 -0.528 -0.347 1.077
 -0.767 -0.511 1.596
 -1.161 -0.783 2.462
 -1.548 -1.058 3.341
 -1.602 -1.11 3.516
 -1.811 -1.272 4.044
 -1.936 -1.38 4.396
 -1.902 -1.376 4.395
 -1.87 -1.373 4.395
 -1.837 -1.369 4.392
 -1.805 -1.366 4.391
 -1.773 -1.363 4.391
 -1.742 -1.36 4.392
 -1.709 -1.356 4.387
 -1.679 -1.354 4.39
 -1.648 -1.351 4.389
 -1.617 -1.349 4.389
 -1.586 -1.346 4.388
 -1.556 -1.343 4.388
 -1.523 -1.339 4.381
 -1.494 -1.336 4.381
 -1.462 -1.332 4.374
 -1.43 -1.327 4.366
 -1.401 -1.325 4.366
 -1.372 -1.324 4.369
 -1.342 -1.321 4.366
 -1.315 -1.32 4.37
 -1.291 -1.323 4.385
 -1.26 -1.319 4.377
 -1.229 -1.314 4.368
 -1.2 -1.313 4.368
 0 0 0
 0 0 0
 0 0 0
 0 0 0
 0 0 0
 0 0 0
 0 0 0
 0 0 0
 0 0 0
 0 0 0
 0 0 0
 0 0 0
 0 0 0
 0 0 0
 0 0 0
 0 0 0
 0 0 0
 0 0 0
 0 0 0
 0 0 0
 0 0 0
 0 0 0
 0 0 0
 0 0 0
 0 0 0
 0 0 0
 0 0 0
 0 0 0
 0 0 0
 -0.388 -1.264 4.307
 -0.363 -1.263 4.306
 -0.338 -1.265 4.312
 -0.312 -1.265 4.315
 -0.287 -1.265 4.316
 -0.261 -1.264 4.312
 -0.235 -1.263 4.312
 -0.21 -1.262 4.306
 -0.184 -1.262 4.307
 -0.159 -1.261 4.305
 -0.134 -1.262 4.31
 -0.108 -1.263 4.311
 -0.083 -1.261 4.307
 -0.057 -1.26 4.302
 -0.032 -1.26 4.302
 -0.007 -1.257 4.292
 0.018 -1.252 4.274
 0 0 0
 0 0 0
 0 0 0
 0 0 0
 0 0 0
 0 0 0
 0 0 0
 0 0 0
 0 0 0
 0 0 0
 0 0 0
 0 0 0
 0 0 0
 0 0 0
 0 0 0
 0 0 0
 0 0 0
 0 0 0
 0 0 0
 0 0 0
 0 0 0
 0 0 0
 0 0 0
 0 0 0
 0 0 0
 0 0 0
 0 0 0
 0 0 0
 0 0 0
 0 0 0
 0 0 0
 0 0 0
 0 0 0
 0 0 0
 0 0 0
 0.948 -1.29 4.305
 0.972 -1.288 4.292
 0.997 -1.286 4.28
 1.024 -1.288 4.281
 1.05 -1.289 4.278
 1.076 -1.289 4.274
 1.103 -1.291 4.273
 1.13 -1.292 4.272
 1.156 -1.292 4.264
 1.183 -1.293 4.262
 1.209 -1.294 4.258
 1.237 -1.296 4.257
 1.264 -1.298 4.257
 1.293 -1.3 4.259
 1.32 -1.302 4.255
 1.348 -1.303 4.254
 1.375 -1.305 4.251
 1.405 -1.308 4.254
 1.433 -1.31 4.253
 1.462 -1.313 4.252
 1.491 -1.315 4.252
 1.52 -1.318 4.252
 1.546 -1.318 4.244
 1.574 -1.319 4.239
 1.602 -1.321 4.236
 1.631 -1.323 4.234
 1.659 -1.325 4.229
 1.689 -1.327 4.227
 1.717 -1.329 4.222
 1.745 -1.329 4.215
 1.771 -1.329 4.204
 1.797 -1.33 4.195
 1.824 -1.33 4.186
 1.849 -1.329 4.172
 0 0 0
 0 0 0
 0 0 0
 0 0 0
 0 0 0
 0 0 0
 0 0 0
 0 0 0
 0 0 0
 0 0 0
 0 0 0
 0 0 0
 1.747 -1.06 3.201
 1.761 -1.056 3.178
 1.771 -1.049 3.146
 1.782 -1.044 3.119
 1.79 -1.037 3.087
 1.807 -1.035 3.069
 1.773 -1.004 2.968
 -0.106 -0.061 0.173
 -0.102 -0.059 0.168
 -0.104 -0.061 0.175
 -0.09 -0.054 0.151
 -0.073 -0.044 0.123
 -0.062 -0.038 0.103
 -0.054 -0.034 0.09
 -0.045 -0.029 0.074
 -0.038 -0.025 0.062
 -0.033 -0.022 0.053
