 0.402 -0.028 0.85
 0.405 -0.028 0.844
 0.411 -0.028 0.843
 0.418 -0.028 0.843
 0.424 -0.028 0.842
 0.429 -0.028 0.84
 0.435 -0.028 0.837
 0.44 -0.028 0.836
 0.445 -0.028 0.831
 0.448 -0.028 0.826
 0.452 -0.028 0.821
 0.455 -0.028 0.814
 0.429 -0.026 0.757
 0.433 -0.026 0.752
 -0.373 -0.015 0.668
 -0.375 -0.015 0.683
 -0.385 -0.016 0.713
 -0.391 -0.016 0.735
 -0.397 -0.017 0.756
 -0.4 -0.017 0.774
 -0.4 -0.017 0.786
 -0.396 -0.017 0.792
 -0.392 -0.017 0.796
 -0.388 -0.017 0.799
 -0.383 -0.018 0.802
 -0.379 -0.018 0.806
 -0.374 -0.018 0.809
 -0.37 -0.018 0.812
 -0.366 -0.018 0.816
 -0.362 -0.018 0.82
 -0.358 -0.018 0.825
 -0.354 -0.018 0.829
 -0.35 -0.018 0.834
 -0.346 -0.018 0.838
 -0.342 -0.018 0.844
 -0.338 -0.018 0.849
 -0.335 -0.018 0.855
 -0.331 -0.018 0.86
 -0.326 -0.019 0.864
 -0.322 -0.019 0.867
 -0.316 -0.019 0.869
 -0.311 -0.019 0.87
 -0.305 -0.019 0.87
 -0.3 -0.019 0.871
 -0.294 -0.019 0.871
 -0.289 -0.019 0.871
 -0.283 -0.019 0.872
 -0.278 -0.019 0.874
 -0.273 -0.019 0.876
 -0.268 -0.019 0.879
 -0.264 -0.019 0.885
 -0.261 -0.019 0.893
 -0.258 -0.019 0.902
 -0.256 -0.02 0.917
 -0.257 -0.02 0.942
 -0.259 -0.021 0.971
 -0.259 -0.021 0.993
 -0.257 -0.021 1.009
 -0.255 -0.022 1.027
 -0.251 -0.022 1.037
 -0.243 -0.022 1.032
 -0.235 -0.022 1.025
 -0.228 -0.022 1.02
 -0.217 -0.021 0.996
 -0.205 -0.021 0.967
 -0.195 -0.02 0.949
 -0.186 -0.02 0.931
 -0.177 -0.02 0.912
 -0.172 -0.02 0.914
 -0.167 -0.02 0.918
 -0.162 -0.02 0.921
 -0.158 -0.02 0.929
 -0.153 -0.02 0.934
 -0.148 -0.02 0.939
 -0.144 -0.02 0.949
 -0.14 -0.021 0.96
 -0.144 -0.022 1.029
 -0.159 -0.025 1.191
 -0.172 -0.028 1.347
 -0.179 -0.03 1.469
 -0.178 -0.032 1.539
 -0.175 -0.033 1.59
 -0.168 -0.033 1.614
 -0.158 -0.033 1.609
 -0.147 -0.033 1.591
 -0.136 -0.032 1.564
 -0.123 -0.032 1.524
 -0.111 -0.031 1.47
 -0.098 -0.029 1.408
 -0.085 -0.028 1.339
 -0.073 -0.027 1.262
 -0.062 -0.025 1.182
 -0.052 -0.024 1.102
 -0.042 -0.022 1.027
 -0.034 -0.021 0.969
 -0.028 -0.02 0.933
 -0.022 -0.02 0.918
 -0.017 -0.02 0.92
 -0.012 -0.021 0.931
 -0.006 -0.021 0.938
 -0.001 -0.021 0.936
 0.004 -0.021 0.928
 0.009 -0.02 0.917
 0.014 -0.02 0.907
 0.019 -0.02 0.898
 0.024 -0.02 0.899
 0.03 -0.021 0.927
 0.038 -0.022 0.982
 0.047 -0.023 1.065
 0.059 -0.026 1.178
 0.074 -0.028 1.312
 0.089 -0.031 1.44
 0.105 -0.033 1.542
 0.119 -0.035 1.615
 0.131 -0.035 1.654
 0.141 -0.036 1.658
 0.148 -0.035 1.628
 0.154 -0.034 1.596
 0.162 -0.034 1.581
 0.17 -0.034 1.568
 0.178 -0.034 1.561
 0.188 -0.034 1.566
 0.197 -0.034 1.569
 0.205 -0.034 1.554
 0.212 -0.034 1.539
 0.218 -0.033 1.523
 0.225 -0.033 1.509
 0.232 -0.033 1.499
 0.239 -0.033 1.487
 0.246 -0.033 1.472
 0.252 -0.032 1.457
 0.258 -0.032 1.441
 0.262 -0.032 1.419
 0.267 -0.031 1.402
 0.273 -0.031 1.387
 0.278 -0.031 1.371
 0.284 -0.031 1.362
 0.292 -0.031 1.359
 0.298 -0.031 1.351
 0.302 -0.03 1.33
 0.308 -0.03 1.325
 0.316 -0.03 1.321
 0.321 -0.03 1.309
 0.328 -0.03 1.308
 0.34 -0.03 1.321
 0.349 -0.031 1.323
 0.357 -0.031 1.324
 0.367 -0.031 1.332
 0.374 -0.031 1.326
 0.38 -0.031 1.318
 0.386 -0.031 1.31
 0.391 -0.031 1.299
 0.398 -0.031 1.295
 0.404 -0.03 1.287
 0.409 -0.03 1.278
 0.407 -0.03 1.245
 0.405 -0.029 1.216
 0.402 -0.028 1.184
 0.4 -0.028 1.153
 0.401 -0.028 1.134
 0.405 -0.027 1.125
 0.41 -0.027 1.119
 0.415 -0.027 1.112
 0 0 0
 0 0 0
 0 0 0
 0 0 0
 0.423 -0.026 1.037
 0.431 -0.026 1.038
 0.435 -0.026 1.032
 0.43 -0.025 1.003
 0.427 -0.025 0.979
 0.423 -0.024 0.954
 0.416 -0.024 0.924
 0.412 -0.023 0.9
 0.411 -0.023 0.882
 0.41 -0.023 0.867
 0.411 -0.023 0.855
 0.413 -0.022 0.847
 0.416 -0.022 0.84
 0.421 -0.022 0.836
 0.424 -0.022 0.83
 0.428 -0.022 0.825
 0.432 -0.022 0.82
 0.435 -0.022 0.814
 0.438 -0.022 0.808
 0.441 -0.022 0.8
 0.443 -0.022 0.793
 0.438 -0.021 0.772
 0.441 -0.021 0.766
 -0.375 -0.011 0.672
 -0.375 -0.011 0.683
 -0.388 -0.011 0.717
 -0.394 -0.012 0.74
 -0.399 -0.012 0.761
 -0.402 -0.012 0.779
 -0.401 -0.012 0.789
 -0.397 -0.012 0.793
 -0.393 -0.012 0.797
 -0.388 -0.012 0.8
 -0.384 -0.012 0.803
 -0.379 -0.013 0.807
 -0.375 -0.013 0.81
 -0.371 -0.013 0.814
 -0.366 -0.013 0.818
 -0.362 -0.013 0.822
 -0.358 -0.013 0.826
 -0.354 -0.013 0.83
 -0.35 -0.013 0.834
 -0.346 -0.013 0.839
 -0.342 -0.013 0.843
 -0.338 -0.013 0.848
 -0.334 -0.013 0.852
 -0.329 -0.013 0.856
 -0.324 -0.013 0.859
 -0.319 -0.013 0.861
 -0.314 -0.013 0.861
 -0.308 -0.013 0.862
 -0.302 -0.013 0.862
 -0.297 -0.013 0.863
 -0.291 -0.013 0.863
 -0.286 -0.013 0.864
 -0.281 -0.013 0.865
 -0.275 -0.013 0.866
 -0.27 -0.013 0.867
 -0.265 -0.013 0.869
 -0.26 -0.013 0.871
 -0.255 -0.013 0.872
 -0.25 -0.014 0.873
 -0.245 -0.014 0.876
 -0.241 -0.014 0.88
 -0.237 -0.014 0.887
 -0.233 -0.014 0.893
 -0.229 -0.014 0.898
 -0.225 -0.014 0.907
 -0.222 -0.014 0.917
 -0.217 -0.014 0.921
 -0.213 -0.014 0.925
 -0.208 -0.014 0.927
 -0.201 -0.014 0.921
 -0.193 -0.014 0.913
 -0.187 -0.014 0.91
 -0.18 -0.014 0.902
 -0.174 -0.014 0.898
 -0.169 -0.014 0.899
 -0.164 -0.014 0.901
 -0.159 -0.014 0.902
 -0.154 -0.014 0.909
 -0.15 -0.014 0.912
 -0.145 -0.014 0.917
 -0.141 -0.015 0.926
 -0.137 -0.015 0.936
 -0.139 -0.015 0.99
 -0.149 -0.017 1.113
 -0.159 -0.019 1.244
 -0.166 -0.02 1.361
 -0.167 -0.022 1.442
 -0.165 -0.022 1.498
 -0.157 -0.022 1.508
 -0.147 -0.022 1.492
 -0.135 -0.022 1.461
 -0.123 -0.021 1.422
 -0.111 -0.021 1.372
 -0.099 -0.02 1.313
 -0.087 -0.019 1.246
 -0.075 -0.018 1.173
 -0.064 -0.017 1.093
 -0.053 -0.016 1.012
 -0.044 -0.015 0.941
 -0.037 -0.014 0.885
 -0.03 -0.014 0.846
 -0.025 -0.014 0.823
 -0.02 -0.013 0.815
 -0.015 -0.013 0.815
 -0.01 -0.014 0.816
 -0.006 -0.014 0.817
 -0.001 -0.014 0.818
 0.003 -0.014 0.819
 0.008 -0.014 0.82
 0.012 -0.014 0.819
 0.017 -0.014 0.818
 0.022 -0.014 0.817
 0.027 -0.014 0.828
 0.033 -0.014 0.864
 0.041 -0.015 0.926
 0.051 -0.017 1.018
 0.064 -0.018 1.138
 0.08 -0.021 1.287
 0.097 -0.023 1.423
 0.112 -0.024 1.524
 0.125 -0.025 1.579
 0.136 -0.025 1.593
 0.141 -0.025 1.552
 0.145 -0.024 1.5
 0.153 -0.024 1.489
 0.162 -0.024 1.496
 0.173 -0.024 1.513
 0.185 -0.025 1.541
 0.197 -0.025 1.565
 0.205 -0.025 1.554
 0.212 -0.025 1.539
 0.218 -0.025 1.524
 0.225 -0.024 1.509
 0.232 -0.024 1.496
 0.238 -0.024 1.481
 0.245 -0.024 1.466
 0.25 -0.024 1.448
 0.256 -0.024 1.43
 0.26 -0.023 1.41
 0.266 -0.023 1.394
 0.272 -0.023 1.383
 0.278 -0.023 1.372
 0.285 -0.023 1.364
 0.292 -0.023 1.36
 0.298 -0.023 1.352
 0.303 -0.023 1.338
 0.31 -0.023 1.331
 0.316 -0.023 1.324
 0.321 -0.022 1.312
 0.329 -0.022 1.31
 0.338 -0.023 1.313
 0.346 -0.023 1.313
 0.354 -0.023 1.312
 0.362 -0.023 1.313
 0.368 -0.023 1.303
 0.374 -0.023 1.295
 0.379 -0.023 1.285
 0.384 -0.022 1.274
 0.391 -0.022 1.27
 0.396 -0.022 1.262
 0.401 -0.022 1.252
 0.404 -0.022 1.237
 0.408 -0.022 1.223
 0.409 -0.022 1.204
 0.411 -0.021 1.185
 0.412 -0.021 1.168
 0.416 -0.021 1.157
 0.421 -0.021 1.15
 0.424 -0.021 1.136
 0 0 0
 0 0 0
 0 0 0
 0.4 -0.019 0.999
 0.414 -0.019 1.017
 0.423 -0.019 1.02
 0.428 -0.019 1.016
 0.429 -0.019 1.001
 0.431 -0.019 0.988
 0.427 -0.019 0.964
 0.424 -0.018 0.941
 0.421 -0.018 0.92
 0.42 -0.018 0.902
 0.419 -0.018 0.885
 0.418 -0.017 0.871
 0.419 -0.017 0.858
 0.419 -0.017 0.846
 0.421 -0.017 0.837
 0.423 -0.017 0.827
 0.425 -0.017 0.819
 0.427 -0.017 0.811
 0.43 -0.017 0.804
 0.433 -0.017 0.797
 0.435 -0.017 0.79
 0.438 -0.017 0.783
 0.444 -0.017 0.783
 0.445 -0.017 0.773
 -0.377 -0.006 0.676
 -0.374 -0.007 0.682
 -0.39 -0.007 0.722
 -0.396 -0.007 0.745
 -0.402 -0.007 0.767
 -0.405 -0.007 0.784
 -0.403 -0.007 0.793
 -0.399 -0.007 0.797
 -0.394 -0.007 0.8
 -0.39 -0.007 0.803
 -0.385 -0.007 0.806
 -0.38 -0.007 0.809
 -0.376 -0.007 0.813
 -0.371 -0.008 0.816
 -0.367 -0.008 0.82
 -0.363 -0.008 0.824
 -0.359 -0.008 0.828
 -0.354 -0.008 0.831
 -0.35 -0.008 0.835
 -0.346 -0.008 0.839
 -0.342 -0.008 0.843
 -0.337 -0.008 0.847
 -0.333 -0.008 0.85
 -0.328 -0.008 0.854
 -0.323 -0.008 0.855
 -0.317 -0.008 0.856
 -0.312 -0.008 0.856
 -0.306 -0.008 0.856
 -0.3 -0.008 0.856
 -0.295 -0.008 0.857
 -0.29 -0.008 0.858
 -0.284 -0.008 0.859
 -0.279 -0.008 0.86
 -0.274 -0.008 0.861
 -0.269 -0.008 0.862
 -0.264 -0.008 0.864
 -0.258 -0.008 0.864
 -0.253 -0.008 0.864
 -0.247 -0.008 0.865
 -0.242 -0.008 0.866
 -0.237 -0.008 0.866
 -0.232 -0.008 0.867
 -0.227 -0.008 0.868
 -0.221 -0.008 0.869
 -0.216 -0.008 0.869
 -0.211 -0.008 0.872
 -0.207 -0.008 0.874
 -0.201 -0.008 0.874
 -0.196 -0.008 0.873
 -0.19 -0.008 0.871
 -0.184 -0.008 0.869
 -0.179 -0.008 0.868
 -0.174 -0.009 0.869
 -0.169 -0.009 0.872
 -0.165 -0.009 0.877
 -0.16 -0.009 0.883
 -0.156 -0.009 0.889
 -0.152 -0.009 0.894
 -0.147 -0.009 0.897
 -0.142 -0.009 0.901
 -0.138 -0.009 0.909
 -0.134 -0.009 0.917
 -0.134 -0.009 0.96
 -0.14 -0.01 1.044
 -0.146 -0.011 1.14
 -0.15 -0.012 1.233
 -0.151 -0.012 1.306
 -0.149 -0.013 1.356
 -0.142 -0.013 1.359
 -0.132 -0.013 1.341
 -0.121 -0.012 1.308
 -0.11 -0.012 1.266
 -0.098 -0.012 1.212
 -0.087 -0.011 1.15
 -0.075 -0.011 1.079
 -0.065 -0.01 1.006
 -0.055 -0.01 0.936
 -0.047 -0.009 0.88
 -0.04 -0.009 0.841
 -0.034 -0.009 0.819
 -0.029 -0.009 0.811
 -0.024 -0.009 0.809
 -0.02 -0.009 0.81
 -0.015 -0.009 0.811
 -0.01 -0.009 0.814
 -0.006 -0.009 0.817
 -0.001 -0.009 0.822
 0.003 -0.009 0.826
 0.008 -0.009 0.828
 0.013 -0.009 0.827
 0.017 -0.009 0.824
 0.022 -0.009 0.818
 0.026 -0.009 0.815
 0.031 -0.009 0.818
 0.037 -0.009 0.844
 0.045 -0.01 0.902
 0.055 -0.011 0.988
 0.069 -0.012 1.12
 0.086 -0.013 1.274
 0.102 -0.014 1.39
 0.116 -0.015 1.457
 0.126 -0.015 1.483
 0.132 -0.015 1.449
 0.134 -0.014 1.388
 0.143 -0.014 1.395
 0.154 -0.015 1.426
 0.168 -0.015 1.467
 0.182 -0.016 1.519
 0.197 -0.016 1.566
 0.206 -0.016 1.561
 0.213 -0.016 1.546
 0.219 -0.016 1.531
 0.226 -0.016 1.514
 0.233 -0.016 1.5
 0.239 -0.016 1.485
 0.245 -0.015 1.469
 0.251 -0.015 1.453
 0.257 -0.015 1.435
 0.261 -0.015 1.416
 0.267 -0.015 1.4
 0.273 -0.015 1.389
 0.279 -0.015 1.378
 0.286 -0.015 1.37
 0.293 -0.015 1.364
 0.299 -0.015 1.356
 0.305 -0.015 1.345
 0.311 -0.015 1.336
 0.317 -0.015 1.327
 0.322 -0.015 1.315
 0.33 -0.015 1.312
 0.337 -0.015 1.31
 0.345 -0.015 1.309
 0.352 -0.015 1.306
 0.36 -0.015 1.303
 0.365 -0.015 1.292
 0.37 -0.015 1.281
 0.373 -0.015 1.266
 0.377 -0.015 1.253
 0.383 -0.015 1.246
 0.388 -0.015 1.235
 0.392 -0.014 1.222
 0.395 -0.014 1.207
 0.398 -0.014 1.193
 0.399 -0.014 1.173
 0.401 -0.014 1.158
 0.404 -0.014 1.143
 0.409 -0.014 1.135
 0.413 -0.014 1.128
 0.418 -0.014 1.12
 0.424 -0.014 1.117
 0 0 0
 0 0 0
 0.392 -0.013 0.979
 0.409 -0.013 1.002
 0.418 -0.013 1.009
 0.424 -0.013 1.006
 0.428 -0.013 0.998
 0.433 -0.013 0.993
 0.432 -0.013 0.975
 0.43 -0.013 0.955
 0.428 -0.013 0.935
 0.427 -0.012 0.917
 0.426 -0.012 0.901
 0.425 -0.012 0.885
 0.425 -0.012 0.871
 0.425 -0.012 0.857
 0.426 -0.012 0.846
 0.427 -0.012 0.835
 0.428 -0.012 0.826
 0.43 -0.012 0.817
 0.433 -0.012 0.809
 0.435 -0.012 0.802
 0.438 -0.012 0.795
 0.441 -0.012 0.788
 0.444 -0.012 0.782
 0.447 -0.012 0.777
 -0.379 -0.002 0.681
 -0.378 -0.002 0.689
 -0.393 -0.002 0.728
 -0.399 -0.002 0.751
 -0.405 -0.002 0.772
 -0.407 -0.002 0.789
 -0.404 -0.002 0.796
 -0.4 -0.002 0.799
 -0.396 -0.002 0.803
 -0.391 -0.002 0.806
 -0.386 -0.002 0.809
 -0.382 -0.002 0.812
 -0.377 -0.002 0.815
 -0.373 -0.002 0.818
 -0.368 -0.002 0.822
 -0.364 -0.002 0.826
 -0.359 -0.003 0.829
 -0.355 -0.003 0.832
 -0.35 -0.003 0.835
 -0.346 -0.003 0.839
 -0.341 -0.003 0.843
 -0.337 -0.003 0.846
 -0.332 -0.003 0.849
 -0.327 -0.003 0.851
 -0.322 -0.003 0.852
 -0.316 -0.003 0.851
 -0.31 -0.003 0.851
 -0.304 -0.003 0.851
 -0.299 -0.003 0.851
 -0.293 -0.003 0.852
 -0.288 -0.003 0.854
 -0.283 -0.003 0.855
 -0.278 -0.003 0.857
 -0.273 -0.003 0.858
 -0.268 -0.003 0.859
 -0.262 -0.003 0.86
 -0.257 -0.003 0.859
 -0.251 -0.003 0.859
 -0.246 -0.003 0.859
 -0.24 -0.003 0.859
 -0.235 -0.003 0.859
 -0.23 -0.003 0.86
 -0.225 -0.003 0.861
 -0.219 -0.003 0.86
 -0.214 -0.003 0.86
 -0.208 -0.003 0.859
 -0.203 -0.003 0.858
 -0.197 -0.003 0.856
 -0.191 -0.003 0.854
 -0.186 -0.003 0.853
 -0.181 -0.003 0.852
 -0.175 -0.003 0.852
 -0.17 -0.003 0.852
 -0.165 -0.003 0.852
 -0.16 -0.003 0.853
 -0.155 -0.003 0.854
 -0.151 -0.003 0.856
 -0.146 -0.004 0.858
 -0.141 -0.004 0.859
 -0.136 -0.004 0.863
 -0.132 -0.004 0.871
 -0.129 -0.004 0.885
 -0.129 -0.004 0.918
 -0.131 -0.004 0.979
 -0.134 -0.004 1.047
 -0.136 -0.004 1.113
 -0.136 -0.004 1.172
 -0.133 -0.004 1.206
 -0.126 -0.004 1.204
 -0.117 -0.004 1.184
 -0.107 -0.004 1.149
 -0.096 -0.004 1.103
 -0.085 -0.004 1.047
 -0.075 -0.004 0.986
 -0.065 -0.004 0.928
 -0.057 -0.004 0.88
 -0.049 -0.004 0.841
 -0.043 -0.004 0.818
 -0.038 -0.004 0.81
 -0.033 -0.004 0.808
 -0.029 -0.004 0.809
 -0.024 -0.004 0.811
 -0.02 -0.004 0.813
 -0.015 -0.004 0.817
 -0.01 -0.004 0.823
 -0.006 -0.004 0.837
 -0.001 -0.004 0.867
 0.003 -0.004 0.892
 0.009 -0.004 0.902
 0.014 -0.004 0.899
 0.019 -0.004 0.885
 0.023 -0.004 0.854
 0.027 -0.004 0.826
 0.031 -0.004 0.813
 0.036 -0.004 0.812
 0.042 -0.004 0.833
 0.049 -0.005 0.884
 0.061 -0.005 0.983
 0.076 -0.005 1.119
 0.091 -0.006 1.238
 0.105 -0.006 1.318
 0.116 -0.006 1.357
 0.121 -0.006 1.333
 0.124 -0.006 1.281
 0.134 -0.006 1.309
 0.148 -0.006 1.364
 0.163 -0.006 1.431
 0.181 -0.007 1.51
 0.198 -0.007 1.576
 0.207 -0.007 1.575
 0.215 -0.007 1.56
 0.222 -0.007 1.545
 0.228 -0.007 1.529
 0.235 -0.007 1.513
 0.241 -0.007 1.497
 0.247 -0.007 1.48
 0.253 -0.007 1.463
 0.259 -0.007 1.448
 0.264 -0.007 1.431
 0.27 -0.007 1.416
 0.276 -0.007 1.404
 0.282 -0.007 1.394
 0.289 -0.007 1.385
 0.296 -0.007 1.377
 0.302 -0.007 1.368
 0.308 -0.007 1.358
 0.313 -0.007 1.345
 0.318 -0.007 1.331
 0.324 -0.007 1.32
 0.33 -0.007 1.313
 0.337 -0.007 1.309
 0.344 -0.007 1.307
 0.352 -0.007 1.305
 0.359 -0.007 1.3
 0.364 -0.007 1.29
 0.368 -0.007 1.275
 0.37 -0.007 1.254
 0.371 -0.007 1.231
 0.371 -0.007 1.207
 0.371 -0.007 1.181
 0.371 -0.007 1.156
 0.371 -0.007 1.134
 0.371 -0.007 1.111
 0.37 -0.007 1.088
 0.372 -0.007 1.072
 0.379 -0.007 1.071
 0.384 -0.007 1.067
 0.391 -0.007 1.067
 0.402 -0.007 1.078
 0.424 -0.007 1.117
 0 0 0
 0 0 0
 0.369 -0.006 0.919
 0.389 -0.007 0.954
 0.401 -0.007 0.966
 0.408 -0.007 0.967
 0.414 -0.007 0.966
 0.425 -0.007 0.974
 0.428 -0.007 0.966
 0.43 -0.007 0.955
 0.432 -0.007 0.943
 0.432 -0.007 0.929
 0.432 -0.007 0.915
 0.432 -0.007 0.899
 0.431 -0.007 0.883
 0.43 -0.007 0.868
 0.43 -0.007 0.855
 0.431 -0.007 0.843
 0.431 -0.006 0.832
 0.433 -0.006 0.822
 0.435 -0.006 0.813
 0.437 -0.006 0.805
 0.439 -0.006 0.797
 0.442 -0.006 0.79
 0.444 -0.006 0.783
 0.447 -0.006 0.776
 -0.377 0.001 0.677
 -0.377 0.001 0.688
 -0.396 0.002 0.732
 -0.402 0.002 0.756
 -0.407 0.002 0.778
 -0.409 0.002 0.794
 -0.406 0.002 0.799
 -0.402 0.002 0.803
 -0.397 0.002 0.806
 -0.392 0.002 0.809
 -0.387 0.002 0.812
 -0.383 0.002 0.815
 -0.378 0.002 0.817
 -0.373 0.002 0.82
 -0.369 0.002 0.823
 -0.364 0.002 0.827
 -0.359 0.002 0.829
 -0.355 0.002 0.832
 -0.35 0.002 0.836
 -0.346 0.002 0.839
 -0.341 0.002 0.842
 -0.336 0.002 0.845
 -0.331 0.002 0.847
 -0.326 0.001 0.848
 -0.32 0.001 0.848
 -0.314 0.001 0.848
 -0.309 0.001 0.847
 -0.303 0.001 0.847
 -0.298 0.001 0.849
 -0.293 0.001 0.85
 -0.288 0.001 0.852
 -0.283 0.001 0.853
 -0.278 0.001 0.855
 -0.272 0.001 0.856
 -0.267 0.001 0.857
 -0.261 0.001 0.856
 -0.256 0.001 0.856
 -0.25 0.001 0.855
 -0.244 0.001 0.855
 -0.239 0.001 0.854
 -0.234 0.001 0.855
 -0.229 0.001 0.856
 -0.223 0.001 0.856
 -0.218 0.001 0.855
 -0.212 0.001 0.854
 -0.206 0.001 0.852
 -0.201 0.001 0.85
 -0.195 0.001 0.848
 -0.19 0.001 0.847
 -0.185 0.001 0.846
 -0.179 0.001 0.845
 -0.174 0.001 0.844
 -0.169 0.001 0.843
 -0.163 0.001 0.842
 -0.158 0.001 0.842
 -0.153 0 0.841
 -0.148 0 0.841
 -0.143 0 0.841
 -0.138 0 0.842
 -0.134 0 0.845
 -0.129 0 0.85
 -0.126 0 0.859
 -0.123 0 0.879
 -0.123 0.001 0.915
 -0.122 0.001 0.955
 -0.122 0.001 0.995
 -0.12 0.001 1.031
 -0.116 0.001 1.05
 -0.109 0.001 1.044
 -0.101 0.001 1.021
 -0.092 0.001 0.986
 -0.082 0 0.943
 -0.074 0 0.9
 -0.066 0 0.865
 -0.059 0 0.839
 -0.053 0 0.822
 -0.048 0 0.813
 -0.043 0 0.808
 -0.038 0 0.807
 -0.033 0 0.808
 -0.029 0 0.811
 -0.024 0 0.815
 -0.02 0 0.82
 -0.015 0 0.83
 -0.011 0 0.861
 -0.006 0 0.906
 -0.001 0 0.967
 0.004 0 1.024
 0.01 0 1.056
 0.016 0 1.032
 0.021 0 0.988
 0.025 0 0.924
 0.028 0 0.862
 0.031 0 0.817
 0.036 0 0.809
 0.04 0 0.808
 0.046 0 0.823
 0.055 0 0.887
 0.067 0 0.993
 0.081 0 1.1
 0.094 0 1.186
 0.106 0.001 1.242
 0.113 0 1.239
 0.117 0 1.208
 0.128 0 1.247
 0.143 0.001 1.316
 0.16 0.001 1.397
 0.179 0.001 1.491
 0.198 0.001 1.569
 0.207 0.001 1.571
 0.214 0.001 1.558
 0.222 0.001 1.545
 0.228 0.001 1.53
 0.235 0.001 1.513
 0.241 0.001 1.496
 0.247 0.001 1.48
 0.253 0.001 1.464
 0.259 0 1.448
 0.264 0 1.432
 0.271 0 1.419
 0.277 0 1.407
 0.283 0 1.397
 0.29 0 1.388
 0.296 0 1.38
 0.302 0 1.369
 0.308 0 1.357
 0.313 0 1.343
 0.318 0 1.329
 0.323 0 1.318
 0.329 0 1.311
 0.337 0 1.309
 0.345 0 1.311
 0.354 0 1.313
 0.362 0 1.311
 0.367 0 1.299
 0.368 0 1.274
 0.367 0 1.244
 0.365 0 1.211
 0.355 0 1.153
 0.346 0 1.102
 0.337 0 1.051
 0.331 0 1.01
 0.325 0 0.974
 0.325 0 0.955
 0.328 0 0.944
 0.332 0 0.939
 0.331 -0.001 0.918
 0.325 -0.001 0.884
 0.311 -0.001 0.832
 0.277 -0.001 0.726
 0.2 -0.001 0.514
 0.203 -0.001 0.512
 0.274 -0.001 0.681
 0.319 -0.001 0.782
 0.352 -0.001 0.847
 0.375 -0.001 0.889
 0.393 -0.001 0.915
 0.412 -0.001 0.944
 0.422 -0.001 0.951
 0.429 -0.001 0.951
 0.432 -0.001 0.945
 0.435 -0.001 0.935
 0.436 -0.001 0.922
 0.436 -0.001 0.908
 0.435 -0.001 0.892
 0.434 -0.001 0.876
 0.434 -0.001 0.862
 0.433 -0.001 0.848
 0.434 -0.001 0.836
 0.434 -0.001 0.825
 0.436 -0.001 0.815
 0.438 -0.001 0.806
 0.44 -0.001 0.799
 0.442 -0.001 0.791
 0.445 -0.001 0.784
 0.448 -0.001 0.777
 -0.377 0.006 0.677
 -0.384 0.006 0.7
 -0.396 0.006 0.733
 -0.403 0.007 0.757
 -0.408 0.007 0.779
 -0.41 0.007 0.796
 -0.408 0.007 0.802
 -0.403 0.007 0.806
 -0.399 0.007 0.809
 -0.394 0.007 0.812
 -0.389 0.007 0.814
 -0.384 0.007 0.817
 -0.379 0.007 0.819
 -0.374 0.007 0.822
 -0.369 0.007 0.824
 -0.365 0.007 0.828
 -0.36 0.007 0.83
 -0.355 0.007 0.833
 -0.35 0.007 0.836
 -0.346 0.007 0.839
 -0.341 0.007 0.842
 -0.336 0.007 0.844
 -0.331 0.007 0.845
 -0.325 0.007 0.845
 -0.319 0.007 0.846
 -0.314 0.007 0.846
 -0.308 0.007 0.846
 -0.303 0.006 0.847
 -0.297 0.006 0.848
 -0.292 0.006 0.849
 -0.287 0.006 0.851
 -0.282 0.006 0.852
 -0.277 0.006 0.853
 -0.272 0.006 0.854
 -0.266 0.006 0.854
 -0.26 0.006 0.853
 -0.255 0.006 0.852
 -0.249 0.006 0.852
 -0.243 0.006 0.851
 -0.238 0.006 0.851
 -0.233 0.006 0.852
 -0.228 0.006 0.853
 -0.222 0.006 0.852
 -0.217 0.006 0.851
 -0.211 0.006 0.849
 -0.205 0.006 0.847
 -0.2 0.006 0.845
 -0.194 0.006 0.843
 -0.189 0.006 0.842
 -0.183 0.006 0.841
 -0.178 0.006 0.84
 -0.173 0.006 0.838
 -0.167 0.005 0.837
 -0.162 0.005 0.836
 -0.157 0.005 0.835
 -0.152 0.005 0.834
 -0.147 0.005 0.834
 -0.142 0.005 0.834
 -0.137 0.005 0.835
 -0.132 0.005 0.837
 -0.128 0.005 0.84
 -0.123 0.005 0.843
 -0.119 0.005 0.846
 -0.115 0.005 0.853
 -0.111 0.005 0.865
 -0.107 0.005 0.877
 -0.104 0.006 0.888
 -0.099 0.006 0.893
 -0.093 0.005 0.888
 -0.087 0.005 0.876
 -0.08 0.005 0.861
 -0.074 0.005 0.844
 -0.068 0.005 0.831
 -0.063 0.005 0.823
 -0.057 0.005 0.816
 -0.052 0.005 0.811
 -0.047 0.005 0.807
 -0.043 0.004 0.806
 -0.038 0.004 0.807
 -0.034 0.004 0.811
 -0.029 0.004 0.816
 -0.024 0.005 0.822
 -0.02 0.005 0.836
 -0.016 0.005 0.869
 -0.011 0.005 0.929
 -0.006 0.006 1.006
 -0.001 0.007 1.098
 0.005 0.008 1.178
 0.012 0.008 1.217
 0.019 0.008 1.181
 0.024 0.007 1.107
 0.027 0.006 1.011
 0.03 0.005 0.917
 0.032 0.004 0.84
 0.036 0.004 0.812
 0.04 0.004 0.805
 0.045 0.004 0.803
 0.051 0.004 0.834
 0.061 0.005 0.907
 0.074 0.006 1.005
 0.086 0.006 1.09
 0.099 0.007 1.168
 0.11 0.007 1.21
 0.119 0.007 1.226
 0.13 0.008 1.271
 0.145 0.008 1.342
 0.162 0.009 1.414
 0.179 0.01 1.493
 0.196 0.01 1.557
 0.205 0.01 1.559
 0.213 0.01 1.546
 0.22 0.01 1.532
 0.227 0.01 1.519
 0.233 0.009 1.5
 0.239 0.009 1.481
 0.245 0.009 1.466
 0.25 0.009 1.444
 0.254 0.009 1.422
 0.26 0.009 1.407
 0.265 0.008 1.39
 0.27 0.008 1.373
 0.276 0.008 1.363
 0.283 0.008 1.354
 0.288 0.008 1.342
 0.295 0.008 1.334
 0.3 0.008 1.321
 0.306 0.008 1.315
 0.314 0.008 1.315
 0.323 0.008 1.318
 0.334 0.008 1.329
 0.347 0.008 1.347
 0.357 0.008 1.354
 0.364 0.008 1.351
 0.371 0.008 1.342
 0.365 0.007 1.291
 0.353 0.007 1.223
 0.339 0.006 1.149
 0.325 0.005 1.077
 0.306 0.005 0.993
 0.298 0.004 0.946
 0.287 0.004 0.896
 0.282 0.004 0.861
 0.278 0.003 0.831
 0.278 0.003 0.815
 0.279 0.003 0.803
 0.28 0.003 0.79
 0.274 0.003 0.76
 0.262 0.002 0.712
 0.242 0.002 0.646
 0.212 0.001 0.554
 0.176 0 0.452
 0.181 0 0.455
 0.222 0.001 0.55
 0.26 0.002 0.636
 0.295 0.002 0.709
 0.323 0.003 0.764
 0.346 0.003 0.805
 0.368 0.003 0.843
 0.387 0.004 0.872
 0.403 0.004 0.893
 0.416 0.004 0.909
 0.428 0.004 0.919
 0.435 0.004 0.921
 0.438 0.004 0.912
 0.438 0.004 0.899
 0.438 0.004 0.884
 0.437 0.003 0.869
 0.437 0.003 0.855
 0.436 0.003 0.841
 0.437 0.003 0.829
 0.437 0.003 0.818
 0.439 0.003 0.808
 0.441 0.003 0.8
 0.443 0.003 0.792
 0.447 0.003 0.787
 0.447 0.003 0.776
 -0.376 0.01 0.674
 -0.381 0.01 0.695
 -0.392 0.011 0.725
 -0.399 0.011 0.749
 -0.404 0.012 0.771
 -0.407 0.012 0.789
 -0.407 0.012 0.801
 -0.404 0.012 0.808
 -0.399 0.012 0.811
 -0.394 0.012 0.813
 -0.389 0.012 0.816
 -0.384 0.012 0.818
 -0.379 0.012 0.82
 -0.374 0.012 0.823
 -0.369 0.012 0.825
 -0.365 0.012 0.828
 -0.36 0.012 0.83
 -0.355 0.012 0.833
 -0.35 0.012 0.836
 -0.345 0.012 0.838
 -0.34 0.012 0.84
 -0.335 0.012 0.842
 -0.33 0.012 0.844
 -0.325 0.012 0.844
 -0.319 0.012 0.846
 -0.314 0.012 0.846
 -0.308 0.012 0.846
 -0.303 0.012 0.847
 -0.297 0.012 0.848
 -0.292 0.012 0.849
 -0.287 0.012 0.851
 -0.282 0.012 0.852
 -0.277 0.011 0.852
 -0.271 0.011 0.852
 -0.265 0.011 0.852
 -0.26 0.011 0.851
 -0.254 0.011 0.85
 -0.248 0.011 0.849
 -0.243 0.011 0.849
 -0.238 0.011 0.85
 -0.232 0.011 0.85
 -0.227 0.011 0.85
 -0.221 0.011 0.849
 -0.216 0.011 0.847
 -0.21 0.011 0.845
 -0.204 0.011 0.843
 -0.199 0.011 0.841
 -0.193 0.011 0.84
 -0.188 0.011 0.838
 -0.182 0.01 0.837
 -0.177 0.01 0.835
 -0.172 0.01 0.834
 -0.166 0.01 0.833
 -0.161 0.01 0.831
 -0.156 0.01 0.83
 -0.151 0.01 0.829
 -0.146 0.01 0.83
 -0.141 0.01 0.831
 -0.136 0.01 0.832
 -0.132 0.01 0.833
 -0.127 0.01 0.835
 -0.122 0.01 0.836
 -0.117 0.01 0.836
 -0.113 0.01 0.837
 -0.108 0.01 0.837
 -0.103 0.01 0.838
 -0.098 0.01 0.839
 -0.093 0.01 0.839
 -0.088 0.01 0.838
 -0.083 0.01 0.835
 -0.078 0.01 0.83
 -0.072 0.01 0.824
 -0.067 0.009 0.819
 -0.062 0.009 0.814
 -0.057 0.009 0.81
 -0.052 0.009 0.806
 -0.047 0.009 0.804
 -0.042 0.009 0.802
 -0.038 0.009 0.804
 -0.033 0.009 0.808
 -0.029 0.009 0.813
 -0.024 0.009 0.819
 -0.02 0.009 0.834
 -0.016 0.01 0.872
 -0.012 0.011 0.944
 -0.007 0.012 1.041
 -0.001 0.014 1.155
 0.006 0.015 1.253
 0.013 0.016 1.303
 0.02 0.016 1.267
 0.026 0.014 1.179
 0.029 0.013 1.07
 0.032 0.011 0.965
 0.034 0.01 0.874
 0.037 0.009 0.833
 0.041 0.009 0.822
 0.045 0.009 0.813
 0.05 0.009 0.817
 0.059 0.01 0.868
 0.071 0.011 0.964
 0.084 0.012 1.061
 0.098 0.014 1.155
 0.112 0.015 1.234
 0.124 0.015 1.283
 0.136 0.016 1.329
 0.149 0.017 1.378
 0.163 0.017 1.43
 0.179 0.018 1.488
 0.193 0.019 1.532
 0.202 0.019 1.533
 0.21 0.019 1.524
 0.217 0.018 1.509
 0.223 0.018 1.495
 0.23 0.018 1.479
 0.234 0.018 1.454
 0.24 0.017 1.437
 0.245 0.017 1.414
 0.249 0.017 1.39
 0.254 0.016 1.376
 0.259 0.016 1.36
 0.262 0.016 1.333
 0.268 0.016 1.323
 0.273 0.015 1.308
 0.277 0.015 1.288
 0.281 0.015 1.273
 0.288 0.015 1.269
 0.297 0.015 1.277
 0.31 0.015 1.299
 0.325 0.015 1.325
 0.341 0.016 1.357
 0.356 0.016 1.382
 0.358 0.016 1.359
 0.355 0.015 1.315
 0.349 0.014 1.263
 0.33 0.013 1.17
 0.308 0.012 1.066
 0.288 0.01 0.974
 0.269 0.009 0.891
 0.251 0.008 0.814
 0.243 0.008 0.773
 0.233 0.007 0.724
 0.23 0.007 0.702
 0.227 0.006 0.68
 0.227 0.006 0.665
 0.228 0.006 0.656
 0.227 0.006 0.639
 0.22 0.005 0.609
 0.21 0.005 0.57
 0.195 0.004 0.519
 0.177 0.003 0.461
 0.165 0.003 0.422
 0.168 0.003 0.423
 0.191 0.003 0.473
 0.217 0.004 0.53
 0.245 0.005 0.589
 0.272 0.006 0.642
 0.295 0.006 0.686
 0.317 0.007 0.724
 0.337 0.007 0.758
 0.355 0.008 0.787
 0.375 0.008 0.817
 0.394 0.009 0.846
 0.41 0.009 0.866
 0.422 0.009 0.878
 0.43 0.009 0.881
 0.434 0.009 0.875
 0.436 0.009 0.866
 0.437 0.009 0.856
 0.438 0.009 0.844
 0.439 0.008 0.832
 0.44 0.008 0.822
 0.441 0.008 0.812
 0.443 0.008 0.803
 0.445 0.008 0.795
 0.446 0.008 0.787
 0.447 0.008 0.775
 -0.379 0.015 0.681
 -0.384 0.015 0.699
 -0.387 0.015 0.715
 -0.391 0.016 0.735
 -0.395 0.016 0.754
 -0.4 0.017 0.775
 -0.402 0.017 0.79
 -0.401 0.017 0.801
 -0.398 0.017 0.808
 -0.394 0.017 0.813
 -0.389 0.017 0.815
 -0.384 0.017 0.818
 -0.379 0.017 0.821
 -0.375 0.017 0.823
 -0.37 0.017 0.826
 -0.365 0.017 0.829
 -0.36 0.017 0.831
 -0.355 0.017 0.833
 -0.35 0.017 0.836
 -0.345 0.017 0.838
 -0.34 0.017 0.84
 -0.335 0.017 0.842
 -0.33 0.017 0.843
 -0.325 0.017 0.844
 -0.319 0.017 0.846
 -0.314 0.017 0.846
 -0.308 0.017 0.846
 -0.303 0.017 0.847
 -0.297 0.017 0.848
 -0.292 0.017 0.849
 -0.287 0.017 0.85
 -0.282 0.017 0.851
 -0.276 0.017 0.851
 -0.271 0.017 0.851
 -0.265 0.016 0.85
 -0.259 0.016 0.849
 -0.253 0.016 0.848
 -0.248 0.016 0.848
 -0.243 0.016 0.848
 -0.237 0.016 0.848
 -0.232 0.016 0.848
 -0.226 0.016 0.847
 -0.221 0.016 0.846
 -0.215 0.016 0.844
 -0.209 0.016 0.842
 -0.204 0.016 0.84
 -0.198 0.016 0.838
 -0.193 0.016 0.836
 -0.187 0.015 0.835
 -0.182 0.015 0.833
 -0.176 0.015 0.832
 -0.171 0.015 0.831
 -0.166 0.015 0.83
 -0.161 0.015 0.828
 -0.156 0.015 0.828
 -0.151 0.015 0.827
 -0.146 0.015 0.829
 -0.141 0.015 0.83
 -0.136 0.015 0.831
 -0.132 0.015 0.833
 -0.127 0.015 0.834
 -0.122 0.015 0.834
 -0.117 0.015 0.834
 -0.112 0.015 0.834
 -0.107 0.015 0.833
 -0.102 0.015 0.834
 -0.097 0.015 0.833
 -0.092 0.015 0.832
 -0.087 0.015 0.83
 -0.082 0.015 0.827
 -0.077 0.014 0.823
 -0.072 0.014 0.818
 -0.067 0.014 0.814
 -0.062 0.014 0.81
 -0.057 0.014 0.806
 -0.052 0.014 0.803
 -0.047 0.014 0.8
 -0.042 0.014 0.799
 -0.038 0.014 0.8
 -0.033 0.014 0.803
 -0.029 0.014 0.807
 -0.024 0.014 0.812
 -0.02 0.014 0.826
 -0.016 0.015 0.862
 -0.011 0.016 0.932
 -0.007 0.018 1.029
 -0.001 0.021 1.144
 0.006 0.023 1.25
 0.014 0.024 1.307
 0.021 0.023 1.277
 0.026 0.021 1.195
 0.03 0.019 1.091
 0.032 0.017 0.984
 0.034 0.015 0.891
 0.038 0.014 0.851
 0.042 0.014 0.842
 0.047 0.014 0.836
 0.052 0.014 0.841
 0.06 0.015 0.884
 0.072 0.017 0.987
 0.087 0.019 1.091
 0.101 0.021 1.191
 0.117 0.023 1.281
 0.131 0.024 1.348
 0.142 0.025 1.386
 0.153 0.025 1.411
 0.165 0.026 1.443
 0.178 0.027 1.48
 0.189 0.027 1.5
 0.197 0.027 1.494
 0.205 0.027 1.489
 0.212 0.026 1.476
 0.219 0.026 1.465
 0.226 0.026 1.455
 0.231 0.026 1.43
 0.235 0.025 1.409
 0.238 0.024 1.376
 0.239 0.024 1.335
 0.242 0.023 1.308
 0.242 0.022 1.27
 0.241 0.021 1.224
 0.245 0.021 1.207
 0.251 0.021 1.204
 0.256 0.021 1.19
 0.262 0.021 1.187
 0.276 0.021 1.217
 0.293 0.022 1.258
 0.309 0.023 1.291
 0.326 0.023 1.33
 0.342 0.024 1.36
 0.349 0.024 1.357
 0.341 0.023 1.292
 0.326 0.021 1.208
 0.309 0.019 1.119
 0.283 0.017 1
 0.257 0.015 0.889
 0.234 0.013 0.793
 0.213 0.011 0.703
 0.196 0.01 0.636
 0.192 0.009 0.61
 0.182 0.008 0.565
 0.182 0.008 0.553
 0.181 0.008 0.54
 0.181 0.008 0.53
 0.181 0.007 0.519
 0.175 0.007 0.494
 0.172 0.006 0.475
 0.166 0.006 0.45
 0.159 0.005 0.422
 0.153 0.005 0.4
 0.156 0.005 0.4
 0.16 0.005 0.403
 0.171 0.005 0.424
 0.186 0.006 0.454
 0.205 0.007 0.49
 0.225 0.008 0.53
 0.243 0.008 0.563
 0.262 0.009 0.598
 0.281 0.01 0.632
 0.3 0.01 0.665
 0.322 0.011 0.701
 0.344 0.012 0.738
 0.367 0.012 0.774
 0.387 0.013 0.806
 0.404 0.014 0.828
 0.417 0.014 0.84
 0.427 0.014 0.849
 0.434 0.014 0.849
 0.437 0.014 0.841
 0.439 0.014 0.833
 0.44 0.014 0.823
 0.44 0.013 0.811
 0.442 0.013 0.801
 0.443 0.013 0.792
 0.448 0.013 0.789
 0.449 0.013 0.779
 -0.38 0.019 0.682
 -0.387 0.02 0.705
 -0.379 0.019 0.7
 -0.381 0.02 0.716
 -0.384 0.02 0.733
 -0.389 0.021 0.754
 -0.392 0.021 0.772
 -0.392 0.022 0.784
 -0.391 0.022 0.795
 -0.389 0.022 0.803
 -0.386 0.022 0.808
 -0.383 0.022 0.815
 -0.379 0.022 0.82
 -0.375 0.022 0.823
 -0.37 0.022 0.826
 -0.365 0.022 0.829
 -0.36 0.022 0.831
 -0.355 0.022 0.834
 -0.35 0.022 0.836
 -0.346 0.022 0.839
 -0.341 0.022 0.841
 -0.336 0.022 0.843
 -0.331 0.022 0.845
 -0.325 0.022 0.846
 -0.32 0.022 0.847
 -0.314 0.022 0.846
 -0.308 0.022 0.847
 -0.303 0.022 0.847
 -0.297 0.022 0.847
 -0.292 0.022 0.848
 -0.287 0.022 0.849
 -0.282 0.022 0.851
 -0.276 0.022 0.852
 -0.271 0.022 0.853
 -0.266 0.022 0.853
 -0.26 0.022 0.852
 -0.255 0.021 0.852
 -0.249 0.021 0.851
 -0.244 0.021 0.852
 -0.238 0.021 0.852
 -0.233 0.021 0.851
 -0.227 0.021 0.849
 -0.221 0.021 0.847
 -0.215 0.021 0.845
 -0.21 0.021 0.843
 -0.204 0.021 0.842
 -0.199 0.021 0.84
 -0.193 0.021 0.838
 -0.188 0.02 0.837
 -0.182 0.02 0.835
 -0.177 0.02 0.834
 -0.172 0.02 0.833
 -0.166 0.02 0.833
 -0.161 0.02 0.832
 -0.156 0.02 0.831
 -0.151 0.02 0.831
 -0.147 0.02 0.833
 -0.142 0.02 0.834
 -0.137 0.02 0.836
 -0.132 0.02 0.837
 -0.128 0.02 0.839
 -0.123 0.02 0.838
 -0.117 0.02 0.837
 -0.112 0.02 0.835
 -0.107 0.02 0.834
 -0.102 0.02 0.833
 -0.097 0.02 0.831
 -0.092 0.019 0.829
 -0.087 0.019 0.826
 -0.082 0.019 0.822
 -0.076 0.019 0.818
 -0.071 0.019 0.814
 -0.066 0.019 0.81
 -0.061 0.019 0.807
 -0.056 0.019 0.803
 -0.052 0.018 0.8
 -0.047 0.018 0.797
 -0.042 0.018 0.795
 -0.037 0.018 0.796
 -0.033 0.018 0.798
 -0.028 0.018 0.8
 -0.024 0.018 0.803
 -0.019 0.019 0.814
 -0.015 0.019 0.848
 -0.011 0.021 0.914
 -0.006 0.023 1
 -0.001 0.026 1.09
 0.005 0.028 1.179
 0.013 0.029 1.231
 0.019 0.029 1.205
 0.025 0.027 1.138
 0.029 0.025 1.064
 0.032 0.023 0.981
 0.035 0.021 0.902
 0.038 0.02 0.866
 0.043 0.02 0.863
 0.048 0.02 0.862
 0.054 0.02 0.87
 0.061 0.02 0.9
 0.073 0.023 0.989
 0.086 0.025 1.089
 0.101 0.028 1.188
 0.115 0.03 1.263
 0.129 0.032 1.335
 0.141 0.033 1.373
 0.15 0.033 1.386
 0.158 0.033 1.385
 0.17 0.034 1.416
 0.18 0.034 1.432
 0.188 0.034 1.429
 0.195 0.034 1.418
 0.203 0.033 1.413
 0.21 0.033 1.406
 0.217 0.033 1.397
 0.219 0.032 1.361
 0.223 0.031 1.334
 0.224 0.03 1.292
 0.222 0.029 1.243
 0.223 0.028 1.205
 0.223 0.027 1.171
 0.222 0.026 1.127
 0.228 0.026 1.122
 0.232 0.026 1.111
 0.236 0.025 1.099
 0.246 0.026 1.114
 0.265 0.027 1.167
 0.284 0.028 1.217
 0.301 0.029 1.258
 0.315 0.03 1.285
 0.322 0.03 1.279
 0.318 0.029 1.236
 0.301 0.026 1.142
 0.28 0.024 1.037
 0.258 0.021 0.932
 0.227 0.018 0.802
 0.2 0.015 0.691
 0.175 0.012 0.59
 0.151 0.01 0.499
 0.141 0.009 0.454
 0.141 0.009 0.447
 0.133 0.008 0.413
 0.137 0.008 0.416
 0.141 0.008 0.42
 0.142 0.008 0.414
 0.144 0.008 0.412
 0.145 0.008 0.408
 0.148 0.008 0.407
 0.148 0.007 0.399
 0.147 0.007 0.391
 0.149 0.007 0.389
 0.152 0.007 0.389
 0.156 0.007 0.393
 0.159 0.007 0.394
 0.165 0.008 0.401
 0.173 0.008 0.413
 0.185 0.008 0.434
 0.194 0.009 0.45
 0.212 0.01 0.482
 0.229 0.011 0.514
 0.249 0.011 0.55
 0.27 0.012 0.587
 0.293 0.013 0.627
 0.315 0.014 0.664
 0.34 0.016 0.706
 0.365 0.017 0.746
 0.388 0.018 0.781
 0.408 0.018 0.811
 0.425 0.019 0.832
 0.435 0.019 0.839
 0.44 0.019 0.835
 0.441 0.019 0.825
 0.441 0.019 0.812
 0.441 0.018 0.801
 0.443 0.018 0.791
 0.455 0.019 0.802
 0.455 0.018 0.789
 -0.378 0.023 0.678
 -0.383 0.024 0.697
 -0.37 0.023 0.684
 -0.371 0.024 0.696
 -0.373 0.024 0.712
 -0.379 0.025 0.735
 -0.384 0.026 0.754
 -0.385 0.026 0.77
 -0.387 0.027 0.784
 -0.386 0.027 0.795
 -0.383 0.027 0.803
 -0.382 0.027 0.813
 -0.379 0.027 0.819
 -0.374 0.027 0.822
 -0.37 0.027 0.826
 -0.366 0.027 0.83
 -0.361 0.027 0.832
 -0.356 0.027 0.835
 -0.351 0.028 0.838
 -0.346 0.028 0.841
 -0.341 0.028 0.843
 -0.336 0.027 0.845
 -0.331 0.027 0.847
 -0.326 0.027 0.848
 -0.32 0.027 0.848
 -0.314 0.027 0.847
 -0.308 0.027 0.846
 -0.302 0.027 0.846
 -0.297 0.027 0.846
 -0.292 0.027 0.847
 -0.287 0.027 0.85
 -0.282 0.027 0.852
 -0.277 0.027 0.855
 -0.272 0.027 0.857
 -0.268 0.027 0.859
 -0.263 0.027 0.861
 -0.258 0.027 0.863
 -0.253 0.027 0.864
 -0.248 0.027 0.866
 -0.243 0.027 0.867
 -0.237 0.027 0.866
 -0.231 0.027 0.865
 -0.225 0.027 0.864
 -0.22 0.027 0.863
 -0.214 0.026 0.862
 -0.209 0.026 0.861
 -0.203 0.026 0.859
 -0.197 0.026 0.856
 -0.191 0.026 0.852
 -0.185 0.026 0.848
 -0.179 0.026 0.844
 -0.173 0.025 0.842
 -0.168 0.025 0.84
 -0.163 0.025 0.839
 -0.157 0.025 0.837
 -0.152 0.025 0.837
 -0.148 0.025 0.839
 -0.143 0.025 0.84
 -0.138 0.025 0.842
 -0.133 0.025 0.844
 -0.129 0.025 0.847
 -0.124 0.025 0.849
 -0.119 0.025 0.848
 -0.114 0.025 0.847
 -0.109 0.025 0.846
 -0.103 0.025 0.842
 -0.098 0.025 0.836
 -0.092 0.024 0.831
 -0.087 0.024 0.825
 -0.081 0.024 0.82
 -0.076 0.024 0.814
 -0.071 0.024 0.811
 -0.066 0.023 0.807
 -0.061 0.023 0.804
 -0.056 0.023 0.8
 -0.051 0.023 0.796
 -0.047 0.023 0.793
 -0.042 0.023 0.791
 -0.037 0.023 0.791
 -0.033 0.023 0.791
 -0.028 0.023 0.791
 -0.024 0.023 0.792
 -0.019 0.023 0.8
 -0.015 0.024 0.827
 -0.011 0.025 0.869
 -0.006 0.027 0.924
 -0.001 0.029 0.983
 0.004 0.03 1.04
 0.011 0.031 1.071
 0.017 0.031 1.069
 0.022 0.03 1.035
 0.027 0.029 0.997
 0.031 0.027 0.952
 0.035 0.026 0.908
 0.039 0.025 0.883
 0.045 0.025 0.892
 0.051 0.026 0.903
 0.057 0.027 0.926
 0.065 0.028 0.968
 0.077 0.03 1.05
 0.091 0.033 1.14
 0.105 0.036 1.229
 0.116 0.038 1.277
 0.129 0.039 1.329
 0.14 0.04 1.359
 0.147 0.04 1.357
 0.151 0.039 1.323
 0.161 0.039 1.338
 0.169 0.039 1.337
 0.175 0.039 1.324
 0.178 0.038 1.291
 0.185 0.038 1.285
 0.192 0.038 1.281
 0.197 0.037 1.268
 0.196 0.035 1.217
 0.2 0.035 1.196
 0.202 0.034 1.166
 0.198 0.032 1.107
 0.197 0.031 1.065
 0.199 0.03 1.043
 0.197 0.029 1.002
 0.2 0.028 0.985
 0.205 0.028 0.979
 0.214 0.028 0.995
 0.229 0.03 1.034
 0.25 0.032 1.1
 0.269 0.033 1.153
 0.283 0.034 1.184
 0.289 0.034 1.178
 0.284 0.033 1.13
 0.272 0.03 1.056
 0.249 0.027 0.944
 0.224 0.023 0.828
 0.195 0.019 0.706
 0.169 0.016 0.597
 0.146 0.013 0.502
 0.131 0.011 0.442
 0.121 0.01 0.399
 0.122 0.01 0.395
 0.122 0.009 0.384
 0.122 0.009 0.378
 0.124 0.009 0.377
 0.126 0.009 0.375
 0.127 0.009 0.369
 0.128 0.009 0.365
 0.129 0.009 0.363
 0.132 0.009 0.362
 0.132 0.008 0.356
 0.134 0.008 0.354
 0.138 0.009 0.359
 0.141 0.009 0.359
 0.145 0.009 0.365
 0.149 0.009 0.368
 0.153 0.009 0.371
 0.155 0.009 0.371
 0.16 0.009 0.375
 0.163 0.009 0.376
 0.172 0.01 0.389
 0.183 0.01 0.409
 0.199 0.011 0.437
 0.219 0.012 0.474
 0.241 0.014 0.515
 0.261 0.015 0.549
 0.284 0.016 0.589
 0.312 0.018 0.637
 0.341 0.019 0.686
 0.37 0.021 0.733
 0.398 0.023 0.778
 0.419 0.024 0.807
 0.432 0.024 0.819
 0.438 0.024 0.818
 0.439 0.024 0.808
 0.441 0.024 0.799
 0.443 0.023 0.792
 0.436 0.023 0.768
 0.438 0.022 0.759
 -0.38 0.028 0.682
 -0.361 0.027 0.657
 -0.361 0.027 0.667
 -0.361 0.027 0.678
 -0.365 0.028 0.695
 -0.372 0.029 0.721
 -0.378 0.03 0.742
 -0.382 0.031 0.763
 -0.385 0.031 0.781
 -0.384 0.032 0.792
 -0.382 0.032 0.801
 -0.381 0.032 0.811
 -0.378 0.032 0.818
 -0.374 0.033 0.822
 -0.37 0.033 0.827
 -0.366 0.033 0.83
 -0.361 0.033 0.833
 -0.356 0.033 0.836
 -0.351 0.033 0.838
 -0.347 0.033 0.842
 -0.342 0.033 0.845
 -0.338 0.033 0.848
 -0.333 0.033 0.851
 -0.327 0.033 0.851
 -0.321 0.033 0.851
 -0.315 0.033 0.85
 -0.309 0.032 0.849
 -0.303 0.032 0.848
 -0.298 0.032 0.848
 -0.292 0.032 0.849
 -0.287 0.032 0.85
 -0.281 0.032 0.85
 -0.276 0.032 0.849
 -0.269 0.032 0.847
 -0.263 0.032 0.845
 -0.259 0.032 0.847
 -0.255 0.032 0.853
 -0.252 0.032 0.862
 -0.249 0.032 0.871
 -0.247 0.033 0.882
 -0.242 0.033 0.886
 -0.236 0.033 0.883
 -0.229 0.032 0.879
 -0.223 0.032 0.876
 -0.219 0.032 0.882
 -0.215 0.033 0.888
 -0.21 0.033 0.891
 -0.205 0.033 0.892
 -0.2 0.032 0.891
 -0.191 0.032 0.879
 -0.182 0.031 0.858
 -0.174 0.03 0.844
 -0.166 0.03 0.831
 -0.159 0.029 0.819
 -0.152 0.029 0.808
 -0.147 0.029 0.807
 -0.142 0.029 0.81
 -0.138 0.029 0.811
 -0.133 0.029 0.812
 -0.129 0.029 0.814
 -0.126 0.029 0.827
 -0.124 0.03 0.845
 -0.12 0.03 0.857
 -0.117 0.031 0.869
 -0.112 0.031 0.876
 -0.106 0.031 0.869
 -0.099 0.03 0.852
 -0.093 0.03 0.842
 -0.087 0.029 0.83
 -0.082 0.029 0.822
 -0.076 0.029 0.816
 -0.071 0.028 0.812
 -0.066 0.028 0.808
 -0.061 0.028 0.804
 -0.056 0.028 0.8
 -0.051 0.028 0.797
 -0.047 0.028 0.797
 -0.042 0.028 0.798
 -0.037 0.027 0.796
 -0.033 0.027 0.794
 -0.028 0.027 0.79
 -0.023 0.027 0.784
 -0.019 0.027 0.779
 -0.014 0.027 0.782
 -0.01 0.027 0.794
 -0.005 0.028 0.816
 -0.001 0.029 0.848
 0.004 0.031 0.893
 0.009 0.032 0.926
 0.015 0.033 0.942
 0.02 0.033 0.946
 0.026 0.033 0.941
 0.03 0.032 0.919
 0.035 0.031 0.902
 0.04 0.031 0.895
 0.045 0.031 0.904
 0.052 0.032 0.919
 0.059 0.033 0.95
 0.067 0.034 0.994
 0.078 0.037 1.054
 0.089 0.039 1.123
 0.102 0.042 1.193
 0.112 0.043 1.224
 0.122 0.044 1.256
 0.133 0.046 1.299
 0.142 0.046 1.308
 0.146 0.045 1.278
 0.156 0.046 1.295
 0.164 0.046 1.304
 0.171 0.045 1.294
 0.174 0.044 1.262
 0.181 0.044 1.259
 0.188 0.044 1.258
 0.194 0.044 1.247
 0.191 0.041 1.182
 0.194 0.04 1.159
 0.196 0.039 1.133
 0.189 0.037 1.057
 0.184 0.034 0.996
 0.188 0.034 0.985
 0.184 0.032 0.936
 0.182 0.031 0.898
 0.188 0.031 0.9
 0.203 0.032 0.944
 0.219 0.034 0.99
 0.24 0.037 1.058
 0.257 0.038 1.101
 0.264 0.038 1.104
 0.257 0.036 1.048
 0.239 0.033 0.949
 0.218 0.029 0.843
 0.19 0.024 0.72
 0.164 0.02 0.607
 0.143 0.017 0.515
 0.128 0.014 0.45
 0.116 0.012 0.399
 0.113 0.011 0.379
 0.112 0.011 0.369
 0.112 0.011 0.361
 0.112 0.011 0.354
 0.113 0.01 0.35
 0.116 0.01 0.352
 0.118 0.01 0.351
 0.119 0.01 0.345
 0.121 0.01 0.346
 0.124 0.01 0.346
 0.126 0.01 0.347
 0.127 0.01 0.342
 0.13 0.01 0.344
 0.135 0.011 0.35
 0.138 0.011 0.353
 0.142 0.011 0.356
 0.147 0.011 0.364
 0.152 0.011 0.369
 0.153 0.011 0.365
 0.156 0.011 0.366
 0.159 0.011 0.366
 0.162 0.011 0.367
 0.165 0.011 0.367
 0.172 0.012 0.377
 0.183 0.012 0.396
 0.197 0.013 0.42
 0.212 0.014 0.444
 0.235 0.016 0.485
 0.262 0.018 0.534
 0.293 0.02 0.588
 0.329 0.023 0.651
 0.365 0.025 0.713
 0.394 0.027 0.758
 0.415 0.028 0.786
 0.427 0.029 0.798
 0.43 0.028 0.792
 0.433 0.028 0.785
 0.435 0.028 0.778
 0.441 0.028 0.777
 0.445 0.028 0.773
 -0.367 0.031 0.657
 -0.357 0.031 0.649
 -0.36 0.031 0.664
 -0.362 0.032 0.678
 -0.366 0.033 0.698
 -0.374 0.034 0.724
 -0.378 0.035 0.742
 -0.381 0.035 0.761
 -0.384 0.036 0.778
 -0.383 0.037 0.79
 -0.381 0.037 0.797
 -0.38 0.037 0.808
 -0.377 0.037 0.814
 -0.373 0.038 0.818
 -0.369 0.038 0.823
 -0.365 0.038 0.827
 -0.36 0.038 0.831
 -0.356 0.038 0.834
 -0.351 0.038 0.838
 -0.347 0.038 0.842
 -0.343 0.038 0.846
 -0.338 0.038 0.85
 -0.334 0.038 0.853
 -0.328 0.038 0.854
 -0.322 0.038 0.854
 -0.316 0.038 0.852
 -0.31 0.038 0.852
 -0.304 0.038 0.851
 -0.299 0.038 0.852
 -0.294 0.037 0.853
 -0.288 0.037 0.853
 -0.281 0.037 0.847
 -0.274 0.037 0.843
 -0.266 0.036 0.836
 -0.258 0.036 0.827
 -0.252 0.036 0.825
 -0.248 0.036 0.83
 -0.244 0.036 0.834
 -0.241 0.036 0.842
 -0.239 0.037 0.855
 -0.236 0.037 0.862
 -0.23 0.037 0.859
 -0.224 0.037 0.857
 -0.218 0.036 0.855
 -0.214 0.037 0.862
 -0.21 0.037 0.868
 -0.205 0.037 0.868
 -0.199 0.037 0.867
 -0.193 0.036 0.863
 -0.184 0.036 0.846
 -0.174 0.034 0.822
 -0.166 0.034 0.807
 -0.159 0.033 0.794
 -0.151 0.032 0.78
 -0.145 0.032 0.768
 -0.139 0.032 0.765
 -0.135 0.032 0.768
 -0.131 0.032 0.769
 -0.126 0.032 0.77
 -0.122 0.032 0.771
 -0.119 0.032 0.784
 -0.117 0.033 0.801
 -0.114 0.033 0.813
 -0.111 0.034 0.825
 -0.107 0.034 0.833
 -0.102 0.034 0.831
 -0.096 0.034 0.825
 -0.092 0.034 0.825
 -0.086 0.034 0.822
 -0.082 0.034 0.825
 -0.077 0.034 0.826
 -0.072 0.033 0.821
 -0.067 0.033 0.817
 -0.062 0.033 0.813
 -0.057 0.033 0.809
 -0.052 0.033 0.807
 -0.047 0.033 0.807
 -0.043 0.033 0.808
 -0.038 0.033 0.806
 -0.033 0.032 0.803
 -0.028 0.032 0.798
 -0.023 0.032 0.79
 -0.019 0.031 0.781
 -0.014 0.031 0.777
 -0.01 0.031 0.774
 -0.005 0.031 0.774
 -0.001 0.032 0.787
 0.003 0.033 0.824
 0.008 0.034 0.857
 0.014 0.036 0.888
 0.02 0.037 0.921
 0.026 0.038 0.941
 0.031 0.037 0.926
 0.035 0.037 0.916
 0.041 0.037 0.913
 0.046 0.037 0.918
 0.052 0.038 0.933
 0.06 0.039 0.976
 0.069 0.041 1.016
 0.078 0.043 1.059
 0.088 0.045 1.113
 0.1 0.048 1.17
 0.107 0.048 1.179
 0.117 0.049 1.206
 0.129 0.051 1.257
 0.138 0.052 1.275
 0.142 0.051 1.237
 0.151 0.052 1.259
 0.161 0.052 1.273
 0.166 0.052 1.261
 0.168 0.05 1.219
 0.174 0.049 1.211
 0.181 0.049 1.208
 0.184 0.048 1.186
 0.181 0.046 1.123
 0.184 0.045 1.099
 0.187 0.044 1.082
 0.182 0.041 1.016
 0.178 0.039 0.961
 0.183 0.038 0.956
 0.183 0.037 0.929
 0.181 0.036 0.892
 0.188 0.036 0.901
 0.208 0.039 0.966
 0.227 0.041 1.025
 0.241 0.043 1.06
 0.25 0.043 1.069
 0.247 0.042 1.03
 0.224 0.037 0.913
 0.192 0.03 0.761
 0.165 0.025 0.639
 0.142 0.021 0.538
 0.124 0.017 0.457
 0.113 0.015 0.405
 0.107 0.014 0.378
 0.105 0.013 0.362
 0.105 0.013 0.354
 0.106 0.013 0.35
 0.107 0.012 0.344
 0.108 0.012 0.341
 0.109 0.012 0.337
 0.111 0.012 0.336
 0.114 0.012 0.337
 0.114 0.012 0.333
 0.116 0.012 0.332
 0.12 0.012 0.334
 0.123 0.012 0.337
 0.124 0.012 0.333
 0.128 0.012 0.338
 0.133 0.012 0.345
 0.136 0.013 0.348
 0.141 0.013 0.354
 0.146 0.013 0.361
 0.151 0.013 0.366
 0.153 0.013 0.364
 0.155 0.013 0.364
 0.157 0.013 0.361
 0.16 0.013 0.363
 0.162 0.013 0.361
 0.166 0.014 0.364
 0.171 0.014 0.369
 0.179 0.014 0.38
 0.186 0.015 0.39
 0.202 0.016 0.417
 0.223 0.018 0.454
 0.252 0.02 0.504
 0.287 0.023 0.568
 0.327 0.026 0.637
 0.363 0.029 0.697
 0.392 0.031 0.742
 0.412 0.032 0.769
 0.423 0.033 0.777
 0.429 0.033 0.777
 0.432 0.033 0.771
 0.456 0.034 0.802
 0.456 0.034 0.792
 -0.342 0.033 0.613
 -0.34 0.033 0.618
 -0.362 0.036 0.669
 -0.367 0.037 0.689
 -0.373 0.038 0.711
 -0.379 0.039 0.734
 -0.381 0.04 0.749
 -0.382 0.04 0.762
 -0.382 0.041 0.774
 -0.379 0.041 0.78
 -0.374 0.041 0.782
 -0.37 0.041 0.787
 -0.366 0.041 0.79
 -0.361 0.041 0.791
 -0.356 0.041 0.795
 -0.353 0.041 0.799
 -0.349 0.041 0.804
 -0.345 0.042 0.808
 -0.341 0.042 0.813
 -0.338 0.042 0.819
 -0.335 0.042 0.825
 -0.331 0.042 0.831
 -0.327 0.042 0.836
 -0.322 0.042 0.838
 -0.317 0.042 0.838
 -0.311 0.042 0.838
 -0.305 0.042 0.838
 -0.3 0.042 0.838
 -0.295 0.042 0.839
 -0.29 0.042 0.842
 -0.284 0.042 0.842
 -0.277 0.041 0.835
 -0.269 0.041 0.83
 -0.261 0.041 0.821
 -0.252 0.04 0.808
 -0.245 0.039 0.801
 -0.24 0.039 0.803
 -0.236 0.039 0.805
 -0.232 0.04 0.81
 -0.23 0.04 0.822
 -0.227 0.04 0.829
 -0.221 0.04 0.827
 -0.216 0.04 0.826
 -0.211 0.04 0.826
 -0.207 0.04 0.833
 -0.204 0.041 0.84
 -0.199 0.041 0.842
 -0.193 0.04 0.839
 -0.187 0.04 0.835
 -0.178 0.039 0.817
 -0.168 0.038 0.792
 -0.16 0.037 0.776
 -0.152 0.036 0.761
 -0.145 0.035 0.746
 -0.138 0.035 0.732
 -0.133 0.034 0.729
 -0.129 0.034 0.731
 -0.125 0.034 0.731
 -0.121 0.034 0.734
 -0.117 0.034 0.736
 -0.114 0.035 0.748
 -0.112 0.036 0.768
 -0.11 0.037 0.783
 -0.107 0.037 0.798
 -0.104 0.038 0.812
 -0.1 0.038 0.816
 -0.096 0.038 0.818
 -0.091 0.039 0.824
 -0.087 0.039 0.827
 -0.083 0.039 0.833
 -0.078 0.039 0.836
 -0.073 0.039 0.831
 -0.068 0.038 0.827
 -0.063 0.038 0.823
 -0.057 0.038 0.82
 -0.053 0.038 0.817
 -0.048 0.038 0.817
 -0.043 0.038 0.818
 -0.038 0.038 0.816
 -0.033 0.038 0.813
 -0.029 0.037 0.807
 -0.024 0.037 0.797
 -0.019 0.036 0.787
 -0.014 0.036 0.779
 -0.01 0.035 0.774
 -0.005 0.035 0.771
 -0.001 0.036 0.78
 0.003 0.037 0.81
 0.008 0.039 0.841
 0.014 0.04 0.875
 0.02 0.042 0.912
 0.026 0.043 0.937
 0.031 0.043 0.934
 0.036 0.043 0.932
 0.042 0.043 0.938
 0.048 0.044 0.95
 0.055 0.045 0.975
 0.064 0.047 1.024
 0.071 0.049 1.048
 0.079 0.05 1.067
 0.087 0.051 1.098
 0.097 0.053 1.135
 0.102 0.052 1.114
 0.11 0.053 1.137
 0.123 0.056 1.194
 0.133 0.057 1.222
 0.134 0.055 1.17
 0.144 0.056 1.197
 0.154 0.057 1.224
 0.16 0.057 1.215
 0.16 0.054 1.158
 0.166 0.054 1.154
 0.172 0.054 1.153
 0.175 0.052 1.125
 0.17 0.049 1.053
 0.173 0.048 1.036
 0.179 0.048 1.032
 0.172 0.044 0.963
 0.17 0.042 0.918
 0.18 0.043 0.94
 0.184 0.043 0.934
 0.183 0.041 0.901
 0.193 0.043 0.923
 0.215 0.046 0.999
 0.231 0.049 1.046
 0.234 0.048 1.03
 0.232 0.046 0.994
 0.221 0.043 0.923
 0.188 0.035 0.766
 0.15 0.027 0.596
 0.128 0.022 0.494
 0.113 0.018 0.426
 0.103 0.016 0.379
 0.1 0.015 0.359
 0.1 0.015 0.351
 0.101 0.014 0.346
 0.101 0.014 0.34
 0.103 0.014 0.337
 0.104 0.014 0.333
 0.105 0.014 0.329
 0.105 0.013 0.325
 0.107 0.013 0.324
 0.11 0.013 0.325
 0.111 0.013 0.323
 0.113 0.013 0.323
 0.118 0.014 0.329
 0.122 0.014 0.334
 0.124 0.014 0.334
 0.128 0.014 0.338
 0.133 0.015 0.346
 0.137 0.015 0.35
 0.141 0.015 0.352
 0.146 0.015 0.359
 0.15 0.016 0.365
 0.153 0.016 0.363
 0.156 0.016 0.365
 0.159 0.016 0.365
 0.162 0.016 0.367
 0.164 0.016 0.365
 0.168 0.016 0.369
 0.172 0.016 0.371
 0.178 0.017 0.378
 0.181 0.017 0.379
 0.19 0.017 0.391
 0.203 0.019 0.412
 0.224 0.02 0.447
 0.253 0.023 0.498
 0.288 0.026 0.561
 0.329 0.03 0.631
 0.365 0.033 0.69
 0.393 0.035 0.733
 0.412 0.037 0.757
 0.426 0.038 0.771
 0.431 0.038 0.769
 0.412 0.035 0.723
 0.42 0.036 0.727
 -0.339 0.036 0.606
 -0.351 0.038 0.639
 -0.368 0.041 0.68
 -0.375 0.042 0.703
 -0.382 0.043 0.727
 -0.387 0.045 0.749
 -0.388 0.045 0.763
 -0.388 0.046 0.775
 -0.385 0.046 0.781
 -0.378 0.046 0.779
 -0.369 0.045 0.772
 -0.362 0.045 0.768
 -0.354 0.045 0.764
 -0.347 0.044 0.76
 -0.342 0.044 0.762
 -0.338 0.044 0.766
 -0.335 0.044 0.77
 -0.331 0.045 0.775
 -0.328 0.045 0.78
 -0.324 0.045 0.785
 -0.321 0.045 0.79
 -0.317 0.045 0.795
 -0.313 0.045 0.799
 -0.308 0.045 0.801
 -0.303 0.045 0.802
 -0.298 0.045 0.801
 -0.292 0.045 0.801
 -0.287 0.045 0.801
 -0.282 0.045 0.803
 -0.278 0.045 0.807
 -0.273 0.045 0.808
 -0.266 0.045 0.801
 -0.259 0.044 0.795
 -0.251 0.043 0.786
 -0.241 0.043 0.772
 -0.234 0.042 0.766
 -0.23 0.042 0.768
 -0.226 0.042 0.772
 -0.223 0.043 0.779
 -0.222 0.043 0.792
 -0.219 0.044 0.8
 -0.214 0.044 0.8
 -0.209 0.044 0.8
 -0.204 0.043 0.801
 -0.201 0.044 0.808
 -0.198 0.044 0.816
 -0.193 0.044 0.817
 -0.188 0.044 0.814
 -0.182 0.044 0.81
 -0.173 0.043 0.792
 -0.163 0.041 0.766
 -0.154 0.04 0.748
 -0.147 0.039 0.733
 -0.139 0.038 0.716
 -0.132 0.037 0.701
 -0.127 0.037 0.698
 -0.123 0.037 0.699
 -0.119 0.037 0.7
 -0.116 0.037 0.702
 -0.112 0.037 0.704
 -0.109 0.038 0.716
 -0.108 0.039 0.738
 -0.106 0.04 0.755
 -0.104 0.041 0.774
 -0.102 0.042 0.791
 -0.098 0.042 0.799
 -0.094 0.042 0.805
 -0.09 0.043 0.814
 -0.086 0.043 0.82
 -0.082 0.044 0.828
 -0.078 0.044 0.833
 -0.073 0.043 0.829
 -0.067 0.043 0.825
 -0.062 0.043 0.823
 -0.057 0.043 0.819
 -0.053 0.043 0.816
 -0.048 0.043 0.817
 -0.043 0.043 0.818
 -0.038 0.042 0.816
 -0.033 0.042 0.81
 -0.028 0.042 0.801
 -0.023 0.041 0.788
 -0.018 0.04 0.775
 -0.014 0.04 0.766
 -0.009 0.039 0.76
 -0.005 0.039 0.758
 -0.001 0.04 0.771
 0.003 0.042 0.804
 0.008 0.043 0.839
 0.014 0.045 0.875
 0.02 0.048 0.915
 0.026 0.049 0.94
 0.031 0.049 0.938
 0.036 0.049 0.938
 0.042 0.049 0.947
 0.049 0.05 0.964
 0.056 0.052 1
 0.066 0.056 1.068
 0.076 0.059 1.125
 0.087 0.062 1.176
 0.098 0.065 1.228
 0.109 0.067 1.274
 0.117 0.067 1.277
 0.124 0.067 1.28
 0.133 0.068 1.296
 0.141 0.068 1.295
 0.142 0.065 1.24
 0.147 0.064 1.221
 0.153 0.064 1.211
 0.155 0.062 1.178
 0.154 0.058 1.114
 0.158 0.057 1.098
 0.164 0.057 1.098
 0.166 0.056 1.07
 0.162 0.052 1.002
 0.167 0.052 0.996
 0.175 0.053 1.01
 0.168 0.049 0.939
 0.167 0.047 0.901
 0.178 0.048 0.931
 0.182 0.048 0.922
 0.175 0.045 0.86
 0.188 0.047 0.898
 0.213 0.051 0.987
 0.223 0.053 1.006
 0.216 0.05 0.951
 0.211 0.047 0.902
 0.194 0.042 0.811
 0.16 0.033 0.649
 0.128 0.025 0.507
 0.114 0.022 0.441
 0.106 0.019 0.399
 0.1 0.018 0.367
 0.098 0.017 0.352
 0.099 0.017 0.346
 0.1 0.016 0.341
 0.1 0.016 0.335
 0.101 0.016 0.331
 0.101 0.015 0.326
 0.102 0.015 0.321
 0.103 0.015 0.318
 0.105 0.015 0.316
 0.107 0.015 0.318
 0.109 0.015 0.318
 0.112 0.015 0.32
 0.117 0.016 0.326
 0.122 0.016 0.333
 0.124 0.016 0.334
 0.129 0.017 0.341
 0.134 0.017 0.348
 0.138 0.017 0.353
 0.142 0.017 0.356
 0.147 0.018 0.363
 0.151 0.018 0.366
 0.153 0.018 0.365
 0.155 0.018 0.362
 0.157 0.018 0.362
 0.16 0.018 0.363
 0.163 0.018 0.364
 0.168 0.018 0.367
 0.172 0.019 0.371
 0.178 0.019 0.378
 0.183 0.019 0.382
 0.187 0.02 0.386
 0.194 0.02 0.394
 0.206 0.021 0.412
 0.228 0.023 0.448
 0.255 0.026 0.495
 0.291 0.03 0.557
 0.33 0.034 0.624
 0.367 0.037 0.683
 0.393 0.04 0.722
 0.414 0.041 0.749
 0.427 0.042 0.762
 0.431 0.042 0.757
 0.441 0.043 0.764
 -0.354 0.042 0.633
 -0.367 0.044 0.667
 -0.375 0.046 0.692
