 0.176 -0.082 1.624
 0.183 -0.081 1.608
 0.191 -0.081 1.592
 0.198 -0.08 1.577
 0.205 -0.079 1.561
 0.213 -0.079 1.549
 0.218 -0.078 1.522
 0.219 -0.075 1.467
 0.224 -0.074 1.442
 0.229 -0.073 1.424
 0.235 -0.072 1.409
 0.243 -0.072 1.407
 0.256 -0.074 1.431
 0.262 -0.073 1.42
 0.267 -0.072 1.401
 0.27 -0.071 1.375
 0.274 -0.07 1.353
 0.277 -0.069 1.327
 0.281 -0.068 1.308
 0.283 -0.067 1.283
 0.287 -0.066 1.267
 0.29 -0.065 1.244
 0.293 -0.065 1.228
 0.296 -0.064 1.208
 0.3 -0.063 1.192
 0.301 -0.062 1.17
 0.3 -0.06 1.139
 0.298 -0.059 1.106
 0.299 -0.058 1.084
 0.303 -0.057 1.071
 0.3 -0.056 1.037
 0.303 -0.055 1.025
 0.305 -0.055 1.013
 0.302 -0.053 0.981
 0.297 -0.051 0.945
 0.304 -0.052 0.946
 0.306 -0.051 0.935
 0.309 -0.051 0.924
 0.311 -0.05 0.912
 0.314 -0.05 0.903
 0.313 -0.049 0.885
 0.314 -0.048 0.872
 0.317 -0.048 0.864
 0.319 -0.048 0.853
 0.323 -0.047 0.849
 0.33 -0.048 0.852
 0.333 -0.047 0.844
 0.334 -0.047 0.831
 0.336 -0.046 0.823
 0.335 -0.046 0.807
 0.335 -0.045 0.794
 0.339 -0.045 0.789
 0.343 -0.045 0.784
 0.35 -0.045 0.787
 0.357 -0.046 0.791
 0.363 -0.046 0.791
 0.373 -0.046 0.8
 0.381 -0.047 0.804
 0.389 -0.047 0.81
 0.405 -0.048 0.83
 0.42 -0.049 0.847
 0.429 -0.05 0.852
 0.439 -0.05 0.858
 0.448 -0.051 0.862
 0.454 -0.051 0.861
 0.459 -0.051 0.858
 0.466 -0.051 0.859
 0.476 -0.052 0.864
 0.484 -0.052 0.866
 0.512 -0.054 0.903
 0.505 -0.053 0.878
 -0.379 -0.033 0.679
 -0.378 -0.033 0.688
 -0.381 -0.034 0.704
 -0.385 -0.035 0.723
 -0.39 -0.036 0.742
 -0.393 -0.036 0.76
 -0.394 -0.037 0.774
 -0.393 -0.037 0.784
 -0.39 -0.037 0.79
 -0.386 -0.037 0.794
 -0.382 -0.038 0.798
 -0.378 -0.038 0.802
 -0.374 -0.038 0.807
 -0.37 -0.038 0.813
 -0.367 -0.038 0.818
 -0.364 -0.038 0.824
 -0.36 -0.039 0.831
 -0.358 -0.039 0.838
 -0.355 -0.039 0.846
 -0.354 -0.04 0.858
 -0.354 -0.04 0.874
 -0.355 -0.041 0.892
 -0.36 -0.042 0.921
 -0.374 -0.044 0.974
 -0.384 -0.046 1.018
 -0.389 -0.048 1.051
 -0.399 -0.05 1.097
 -0.407 -0.051 1.142
 -0.404 -0.052 1.154
 -0.402 -0.053 1.172
 -0.407 -0.054 1.208
 -0.403 -0.055 1.223
 -0.396 -0.055 1.225
 -0.395 -0.056 1.247
 -0.396 -0.057 1.276
 -0.394 -0.058 1.297
 -0.395 -0.059 1.328
 -0.398 -0.061 1.367
 -0.397 -0.062 1.395
 -0.395 -0.063 1.419
 -0.394 -0.064 1.449
 -0.392 -0.065 1.477
 -0.388 -0.066 1.495
 -0.381 -0.066 1.505
 -0.373 -0.066 1.51
 -0.363 -0.066 1.506
 -0.349 -0.065 1.487
 -0.333 -0.064 1.456
 -0.318 -0.063 1.426
 -0.304 -0.062 1.401
 -0.289 -0.06 1.372
 -0.274 -0.059 1.338
 -0.26 -0.058 1.307
 0 0 0
 0 0 0
 0 0 0
 0 0 0
 0 0 0
 0 0 0
 0 0 0
 0 0 0
 0 0 0
 0 0 0
 0 0 0
 -0.182 -0.063 1.426
 -0.182 -0.065 1.491
 -0.177 -0.067 1.524
 -0.17 -0.068 1.544
 -0.165 -0.069 1.586
 -0.159 -0.071 1.612
 -0.15 -0.071 1.619
 -0.141 -0.071 1.622
 -0.132 -0.071 1.626
 -0.123 -0.071 1.629
 -0.114 -0.072 1.635
 -0.104 -0.072 1.639
 -0.095 -0.072 1.645
 -0.086 -0.072 1.649
 -0.076 -0.072 1.644
 -0.066 -0.072 1.629
 -0.056 -0.071 1.615
 -0.047 -0.071 1.606
 -0.038 -0.07 1.602
 -0.029 -0.071 1.608
 -0.019 -0.071 1.62
 -0.01 -0.072 1.63
 -0.001 -0.072 1.63
 0.007 -0.072 1.626
 0.017 -0.071 1.619
 0.026 -0.071 1.611
 0.035 -0.071 1.602
 0.044 -0.071 1.603
 0.054 -0.072 1.619
 0.064 -0.073 1.638
 0.074 -0.073 1.659
 0.085 -0.075 1.681
 0.096 -0.075 1.696
 0.105 -0.075 1.698
 0.115 -0.075 1.696
 0.125 -0.075 1.692
 0.134 -0.075 1.686
 0.143 -0.075 1.678
 0.151 -0.074 1.666
 0.16 -0.074 1.653
 0.168 -0.073 1.639
 0.176 -0.073 1.624
 0.183 -0.072 1.608
 0.191 -0.072 1.592
 0.198 -0.071 1.575
 0.205 -0.07 1.559
 0.212 -0.07 1.546
 0.218 -0.069 1.519
 0.22 -0.067 1.474
 0.225 -0.066 1.451
 0.231 -0.065 1.434
 0.237 -0.065 1.42
 0.244 -0.065 1.415
 0.257 -0.066 1.436
 0.263 -0.065 1.426
 0.269 -0.065 1.41
 0.272 -0.064 1.385
 0.277 -0.063 1.368
 0.279 -0.062 1.335
 0.283 -0.061 1.317
 0.285 -0.06 1.292
 0.288 -0.059 1.27
 0.29 -0.058 1.248
 0.294 -0.057 1.232
 0.298 -0.057 1.215
 0.302 -0.056 1.202
 0.304 -0.055 1.18
 0.304 -0.054 1.152
 0.3 -0.053 1.112
 0.301 -0.052 1.091
 0.304 -0.051 1.078
 0.303 -0.05 1.049
 0.304 -0.049 1.031
 0.308 -0.049 1.022
 0.303 -0.047 0.986
 0.295 -0.045 0.939
 0.301 -0.045 0.939
 0.306 -0.045 0.934
 0.31 -0.045 0.929
 0.313 -0.045 0.918
 0.319 -0.045 0.918
 0.319 -0.044 0.902
 0.32 -0.044 0.889
 0.321 -0.043 0.876
 0.323 -0.043 0.863
 0.322 -0.042 0.846
 0.331 -0.043 0.853
 0.333 -0.042 0.846
 0.338 -0.042 0.841
 0.341 -0.042 0.836
 0.343 -0.042 0.825
 0.343 -0.041 0.813
 0.347 -0.041 0.809
 0.353 -0.041 0.809
 0.361 -0.042 0.814
 0.372 -0.042 0.824
 0.378 -0.042 0.824
 0.389 -0.043 0.835
 0.396 -0.043 0.837
 0.404 -0.043 0.84
 0.418 -0.044 0.855
 0.433 -0.045 0.873
 0.443 -0.046 0.879
 0.453 -0.046 0.886
 0.463 -0.047 0.892
 0.469 -0.047 0.891
 0.475 -0.047 0.888
 0.481 -0.047 0.886
 0.488 -0.047 0.885
 0.492 -0.047 0.881
 0.523 -0.049 0.923
 0.522 -0.049 0.907
 -0.376 -0.028 0.675
 -0.377 -0.029 0.687
 -0.382 -0.029 0.706
 -0.387 -0.03 0.726
 -0.391 -0.031 0.746
 -0.395 -0.032 0.764
 -0.396 -0.032 0.778
 -0.394 -0.032 0.786
 -0.39 -0.032 0.791
 -0.386 -0.032 0.795
 -0.382 -0.033 0.799
 -0.378 -0.033 0.803
 -0.374 -0.033 0.808
 -0.37 -0.033 0.812
 -0.366 -0.033 0.817
 -0.363 -0.033 0.822
 -0.359 -0.033 0.828
 -0.356 -0.034 0.834
 -0.353 -0.034 0.84
 -0.35 -0.034 0.847
 -0.347 -0.034 0.855
 -0.345 -0.035 0.865
 -0.345 -0.035 0.881
 -0.351 -0.036 0.914
 -0.355 -0.037 0.939
 -0.354 -0.038 0.956
 -0.359 -0.039 0.988
 -0.366 -0.04 1.025
 -0.362 -0.04 1.034
 -0.361 -0.041 1.052
 -0.366 -0.042 1.088
 -0.364 -0.043 1.101
 -0.357 -0.043 1.103
 -0.356 -0.044 1.124
 -0.358 -0.045 1.153
 -0.357 -0.045 1.173
 -0.359 -0.046 1.205
 -0.362 -0.048 1.243
 -0.362 -0.049 1.272
 -0.361 -0.05 1.297
 -0.362 -0.051 1.33
 -0.363 -0.052 1.364
 -0.36 -0.053 1.386
 -0.355 -0.053 1.4
 -0.349 -0.054 1.413
 -0.341 -0.054 1.416
 -0.329 -0.053 1.401
 -0.315 -0.052 1.375
 -0.3 -0.051 1.348
 -0.285 -0.05 1.314
 -0.267 -0.048 1.263
 -0.246 -0.046 1.197
 -0.226 -0.044 1.134
 0 0 0
 0 0 0
 0 0 0
 0 0 0
 0 0 0
 0 0 0
 0 0 0
 0 0 0
 0 0 0
 0 0 0
 -0.181 -0.052 1.352
 -0.185 -0.055 1.451
 -0.183 -0.057 1.505
 -0.178 -0.058 1.533
 -0.171 -0.059 1.55
 -0.166 -0.061 1.595
 -0.159 -0.061 1.613
 -0.15 -0.061 1.618
 -0.141 -0.062 1.622
 -0.132 -0.062 1.627
 -0.123 -0.062 1.632
 -0.114 -0.062 1.639
 -0.105 -0.062 1.642
 -0.095 -0.062 1.635
 -0.084 -0.061 1.613
 -0.073 -0.06 1.575
 -0.062 -0.058 1.526
 -0.052 -0.057 1.48
 -0.042 -0.056 1.45
 -0.034 -0.055 1.438
 -0.026 -0.055 1.443
 -0.018 -0.056 1.456
 -0.009 -0.056 1.464
 -0.001 -0.056 1.464
 0.007 -0.056 1.458
 0.015 -0.056 1.449
 0.023 -0.056 1.44
 0.031 -0.055 1.432
 0.039 -0.055 1.433
 0.048 -0.056 1.459
 0.059 -0.058 1.508
 0.07 -0.06 1.563
 0.082 -0.062 1.619
 0.094 -0.064 1.668
 0.105 -0.065 1.694
 0.115 -0.066 1.696
 0.125 -0.065 1.692
 0.134 -0.065 1.685
 0.143 -0.065 1.677
 0.151 -0.065 1.666
 0.16 -0.064 1.653
 0.168 -0.064 1.638
 0.176 -0.063 1.623
 0.183 -0.063 1.607
 0.191 -0.062 1.591
 0.198 -0.062 1.574
 0.205 -0.061 1.558
 0.212 -0.061 1.544
 0.218 -0.06 1.519
 0.221 -0.059 1.483
 0.227 -0.058 1.462
 0.233 -0.057 1.446
 0.239 -0.057 1.432
 0.246 -0.057 1.425
 0.257 -0.057 1.441
 0.264 -0.057 1.432
 0.27 -0.057 1.416
 0.273 -0.056 1.391
 0.279 -0.055 1.376
 0.281 -0.054 1.348
 0.286 -0.054 1.33
 0.288 -0.053 1.304
 0.29 -0.052 1.278
 0.293 -0.051 1.258
 0.298 -0.051 1.247
 0.302 -0.05 1.232
 0.307 -0.05 1.22
 0.31 -0.049 1.206
 0.31 -0.048 1.177
 0.305 -0.047 1.129
 0.305 -0.046 1.104
 0.31 -0.046 1.096
 0.308 -0.044 1.066
 0.31 -0.044 1.05
 0.315 -0.044 1.045
 0.308 -0.042 1
 0.293 -0.04 0.934
 0.303 -0.04 0.943
 0.309 -0.04 0.943
 0.314 -0.04 0.941
 0.315 -0.04 0.926
 0.324 -0.04 0.935
 0.324 -0.039 0.916
 0.326 -0.039 0.904
 0.326 -0.038 0.888
 0 0 0
 0 0 0
 0 0 0
 0 0 0
 0 0 0
 0 0 0
 0 0 0
 0 0 0
 0 0 0
 0.377 -0.038 0.864
 0.383 -0.039 0.864
 0.39 -0.039 0.865
 0.391 -0.038 0.854
 0.397 -0.038 0.852
 0.4 -0.038 0.846
 0.407 -0.038 0.847
 0.416 -0.039 0.852
 0.429 -0.039 0.866
 0.437 -0.04 0.868
 0.445 -0.04 0.872
 0.455 -0.04 0.877
 0.461 -0.04 0.876
 0.465 -0.04 0.87
 0.472 -0.04 0.869
 0.477 -0.04 0.866
 0.48 -0.04 0.858
 0.512 -0.042 0.903
 0.514 -0.042 0.894
 -0.373 -0.024 0.67
 -0.378 -0.024 0.688
 -0.384 -0.025 0.709
 -0.389 -0.026 0.73
 -0.394 -0.026 0.75
 -0.397 -0.027 0.769
 -0.398 -0.027 0.782
 -0.395 -0.027 0.789
 -0.391 -0.027 0.793
 -0.387 -0.027 0.797
 -0.383 -0.028 0.8
 -0.378 -0.028 0.804
 -0.374 -0.028 0.808
 -0.37 -0.028 0.812
 -0.366 -0.028 0.817
 -0.362 -0.028 0.821
 -0.358 -0.028 0.826
 -0.355 -0.028 0.831
 -0.351 -0.028 0.837
 -0.347 -0.029 0.842
 -0.344 -0.029 0.849
 -0.341 -0.029 0.857
 -0.339 -0.029 0.867
 -0.338 -0.03 0.88
 -0.336 -0.03 0.889
 -0.332 -0.03 0.896
 -0.331 -0.03 0.909
 -0.331 -0.031 0.927
 -0.327 -0.031 0.933
 -0.325 -0.031 0.944
 -0.325 -0.032 0.965
 -0.322 -0.032 0.974
 -0.316 -0.032 0.976
 -0.316 -0.033 0.996
 -0.319 -0.034 1.025
 -0.319 -0.034 1.046
 -0.321 -0.035 1.078
 -0.326 -0.037 1.117
 -0.326 -0.037 1.145
 -0.326 -0.038 1.17
 -0.328 -0.039 1.203
 -0.329 -0.04 1.237
 -0.327 -0.041 1.259
 -0.323 -0.041 1.273
 -0.319 -0.042 1.289
 -0.312 -0.042 1.295
 -0.302 -0.042 1.284
 -0.289 -0.041 1.26
 -0.275 -0.04 1.235
 -0.259 -0.039 1.192
 -0.24 -0.037 1.134
 -0.22 -0.035 1.072
 -0.203 -0.033 1.017
 -0.187 -0.032 0.968
 -0.183 -0.032 0.977
 -0.18 -0.033 0.993
 -0.177 -0.033 1.008
 -0.173 -0.034 1.021
 -0.167 -0.034 1.017
 -0.162 -0.034 1.024
 -0.155 -0.034 1.024
 -0.149 -0.034 1.019
 -0.149 -0.035 1.067
 -0.171 -0.041 1.275
 -0.181 -0.046 1.415
 -0.182 -0.048 1.496
 -0.177 -0.049 1.524
 -0.171 -0.05 1.555
 -0.167 -0.052 1.602
 -0.159 -0.052 1.615
 -0.15 -0.052 1.621
 -0.141 -0.052 1.626
 -0.132 -0.053 1.631
 -0.123 -0.053 1.633
 -0.113 -0.052 1.625
 -0.102 -0.052 1.602
 -0.091 -0.051 1.563
 -0.079 -0.049 1.507
 -0.067 -0.047 1.438
 -0.056 -0.045 1.369
 -0.046 -0.043 1.315
 -0.038 -0.042 1.282
 -0.03 -0.042 1.268
 -0.023 -0.042 1.272
 -0.016 -0.042 1.284
 -0.008 -0.043 1.292
 -0.001 -0.043 1.291
 0.006 -0.042 1.284
 0.013 -0.042 1.275
 0.02 -0.042 1.265
 0.027 -0.042 1.257
 0.034 -0.042 1.258
 0.042 -0.043 1.284
 0.052 -0.044 1.339
 0.063 -0.047 1.419
 0.076 -0.05 1.509
 0.09 -0.052 1.593
 0.103 -0.054 1.653
 0.114 -0.055 1.684
 0.124 -0.056 1.69
 0.134 -0.055 1.684
 0.143 -0.055 1.676
 0.151 -0.055 1.665
 0.16 -0.055 1.652
 0.168 -0.054 1.638
 0.176 -0.054 1.623
 0.183 -0.053 1.607
 0.191 -0.053 1.591
 0.198 -0.053 1.574
 0.205 -0.052 1.558
 0.212 -0.052 1.543
 0.218 -0.051 1.519
 0.222 -0.05 1.491
 0.228 -0.05 1.472
 0.235 -0.049 1.459
 0.241 -0.049 1.447
 0.249 -0.049 1.441
 0.259 -0.049 1.448
 0.266 -0.049 1.439
 0.271 -0.049 1.424
 0.275 -0.048 1.4
 0.281 -0.048 1.388
 0.284 -0.047 1.363
 0.291 -0.047 1.355
 0.295 -0.046 1.339
 0.299 -0.046 1.317
 0.303 -0.045 1.3
 0.311 -0.045 1.302
 0.318 -0.045 1.296
 0.324 -0.045 1.292
 0.334 -0.045 1.298
 0.344 -0.046 1.305
 0.346 -0.045 1.283
 0.347 -0.044 1.259
 0 0 0
 0 0 0
 0 0 0
 0 0 0
 0 0 0
 0.425 -0.048 1.353
 0.434 -0.048 1.355
 0.409 -0.045 1.251
 0.394 -0.043 1.181
 0.386 -0.041 1.136
 0.377 -0.04 1.087
 0.368 -0.038 1.041
 0.368 -0.038 1.022
 0.365 -0.037 0.995
 0.35 -0.035 0.938
 0 0 0
 0 0 0
 0 0 0
 0 0 0
 0 0 0
 0 0 0
 0.472 -0.042 1.119
 0.431 -0.038 1.005
 0.416 -0.036 0.955
 0.41 -0.035 0.924
 0.403 -0.034 0.894
 0.398 -0.034 0.87
 0.4 -0.033 0.86
 0.402 -0.033 0.85
 0.407 -0.033 0.847
 0.412 -0.033 0.845
 0.423 -0.034 0.853
 0.43 -0.034 0.854
 0.437 -0.034 0.855
 0.444 -0.034 0.856
 0.45 -0.034 0.854
 0.453 -0.034 0.848
 0.458 -0.034 0.844
 0.463 -0.034 0.84
 0.466 -0.034 0.834
 0.452 -0.032 0.797
 0.458 -0.033 0.796
 -0.373 -0.019 0.668
 -0.379 -0.02 0.69
 -0.385 -0.021 0.712
 -0.391 -0.021 0.734
 -0.395 -0.022 0.754
 -0.399 -0.022 0.773
 -0.399 -0.022 0.785
 -0.396 -0.022 0.791
 -0.392 -0.022 0.794
 -0.387 -0.022 0.798
 -0.383 -0.023 0.801
 -0.378 -0.023 0.805
 -0.374 -0.023 0.808
 -0.37 -0.023 0.813
 -0.366 -0.023 0.817
 -0.362 -0.023 0.821
 -0.358 -0.023 0.825
 -0.354 -0.023 0.83
 -0.35 -0.023 0.834
 -0.346 -0.023 0.84
 -0.343 -0.023 0.845
 -0.339 -0.024 0.852
 -0.336 -0.024 0.859
 -0.333 -0.024 0.865
 -0.329 -0.024 0.87
 -0.325 -0.024 0.875
 -0.32 -0.024 0.879
 -0.315 -0.024 0.882
 -0.31 -0.024 0.883
 -0.305 -0.024 0.885
 -0.3 -0.024 0.888
 -0.294 -0.024 0.889
 -0.289 -0.024 0.89
 -0.286 -0.025 0.899
 -0.285 -0.025 0.915
 -0.284 -0.025 0.931
 -0.285 -0.026 0.956
 -0.288 -0.027 0.986
 -0.289 -0.027 1.013
 -0.29 -0.028 1.038
 -0.292 -0.029 1.071
 -0.295 -0.03 1.105
 -0.293 -0.03 1.128
 -0.29 -0.031 1.143
 -0.287 -0.031 1.16
 -0.282 -0.031 1.169
 -0.273 -0.031 1.158
 -0.261 -0.03 1.139
 -0.251 -0.03 1.123
 -0.236 -0.029 1.086
 -0.22 -0.028 1.04
 -0.206 -0.027 1
 -0.194 -0.026 0.971
 -0.181 -0.025 0.932
 -0.176 -0.026 0.937
 -0.172 -0.026 0.946
 -0.168 -0.026 0.955
 -0.164 -0.026 0.967
 -0.158 -0.026 0.966
 -0.154 -0.026 0.973
 -0.149 -0.027 0.982
 -0.143 -0.027 0.981
 -0.146 -0.028 1.043
 -0.164 -0.033 1.225
 -0.176 -0.037 1.38
 -0.181 -0.039 1.483
 -0.178 -0.041 1.536
 -0.173 -0.042 1.575
 -0.168 -0.043 1.613
 -0.159 -0.043 1.621
 -0.15 -0.043 1.626
 -0.141 -0.043 1.626
 -0.131 -0.043 1.616
 -0.12 -0.042 1.592
 -0.108 -0.041 1.551
 -0.095 -0.04 1.494
 -0.083 -0.038 1.426
 -0.071 -0.036 1.35
 -0.059 -0.034 1.272
 -0.049 -0.033 1.199
 -0.04 -0.031 1.143
 -0.033 -0.03 1.108
 -0.026 -0.03 1.094
 -0.02 -0.03 1.098
 -0.014 -0.03 1.109
 -0.007 -0.031 1.117
 -0.001 -0.031 1.114
 0.005 -0.03 1.106
 0.011 -0.03 1.095
 0.017 -0.03 1.085
 0.023 -0.03 1.076
 0.029 -0.03 1.078
 0.036 -0.031 1.105
 0.045 -0.032 1.162
 0.055 -0.034 1.245
 0.068 -0.037 1.357
 0.083 -0.04 1.474
 0.097 -0.043 1.569
 0.111 -0.044 1.635
 0.123 -0.045 1.673
 0.134 -0.046 1.682
 0.143 -0.046 1.675
 0.151 -0.045 1.663
 0.159 -0.045 1.648
 0.168 -0.045 1.634
 0.175 -0.044 1.619
 0.183 -0.044 1.603
 0.191 -0.044 1.588
 0.198 -0.043 1.574
 0.205 -0.043 1.557
 0.212 -0.043 1.541
 0.218 -0.042 1.52
 0.224 -0.042 1.501
 0.23 -0.041 1.483
 0.237 -0.041 1.471
 0.244 -0.041 1.46
 0.251 -0.041 1.45
 0.259 -0.041 1.449
 0.266 -0.041 1.441
 0.272 -0.04 1.427
 0.277 -0.04 1.409
 0.284 -0.04 1.402
 0.289 -0.039 1.385
 0.296 -0.039 1.38
 0.303 -0.039 1.375
 0.307 -0.039 1.355
 0.313 -0.039 1.345
 0.32 -0.039 1.341
 0.326 -0.038 1.33
 0.332 -0.038 1.322
 0.343 -0.039 1.332
 0.353 -0.039 1.339
 0.361 -0.039 1.34
 0.373 -0.039 1.353
 0.385 -0.04 1.366
 0.399 -0.04 1.382
 0.401 -0.04 1.359
 0.408 -0.04 1.354
 0.413 -0.04 1.342
 0.417 -0.039 1.329
 0.423 -0.039 1.32
 0.411 -0.037 1.257
 0.401 -0.036 1.203
 0.396 -0.035 1.164
 0.389 -0.034 1.122
 0.384 -0.033 1.086
 0.386 -0.033 1.071
 0.386 -0.032 1.054
 0.382 -0.032 1.023
 0 0 0
 0 0 0
 0 0 0
 0 0 0
 0.44 -0.034 1.081
 0.444 -0.033 1.072
 0.446 -0.033 1.058
 0.428 -0.032 0.999
 0.42 -0.031 0.963
 0.415 -0.03 0.935
 0.409 -0.029 0.907
 0.404 -0.028 0.882
 0.405 -0.028 0.87
 0.406 -0.028 0.859
 0.408 -0.028 0.85
 0.412 -0.028 0.845
 0.419 -0.028 0.846
 0.425 -0.028 0.844
 0.43 -0.028 0.842
 0.437 -0.028 0.842
 0.44 -0.028 0.836
 0.444 -0.028 0.831
 0.447 -0.028 0.824
 0.45 -0.028 0.817
 0.453 -0.028 0.81
 0.429 -0.026 0.755
 0.434 -0.026 0.753
 -0.375 -0.015 0.673
 -0.376 -0.015 0.684
 -0.386 -0.016 0.715
 -0.393 -0.016 0.737
 -0.397 -0.017 0.758
 -0.4 -0.017 0.776
 -0.4 -0.017 0.787
 -0.396 -0.017 0.792
 -0.392 -0.017 0.795
 -0.387 -0.017 0.798
 -0.383 -0.018 0.802
 -0.379 -0.018 0.805
 -0.374 -0.018 0.808
 -0.37 -0.018 0.812
 -0.366 -0.018 0.816
 -0.362 -0.018 0.821
 -0.358 -0.018 0.825
 -0.354 -0.018 0.829
 -0.35 -0.018 0.834
 -0.346 -0.018 0.838
 -0.342 -0.018 0.843
 -0.338 -0.018 0.849
 -0.335 -0.018 0.855
 -0.331 -0.018 0.86
 -0.326 -0.019 0.864
 -0.321 -0.019 0.867
 -0.316 -0.019 0.868
 -0.311 -0.019 0.869
 -0.305 -0.019 0.87
 -0.3 -0.019 0.871
 -0.294 -0.019 0.871
 -0.288 -0.019 0.871
 -0.283 -0.019 0.872
 -0.278 -0.019 0.874
 -0.273 -0.019 0.876
 -0.269 -0.019 0.88
 -0.265 -0.019 0.886
 -0.261 -0.019 0.894
 -0.258 -0.019 0.902
 -0.256 -0.02 0.916
 -0.257 -0.02 0.941
 -0.259 -0.021 0.971
 -0.258 -0.021 0.992
 -0.257 -0.021 1.011
 -0.255 -0.022 1.029
 -0.251 -0.022 1.039
 -0.244 -0.022 1.034
 -0.236 -0.022 1.029
 -0.229 -0.022 1.024
 -0.217 -0.021 0.999
 -0.206 -0.021 0.971
 -0.196 -0.02 0.951
 -0.186 -0.02 0.932
 -0.177 -0.02 0.911
 -0.172 -0.02 0.914
 -0.167 -0.02 0.919
 -0.162 -0.02 0.924
 -0.158 -0.02 0.931
 -0.153 -0.02 0.932
 -0.148 -0.02 0.939
 -0.144 -0.02 0.95
 -0.14 -0.021 0.958
 -0.144 -0.022 1.028
 -0.16 -0.025 1.193
 -0.172 -0.028 1.348
 -0.179 -0.03 1.467
 -0.178 -0.032 1.54
 -0.175 -0.033 1.59
 -0.168 -0.033 1.613
 -0.158 -0.033 1.607
 -0.147 -0.033 1.589
 -0.136 -0.032 1.563
 -0.123 -0.032 1.522
 -0.111 -0.031 1.469
 -0.098 -0.029 1.407
 -0.085 -0.028 1.338
 -0.073 -0.027 1.262
 -0.062 -0.025 1.181
 -0.052 -0.024 1.101
 -0.042 -0.022 1.027
 -0.034 -0.021 0.968
 -0.028 -0.02 0.932
 -0.022 -0.02 0.918
 -0.017 -0.02 0.921
 -0.012 -0.021 0.932
 -0.006 -0.021 0.939
 -0.001 -0.021 0.936
 0.004 -0.021 0.928
 0.009 -0.02 0.917
 0.014 -0.02 0.907
 0.019 -0.02 0.897
 0.024 -0.02 0.899
 0.03 -0.021 0.927
 0.038 -0.022 0.983
 0.047 -0.023 1.066
 0.059 -0.026 1.181
 0.074 -0.028 1.315
 0.09 -0.031 1.443
 0.105 -0.033 1.544
 0.119 -0.035 1.618
 0.132 -0.036 1.658
 0.141 -0.036 1.66
 0.148 -0.035 1.629
 0.155 -0.034 1.597
 0.162 -0.034 1.581
 0.17 -0.034 1.568
 0.178 -0.034 1.563
 0.188 -0.034 1.568
 0.198 -0.034 1.571
 0.205 -0.034 1.555
 0.212 -0.034 1.539
 0.218 -0.033 1.523
 0.225 -0.033 1.508
 0.231 -0.033 1.492
 0.238 -0.033 1.479
 0.245 -0.033 1.465
 0.25 -0.032 1.448
 0.257 -0.032 1.439
 0.264 -0.032 1.427
 0.269 -0.032 1.412
 0.274 -0.031 1.392
 0.28 -0.031 1.383
 0.284 -0.031 1.363
 0.291 -0.031 1.357
 0.299 -0.031 1.353
 0.303 -0.03 1.335
 0.309 -0.03 1.328
 0.316 -0.03 1.321
 0.321 -0.03 1.312
 0.328 -0.03 1.306
 0.338 -0.03 1.315
 0.347 -0.031 1.318
 0.355 -0.031 1.317
 0.364 -0.031 1.319
 0.372 -0.031 1.318
 0.379 -0.031 1.314
 0.384 -0.031 1.302
 0.391 -0.031 1.297
 0.397 -0.03 1.289
 0.401 -0.03 1.279
 0.407 -0.03 1.271
 0.407 -0.03 1.244
 0.405 -0.029 1.214
 0.405 -0.029 1.191
 0.403 -0.028 1.161
 0.406 -0.028 1.149
 0.41 -0.028 1.139
 0.415 -0.028 1.133
 0.419 -0.028 1.123
 0 0 0
 0 0 0
 0 0 0
 0 0 0
 0.424 -0.026 1.04
 0.43 -0.026 1.037
 0.433 -0.026 1.028
 0.429 -0.025 1.001
 0.425 -0.025 0.975
 0.421 -0.024 0.951
 0.417 -0.024 0.926
 0.414 -0.023 0.903
 0.412 -0.023 0.886
 0.412 -0.023 0.872
 0.413 -0.023 0.859
 0.414 -0.023 0.849
 0.417 -0.022 0.842
 0.421 -0.022 0.837
 0.425 -0.022 0.831
 0.429 -0.022 0.828
 0.432 -0.022 0.821
 0.436 -0.022 0.815
 0.438 -0.022 0.807
 0.44 -0.022 0.798
 0.441 -0.022 0.789
 0.438 -0.021 0.772
 0.442 -0.021 0.767
 -0.374 -0.011 0.671
 -0.377 -0.011 0.687
 -0.388 -0.011 0.719
 -0.395 -0.012 0.741
 -0.4 -0.012 0.762
 -0.402 -0.012 0.78
 -0.401 -0.012 0.79
 -0.397 -0.012 0.794
 -0.393 -0.012 0.797
 -0.388 -0.012 0.8
 -0.383 -0.012 0.803
 -0.379 -0.013 0.806
 -0.375 -0.013 0.809
 -0.37 -0.013 0.813
 -0.366 -0.013 0.818
 -0.362 -0.013 0.822
 -0.358 -0.013 0.826
 -0.354 -0.013 0.83
 -0.35 -0.013 0.834
 -0.346 -0.013 0.839
 -0.341 -0.013 0.843
 -0.338 -0.013 0.848
 -0.334 -0.013 0.852
 -0.329 -0.013 0.856
 -0.324 -0.013 0.859
 -0.319 -0.013 0.861
 -0.314 -0.013 0.861
 -0.308 -0.013 0.861
 -0.302 -0.013 0.862
 -0.297 -0.013 0.863
 -0.291 -0.013 0.863
 -0.286 -0.013 0.864
 -0.281 -0.013 0.865
 -0.275 -0.013 0.865
 -0.27 -0.013 0.867
 -0.265 -0.013 0.869
 -0.26 -0.013 0.871
 -0.255 -0.013 0.872
 -0.25 -0.014 0.873
 -0.245 -0.014 0.875
 -0.24 -0.014 0.879
 -0.237 -0.014 0.887
 -0.233 -0.014 0.892
 -0.229 -0.014 0.898
 -0.225 -0.014 0.907
 -0.222 -0.014 0.917
 -0.218 -0.014 0.923
 -0.213 -0.014 0.927
 -0.208 -0.014 0.93
 -0.201 -0.014 0.923
 -0.194 -0.014 0.915
 -0.187 -0.014 0.909
 -0.18 -0.014 0.902
 -0.174 -0.014 0.897
 -0.169 -0.014 0.898
 -0.164 -0.014 0.901
 -0.159 -0.014 0.904
 -0.154 -0.014 0.909
 -0.149 -0.014 0.911
 -0.145 -0.014 0.918
 -0.141 -0.015 0.928
 -0.137 -0.015 0.935
 -0.139 -0.015 0.989
 -0.149 -0.017 1.115
 -0.159 -0.019 1.245
 -0.166 -0.02 1.36
 -0.167 -0.022 1.443
 -0.165 -0.022 1.499
 -0.157 -0.022 1.508
 -0.147 -0.022 1.491
 -0.135 -0.022 1.46
 -0.123 -0.021 1.421
 -0.111 -0.021 1.37
 -0.099 -0.02 1.311
 -0.087 -0.019 1.244
 -0.075 -0.018 1.171
 -0.064 -0.017 1.092
 -0.053 -0.016 1.011
 -0.044 -0.015 0.941
 -0.037 -0.014 0.885
 -0.03 -0.014 0.845
 -0.025 -0.014 0.823
 -0.02 -0.013 0.816
 -0.015 -0.014 0.815
 -0.01 -0.014 0.817
 -0.006 -0.014 0.818
 -0.001 -0.014 0.818
 0.003 -0.014 0.818
 0.008 -0.014 0.818
 0.012 -0.014 0.818
 0.017 -0.014 0.817
 0.022 -0.014 0.817
 0.027 -0.014 0.828
 0.033 -0.014 0.864
 0.041 -0.015 0.927
 0.051 -0.017 1.02
 0.064 -0.018 1.14
 0.08 -0.021 1.29
 0.097 -0.023 1.426
 0.113 -0.024 1.528
 0.126 -0.025 1.583
 0.136 -0.025 1.595
 0.141 -0.025 1.553
 0.145 -0.024 1.5
 0.153 -0.024 1.488
 0.162 -0.024 1.495
 0.173 -0.024 1.513
 0.185 -0.025 1.542
 0.197 -0.025 1.566
 0.205 -0.025 1.555
 0.211 -0.025 1.538
 0.218 -0.025 1.522
 0.225 -0.024 1.508
 0.231 -0.024 1.492
 0.238 -0.024 1.478
 0.244 -0.024 1.464
 0.25 -0.024 1.449
 0.256 -0.024 1.433
 0.262 -0.023 1.419
 0.267 -0.023 1.403
 0.272 -0.023 1.385
 0.278 -0.023 1.373
 0.285 -0.023 1.364
 0.291 -0.023 1.358
 0.298 -0.023 1.352
 0.305 -0.023 1.346
 0.311 -0.023 1.336
 0.317 -0.023 1.328
 0.323 -0.023 1.318
 0.33 -0.023 1.313
 0.337 -0.023 1.31
 0.345 -0.023 1.31
 0.353 -0.023 1.307
 0.36 -0.023 1.304
 0.366 -0.023 1.298
 0.372 -0.023 1.29
 0.377 -0.022 1.279
 0.383 -0.022 1.272
 0.389 -0.022 1.264
 0.393 -0.022 1.253
 0.399 -0.022 1.245
 0.404 -0.022 1.237
 0.408 -0.022 1.223
 0.412 -0.022 1.211
 0.413 -0.022 1.193
 0.418 -0.021 1.182
 0.421 -0.021 1.169
 0.425 -0.021 1.158
 0.427 -0.021 1.144
 0 0 0
 0 0 0
 0 0 0
 0.402 -0.019 1.003
 0.417 -0.019 1.022
 0.423 -0.019 1.021
 0.428 -0.019 1.014
 0.43 -0.019 1.002
 0.431 -0.019 0.988
 0.427 -0.019 0.963
 0.424 -0.018 0.94
 0.421 -0.018 0.92
 0.419 -0.018 0.9
 0.418 -0.018 0.884
 0.417 -0.017 0.869
 0.418 -0.017 0.857
 0.419 -0.017 0.846
 0.421 -0.017 0.836
 0.423 -0.017 0.827
 0.425 -0.017 0.819
 0.427 -0.017 0.811
 0.43 -0.017 0.803
 0.432 -0.017 0.796
 0.435 -0.017 0.789
 0.437 -0.017 0.782
 0.443 -0.017 0.781
 0.446 -0.017 0.775
 -0.376 -0.006 0.675
 -0.374 -0.007 0.681
 -0.391 -0.007 0.723
 -0.397 -0.007 0.746
 -0.402 -0.007 0.768
 -0.405 -0.007 0.785
 -0.403 -0.007 0.793
 -0.399 -0.007 0.797
 -0.394 -0.007 0.8
 -0.389 -0.007 0.803
 -0.385 -0.007 0.805
 -0.38 -0.007 0.808
 -0.376 -0.007 0.812
 -0.371 -0.008 0.816
 -0.367 -0.008 0.819
 -0.363 -0.008 0.824
 -0.359 -0.008 0.828
 -0.354 -0.008 0.831
 -0.35 -0.008 0.835
 -0.346 -0.008 0.839
 -0.341 -0.008 0.843
 -0.337 -0.008 0.847
 -0.333 -0.008 0.851
 -0.328 -0.008 0.853
 -0.323 -0.008 0.855
 -0.317 -0.008 0.855
 -0.311 -0.008 0.855
 -0.306 -0.008 0.855
 -0.3 -0.008 0.856
 -0.295 -0.008 0.857
 -0.29 -0.008 0.858
 -0.284 -0.008 0.859
 -0.279 -0.008 0.86
 -0.274 -0.008 0.861
 -0.269 -0.008 0.863
 -0.264 -0.008 0.864
 -0.258 -0.008 0.864
 -0.253 -0.008 0.865
 -0.247 -0.008 0.865
 -0.242 -0.008 0.865
 -0.237 -0.008 0.866
 -0.232 -0.008 0.866
 -0.226 -0.008 0.868
 -0.221 -0.008 0.869
 -0.216 -0.008 0.87
 -0.211 -0.008 0.872
 -0.206 -0.008 0.874
 -0.201 -0.008 0.873
 -0.195 -0.008 0.872
 -0.19 -0.008 0.87
 -0.184 -0.008 0.868
 -0.179 -0.008 0.868
 -0.174 -0.009 0.87
 -0.169 -0.009 0.873
 -0.165 -0.009 0.878
 -0.161 -0.009 0.885
 -0.157 -0.009 0.891
 -0.152 -0.009 0.895
 -0.147 -0.009 0.896
 -0.142 -0.009 0.901
 -0.138 -0.009 0.91
 -0.134 -0.009 0.916
 -0.134 -0.009 0.959
 -0.14 -0.01 1.046
 -0.146 -0.011 1.14
 -0.15 -0.012 1.231
 -0.152 -0.012 1.307
 -0.149 -0.013 1.356
 -0.142 -0.013 1.359
 -0.132 -0.012 1.339
 -0.121 -0.012 1.307
 -0.11 -0.012 1.264
 -0.098 -0.012 1.211
 -0.087 -0.011 1.148
 -0.075 -0.011 1.077
 -0.064 -0.01 1.003
 -0.055 -0.01 0.934
 -0.046 -0.009 0.879
 -0.04 -0.009 0.841
 -0.034 -0.009 0.819
 -0.029 -0.009 0.81
 -0.024 -0.009 0.809
 -0.02 -0.009 0.809
 -0.015 -0.009 0.811
 -0.01 -0.009 0.814
 -0.006 -0.009 0.817
 -0.001 -0.009 0.822
 0.003 -0.009 0.826
 0.008 -0.009 0.827
 0.013 -0.009 0.826
 0.017 -0.009 0.823
 0.022 -0.009 0.818
 0.026 -0.009 0.815
 0.031 -0.009 0.818
 0.037 -0.009 0.846
 0.045 -0.01 0.904
 0.055 -0.011 0.99
 0.069 -0.012 1.123
 0.087 -0.013 1.278
 0.102 -0.014 1.392
 0.116 -0.015 1.46
 0.126 -0.015 1.484
 0.132 -0.015 1.448
 0.134 -0.014 1.387
 0.143 -0.014 1.393
 0.154 -0.015 1.425
 0.167 -0.015 1.466
 0.182 -0.016 1.52
 0.197 -0.016 1.566
 0.206 -0.016 1.561
 0.212 -0.016 1.544
 0.219 -0.016 1.529
 0.226 -0.016 1.513
 0.232 -0.016 1.496
 0.238 -0.016 1.481
 0.245 -0.015 1.467
 0.251 -0.015 1.453
 0.257 -0.015 1.437
 0.263 -0.015 1.423
 0.268 -0.015 1.407
 0.274 -0.015 1.391
 0.279 -0.015 1.379
 0.286 -0.015 1.37
 0.292 -0.015 1.363
 0.299 -0.015 1.356
 0.306 -0.015 1.348
 0.311 -0.015 1.337
 0.317 -0.015 1.329
 0.323 -0.015 1.318
 0.33 -0.015 1.312
 0.337 -0.015 1.309
 0.344 -0.015 1.306
 0.351 -0.015 1.301
 0.358 -0.015 1.296
 0.363 -0.015 1.287
 0.368 -0.015 1.274
 0.371 -0.015 1.258
 0.376 -0.015 1.249
 0.38 -0.015 1.237
 0.385 -0.014 1.225
 0.39 -0.014 1.216
 0.395 -0.014 1.208
 0.398 -0.014 1.194
 0.402 -0.014 1.181
 0.404 -0.014 1.164
 0.407 -0.014 1.153
 0.411 -0.014 1.141
 0.415 -0.014 1.132
 0.419 -0.014 1.122
 0.428 -0.014 1.126
 0 0 0
 0 0 0
 0.396 -0.013 0.987
 0.411 -0.013 1.009
 0.419 -0.013 1.011
 0.424 -0.013 1.005
 0.428 -0.013 0.998
 0.432 -0.013 0.991
 0.431 -0.013 0.972
 0.429 -0.013 0.952
 0.428 -0.013 0.934
 0.426 -0.012 0.916
 0.425 -0.012 0.9
 0.425 -0.012 0.884
 0.424 -0.012 0.87
 0.425 -0.012 0.857
 0.426 -0.012 0.846
 0.427 -0.012 0.835
 0.428 -0.012 0.826
 0.43 -0.012 0.817
 0.432 -0.012 0.809
 0.435 -0.012 0.801
 0.437 -0.012 0.794
 0.44 -0.012 0.787
 0.445 -0.012 0.785
 0.448 -0.012 0.778
 -0.378 -0.002 0.678
 -0.378 -0.002 0.688
 -0.394 -0.002 0.728
 -0.4 -0.002 0.752
 -0.405 -0.002 0.774
 -0.407 -0.002 0.79
 -0.405 -0.002 0.796
 -0.4 -0.002 0.8
 -0.395 -0.002 0.803
 -0.391 -0.002 0.806
 -0.386 -0.002 0.808
 -0.381 -0.002 0.811
 -0.377 -0.002 0.815
 -0.373 -0.002 0.818
 -0.368 -0.002 0.822
 -0.364 -0.002 0.826
 -0.359 -0.003 0.829
 -0.355 -0.003 0.832
 -0.35 -0.003 0.835
 -0.346 -0.003 0.839
 -0.341 -0.003 0.842
 -0.337 -0.003 0.846
 -0.332 -0.003 0.849
 -0.327 -0.003 0.851
 -0.321 -0.003 0.851
 -0.316 -0.003 0.851
 -0.31 -0.003 0.85
 -0.304 -0.003 0.85
 -0.298 -0.003 0.851
 -0.293 -0.003 0.852
 -0.288 -0.003 0.854
 -0.283 -0.003 0.856
 -0.278 -0.003 0.857
 -0.273 -0.003 0.859
 -0.268 -0.003 0.86
 -0.262 -0.003 0.86
 -0.257 -0.003 0.859
 -0.251 -0.003 0.859
 -0.246 -0.003 0.859
 -0.24 -0.003 0.858
 -0.235 -0.003 0.859
 -0.23 -0.003 0.86
 -0.225 -0.003 0.86
 -0.219 -0.003 0.86
 -0.214 -0.003 0.86
 -0.208 -0.003 0.859
 -0.203 -0.003 0.857
 -0.197 -0.003 0.855
 -0.191 -0.003 0.854
 -0.186 -0.003 0.853
 -0.181 -0.003 0.852
 -0.175 -0.003 0.852
 -0.17 -0.003 0.852
 -0.165 -0.003 0.852
 -0.16 -0.003 0.852
 -0.155 -0.003 0.853
 -0.151 -0.003 0.856
 -0.146 -0.004 0.857
 -0.141 -0.004 0.859
 -0.136 -0.004 0.863
 -0.133 -0.004 0.872
 -0.129 -0.004 0.883
 -0.129 -0.004 0.918
 -0.131 -0.004 0.98
 -0.134 -0.004 1.048
 -0.136 -0.004 1.113
 -0.136 -0.004 1.173
 -0.133 -0.004 1.206
 -0.126 -0.004 1.204
 -0.117 -0.004 1.182
 -0.107 -0.004 1.147
 -0.096 -0.004 1.102
 -0.085 -0.004 1.046
 -0.075 -0.004 0.985
 -0.065 -0.004 0.926
 -0.057 -0.004 0.878
 -0.049 -0.004 0.84
 -0.043 -0.004 0.817
 -0.038 -0.004 0.809
 -0.033 -0.004 0.808
 -0.029 -0.004 0.808
 -0.024 -0.004 0.81
 -0.02 -0.004 0.812
 -0.015 -0.004 0.817
 -0.01 -0.004 0.823
 -0.006 -0.004 0.838
 -0.001 -0.004 0.868
 0.003 -0.004 0.893
 0.009 -0.004 0.902
 0.014 -0.004 0.899
 0.019 -0.004 0.885
 0.023 -0.004 0.853
 0.027 -0.004 0.826
 0.031 -0.004 0.813
 0.036 -0.004 0.813
 0.042 -0.004 0.834
 0.049 -0.005 0.886
 0.061 -0.005 0.985
 0.076 -0.005 1.122
 0.091 -0.006 1.24
 0.105 -0.006 1.321
 0.116 -0.006 1.357
 0.121 -0.006 1.332
 0.124 -0.006 1.279
 0.134 -0.006 1.307
 0.148 -0.006 1.363
 0.163 -0.006 1.431
 0.181 -0.007 1.51
 0.198 -0.007 1.575
 0.207 -0.007 1.572
 0.214 -0.007 1.557
 0.221 -0.007 1.543
 0.228 -0.007 1.528
 0.235 -0.007 1.512
 0.241 -0.007 1.496
 0.247 -0.007 1.481
 0.253 -0.007 1.464
 0.259 -0.007 1.447
 0.264 -0.007 1.432
 0.27 -0.007 1.417
 0.276 -0.007 1.403
 0.282 -0.007 1.392
 0.289 -0.007 1.383
 0.295 -0.007 1.375
 0.301 -0.007 1.366
 0.308 -0.007 1.356
 0.313 -0.007 1.345
 0.319 -0.007 1.333
 0.324 -0.007 1.321
 0.33 -0.007 1.314
 0.337 -0.007 1.31
 0.344 -0.007 1.307
 0.351 -0.007 1.302
 0.358 -0.007 1.296
 0.364 -0.007 1.289
 0.368 -0.007 1.276
 0.37 -0.007 1.254
 0.371 -0.007 1.232
 0.372 -0.007 1.208
 0.371 -0.007 1.18
 0.372 -0.007 1.161
 0.373 -0.007 1.141
 0.374 -0.007 1.122
 0.373 -0.007 1.097
 0.374 -0.007 1.079
 0.38 -0.007 1.076
 0.377 -0.007 1.046
 0.379 -0.007 1.034
 0.385 -0.007 1.031
 0.387 -0.007 1.018
 0 0 0
 0 0 0
 0.367 -0.006 0.916
 0.39 -0.007 0.956
 0.401 -0.007 0.966
 0.408 -0.007 0.968
 0.415 -0.007 0.967
 0.426 -0.007 0.976
 0.428 -0.007 0.966
 0.43 -0.007 0.955
 0.432 -0.007 0.943
 0.432 -0.007 0.928
 0.432 -0.007 0.913
 0.431 -0.007 0.897
 0.43 -0.007 0.882
 0.43 -0.007 0.867
 0.43 -0.007 0.855
 0.43 -0.007 0.842
 0.431 -0.006 0.832
 0.433 -0.006 0.822
 0.435 -0.006 0.813
 0.437 -0.006 0.804
 0.439 -0.006 0.797
 0.442 -0.006 0.79
 0.445 -0.006 0.783
 0.444 -0.006 0.772
 -0.377 0.001 0.676
 -0.378 0.001 0.689
 -0.396 0.002 0.733
 -0.403 0.002 0.757
 -0.408 0.002 0.779
 -0.41 0.002 0.794
 -0.406 0.002 0.8
 -0.402 0.002 0.803
 -0.397 0.002 0.807
 -0.392 0.002 0.809
 -0.387 0.002 0.812
 -0.383 0.002 0.814
 -0.378 0.002 0.817
 -0.373 0.002 0.82
 -0.369 0.002 0.823
 -0.364 0.002 0.827
 -0.36 0.002 0.83
 -0.355 0.002 0.832
 -0.35 0.002 0.835
 -0.346 0.002 0.839
 -0.341 0.002 0.842
 -0.336 0.002 0.845
 -0.331 0.002 0.847
 -0.326 0.001 0.848
 -0.32 0.001 0.848
 -0.314 0.001 0.847
 -0.308 0.001 0.847
 -0.303 0.001 0.847
 -0.298 0.001 0.848
 -0.292 0.001 0.85
 -0.288 0.001 0.852
 -0.283 0.001 0.854
 -0.278 0.001 0.856
 -0.272 0.001 0.857
 -0.267 0.001 0.858
 -0.262 0.001 0.857
 -0.256 0.001 0.856
 -0.25 0.001 0.855
 -0.245 0.001 0.855
 -0.239 0.001 0.854
 -0.234 0.001 0.855
 -0.229 0.001 0.856
 -0.223 0.001 0.855
 -0.218 0.001 0.855
 -0.212 0.001 0.854
 -0.206 0.001 0.851
 -0.201 0.001 0.849
 -0.195 0.001 0.847
 -0.19 0.001 0.846
 -0.184 0.001 0.846
 -0.179 0.001 0.845
 -0.174 0.001 0.844
 -0.169 0.001 0.844
 -0.163 0.001 0.842
 -0.158 0.001 0.842
 -0.153 0 0.841
 -0.148 0 0.841
 -0.143 0 0.84
 -0.138 0 0.842
 -0.134 0 0.845
 -0.129 0 0.851
 -0.126 0 0.86
 -0.123 0 0.88
 -0.123 0.001 0.916
 -0.123 0.001 0.956
 -0.122 0.001 0.995
 -0.12 0.001 1.03
 -0.116 0.001 1.049
 -0.109 0.001 1.042
 -0.101 0.001 1.019
 -0.092 0.001 0.983
 -0.082 0 0.941
 -0.074 0 0.9
 -0.066 0 0.864
 -0.059 0 0.837
 -0.053 0 0.82
 -0.048 0 0.811
 -0.043 0 0.807
 -0.038 0 0.806
 -0.033 0 0.808
 -0.029 0 0.81
 -0.024 0 0.814
 -0.02 0 0.819
 -0.015 0 0.83
 -0.011 0 0.861
 -0.006 0 0.906
 -0.001 0 0.968
 0.004 0 1.024
 0.01 0 1.055
 0.016 0 1.031
 0.021 0 0.988
 0.025 0 0.923
 0.028 0 0.861
 0.031 0 0.817
 0.036 0 0.809
 0.04 0 0.808
 0.046 0 0.824
 0.055 0 0.889
 0.067 0 0.995
 0.081 0 1.101
 0.094 0 1.187
 0.106 0.001 1.243
 0.113 0 1.238
 0.117 0 1.207
 0.128 0 1.247
 0.143 0.001 1.317
 0.16 0.001 1.398
 0.179 0.001 1.492
 0.198 0.001 1.569
 0.207 0.001 1.569
 0.214 0.001 1.556
 0.221 0.001 1.543
 0.228 0.001 1.53
 0.235 0.001 1.514
 0.241 0.001 1.498
 0.248 0.001 1.482
 0.253 0.001 1.466
 0.259 0 1.449
 0.265 0 1.435
 0.271 0 1.421
 0.277 0 1.407
 0.283 0 1.397
 0.29 0 1.387
 0.296 0 1.377
 0.302 0 1.368
 0.307 0 1.356
 0.313 0 1.343
 0.318 0 1.329
 0.323 0 1.318
 0.33 0 1.312
 0.337 0 1.31
 0.346 0 1.312
 0.354 0 1.312
 0.361 0 1.306
 0.365 0 1.292
 0.367 0 1.272
 0.366 0 1.241
 0.36 0 1.196
 0.359 0 1.168
 0.358 0 1.138
 0.358 0 1.116
 0.35 0 1.07
 0.345 0 1.035
 0.337 0 0.989
 0.332 0 0.956
 0.333 0 0.941
 0.325 -0.001 0.902
 0.319 -0.001 0.869
 0.309 -0.001 0.826
 0.278 -0.001 0.73
 0.199 -0.001 0.51
 0.185 -0.001 0.466
 0.263 -0.001 0.655
 0.311 -0.001 0.761
 0.345 -0.001 0.832
 0.371 -0.001 0.879
 0.391 -0.001 0.912
 0.41 -0.001 0.94
 0.421 -0.001 0.95
 0.428 -0.001 0.951
 0.433 -0.001 0.945
 0.435 -0.001 0.935
 0.436 -0.001 0.921
 0.435 -0.001 0.907
 0.435 -0.001 0.891
 0.434 -0.001 0.876
 0.434 -0.001 0.862
 0.434 -0.001 0.849
 0.434 -0.001 0.836
 0.435 -0.001 0.825
 0.436 -0.001 0.815
 0.438 -0.001 0.806
 0.44 -0.001 0.798
 0.442 -0.001 0.791
 0.446 -0.001 0.786
 0.446 -0.001 0.775
 -0.375 0.006 0.673
 -0.385 0.006 0.702
 -0.396 0.006 0.733
 -0.403 0.007 0.758
 -0.408 0.007 0.78
 -0.411 0.007 0.797
 -0.408 0.007 0.803
 -0.404 0.007 0.807
 -0.399 0.007 0.81
 -0.394 0.007 0.812
 -0.389 0.007 0.814
 -0.384 0.007 0.817
 -0.379 0.007 0.819
 -0.374 0.007 0.822
 -0.369 0.007 0.825
 -0.365 0.007 0.827
 -0.36 0.007 0.831
 -0.355 0.007 0.833
 -0.35 0.007 0.836
 -0.346 0.007 0.839
 -0.341 0.007 0.842
 -0.336 0.007 0.843
 -0.33 0.007 0.845
 -0.325 0.007 0.845
 -0.319 0.007 0.846
 -0.314 0.007 0.846
 -0.308 0.007 0.846
 -0.303 0.006 0.847
 -0.297 0.006 0.848
 -0.292 0.006 0.849
 -0.287 0.006 0.851
 -0.282 0.006 0.853
 -0.277 0.006 0.854
 -0.272 0.006 0.855
 -0.266 0.006 0.855
 -0.261 0.006 0.854
 -0.255 0.006 0.852
 -0.249 0.006 0.852
 -0.244 0.006 0.851
 -0.238 0.006 0.851
 -0.233 0.006 0.852
 -0.228 0.006 0.852
 -0.222 0.006 0.851
 -0.217 0.006 0.85
 -0.211 0.006 0.849
 -0.205 0.006 0.846
 -0.2 0.006 0.845
 -0.194 0.006 0.843
 -0.189 0.006 0.842
 -0.183 0.006 0.841
 -0.178 0.006 0.839
 -0.173 0.006 0.838
 -0.167 0.005 0.837
 -0.162 0.005 0.836
 -0.157 0.005 0.835
 -0.152 0.005 0.834
 -0.147 0.005 0.834
 -0.142 0.005 0.834
 -0.137 0.005 0.835
 -0.132 0.005 0.837
 -0.128 0.005 0.84
 -0.123 0.005 0.843
 -0.119 0.005 0.846
 -0.115 0.005 0.854
 -0.111 0.005 0.865
 -0.107 0.005 0.877
 -0.104 0.006 0.887
 -0.099 0.006 0.892
 -0.093 0.005 0.887
 -0.087 0.005 0.875
 -0.08 0.005 0.86
 -0.074 0.005 0.844
 -0.068 0.005 0.832
 -0.063 0.005 0.822
 -0.057 0.005 0.815
 -0.052 0.005 0.81
 -0.047 0.004 0.806
 -0.043 0.004 0.804
 -0.038 0.004 0.805
 -0.033 0.004 0.81
 -0.029 0.004 0.814
 -0.024 0.005 0.821
 -0.02 0.005 0.835
 -0.016 0.005 0.87
 -0.011 0.005 0.931
 -0.006 0.006 1.008
 -0.001 0.007 1.101
 0.005 0.008 1.179
 0.012 0.008 1.216
 0.019 0.008 1.18
 0.024 0.007 1.106
 0.027 0.006 1.009
 0.03 0.005 0.915
 0.032 0.004 0.839
 0.036 0.004 0.811
 0.04 0.004 0.805
 0.045 0.004 0.803
 0.051 0.004 0.834
 0.061 0.005 0.91
 0.074 0.006 1.006
 0.086 0.006 1.091
 0.099 0.007 1.168
 0.11 0.007 1.21
 0.119 0.007 1.225
 0.13 0.008 1.271
 0.146 0.008 1.343
 0.162 0.009 1.417
 0.18 0.01 1.497
 0.196 0.01 1.558
 0.205 0.01 1.558
 0.213 0.01 1.546
 0.22 0.01 1.532
 0.227 0.01 1.518
 0.233 0.009 1.5
 0.239 0.009 1.481
 0.245 0.009 1.465
 0.249 0.009 1.443
 0.254 0.009 1.422
 0.26 0.009 1.408
 0.266 0.008 1.393
 0.27 0.008 1.374
 0.277 0.008 1.368
 0.283 0.008 1.354
 0.287 0.008 1.339
 0.294 0.008 1.334
 0.299 0.008 1.319
 0.305 0.008 1.308
 0.313 0.008 1.31
 0.323 0.008 1.317
 0.333 0.008 1.327
 0.346 0.008 1.346
 0.357 0.008 1.355
 0.365 0.008 1.351
 0.37 0.008 1.339
 0.363 0.007 1.285
 0.353 0.007 1.222
 0.339 0.006 1.15
 0.322 0.005 1.069
 0.312 0.005 1.012
 0.305 0.005 0.971
 0.3 0.004 0.933
 0.294 0.004 0.897
 0.289 0.004 0.866
 0.282 0.003 0.827
 0.279 0.003 0.805
 0.281 0.003 0.794
 0.271 0.003 0.752
 0.26 0.002 0.707
 0.245 0.002 0.655
 0.217 0.001 0.569
 0.178 0 0.456
 0.169 0 0.425
 0.215 0.001 0.533
 0.255 0.002 0.623
 0.289 0.002 0.695
 0.319 0.003 0.754
 0.345 0.003 0.802
 0.366 0.003 0.837
 0.385 0.003 0.868
 0.402 0.004 0.892
 0.416 0.004 0.909
 0.428 0.004 0.919
 0.435 0.004 0.92
 0.437 0.004 0.911
 0.438 0.004 0.897
 0.437 0.004 0.883
 0.437 0.003 0.868
 0.437 0.003 0.855
 0.436 0.003 0.841
 0.437 0.003 0.829
 0.437 0.003 0.818
 0.439 0.003 0.808
 0.441 0.003 0.8
 0.443 0.003 0.792
 0.446 0.003 0.786
 0.447 0.003 0.776
 -0.377 0.01 0.677
 -0.382 0.01 0.696
 -0.393 0.011 0.728
 -0.4 0.011 0.752
 -0.405 0.012 0.774
 -0.409 0.012 0.792
 -0.407 0.012 0.802
 -0.404 0.012 0.808
 -0.4 0.012 0.812
 -0.395 0.012 0.814
 -0.39 0.012 0.816
 -0.385 0.012 0.818
 -0.38 0.012 0.821
 -0.375 0.012 0.823
 -0.37 0.012 0.826
 -0.365 0.012 0.828
 -0.36 0.012 0.831
 -0.355 0.012 0.834
 -0.35 0.012 0.836
 -0.345 0.012 0.838
 -0.34 0.012 0.84
 -0.335 0.012 0.842
 -0.33 0.012 0.843
 -0.325 0.012 0.845
 -0.319 0.012 0.845
 -0.314 0.012 0.846
 -0.308 0.012 0.846
 -0.303 0.012 0.847
 -0.297 0.012 0.847
 -0.292 0.012 0.849
 -0.287 0.012 0.85
 -0.282 0.012 0.851
 -0.277 0.011 0.852
 -0.271 0.011 0.853
 -0.266 0.011 0.852
 -0.26 0.011 0.851
 -0.254 0.011 0.85
 -0.248 0.011 0.85
 -0.243 0.011 0.85
 -0.238 0.011 0.85
 -0.232 0.011 0.85
 -0.227 0.011 0.85
 -0.221 0.011 0.849
 -0.216 0.011 0.847
 -0.21 0.011 0.845
 -0.204 0.011 0.843
 -0.199 0.011 0.841
 -0.193 0.011 0.84
 -0.188 0.011 0.838
 -0.182 0.01 0.837
 -0.177 0.01 0.835
 -0.172 0.01 0.834
 -0.166 0.01 0.833
 -0.161 0.01 0.832
 -0.156 0.01 0.831
 -0.151 0.01 0.83
 -0.146 0.01 0.83
 -0.141 0.01 0.831
 -0.136 0.01 0.831
 -0.132 0.01 0.832
 -0.127 0.01 0.835
 -0.122 0.01 0.835
 -0.117 0.01 0.836
 -0.113 0.01 0.837
 -0.108 0.01 0.838
 -0.103 0.01 0.839
 -0.098 0.01 0.839
 -0.093 0.01 0.838
 -0.088 0.01 0.837
 -0.083 0.01 0.833
 -0.078 0.01 0.829
 -0.072 0.01 0.824
 -0.067 0.009 0.82
 -0.062 0.009 0.814
 -0.057 0.009 0.809
 -0.052 0.009 0.805
 -0.047 0.009 0.803
 -0.042 0.009 0.801
 -0.038 0.009 0.803
 -0.033 0.009 0.808
 -0.029 0.009 0.813
 -0.024 0.009 0.818
 -0.02 0.009 0.834
 -0.016 0.01 0.873
 -0.012 0.011 0.946
 -0.007 0.012 1.043
 -0.001 0.014 1.158
 0.006 0.016 1.254
 0.013 0.016 1.302
 0.02 0.016 1.264
 0.025 0.014 1.176
 0.029 0.013 1.066
 0.032 0.011 0.961
 0.033 0.01 0.87
 0.037 0.009 0.831
 0.041 0.009 0.82
 0.045 0.009 0.812
 0.05 0.009 0.816
 0.059 0.01 0.869
 0.071 0.011 0.964
 0.084 0.012 1.062
 0.098 0.014 1.155
 0.112 0.015 1.234
 0.124 0.015 1.283
 0.137 0.016 1.331
 0.15 0.017 1.379
 0.164 0.017 1.432
 0.179 0.018 1.493
 0.193 0.019 1.534
 0.202 0.019 1.533
 0.21 0.019 1.526
 0.217 0.018 1.511
 0.224 0.018 1.497
 0.23 0.018 1.481
 0.234 0.018 1.453
 0.24 0.017 1.437
 0.244 0.017 1.413
 0.248 0.017 1.388
 0.254 0.016 1.375
 0.259 0.016 1.359
 0.261 0.016 1.328
 0.268 0.015 1.32
 0.271 0.015 1.297
 0.273 0.015 1.272
 0.279 0.015 1.262
 0.285 0.015 1.257
 0.294 0.015 1.262
 0.308 0.015 1.29
 0.324 0.015 1.323
 0.34 0.016 1.352
 0.354 0.016 1.376
 0.359 0.016 1.362
 0.356 0.015 1.32
 0.349 0.014 1.264
 0.331 0.013 1.173
 0.312 0.012 1.08
 0.292 0.011 0.989
 0.273 0.009 0.904
 0.261 0.009 0.845
 0.25 0.008 0.796
 0.238 0.007 0.74
 0.234 0.007 0.714
 0.229 0.006 0.684
 0.225 0.006 0.658
 0.224 0.006 0.645
 0.227 0.006 0.641
 0.219 0.005 0.607
 0.209 0.005 0.568
 0.198 0.004 0.527
 0.18 0.003 0.471
 0.165 0.003 0.424
 0.16 0.003 0.403
 0.185 0.003 0.459
 0.212 0.004 0.518
 0.241 0.005 0.578
 0.269 0.006 0.634
 0.294 0.006 0.685
 0.314 0.007 0.719
 0.336 0.007 0.757
 0.356 0.008 0.788
 0.375 0.008 0.819
 0.394 0.009 0.847
 0.411 0.009 0.869
 0.422 0.009 0.879
 0.43 0.009 0.881
 0.434 0.009 0.876
 0.437 0.009 0.868
 0.438 0.009 0.857
 0.438 0.009 0.844
 0.439 0.008 0.833
 0.44 0.008 0.822
 0.441 0.008 0.812
 0.443 0.008 0.804
 0.445 0.008 0.795
 0.445 0.008 0.785
 0.448 0.008 0.777
 -0.379 0.015 0.68
 -0.384 0.015 0.7
 -0.387 0.015 0.715
 -0.391 0.016 0.734
 -0.395 0.016 0.753
 -0.399 0.017 0.774
 -0.401 0.017 0.789
 -0.4 0.017 0.8
 -0.398 0.017 0.809
 -0.395 0.017 0.814
 -0.39 0.017 0.816
 -0.385 0.017 0.819
 -0.38 0.017 0.821
 -0.375 0.017 0.824
 -0.37 0.017 0.826
 -0.365 0.017 0.829
 -0.36 0.017 0.832
 -0.356 0.017 0.834
 -0.35 0.017 0.836
 -0.345 0.017 0.838
 -0.34 0.017 0.84
 -0.335 0.017 0.841
 -0.33 0.017 0.843
 -0.325 0.017 0.845
 -0.319 0.017 0.846
 -0.314 0.017 0.846
 -0.308 0.017 0.846
 -0.303 0.017 0.847
 -0.297 0.017 0.847
 -0.292 0.017 0.848
 -0.287 0.017 0.849
 -0.282 0.017 0.85
 -0.276 0.017 0.851
 -0.271 0.017 0.851
 -0.265 0.016 0.85
 -0.259 0.016 0.849
 -0.253 0.016 0.848
 -0.248 0.016 0.848
 -0.243 0.016 0.848
 -0.237 0.016 0.848
 -0.232 0.016 0.848
 -0.226 0.016 0.847
 -0.221 0.016 0.845
 -0.215 0.016 0.843
 -0.209 0.016 0.842
 -0.204 0.016 0.84
 -0.198 0.016 0.838
 -0.193 0.016 0.837
 -0.187 0.015 0.835
 -0.182 0.015 0.833
 -0.176 0.015 0.832
 -0.171 0.015 0.83
 -0.166 0.015 0.83
 -0.161 0.015 0.829
 -0.156 0.015 0.828
 -0.15 0.015 0.827
 -0.146 0.015 0.829
 -0.141 0.015 0.83
 -0.136 0.015 0.831
 -0.132 0.015 0.833
 -0.127 0.015 0.834
 -0.122 0.015 0.834
 -0.117 0.015 0.834
 -0.112 0.015 0.834
 -0.107 0.015 0.834
 -0.102 0.015 0.834
 -0.097 0.015 0.834
 -0.092 0.015 0.832
 -0.087 0.015 0.83
 -0.082 0.014 0.826
 -0.077 0.014 0.822
 -0.072 0.014 0.818
 -0.067 0.014 0.814
 -0.062 0.014 0.809
 -0.057 0.014 0.805
 -0.052 0.014 0.802
 -0.047 0.014 0.799
 -0.042 0.014 0.798
 -0.038 0.014 0.799
 -0.033 0.014 0.803
 -0.029 0.014 0.807
 -0.024 0.014 0.812
 -0.02 0.014 0.826
 -0.016 0.015 0.863
 -0.011 0.016 0.934
 -0.007 0.018 1.031
 -0.001 0.021 1.146
 0.006 0.023 1.251
 0.014 0.024 1.306
 0.021 0.023 1.275
 0.026 0.021 1.192
 0.03 0.019 1.088
 0.032 0.017 0.979
 0.034 0.015 0.887
 0.037 0.014 0.847
 0.042 0.014 0.839
 0.047 0.014 0.834
 0.052 0.014 0.84
 0.06 0.015 0.885
 0.073 0.017 0.988
 0.087 0.019 1.096
 0.102 0.021 1.196
 0.117 0.023 1.285
 0.131 0.024 1.351
 0.143 0.025 1.39
 0.153 0.025 1.414
 0.165 0.026 1.446
 0.179 0.027 1.485
 0.189 0.027 1.503
 0.197 0.027 1.496
 0.206 0.027 1.494
 0.213 0.027 1.48
 0.22 0.026 1.47
 0.227 0.026 1.46
 0.231 0.026 1.432
 0.236 0.025 1.41
 0.238 0.024 1.373
 0.239 0.024 1.333
 0.241 0.023 1.305
 0.242 0.022 1.27
 0.24 0.021 1.22
 0.245 0.021 1.206
 0.247 0.02 1.181
 0.251 0.02 1.168
 0.258 0.02 1.169
 0.272 0.021 1.197
 0.288 0.021 1.235
 0.309 0.023 1.291
 0.325 0.023 1.326
 0.341 0.024 1.358
 0.348 0.024 1.352
 0.342 0.023 1.298
 0.328 0.021 1.216
 0.31 0.019 1.121
 0.286 0.017 1.01
 0.264 0.015 0.913
 0.242 0.013 0.817
 0.223 0.012 0.738
 0.211 0.011 0.684
 0.199 0.01 0.631
 0.181 0.008 0.563
 0.18 0.008 0.548
 0.174 0.007 0.519
 0.171 0.007 0.501
 0.172 0.007 0.494
 0.176 0.007 0.495
 0.173 0.007 0.478
 0.168 0.006 0.455
 0.164 0.006 0.435
 0.158 0.005 0.412
 0.158 0.005 0.404
 0.154 0.005 0.388
 0.166 0.005 0.41
 0.182 0.006 0.442
 0.201 0.007 0.48
 0.221 0.007 0.522
 0.243 0.008 0.563
 0.261 0.009 0.596
 0.282 0.01 0.634
 0.302 0.01 0.669
 0.323 0.011 0.704
 0.346 0.012 0.741
 0.368 0.013 0.778
 0.388 0.013 0.806
 0.404 0.014 0.828
 0.417 0.014 0.84
 0.427 0.014 0.848
 0.433 0.014 0.848
 0.436 0.014 0.84
 0.438 0.014 0.832
 0.44 0.014 0.823
 0.441 0.013 0.812
 0.442 0.013 0.802
 0.443 0.013 0.793
 0.445 0.013 0.784
 0.449 0.013 0.779
 -0.381 0.019 0.684
 -0.385 0.02 0.701
 -0.379 0.019 0.702
 -0.382 0.02 0.717
 -0.384 0.02 0.733
 -0.39 0.021 0.755
 -0.393 0.021 0.773
 -0.394 0.022 0.787
 -0.393 0.022 0.798
 -0.391 0.022 0.807
 -0.388 0.022 0.812
 -0.384 0.022 0.816
 -0.379 0.022 0.82
 -0.375 0.022 0.824
 -0.37 0.022 0.827
 -0.366 0.022 0.83
 -0.361 0.022 0.832
 -0.356 0.022 0.834
 -0.351 0.022 0.836
 -0.346 0.022 0.839
 -0.341 0.022 0.841
 -0.336 0.022 0.843
 -0.331 0.022 0.845
 -0.325 0.022 0.847
 -0.32 0.022 0.847
 -0.314 0.022 0.846
 -0.308 0.022 0.846
 -0.302 0.022 0.846
 -0.297 0.022 0.846
 -0.291 0.022 0.847
 -0.287 0.022 0.849
 -0.282 0.022 0.851
 -0.276 0.022 0.852
 -0.271 0.022 0.853
 -0.266 0.022 0.853
 -0.26 0.022 0.853
 -0.254 0.021 0.852
 -0.249 0.021 0.852
 -0.244 0.021 0.852
 -0.238 0.021 0.852
 -0.233 0.021 0.851
 -0.227 0.021 0.849
 -0.221 0.021 0.847
 -0.215 0.021 0.845
 -0.21 0.021 0.844
 -0.204 0.021 0.842
 -0.199 0.021 0.841
 -0.193 0.021 0.839
 -0.188 0.02 0.837
 -0.182 0.02 0.834
 -0.177 0.02 0.834
 -0.171 0.02 0.833
 -0.166 0.02 0.832
 -0.161 0.02 0.833
 -0.156 0.02 0.832
 -0.151 0.02 0.831
 -0.147 0.02 0.833
 -0.142 0.02 0.834
 -0.137 0.02 0.835
 -0.132 0.02 0.837
 -0.128 0.02 0.839
 -0.122 0.02 0.838
 -0.117 0.02 0.836
 -0.112 0.02 0.835
 -0.107 0.02 0.834
 -0.102 0.02 0.833
 -0.097 0.02 0.832
 -0.092 0.019 0.829
 -0.087 0.019 0.826
 -0.082 0.019 0.822
 -0.076 0.019 0.818
 -0.071 0.019 0.814
 -0.066 0.019 0.811
 -0.061 0.019 0.806
 -0.056 0.018 0.802
 -0.052 0.018 0.799
 -0.047 0.018 0.796
 -0.042 0.018 0.794
 -0.037 0.018 0.795
 -0.033 0.018 0.798
 -0.028 0.018 0.8
 -0.024 0.018 0.802
 -0.019 0.019 0.815
 -0.015 0.019 0.849
 -0.011 0.021 0.916
 -0.006 0.023 1.001
 -0.001 0.026 1.092
 0.005 0.028 1.179
 0.013 0.029 1.229
 0.019 0.029 1.205
 0.025 0.027 1.136
 0.029 0.025 1.062
 0.032 0.023 0.979
 0.035 0.021 0.9
 0.038 0.02 0.863
 0.043 0.02 0.861
 0.048 0.019 0.859
 0.054 0.02 0.868
 0.061 0.02 0.899
 0.073 0.023 0.988
 0.087 0.025 1.091
 0.102 0.028 1.193
 0.115 0.03 1.267
 0.13 0.032 1.34
 0.142 0.033 1.38
 0.151 0.033 1.391
 0.159 0.033 1.391
 0.171 0.034 1.423
 0.181 0.034 1.436
 0.189 0.034 1.43
 0.196 0.034 1.422
 0.203 0.034 1.417
 0.211 0.033 1.412
 0.217 0.033 1.399
 0.219 0.032 1.36
 0.223 0.031 1.333
 0.223 0.03 1.289
 0.222 0.029 1.238
 0.222 0.028 1.202
 0.223 0.027 1.17
 0.221 0.026 1.122
 0.226 0.026 1.116
 0.227 0.025 1.087
 0.231 0.025 1.076
 0.241 0.025 1.092
 0.26 0.026 1.144
 0.278 0.028 1.193
 0.301 0.029 1.258
 0.314 0.03 1.279
 0.321 0.03 1.276
 0.318 0.029 1.233
 0.303 0.026 1.148
 0.283 0.024 1.047
 0.259 0.021 0.938
 0.232 0.018 0.822
 0.209 0.016 0.723
 0.185 0.013 0.625
 0.167 0.011 0.553
 0.157 0.01 0.506
 0.146 0.009 0.46
 0.134 0.008 0.416
 0.137 0.008 0.416
 0.133 0.007 0.394
 0.135 0.007 0.394
 0.14 0.007 0.4
 0.145 0.008 0.407
 0.147 0.008 0.404
 0.148 0.007 0.4
 0.15 0.007 0.397
 0.15 0.007 0.39
 0.15 0.007 0.383
 0.151 0.007 0.379
 0.155 0.007 0.382
 0.16 0.007 0.388
 0.169 0.008 0.404
 0.181 0.008 0.426
 0.195 0.009 0.451
 0.21 0.01 0.477
 0.23 0.011 0.515
 0.249 0.011 0.55
 0.27 0.012 0.586
 0.293 0.013 0.627
 0.316 0.015 0.667
 0.34 0.016 0.706
 0.364 0.017 0.745
 0.387 0.018 0.781
 0.408 0.018 0.809
 0.424 0.019 0.829
 0.434 0.019 0.836
 0.439 0.019 0.833
 0.441 0.019 0.824
 0.441 0.019 0.812
 0.442 0.018 0.802
 0.443 0.018 0.792
 0.451 0.018 0.795
 0.456 0.018 0.791
 -0.379 0.023 0.68
 -0.381 0.024 0.693
 -0.371 0.023 0.686
 -0.371 0.024 0.697
 -0.372 0.024 0.709
 -0.378 0.025 0.731
 -0.383 0.026 0.753
 -0.385 0.026 0.769
 -0.386 0.026 0.784
 -0.387 0.027 0.797
 -0.385 0.027 0.806
 -0.382 0.027 0.813
 -0.378 0.027 0.818
 -0.375 0.027 0.823
 -0.371 0.027 0.827
 -0.366 0.028 0.831
 -0.361 0.028 0.833
 -0.356 0.028 0.835
 -0.351 0.028 0.838
 -0.347 0.028 0.841
 -0.342 0.028 0.844
 -0.337 0.028 0.847
 -0.332 0.028 0.848
 -0.327 0.027 0.85
 -0.32 0.027 0.849
 -0.314 0.027 0.848
 -0.308 0.027 0.847
 -0.302 0.027 0.846
 -0.297 0.027 0.846
 -0.292 0.027 0.847
 -0.287 0.027 0.85
 -0.282 0.027 0.852
 -0.277 0.027 0.855
 -0.273 0.027 0.858
 -0.268 0.027 0.859
 -0.263 0.027 0.862
 -0.258 0.027 0.863
 -0.253 0.027 0.865
 -0.248 0.027 0.866
 -0.243 0.027 0.867
 -0.237 0.027 0.866
 -0.231 0.027 0.865
 -0.225 0.027 0.863
 -0.22 0.027 0.863
 -0.214 0.026 0.863
 -0.209 0.026 0.862
 -0.203 0.026 0.859
 -0.197 0.026 0.856
 -0.191 0.026 0.852
 -0.185 0.026 0.847
 -0.179 0.025 0.844
 -0.173 0.025 0.842
 -0.168 0.025 0.84
 -0.163 0.025 0.84
 -0.157 0.025 0.838
 -0.152 0.025 0.837
 -0.147 0.025 0.839
 -0.143 0.025 0.841
 -0.138 0.025 0.843
 -0.134 0.025 0.845
 -0.129 0.025 0.848
 -0.124 0.025 0.849
 -0.119 0.025 0.848
 -0.114 0.025 0.847
 -0.109 0.025 0.845
 -0.103 0.025 0.842
 -0.098 0.025 0.837
 -0.092 0.024 0.832
 -0.087 0.024 0.826
 -0.081 0.024 0.82
 -0.076 0.024 0.815
 -0.071 0.024 0.811
 -0.066 0.023 0.808
 -0.061 0.023 0.803
 -0.056 0.023 0.799
 -0.051 0.023 0.796
 -0.046 0.023 0.792
 -0.042 0.023 0.79
 -0.037 0.023 0.791
 -0.033 0.023 0.791
 -0.028 0.023 0.791
 -0.024 0.023 0.792
 -0.019 0.023 0.802
 -0.015 0.024 0.828
 -0.011 0.025 0.871
 -0.006 0.027 0.926
 -0.001 0.029 0.984
 0.004 0.03 1.041
 0.011 0.031 1.072
 0.017 0.031 1.071
 0.022 0.03 1.035
 0.027 0.029 0.998
 0.031 0.027 0.952
 0.035 0.026 0.908
 0.039 0.025 0.883
 0.045 0.026 0.892
 0.05 0.026 0.902
 0.057 0.027 0.926
 0.066 0.028 0.968
 0.077 0.03 1.05
 0.091 0.033 1.145
 0.105 0.036 1.236
 0.117 0.038 1.283
 0.13 0.039 1.336
 0.14 0.04 1.367
 0.148 0.04 1.362
 0.152 0.039 1.327
 0.161 0.04 1.343
 0.169 0.039 1.342
 0.175 0.039 1.327
 0.179 0.038 1.297
 0.185 0.038 1.29
 0.193 0.038 1.289
 0.197 0.037 1.27
 0.196 0.035 1.215
