-1.073 -1.61 3.86
-1.051 -1.614 3.875
-1.04 -1.635 3.932
-0.994 -1.601 3.853
-0.985 -1.625 3.918
-0.956 -1.618 3.906
-0.933 -1.619 3.914
-0.898 -1.6 3.872
-0.883 -1.618 3.919
-0.859 -1.619 3.926
-0.839 -1.626 3.948
-0.816 -1.629 3.959
-0.792 -1.63 3.965
-0.767 -1.63 3.97
-0.739 -1.623 3.955
-0.717 -1.627 3.97
-0.694 -1.632 3.984
-0.669 -1.629 3.981
-0.637 -1.611 3.94
-0.621 -1.633 3.997
-0.593 -1.624 3.978
-0.571 -1.631 3.996
-0.543 -1.62 3.973
-0.52 -1.623 3.984
-0.5 -1.637 4.019
-0.472 -1.628 3.999
-0.449 -1.63 4.007
-0.421 -1.619 3.982
-0.402 -1.638 4.03
-0.371 -1.612 3.967
-0.351 -1.631 4.016
-0.328 -1.636 4.03
-0.3 -1.617 3.985
-0.277 -1.625 4.006
-0.253 -1.63 4.02
-0.227 -1.619 3.993
-0.206 -1.644 4.055
-0.178 -1.617 3.989
-0.154 -1.62 3.996
-0.131 -1.631 4.024
-0.106 -1.63 4.023
-0.083 -1.655 4.084
-0.057 -1.618 3.994
-0.033 -1.626 4.014
-0.009 -1.64 4.048
0.014 -1.616 3.988
0.039 -1.621 3.999
0.063 -1.614 3.983
0.088 -1.635 4.032
0.113 -1.646 4.059
0.136 -1.626 4.01
0.16 -1.625 4.005
0.185 -1.628 4.011
0.206 -1.604 3.951
0.233 -1.624 4
0.256 -1.615 3.975
0.284 -1.638 4.031
0.303 -1.609 3.956
0.326 -1.606 3.946
0.354 -1.621 3.982
0.379 -1.627 3.994
0.399 -1.609 3.949
0.43 -1.634 4.009
0.456 -1.639 4.017
0.471 -1.607 3.936
0.507 -1.646 4.028
0.533 -1.653 4.042
0.548 -1.622 3.964
0.568 -1.612 3.937
0.596 -1.621 3.955
0.631 -1.651 4.025
0.647 -1.629 3.967
0.674 -1.636 3.98
0.699 -1.637 3.978
0.72 -1.628 3.954
0.755 -1.653 4.011
0.787 -1.667 4.04
0.801 -1.647 3.985
0.822 -1.638 3.96
0.838 -1.623 3.918
0.874 -1.645 3.967
0.898 -1.644 3.96
0.914 -1.629 3.918
0.946 -1.643 3.947
0.959 -1.623 3.893
0.99 -1.635 3.917
1.014 -1.634 3.909
1.054 -1.659 3.963
1.075 -1.653 3.941
1.097 -1.65 3.928
1.109 -1.631 3.877
1.142 -1.643 3.899
1.177 -1.659 3.93
1.183 -1.633 3.861
1.198 -1.62 3.823
1.23 -1.63 3.84
1.272 -1.654 3.889
1.31 -1.671 3.921
1.316 -1.647 3.858
1.354 -1.665 3.891
1.368 -1.652 3.853
1.392 -1.651 3.843
1.426 -1.662 3.861
1.448 -1.659 3.845
1.436 -1.618 3.74
1.479 -1.638 3.779
1.512 -1.648 3.793
1.537 -1.649 3.785
1.572 -1.66 3.803
1.591 -1.654 3.779
1.621 -1.659 3.782
1.624 -1.638 3.723
1.647 -1.637 3.711
1.689 -1.654 3.739
1.721 -1.661 3.746
1.712 -1.63 3.664
1.747 -1.64 3.678
1.773 -1.641 3.669
1.73 -1.579 3.521
1.718 -1.548 3.441
1.734 -1.542 3.417
1.742 -1.529 3.377
1.748 -1.515 3.334
1.728 -1.478 3.243
1.685 -1.424 3.112
1.71 -1.427 3.11
1.674 -1.38 2.997
1.692 -1.378 2.982
1.658 -1.335 2.878
1.663 -1.323 2.841
1.683 -1.323 2.833
1.661 -1.291 2.753
1.643 -1.263 2.682
1.687 -1.282 2.714
-2.119 -1.604 3.538
-2.123 -1.626 3.599
-2.078 -1.61 3.576
-2.076 -1.628 3.629
-2.028 -1.61 3.6
-2.021 -1.624 3.644
-1.977 -1.609 3.621
-1.961 -1.616 3.648
-1.944 -1.622 3.673
-1.926 -1.628 3.699
-1.893 -1.621 3.693
-1.891 -1.642 3.751
-1.873 -1.648 3.775
-1.845 -1.645 3.78
-1.795 -1.623 3.74
-1.767 -1.621 3.744
-1.709 -1.589 3.681
-1.743 -1.644 3.819
-1.72 -1.647 3.834
-1.696 -1.648 3.848
-1.652 -1.63 3.813
-1.618 -1.621 3.801
-1.601 -1.629 3.829
-1.55 -1.601 3.773
-1.571 -1.65 3.897
-1.521 -1.623 3.841
-1.511 -1.64 3.889
-1.468 -1.62 3.85
-1.445 -1.622 3.863
-1.395 -1.593 3.802
-1.399 -1.626 3.889
-1.389 -1.643 3.937
-1.352 -1.629 3.911
-1.32 -1.621 3.897
-1.311 -1.641 3.952
-1.28 -1.633 3.941
-1.238 -1.611 3.894
-1.232 -1.636 3.962
-1.197 -1.622 3.935
-1.156 -1.6 3.887
-1.143 -1.617 3.934
-1.106 -1.599 3.896
-1.106 -1.635 3.99
-1.078 -1.63 3.983
-1.045 -1.619 3.961
-1.037 -1.645 4.031
-0.998 -1.622 3.978
-0.967 -1.612 3.96
-0.944 -1.615 3.972
-0.93 -1.633 4.021
-0.902 -1.628 4.012
-0.881 -1.635 4.035
-0.851 -1.626 4.017
-0.816 -1.606 3.973
-0.795 -1.613 3.993
-0.781 -1.636 4.053
-0.762 -1.648 4.086
-0.724 -1.618 4.017
-0.697 -1.613 4.007
-0.68 -1.631 4.056
-0.649 -1.617 4.025
-0.633 -1.639 4.081
-0.601 -1.62 4.038
-0.577 -1.623 4.048
-0.555 -1.631 4.07
-0.529 -1.628 4.064
-0.507 -1.635 4.086
-0.477 -1.62 4.049
-0.45 -1.609 4.025
-0.431 -1.63 4.08
-0.394 -1.582 3.96
-0.381 -1.63 4.082
-0.35 -1.604 4.019
-0.332 -1.632 4.091
-0.303 -1.612 4.042
-0.278 -1.611 4.041
-0.257 -1.63 4.089
-0.232 -1.632 4.096
-0.206 -1.624 4.075
-0.18 -1.607 4.033
-0.157 -1.625 4.08
-0.133 -1.634 4.103
-0.11 -1.656 4.159
-0.083 -1.63 4.093
-0.058 -1.632 4.099
-0.034 -1.635 4.106
-0.009 -1.627 4.084
0.015 -1.629 4.089
0.04 -1.64 4.116
0.064 -1.626 4.081
0.089 -1.631 4.094
0.114 -1.629 4.086
0.139 -1.634 4.099
0.164 -1.636 4.102
0.189 -1.641 4.114
0.212 -1.623 4.066
0.238 -1.631 4.086
0.266 -1.651 4.134
0.29 -1.644 4.115
0.307 -1.606 4.018
0.336 -1.625 4.064
0.358 -1.613 4.033
0.38 -1.607 4.014
0.409 -1.623 4.053
0.434 -1.625 4.054
0.454 -1.609 4.013
0.486 -1.636 4.076
0.513 -1.64 4.085
0.535 -1.633 4.064
0.557 -1.624 4.037
0.582 -1.625 4.036
0.608 -1.629 4.043
0.64 -1.649 4.089
0.653 -1.619 4.011
0.691 -1.651 4.088
0.71 -1.637 4.048
0.729 -1.625 4.015
0.755 -1.627 4.015
0.783 -1.634 4.028
0.806 -1.632 4.019
0.838 -1.645 4.046
0.864 -1.647 4.047
0.882 -1.635 4.012
0.913 -1.645 4.032
0.931 -1.634 3.998
0.952 -1.628 3.98
0.989 -1.648 4.023
1.011 -1.645 4.008
1.041 -1.652 4.021
1.054 -1.633 3.969
1.078 -1.633 3.962
1.107 -1.639 3.97
1.148 -1.662 4.02
1.167 -1.654 3.994
1.184 -1.643 3.959
1.219 -1.658 3.988
1.242 -1.655 3.975
1.282 -1.674 4.014
1.287 -1.647 3.942
1.304 -1.638 3.911
1.336 -1.648 3.927
1.371 -1.659 3.947
1.383 -1.645 3.904
1.416 -1.654 3.919
1.445 -1.659 3.921
1.454 -1.641 3.87
1.485 -1.647 3.876
1.522 -1.661 3.9
1.528 -1.641 3.844
1.541 -1.628 3.805
1.579 -1.642 3.829
1.573 -1.611 3.746
1.613 -1.627 3.774
1.658 -1.647 3.812
1.671 -1.636 3.774
1.733 -1.672 3.848
1.733 -1.648 3.782
1.758 -1.648 3.771
1.742 -1.61 3.676
1.755 -1.6 3.641
1.772 -1.594 3.616
1.739 -1.543 3.49
1.707 -1.495 3.371
0 0 0
0 0 0
0 0 0
1.698 -1.414 3.146
1.671 -1.374 3.047
1.699 -1.38 3.051
1.668 -1.338 2.948
1.677 -1.329 2.918
1.694 -1.327 2.903
1.693 -1.311 2.857
1.641 -1.256 2.727
1.64 -1.242 2.685
1.652 -1.237 2.664
-2.199 -1.639 3.682
-2.123 -1.6 3.608
-2.122 -1.619 3.663
-2.1 -1.622 3.681
-2.074 -1.621 3.692
-2.05 -1.623 3.707
-2.026 -1.623 3.72
-2.001 -1.623 3.732
-1.975 -1.623 3.742
-1.953 -1.626 3.761
-1.93 -1.628 3.776
-1.907 -1.63 3.792
-1.883 -1.631 3.806
-1.859 -1.632 3.819
-1.831 -1.63 3.825
-1.806 -1.631 3.836
-1.778 -1.628 3.84
-1.752 -1.628 3.85
-1.725 -1.627 3.856
-1.7 -1.627 3.867
-1.673 -1.625 3.872
-1.645 -1.622 3.874
-1.617 -1.62 3.878
-1.591 -1.619 3.885
-1.567 -1.62 3.895
-1.542 -1.621 3.906
-1.518 -1.622 3.916
-1.493 -1.622 3.925
-1.468 -1.623 3.935
-1.443 -1.623 3.942
-1.418 -1.623 3.95
-1.393 -1.623 3.959
-1.369 -1.626 3.972
-1.343 -1.624 3.977
-1.317 -1.623 3.981
-1.29 -1.621 3.983
-1.265 -1.621 3.989
-1.237 -1.618 3.988
-1.212 -1.618 3.994
-1.186 -1.617 3.997
-1.161 -1.617 4.003
-1.136 -1.618 4.013
-1.112 -1.619 4.021
-1.088 -1.621 4.032
-1.064 -1.623 4.042
-1.04 -1.624 4.049
-1.013 -1.622 4.05
-0.988 -1.622 4.055
-0.962 -1.62 4.056
-0.936 -1.619 4.058
-0.911 -1.619 4.062
-0.886 -1.619 4.068
-0.86 -1.617 4.066
-0.834 -1.617 4.069
-0.809 -1.617 4.073
-0.784 -1.616 4.074
-0.758 -1.616 4.078
-0.735 -1.618 4.088
-0.709 -1.618 4.091
-0.685 -1.619 4.097
-0.661 -1.621 4.106
-0.636 -1.622 4.111
-0.61 -1.621 4.111
-0.586 -1.622 4.116
-0.561 -1.623 4.122
-0.536 -1.623 4.125
-0.51 -1.621 4.121
-0.485 -1.622 4.127
-0.46 -1.623 4.131
-0.435 -1.621 4.128
-0.409 -1.618 4.122
-0.384 -1.621 4.13
-0.359 -1.619 4.129
-0.334 -1.62 4.131
-0.309 -1.62 4.133
-0.284 -1.622 4.14
-0.259 -1.622 4.14
-0.234 -1.622 4.141
-0.209 -1.62 4.137
-0.184 -1.62 4.137
-0.159 -1.619 4.137
-0.134 -1.621 4.14
-0.109 -1.622 4.143
-0.084 -1.623 4.147
-0.059 -1.624 4.15
-0.034 -1.624 4.149
-0.009 -1.623 4.146
0.015 -1.621 4.141
0.04 -1.622 4.143
0.065 -1.62 4.138
0.09 -1.621 4.139
0.115 -1.62 4.135
0.14 -1.621 4.137
0.165 -1.619 4.132
0.19 -1.619 4.13
0.215 -1.619 4.13
0.24 -1.621 4.132
0.265 -1.62 4.128
0.29 -1.619 4.124
0.315 -1.618 4.12
0.339 -1.616 4.112
0.363 -1.613 4.104
0.389 -1.617 4.11
0.414 -1.619 4.113
0.44 -1.62 4.113
0.465 -1.623 4.119
0.491 -1.626 4.124
0.516 -1.624 4.116
0.541 -1.624 4.112
0.566 -1.624 4.109
0.591 -1.625 4.109
0.615 -1.623 4.1
0.641 -1.625 4.102
0.667 -1.627 4.103
0.692 -1.628 4.1
0.716 -1.626 4.093
0.743 -1.629 4.096
0.768 -1.629 4.092
0.793 -1.631 4.091
0.82 -1.633 4.093
0.845 -1.634 4.09
0.871 -1.636 4.09
0.896 -1.635 4.082
0.92 -1.634 4.074
0.944 -1.632 4.065
0.969 -1.632 4.059
0.995 -1.633 4.055
1.021 -1.634 4.054
1.047 -1.636 4.053
1.074 -1.639 4.053
1.1 -1.64 4.049
1.124 -1.639 4.04
1.15 -1.64 4.037
1.175 -1.641 4.031
1.201 -1.641 4.026
1.227 -1.643 4.023
1.254 -1.644 4.02
1.279 -1.645 4.014
1.305 -1.645 4.007
1.332 -1.647 4.005
1.358 -1.648 3.999
1.383 -1.648 3.991
1.408 -1.648 3.982
1.431 -1.646 3.969
1.454 -1.643 3.953
1.477 -1.641 3.941
1.502 -1.641 3.932
1.527 -1.641 3.922
1.554 -1.643 3.917
1.579 -1.642 3.907
1.605 -1.643 3.9
1.628 -1.642 3.887
1.651 -1.64 3.872
1.677 -1.64 3.863
1.702 -1.641 3.854
1.72 -1.634 3.828
1.738 -1.627 3.801
1.753 -1.618 3.771
1.758 -1.6 3.717
1.761 -1.581 3.662
1.765 -1.563 3.61
1.768 -1.545 3.558
1.762 -1.52 3.489
1.749 -1.489 3.407
1.704 -1.432 3.267
1.69 -1.402 3.188
1.686 -1.382 3.131
1.686 -1.365 3.082
1.688 -1.35 3.039
1.687 -1.333 2.99
1.682 -1.313 2.934
1.674 -1.292 2.877
1.669 -1.273 2.824
1.667 -1.257 2.779
1.691 -1.26 2.775
1.653 -1.219 2.673
-2.21 -1.621 3.711
-2.169 -1.61 3.696
-2.158 -1.621 3.735
-2.134 -1.622 3.751
-2.108 -1.622 3.763
-2.084 -1.623 3.777
-2.058 -1.623 3.789
-2.032 -1.623 3.8
-2.005 -1.622 3.809
-1.983 -1.625 3.829
-1.959 -1.627 3.843
-1.935 -1.629 3.859
-1.909 -1.628 3.869
-1.885 -1.63 3.883
-1.855 -1.626 3.885
-1.831 -1.627 3.898
-1.801 -1.624 3.9
-1.777 -1.625 3.914
-1.749 -1.624 3.92
-1.725 -1.625 3.932
-1.697 -1.623 3.938
-1.669 -1.621 3.941
-1.641 -1.619 3.945
-1.614 -1.617 3.951
-1.589 -1.618 3.96
-1.563 -1.618 3.969
-1.539 -1.619 3.979
-1.513 -1.618 3.987
-1.489 -1.62 4
-1.463 -1.62 4.007
-1.437 -1.619 4.014
-1.412 -1.62 4.023
-1.388 -1.622 4.034
-1.361 -1.621 4.04
-1.336 -1.621 4.047
-1.309 -1.62 4.052
-1.283 -1.619 4.057
-1.256 -1.618 4.059
-1.23 -1.617 4.063
-1.203 -1.614 4.064
-1.178 -1.615 4.072
-1.153 -1.617 4.082
-1.128 -1.617 4.089
-1.104 -1.619 4.1
-1.08 -1.621 4.11
-1.054 -1.621 4.116
-1.027 -1.619 4.115
-1.002 -1.62 4.122
-0.975 -1.617 4.121
-0.949 -1.617 4.124
-0.924 -1.617 4.129
-0.898 -1.617 4.133
-0.871 -1.614 4.13
-0.845 -1.613 4.131
-0.819 -1.612 4.134
-0.793 -1.611 4.135
-0.767 -1.61 4.135
-0.743 -1.612 4.145
-0.718 -1.613 4.151
-0.693 -1.613 4.156
-0.668 -1.615 4.164
-0.644 -1.618 4.174
-0.618 -1.617 4.174
-0.593 -1.617 4.176
-0.568 -1.619 4.184
-0.542 -1.619 4.187
-0.516 -1.615 4.181
-0.491 -1.617 4.187
-0.466 -1.618 4.192
-0.44 -1.616 4.188
-0.414 -1.613 4.182
-0.389 -1.615 4.191
-0.363 -1.614 4.189
-0.338 -1.614 4.19
-0.313 -1.614 4.191
-0.288 -1.616 4.198
-0.262 -1.615 4.196
-0.237 -1.614 4.194
-0.211 -1.612 4.19
-0.186 -1.612 4.19
-0.16 -1.61 4.187
-0.135 -1.612 4.19
-0.11 -1.612 4.193
-0.085 -1.613 4.194
-0.059 -1.613 4.195
-0.034 -1.613 4.195
-0.009 -1.613 4.195
0.016 -1.612 4.191
0.041 -1.613 4.193
0.066 -1.612 4.19
0.091 -1.612 4.19
0.117 -1.61 4.185
0.142 -1.611 4.185
0.167 -1.611 4.183
0.192 -1.611 4.183
0.218 -1.612 4.184
0.243 -1.613 4.185
0.268 -1.612 4.182
0.293 -1.611 4.177
0.318 -1.61 4.173
0.343 -1.607 4.163
0.368 -1.606 4.158
0.393 -1.609 4.163
0.419 -1.61 4.163
0.444 -1.611 4.165
0.471 -1.615 4.172
0.496 -1.616 4.172
0.521 -1.615 4.165
0.546 -1.615 4.164
0.572 -1.615 4.16
0.597 -1.615 4.156
0.622 -1.614 4.15
0.648 -1.616 4.151
0.673 -1.618 4.152
0.699 -1.617 4.147
0.723 -1.616 4.139
0.749 -1.617 4.137
0.774 -1.617 4.134
0.8 -1.618 4.132
0.827 -1.621 4.136
0.853 -1.623 4.137
0.88 -1.626 4.139
0.905 -1.626 4.134
0.93 -1.626 4.127
0.955 -1.624 4.119
0.98 -1.624 4.111
1.006 -1.626 4.111
1.032 -1.627 4.107
1.058 -1.628 4.105
1.085 -1.63 4.103
1.111 -1.631 4.101
1.136 -1.63 4.091
1.162 -1.631 4.087
1.188 -1.633 4.084
1.215 -1.634 4.081
1.242 -1.636 4.079
1.269 -1.638 4.076
1.294 -1.638 4.07
1.32 -1.639 4.063
1.347 -1.64 4.059
1.373 -1.641 4.053
1.399 -1.642 4.048
1.425 -1.642 4.039
1.448 -1.639 4.024
1.472 -1.638 4.013
1.497 -1.637 4.002
1.522 -1.637 3.993
1.548 -1.637 3.985
1.575 -1.639 3.98
1.6 -1.638 3.968
1.626 -1.639 3.96
1.65 -1.638 3.948
1.674 -1.636 3.935
1.7 -1.637 3.926
1.724 -1.635 3.912
1.741 -1.627 3.883
1.754 -1.617 3.846
1.767 -1.605 3.809
1.769 -1.585 3.75
1.773 -1.568 3.698
1.776 -1.549 3.643
1.781 -1.532 3.593
1.781 -1.512 3.535
0 0 0
1.673 -1.384 3.215
1.666 -1.361 3.151
1.676 -1.352 3.12
1.683 -1.341 3.084
1.69 -1.331 3.049
1.691 -1.315 3.004
1.685 -1.295 2.948
1.676 -1.273 2.887
1.671 -1.255 2.834
1.668 -1.238 2.787
1.645 -1.207 2.707
1.678 -1.218 2.721
-2.209 -1.595 3.72
-2.214 -1.617 3.784
-2.188 -1.618 3.798
-2.165 -1.62 3.816
-2.141 -1.621 3.831
-2.115 -1.622 3.844
-2.09 -1.622 3.858
-2.062 -1.621 3.867
-2.035 -1.62 3.877
-2.012 -1.623 3.895
-1.985 -1.623 3.905
-1.961 -1.624 3.919
-1.935 -1.624 3.931
-1.911 -1.626 3.946
-1.883 -1.624 3.953
-1.859 -1.626 3.968
-1.828 -1.623 3.97
-1.803 -1.624 3.982
-1.775 -1.621 3.986
-1.749 -1.621 3.997
-1.722 -1.621 4.005
-1.695 -1.62 4.012
-1.666 -1.617 4.014
-1.638 -1.615 4.019
-1.611 -1.614 4.026
-1.585 -1.614 4.034
-1.558 -1.613 4.04
-1.535 -1.616 4.055
-1.51 -1.618 4.068
-1.483 -1.616 4.072
-1.456 -1.615 4.077
-1.432 -1.617 4.09
-1.406 -1.617 4.097
-1.379 -1.616 4.102
-1.354 -1.618 4.114
-1.327 -1.617 4.118
-1.3 -1.615 4.121
-1.274 -1.615 4.126
-1.247 -1.614 4.131
-1.22 -1.612 4.132
-1.194 -1.612 4.139
-1.17 -1.614 4.15
-1.143 -1.613 4.154
-1.118 -1.615 4.163
-1.093 -1.616 4.172
-1.068 -1.617 4.18
-1.041 -1.614 4.179
-1.015 -1.615 4.185
-0.988 -1.613 4.185
-0.961 -1.611 4.184
-0.935 -1.61 4.187
-0.909 -1.611 4.195
-0.882 -1.609 4.194
-0.856 -1.608 4.194
-0.83 -1.607 4.195
-0.803 -1.605 4.195
-0.776 -1.603 4.193
-0.751 -1.604 4.2
-0.726 -1.606 4.208
-0.701 -1.607 4.214
-0.676 -1.609 4.223
-0.651 -1.611 4.232
-0.625 -1.609 4.229
-0.598 -1.607 4.227
-0.573 -1.609 4.234
-0.548 -1.609 4.236
-0.521 -1.605 4.23
-0.496 -1.608 4.238
-0.471 -1.611 4.248
-0.445 -1.608 4.243
-0.418 -1.605 4.237
-0.393 -1.606 4.243
-0.367 -1.605 4.239
-0.341 -1.603 4.235
-0.315 -1.603 4.238
-0.29 -1.604 4.243
-0.264 -1.604 4.243
-0.239 -1.604 4.244
-0.213 -1.602 4.239
-0.187 -1.601 4.237
-0.161 -1.599 4.231
-0.136 -1.599 4.232
-0.11 -1.598 4.23
-0.085 -1.598 4.229
-0.059 -1.598 4.231
-0.034 -1.599 4.233
-0.009 -1.598 4.231
0.016 -1.597 4.228
0.041 -1.599 4.231
0.067 -1.597 4.226
0.092 -1.597 4.225
0.117 -1.595 4.219
0.143 -1.595 4.218
0.168 -1.595 4.217
0.194 -1.595 4.216
0.219 -1.595 4.216
0.244 -1.596 4.216
0.27 -1.597 4.217
0.295 -1.596 4.212
0.321 -1.596 4.211
0.346 -1.595 4.206
0.371 -1.596 4.205
0.397 -1.598 4.209
0.423 -1.599 4.209
0.448 -1.599 4.206
0.474 -1.601 4.21
0.5 -1.602 4.208
0.525 -1.6 4.201
0.55 -1.601 4.2
0.576 -1.602 4.199
0.601 -1.601 4.195
0.627 -1.601 4.191
0.652 -1.602 4.19
0.679 -1.604 4.191
0.704 -1.604 4.187
0.729 -1.603 4.181
0.755 -1.603 4.177
0.781 -1.605 4.177
0.806 -1.605 4.174
0.833 -1.607 4.174
0.86 -1.61 4.176
0.887 -1.612 4.178
0.912 -1.612 4.173
0.937 -1.612 4.167
0.963 -1.612 4.161
0.987 -1.611 4.152
1.014 -1.613 4.152
1.04 -1.614 4.148
1.067 -1.616 4.147
1.094 -1.618 4.147
1.121 -1.619 4.144
1.146 -1.618 4.135
1.172 -1.619 4.131
1.198 -1.62 4.126
1.224 -1.621 4.121
1.251 -1.622 4.118
1.278 -1.624 4.116
1.305 -1.626 4.112
1.332 -1.627 4.108
1.359 -1.628 4.103
1.386 -1.631 4.101
1.413 -1.632 4.095
1.438 -1.631 4.086
1.462 -1.629 4.073
1.489 -1.63 4.067
1.514 -1.629 4.055
1.54 -1.63 4.048
1.567 -1.632 4.043
1.595 -1.633 4.038
1.621 -1.634 4.029
1.648 -1.635 4.023
1.672 -1.634 4.01
1.695 -1.631 3.994
1.719 -1.63 3.98
1.739 -1.624 3.956
1.753 -1.614 3.92
1.765 -1.601 3.88
1.777 -1.59 3.841
1.78 -1.57 3.783
1.786 -1.554 3.733
1.796 -1.541 3.691
1.795 -1.52 3.63
1.794 -1.5 3.57
0 0 0
0 0 0
1.665 -1.339 3.156
1.672 -1.328 3.12
1.682 -1.32 3.091
1.69 -1.309 3.056
1.693 -1.296 3.014
1.686 -1.276 2.957
1.679 -1.256 2.9
1.672 -1.236 2.843
1.67 -1.22 2.797
1.67 -1.206 2.755
1.683 -1.202 2.735
-2.279 -1.619 3.848
-2.265 -1.628 3.882
-2.22 -1.614 3.862
-2.198 -1.618 3.884
-2.173 -1.619 3.899
-2.146 -1.619 3.911
-2.118 -1.618 3.921
-2.09 -1.616 3.929
-2.062 -1.616 3.939
-2.037 -1.617 3.953
-2.008 -1.615 3.961
-1.983 -1.616 3.974
-1.958 -1.617 3.987
-1.932 -1.618 4.001
-1.905 -1.617 4.01
-1.881 -1.619 4.025
-1.853 -1.618 4.033
-1.827 -1.618 4.044
-1.799 -1.617 4.051
-1.773 -1.617 4.062
-1.748 -1.619 4.075
-1.72 -1.618 4.081
-1.692 -1.616 4.087
-1.663 -1.614 4.09
-1.636 -1.613 4.097
-1.608 -1.611 4.101
-1.582 -1.611 4.11
-1.556 -1.613 4.122
-1.531 -1.614 4.133
-1.505 -1.614 4.143
-1.477 -1.612 4.146
-1.452 -1.613 4.156
-1.425 -1.613 4.162
-1.398 -1.612 4.168
-1.371 -1.612 4.174
-1.344 -1.611 4.18
-1.316 -1.609 4.18
-1.289 -1.608 4.185
-1.263 -1.608 4.191
-1.236 -1.607 4.195
-1.211 -1.608 4.206
-1.186 -1.611 4.217
-1.16 -1.61 4.222
-1.135 -1.612 4.233
-1.108 -1.612 4.238
-1.081 -1.611 4.241
-1.054 -1.609 4.24
-1.028 -1.609 4.247
-0.999 -1.605 4.241
-0.972 -1.604 4.242
-0.945 -1.603 4.245
-0.919 -1.602 4.247
-0.891 -1.599 4.245
-0.865 -1.599 4.248
-0.838 -1.597 4.246
-0.811 -1.595 4.246
-0.784 -1.594 4.245
-0.759 -1.594 4.251
-0.733 -1.595 4.257
-0.708 -1.597 4.264
-0.682 -1.597 4.269
-0.657 -1.599 4.276
-0.63 -1.596 4.272
-0.603 -1.593 4.266
-0.577 -1.594 4.272
-0.551 -1.593 4.272
-0.524 -1.591 4.269
-0.499 -1.593 4.276
-0.474 -1.596 4.286
-0.447 -1.593 4.279
-0.421 -1.59 4.273
-0.395 -1.591 4.277
-0.369 -1.589 4.275
-0.343 -1.586 4.269
-0.317 -1.587 4.272
-0.292 -1.589 4.278
-0.266 -1.588 4.277
-0.24 -1.587 4.275
-0.214 -1.585 4.272
-0.188 -1.584 4.269
-0.162 -1.581 4.262
-0.136 -1.58 4.26
-0.111 -1.579 4.257
-0.085 -1.578 4.255
-0.06 -1.579 4.257
-0.034 -1.58 4.258
-0.008 -1.579 4.256
0.016 -1.579 4.256
0.042 -1.58 4.259
0.067 -1.578 4.251
0.093 -1.578 4.25
0.118 -1.577 4.248
0.144 -1.576 4.244
0.169 -1.576 4.243
0.194 -1.576 4.241
0.22 -1.575 4.238
0.245 -1.576 4.238
0.271 -1.576 4.237
0.296 -1.575 4.233
0.322 -1.576 4.235
0.347 -1.576 4.231
0.373 -1.578 4.233
0.399 -1.58 4.238
0.425 -1.581 4.237
0.45 -1.581 4.235
0.477 -1.583 4.238
0.502 -1.583 4.234
0.527 -1.581 4.228
0.553 -1.582 4.227
0.579 -1.583 4.226
0.604 -1.582 4.221
0.629 -1.582 4.217
0.655 -1.583 4.216
0.682 -1.585 4.216
0.707 -1.585 4.213
0.732 -1.584 4.207
0.758 -1.584 4.203
0.784 -1.586 4.202
0.81 -1.587 4.2
0.836 -1.588 4.199
0.863 -1.591 4.202
0.89 -1.592 4.201
0.916 -1.593 4.199
0.942 -1.593 4.193
0.968 -1.594 4.19
0.993 -1.594 4.183
1.021 -1.596 4.185
1.047 -1.597 4.181
1.074 -1.599 4.18
1.101 -1.602 4.181
1.128 -1.604 4.18
1.154 -1.604 4.174
1.18 -1.604 4.167
1.206 -1.605 4.162
1.232 -1.604 4.154
1.258 -1.605 4.149
1.285 -1.606 4.145
1.312 -1.608 4.143
1.339 -1.61 4.14
1.367 -1.612 4.136
1.395 -1.614 4.135
1.422 -1.616 4.13
1.449 -1.617 4.126
1.475 -1.617 4.117
1.503 -1.619 4.113
1.529 -1.619 4.104
1.556 -1.62 4.098
1.582 -1.621 4.091
1.609 -1.622 4.084
1.636 -1.623 4.077
1.663 -1.624 4.069
1.687 -1.622 4.055
1.71 -1.619 4.038
1.733 -1.616 4.02
1.751 -1.609 3.991
1.762 -1.596 3.949
1.773 -1.582 3.905
1.785 -1.571 3.867
1.788 -1.552 3.808
1.796 -1.538 3.763
1.805 -1.525 3.72
1.806 -1.505 3.661
0 0 0
0 0 0
0 0 0
1.656 -1.31 3.146
1.664 -1.301 3.113
1.677 -1.295 3.088
1.685 -1.285 3.055
1.69 -1.273 3.016
1.686 -1.255 2.963
1.679 -1.236 2.907
1.671 -1.216 2.85
1.669 -1.2 2.803
1.649 -1.173 2.728
1.687 -1.186 2.748
-2.275 -1.59 3.85
-2.249 -1.59 3.865
-2.25 -1.61 3.925
-2.23 -1.615 3.95
-2.203 -1.615 3.963
-2.177 -1.616 3.978
-2.15 -1.615 3.989
-2.12 -1.613 3.997
-2.092 -1.613 4.007
-2.066 -1.613 4.019
-2.037 -1.611 4.026
-2.011 -1.612 4.04
-1.986 -1.614 4.055
-1.959 -1.613 4.066
-1.933 -1.614 4.078
-1.909 -1.616 4.095
-1.882 -1.616 4.106
-1.854 -1.616 4.115
-1.827 -1.615 4.123
-1.799 -1.615 4.132
-1.772 -1.615 4.141
-1.743 -1.612 4.145
-1.716 -1.613 4.155
-1.687 -1.611 4.16
-1.659 -1.609 4.165
-1.632 -1.609 4.173
-1.605 -1.609 4.182
-1.578 -1.608 4.189
-1.553 -1.61 4.201
-1.527 -1.611 4.213
-1.497 -1.608 4.212
-1.471 -1.609 4.222
-1.445 -1.609 4.23
-1.417 -1.608 4.235
-1.389 -1.606 4.238
-1.363 -1.607 4.247
-1.335 -1.605 4.249
-1.306 -1.603 4.249
-1.279 -1.601 4.253
-1.251 -1.6 4.256
-1.225 -1.601 4.264
-1.199 -1.602 4.272
-1.173 -1.602 4.279
-1.146 -1.602 4.285
-1.119 -1.601 4.289
-1.091 -1.599 4.288
-1.063 -1.596 4.287
-1.035 -1.594 4.286
-1.007 -1.592 4.284
-0.98 -1.59 4.286
-0.953 -1.59 4.288
-0.927 -1.589 4.292
-0.9 -1.589 4.295
-0.873 -1.588 4.297
-0.845 -1.585 4.294
-0.818 -1.584 4.293
-0.791 -1.581 4.289
-0.764 -1.58 4.291
-0.738 -1.58 4.295
-0.712 -1.58 4.299
-0.686 -1.58 4.301
-0.66 -1.581 4.308
-0.633 -1.579 4.303
-0.606 -1.575 4.297
-0.58 -1.576 4.301
-0.554 -1.575 4.301
-0.527 -1.573 4.298
-0.501 -1.574 4.302
-0.476 -1.575 4.308
-0.449 -1.572 4.301
-0.422 -1.57 4.299
-0.396 -1.569 4.298
-0.37 -1.567 4.294
-0.343 -1.564 4.286
-0.317 -1.563 4.285
-0.292 -1.564 4.288
-0.266 -1.564 4.29
-0.24 -1.562 4.286
-0.214 -1.562 4.285
-0.188 -1.562 4.287
-0.162 -1.56 4.283
-0.137 -1.56 4.281
-0.111 -1.559 4.281
-0.085 -1.559 4.279
-0.06 -1.558 4.277
-0.034 -1.557 4.274
-0.008 -1.556 4.271
0.016 -1.556 4.271
0.042 -1.558 4.275
0.068 -1.556 4.27
0.093 -1.556 4.27
0.119 -1.556 4.267
0.144 -1.554 4.262
0.169 -1.553 4.258
0.195 -1.553 4.257
0.22 -1.553 4.254
0.246 -1.553 4.253
0.272 -1.553 4.253
0.297 -1.553 4.25
0.323 -1.554 4.251
0.348 -1.554 4.249
0.374 -1.556 4.253
0.4 -1.558 4.257
0.426 -1.559 4.255
0.451 -1.558 4.251
0.477 -1.559 4.252
0.503 -1.559 4.248
0.528 -1.558 4.241
0.554 -1.558 4.24
0.58 -1.56 4.241
0.605 -1.56 4.238
0.631 -1.56 4.234
0.657 -1.562 4.236
0.684 -1.563 4.236
0.709 -1.563 4.232
0.734 -1.563 4.226
0.76 -1.562 4.221
0.785 -1.562 4.216
0.811 -1.563 4.215
0.838 -1.565 4.214
0.864 -1.567 4.215
0.891 -1.568 4.214
0.918 -1.57 4.213
0.943 -1.57 4.208
0.97 -1.572 4.207
0.996 -1.572 4.204
1.024 -1.575 4.206
1.051 -1.577 4.205
1.077 -1.578 4.202
1.104 -1.58 4.2
1.131 -1.582 4.199
1.158 -1.583 4.195
1.183 -1.582 4.187
1.211 -1.584 4.186
1.237 -1.585 4.18
1.264 -1.586 4.176
1.29 -1.587 4.172
1.318 -1.589 4.17
1.345 -1.591 4.166
1.373 -1.592 4.162
1.4 -1.594 4.158
1.427 -1.595 4.154
1.455 -1.597 4.151
1.481 -1.597 4.143
1.509 -1.6 4.14
1.536 -1.6 4.133
1.564 -1.602 4.129
1.59 -1.602 4.12
1.618 -1.604 4.114
1.646 -1.606 4.11
1.675 -1.608 4.107
1.7 -1.608 4.096
1.723 -1.605 4.078
1.745 -1.601 4.058
1.761 -1.592 4.023
1.772 -1.579 3.98
1.782 -1.565 3.935
1.796 -1.555 3.9
1.803 -1.539 3.848
1.813 -1.526 3.806
1.812 -1.506 3.743
0 0 0
0 0 0
0 0 0
0 0 0
1.641 -1.278 3.125
1.657 -1.274 3.106
1.673 -1.271 3.089
1.681 -1.261 3.055
1.688 -1.251 3.021
1.686 -1.235 2.972
1.68 -1.216 2.916
1.672 -1.196 2.858
1.67 -1.182 2.812
1.653 -1.156 2.741
1.672 -1.157 2.732
-2.32 -1.595 3.937
-2.301 -1.6 3.965
-2.286 -1.609 3.999
-2.17 -1.545 3.854
-2.143 -1.545 3.864
-2.117 -1.545 3.878
-2.091 -1.545 3.89
-1.973 -1.477 3.728
-2.036 -1.543 3.907
-2.011 -1.544 3.922
-1.983 -1.543 3.93
-1.959 -1.544 3.944
-2.017 -1.612 4.129
-1.99 -1.612 4.141
-1.963 -1.612 4.153
-1.939 -1.615 4.17
-1.91 -1.614 4.177
-1.883 -1.614 4.189
-1.856 -1.614 4.199
-1.827 -1.613 4.206
-1.799 -1.612 4.214
-1.771 -1.611 4.221
-1.743 -1.611 4.231
-1.712 -1.607 4.23
-1.684 -1.606 4.236
-1.656 -1.606 4.244
-1.628 -1.605 4.25
-1.598 -1.602 4.252
-1.573 -1.604 4.266
-1.546 -1.604 4.275
-1.516 -1.601 4.274
-1.489 -1.601 4.282
-1.462 -1.601 4.291
-1.433 -1.599 4.293
-1.405 -1.598 4.297
-1.378 -1.597 4.302
-1.349 -1.595 4.304
-1.321 -1.594 4.307
-1.292 -1.592 4.309
-1.263 -1.589 4.308
-1.236 -1.589 4.312
-1.209 -1.588 4.317
-1.181 -1.587 4.319
-1.154 -1.586 4.323
-1.127 -1.585 4.327
-1.099 -1.584 4.328
-1.07 -1.581 4.326
-1.042 -1.579 4.324
-1.014 -1.577 4.323
-0.986 -1.575 4.324
-0.959 -1.574 4.325
-0.932 -1.573 4.327
-0.905 -1.572 4.328
-0.878 -1.57 4.328
-0.85 -1.567 4.324
-0.823 -1.566 4.325
-0.795 -1.563 4.321
-0.768 -1.562 4.321
-0.742 -1.562 4.324
-0.715 -1.561 4.326
-0.688 -1.559 4.322
-0.662 -1.559 4.326
-0.635 -1.557 4.323
-0.607 -1.553 4.314
-0.581 -1.552 4.317
-0.554 -1.551 4.316
-0.528 -1.55 4.315
-0.502 -1.55 4.318
-0.476 -1.552 4.323
-0.449 -1.548 4.316
-0.423 -1.548 4.316
-0.396 -1.545 4.311
-0.37 -1.543 4.306
-0.344 -1.54 4.3
-0.318 -1.54 4.3
-0.292 -1.54 4.301
-0.266 -1.54 4.303
-0.24 -1.539 4.3
-0.214 -1.538 4.299
-0.188 -1.537 4.298
-0.162 -1.536 4.294
-0.137 -1.534 4.29
-0.111 -1.533 4.287
-0.085 -1.532 4.285
-0.059 -1.532 4.284
-0.034 -1.53 4.28
-0.008 -1.531 4.281
0.016 -1.532 4.282
0.042 -1.533 4.284
0.068 -1.532 4.281
0.093 -1.532 4.282
0.119 -1.531 4.277
0.144 -1.531 4.277
0.17 -1.53 4.274
0.196 -1.53 4.273
0.221 -1.529 4.269
0.246 -1.529 4.267
0.272 -1.528 4.262
0.297 -1.529 4.261
0.323 -1.53 4.263
0.349 -1.531 4.264
0.375 -1.533 4.267
0.401 -1.534 4.268
0.426 -1.533 4.264
0.451 -1.532 4.258
0.477 -1.532 4.255
0.502 -1.531 4.25
0.528 -1.531 4.246
0.554 -1.532 4.246
0.58 -1.534 4.248
0.605 -1.533 4.242
0.631 -1.534 4.242
0.657 -1.535 4.242
0.683 -1.536 4.24
0.709 -1.536 4.236
0.735 -1.537 4.235
0.76 -1.537 4.229
0.786 -1.537 4.225
0.812 -1.538 4.225
0.838 -1.54 4.224
0.865 -1.541 4.223
0.89 -1.541 4.219
0.917 -1.544 4.22
0.943 -1.544 4.215
0.97 -1.546 4.215
0.996 -1.546 4.211
1.024 -1.549 4.214
1.051 -1.551 4.213
1.077 -1.552 4.209
1.104 -1.553 4.206
1.131 -1.555 4.206
1.158 -1.556 4.202
1.183 -1.556 4.195
1.211 -1.558 4.194
1.237 -1.558 4.187
1.264 -1.56 4.185
1.291 -1.562 4.182
1.319 -1.564 4.182
1.347 -1.566 4.18
1.375 -1.568 4.177
1.402 -1.57 4.173
1.43 -1.572 4.171
1.458 -1.574 4.167
1.485 -1.575 4.163
1.514 -1.578 4.161
1.541 -1.579 4.155
1.569 -1.58 4.15
1.596 -1.581 4.143
1.623 -1.582 4.136
1.652 -1.585 4.133
1.681 -1.587 4.13
1.707 -1.587 4.12
1.73 -1.585 4.103
1.752 -1.581 4.082
1.768 -1.572 4.049
1.781 -1.56 4.009
1.794 -1.549 3.969
1.812 -1.543 3.943
1.825 -1.532 3.905
1.834 -1.519 3.86
0 0 0
0 0 0
0 0 0
0 0 0
0 0 0
1.631 -1.249 3.115
1.656 -1.252 3.112
1.674 -1.251 3.098
1.68 -1.24 3.061
1.688 -1.23 3.027
1.689 -1.217 2.984
1.683 -1.199 2.929
1.674 -1.178 2.868
1.673 -1.164 2.823
1.682 -1.157 2.796
1.655 -1.126 2.71
-2.354 -1.591 4.005
-2.366 -1.618 4.086
-1.936 -1.34 3.393
-1.917 -1.342 3.411
-1.895 -1.343 3.423
-1.873 -1.344 3.437
-1.852 -1.346 3.451
-1.65 -1.215 3.123
-1.716 -1.279 3.3
-1.78 -1.344 3.479
-1.84 -1.407 3.653
-1.815 -1.407 3.663
-1.875 -1.473 3.845
-1.768 -1.408 3.685
-1.663 -1.343 3.525
-1.563 -1.28 3.367
-1.62 -1.346 3.549
-1.675 -1.411 3.732
-1.651 -1.411 3.742
-1.699 -1.475 3.92
-1.747 -1.539 4.1
-1.718 -1.537 4.104
-1.691 -1.536 4.112
-1.73 -1.597 4.285
-1.702 -1.597 4.293
-1.675 -1.597 4.303
-1.646 -1.595 4.307
-1.616 -1.593 4.309
-1.589 -1.593 4.319
-1.562 -1.594 4.328
-1.531 -1.59 4.327
-1.504 -1.59 4.335
-1.476 -1.59 4.342
-1.447 -1.588 4.344
-1.417 -1.584 4.341
-1.389 -1.583 4.346
-1.359 -1.581 4.346
-1.33 -1.578 4.346
-1.301 -1.576 4.347
-1.273 -1.575 4.349
-1.245 -1.573 4.351
-1.216 -1.571 4.352
-1.187 -1.569 4.351
-1.16 -1.568 4.357
-1.132 -1.566 4.357
-1.104 -1.565 4.359
-1.076 -1.562 4.357
-1.047 -1.56 4.356
-1.019 -1.557 4.352
-0.99 -1.555 4.35
-0.962 -1.552 4.348
-0.935 -1.552 4.351
-0.907 -1.549 4.349
-0.879 -1.547 4.345
-0.852 -1.544 4.343
-0.824 -1.543 4.343
-0.797 -1.54 4.339
-0.769 -1.539 4.339
-0.743 -1.539 4.342
-0.716 -1.538 4.342
-0.689 -1.535 4.338
-0.662 -1.534 4.338
-0.635 -1.532 4.335
-0.607 -1.528 4.326
-0.581 -1.527 4.326
-0.554 -1.525 4.323
-0.528 -1.524 4.324
-0.502 -1.524 4.326
-0.476 -1.524 4.327
-0.449 -1.522 4.322
-0.423 -1.521 4.322
-0.396 -1.518 4.316
-0.37 -1.516 4.31
-0.343 -1.514 4.307
-0.317 -1.513 4.306
-0.292 -1.514 4.309
-0.266 -1.514 4.309
-0.24 -1.513 4.308
-0.214 -1.512 4.307
-0.188 -1.511 4.305
-0.162 -1.51 4.301
-0.136 -1.508 4.297
-0.111 -1.507 4.293
-0.085 -1.506 4.291
-0.059 -1.506 4.292
-0.034 -1.505 4.287
-0.008 -1.506 4.289
0.017 -1.506 4.291
0.042 -1.507 4.293
0.068 -1.506 4.288
0.094 -1.506 4.289
0.119 -1.505 4.283
0.145 -1.505 4.283
0.17 -1.503 4.278
0.195 -1.503 4.275
0.221 -1.501 4.268
0.246 -1.501 4.267
0.271 -1.5 4.262
0.297 -1.501 4.263
0.323 -1.503 4.269
0.349 -1.506 4.273
0.375 -1.508 4.278
0.401 -1.51 4.28
0.427 -1.509 4.275
0.452 -1.507 4.267
0.477 -1.505 4.26
0.502 -1.504 4.253
0.527 -1.503 4.249
0.553 -1.504 4.249
0.579 -1.506 4.249
0.605 -1.507 4.248
0.631 -1.508 4.247
0.657 -1.509 4.247
0.683 -1.509 4.245
0.708 -1.51 4.242
0.735 -1.511 4.241
0.76 -1.511 4.239
0.786 -1.511 4.234
0.813 -1.513 4.236
0.839 -1.514 4.233
0.865 -1.515 4.23
0.89 -1.514 4.224
0.917 -1.516 4.225
0.942 -1.516 4.218
0.969 -1.518 4.218
0.996 -1.52 4.218
1.024 -1.523 4.22
1.05 -1.524 4.219
1.077 -1.525 4.215
1.103 -1.526 4.213
1.13 -1.528 4.211
1.157 -1.53 4.209
1.183 -1.53 4.203
1.211 -1.532 4.203
1.237 -1.532 4.196
1.264 -1.534 4.193
1.291 -1.536 4.191
1.32 -1.538 4.191
1.347 -1.54 4.187
1.374 -1.541 4.183
1.401 -1.543 4.179
1.429 -1.545 4.176
1.457 -1.547 4.174
1.486 -1.55 4.173
1.515 -1.553 4.173
1.542 -1.554 4.167
1.57 -1.555 4.162
1.597 -1.556 4.155
1.624 -1.557 4.148
1.653 -1.56 4.146
1.682 -1.562 4.142
1.709 -1.562 4.133
1.731 -1.559 4.114
1.753 -1.555 4.092
1.77 -1.547 4.062
1.784 -1.537 4.025
1.799 -1.528 3.99
1.818 -1.522 3.964
1.831 -1.511 3.925
1.838 -1.497 3.876
0 0 0
0 0 0
0 0 0
0 0 0
0 0 0
0 0 0
1.653 -1.229 3.114
1.676 -1.231 3.108
1.683 -1.221 3.072
1.69 -1.211 3.039
1.694 -1.2 3
1.688 -1.182 2.944
1.678 -1.161 2.881
1.675 -1.146 2.834
1.673 -1.132 2.788
1.68 -1.124 2.758
-2.429 -1.613 4.142
-2.4 -1.612 4.155
-1.499 -1.02 2.631
-1.484 -1.022 2.644
-1.467 -1.022 2.653
-1.452 -1.024 2.668
-1.433 -1.024 2.674
-1.236 -0.894 2.342
-1.306 -0.957 2.514
-1.375 -1.02 2.689
-1.439 -1.082 2.862
-1.421 -1.083 2.872
-1.485 -1.147 3.051
-1.383 -1.083 2.887
-1.284 -1.019 2.723
-1.187 -0.956 2.559
-1.326 -1.083 2.91
-1.385 -1.147 3.091
-1.442 -1.212 3.274
-1.568 -1.338 3.625
-1.691 -1.464 3.978
-1.661 -1.461 3.978
-1.707 -1.525 4.161
-1.747 -1.585 4.335
-1.718 -1.584 4.342
-1.691 -1.584 4.353
-1.662 -1.583 4.358
-1.63 -1.579 4.356
-1.602 -1.579 4.363
-1.575 -1.579 4.373
-1.544 -1.575 4.371
-1.515 -1.574 4.375
-1.486 -1.572 4.378
-1.456 -1.57 4.379
-1.425 -1.566 4.375
-1.396 -1.564 4.377
-1.366 -1.562 4.378
-1.337 -1.56 4.379
-1.308 -1.557 4.378
-1.278 -1.554 4.377
-1.25 -1.552 4.378
-1.22 -1.549 4.376
-1.191 -1.546 4.373
-1.163 -1.546 4.376
-1.134 -1.543 4.375
-1.106 -1.541 4.374
-1.077 -1.538 4.371
-1.049 -1.536 4.371
-1.02 -1.533 4.369
-0.992 -1.531 4.367
-0.964 -1.529 4.365
-0.936 -1.527 4.363
-0.908 -1.524 4.359
-0.879 -1.52 4.353
-0.851 -1.518 4.35
-0.824 -1.516 4.35
-0.797 -1.515 4.349
-0.769 -1.513 4.347
-0.743 -1.512 4.35
-0.716 -1.51 4.347
-0.688 -1.507 4.341
-0.661 -1.506 4.339
-0.634 -1.505 4.34
-0.607 -1.501 4.333
-0.58 -1.5 4.332
-0.554 -1.499 4.331
-0.528 -1.498 4.331
-0.501 -1.497 4.328
-0.475 -1.496 4.329
-0.448 -1.495 4.327
-0.422 -1.494 4.328
-0.396 -1.491 4.32
-0.369 -1.49 4.319
-0.343 -1.489 4.315
-0.317 -1.487 4.313
-0.291 -1.487 4.313
-0.266 -1.487 4.316
-0.239 -1.485 4.311
-0.214 -1.485 4.31
-0.188 -1.484 4.309
-0.162 -1.483 4.305
-0.136 -1.481 4.3
-0.11 -1.481 4.299
-0.085 -1.48 4.298
-0.059 -1.48 4.298
-0.033 -1.479 4.296
-0.008 -1.48 4.297
0.017 -1.48 4.297
0.042 -1.48 4.295
0.068 -1.478 4.29
0.094 -1.479 4.292
0.119 -1.478 4.287
0.145 -1.478 4.287
0.17 -1.477 4.283
0.196 -1.477 4.282
0.221 -1.474 4.272
0.246 -1.474 4.272
0.271 -1.473 4.266
0.297 -1.474 4.268
0.323 -1.476 4.271
0.349 -1.479 4.277
0.375 -1.481 4.281
0.401 -1.483 4.284
0.427 -1.482 4.28
0.452 -1.482 4.276
0.477 -1.48 4.267
0.502 -1.478 4.259
0.527 -1.477 4.254
0.553 -1.477 4.251
0.578 -1.477 4.248
0.604 -1.478 4.248
0.63 -1.479 4.248
0.656 -1.481 4.249
0.682 -1.482 4.247
0.708 -1.483 4.246
0.734 -1.483 4.243
0.76 -1.484 4.241
0.785 -1.484 4.238
0.812 -1.486 4.239
0.838 -1.488 4.239
0.864 -1.488 4.235
0.889 -1.487 4.228
0.916 -1.489 4.228
0.941 -1.489 4.222
0.968 -1.49 4.22
0.995 -1.492 4.219
1.023 -1.495 4.223
1.05 -1.497 4.223
1.076 -1.497 4.218
1.102 -1.499 4.216
1.13 -1.501 4.215
1.156 -1.501 4.21
1.181 -1.501 4.203
1.21 -1.504 4.206
1.236 -1.505 4.201
1.263 -1.506 4.198
1.291 -1.509 4.198
1.319 -1.512 4.198
1.346 -1.513 4.193
1.374 -1.514 4.189
1.401 -1.516 4.185
1.429 -1.518 4.183
1.456 -1.519 4.178
1.485 -1.522 4.179
1.513 -1.524 4.174
1.54 -1.525 4.169
1.568 -1.527 4.164
1.596 -1.528 4.159
1.623 -1.529 4.153
1.653 -1.532 4.152
1.682 -1.535 4.15
1.71 -1.536 4.143
1.733 -1.534 4.126
1.755 -1.53 4.107
1.775 -1.525 4.082
1.791 -1.516 4.047
1.807 -1.508 4.016
1.825 -1.502 3.989
1.838 -1.491 3.949
0 0 0
0 0 0
0 0 0
0 0 0
0 0 0
0 0 0
0 0 0
1.658 -1.212 3.13
1.678 -1.211 3.119
1.686 -1.202 3.085
1.693 -1.193 3.05
1.696 -1.181 3.009
1.688 -1.161 2.949
1.679 -1.142 2.889
1.675 -1.126 2.839
1.667 -1.108 2.783
1.686 -1.108 2.773
-0.028 -0.02 0.036
-0.002 -0.003 -0.008
-1.108 -0.741 1.946
-1.094 -0.741 1.951
-1.041 -0.713 1.883
-1.028 -0.713 1.89
-1.014 -0.712 1.894
-0.822 -0.585 1.557
-0.896 -0.645 1.724
-0.97 -0.708 1.899
-1.043 -0.771 2.075
-1.029 -0.771 2.081
-1.096 -0.832 2.252
-0.998 -0.769 2.085
-0.903 -0.705 1.915
-0.808 -0.64 1.743
-0.95 -0.763 2.086
-1.014 -0.826 2.265
-1.075 -0.889 2.444
-1.206 -1.012 2.791
-1.407 -1.197 3.315
-1.456 -1.258 3.491
-1.575 -1.383 3.847
-1.687 -1.504 4.197
-1.729 -1.566 4.379
-1.701 -1.566 4.389
-1.671 -1.565 4.393
-1.64 -1.561 4.391
-1.611 -1.56 4.396
-1.582 -1.559 4.403
-1.552 -1.556 4.403
-1.521 -1.554 4.404
-1.491 -1.551 4.405
-1.461 -1.548 4.403
-1.428 -1.543 4.395
-1.398 -1.54 4.394
-1.369 -1.537 4.395
-1.339 -1.535 4.395
-1.31 -1.532 4.393
-1.281 -1.53 4.394
-1.25 -1.526 4.388
-1.22 -1.522 4.382
-1.19 -1.518 4.378
-1.161 -1.516 4.378
-1.132 -1.513 4.375
-1.105 -1.513 4.378
-1.076 -1.51 4.376
-1.048 -1.508 4.376
-1.02 -1.507 4.377
-0.992 -1.505 4.376
-0.964 -1.502 4.372
-0.936 -1.5 4.371
-0.908 -1.497 4.367
-0.879 -1.494 4.361
-0.851 -1.491 4.357
-0.823 -1.489 4.355
-0.796 -1.487 4.354
-0.769 -1.485 4.351
-0.742 -1.485 4.353
-0.715 -1.482 4.349
-0.687 -1.479 4.344
-0.66 -1.478 4.343
-0.634 -1.477 4.342
-0.606 -1.474 4.337
-0.58 -1.473 4.337
-0.553 -1.472 4.336
-0.527 -1.471 4.335
-0.501 -1.47 4.334
-0.474 -1.469 4.333
-0.448 -1.468 4.333
-0.422 -1.468 4.335
-0.395 -1.465 4.328
-0.369 -1.464 4.324
-0.343 -1.462 4.32
-0.317 -1.46 4.315
-0.291 -1.459 4.313
-0.265 -1.459 4.315
-0.239 -1.458 4.313
-0.213 -1.457 4.312
-0.187 -1.456 4.309
-0.162 -1.456 4.308
-0.136 -1.455 4.306
-0.11 -1.454 4.305
-0.085 -1.455 4.306
-0.059 -1.455 4.306
-0.033 -1.453 4.302
-0.008 -1.454 4.302
0.017 -1.453 4.299
0.042 -1.451 4.293
0.068 -1.45 4.29
0.094 -1.452 4.294
0.119 -1.45 4.288
0.145 -1.451 4.289
0.17 -1.451 4.289
0.196 -1.452 4.29
0.221 -1.448 4.279
0.246 -1.449 4.279
0.272 -1.448 4.275
0.297 -1.449 4.275
0.323 -1.45 4.278
0.349 -1.453 4.285
0.375 -1.455 4.287
0.401 -1.457 4.29
0.427 -1.456 4.285
0.452 -1.454 4.278
0.477 -1.453 4.27
0.502 -1.451 4.264
0.527 -1.45 4.258
0.552 -1.45 4.255
0.578 -1.45 4.251
0.603 -1.451 4.25
0.629 -1.451 4.248
0.655 -1.453 4.251
0.681 -1.454 4.249
0.708 -1.456 4.252
0.734 -1.458 4.251
0.76 -1.459 4.251
0.785 -1.458 4.244
0.812 -1.46 4.247
0.838 -1.461 4.245
0.864 -1.461 4.24
0.889 -1.461 4.234
0.916 -1.463 4.234
0.941 -1.462 4.227
0.967 -1.463 4.223
0.993 -1.464 4.221
1.021 -1.467 4.225
1.048 -1.468 4.223
1.074 -1.469 4.22
1.101 -1.47 4.217
1.128 -1.473 4.218
1.153 -1.472 4.21
1.181 -1.474 4.209
1.209 -1.477 4.21
1.235 -1.478 4.206
1.262 -1.479 4.202
1.29 -1.481 4.202
1.318 -1.483 4.199
1.344 -1.484 4.195
1.371 -1.485 4.19
1.399 -1.487 4.187
1.427 -1.49 4.187
1.454 -1.491 4.181
1.484 -1.494 4.182
1.512 -1.496 4.179
1.538 -1.497 4.172
1.565 -1.498 4.166
1.594 -1.5 4.163
1.621 -1.501 4.156
1.65 -1.503 4.153
1.68 -1.507 4.153
1.709 -1.509 4.151
1.733 -1.508 4.136
1.758 -1.506 4.121
1.781 -1.503 4.102
1.801 -1.498 4.079
1.818 -1.491 4.047
1.837 -1.485 4.022
0 0 0
0 0 0
0 0 0
0 0 0
0 0 0
0 0 0
0 0 0
0 0 0
1.467 -1.054 2.776
1.558 -1.105 2.902
1.688 -1.183 3.097
1.694 -1.173 3.06
1.697 -1.161 3.018
1.689 -1.142 2.958
1.68 -1.123 2.898
1.675 -1.107 2.847
1.663 -1.087 2.784
1.682 -1.086 2.773
-0.046 -0.031 0.067
-0.034 -0.023 0.046
-0.649 -0.427 1.138
-0.638 -0.425 1.135
-0.609 -0.411 1.1
-0.601 -0.41 1.102
-0.591 -0.408 1.1
-0.403 -0.282 0.758
-0.48 -0.341 0.921
-0.559 -0.401 1.09
-0.636 -0.462 1.263
-0.627 -0.462 1.265
-0.698 -0.521 1.432
-0.606 -0.459 1.263
-0.514 -0.395 1.087
-0.424 -0.33 0.909
-0.569 -0.449 1.246
-0.638 -0.511 1.422
-0.778 -0.632 1.769
-0.989 -0.815 2.292
-1.267 -1.059 2.991
-1.391 -1.181 3.343
-1.583 -1.365 3.875
-1.695 -1.484 4.224
-1.736 -1.545 4.406
-1.707 -1.544 4.414
-1.677 -1.542 4.417
-1.645 -1.538 4.414
-1.616 -1.537 4.419
-1.585 -1.535 4.421
-1.554 -1.531 4.419
-1.523 -1.528 4.418
-1.492 -1.524 4.415
-1.461 -1.52 4.411
-1.428 -1.515 4.404
-1.397 -1.512 4.4
-1.368 -1.509 4.4
-1.339 -1.507 4.402
-1.309 -1.504 4.398
-1.28 -1.502 4.4
-1.25 -1.499 4.395
-1.219 -1.494 4.389
-1.188 -1.49 4.381
-1.161 -1.489 4.384
-1.131 -1.485 4.379
-1.104 -1.485 4.383
-1.076 -1.483 4.382
-1.048 -1.481 4.383
-1.019 -1.478 4.378
-0.991 -1.477 4.379
-0.962 -1.473 4.374
-0.934 -1.47 4.37
-0.906 -1.468 4.366
-0.878 -1.465 4.363
-0.849 -1.462 4.356
-0.822 -1.46 4.355
-0.795 -1.459 4.355
-0.767 -1.457 4.353
-0.741 -1.456 4.352
-0.714 -1.454 4.351
-0.686 -1.451 4.346
-0.659 -1.449 4.343
-0.632 -1.448 4.342
-0.606 -1.446 4.339
-0.579 -1.445 4.337
-0.552 -1.443 4.335
-0.526 -1.442 4.333
-0.499 -1.44 4.33
-0.473 -1.439 4.327
-0.447 -1.438 4.328
-0.421 -1.438 4.329
-0.395 -1.437 4.328
-0.369 -1.436 4.326
-0.342 -1.434 4.323
-0.316 -1.432 4.318
-0.29 -1.432 4.318
-0.264 -1.431 4.316
-0.239 -1.43 4.315
-0.213 -1.43 4.315
-0.187 -1.429 4.312
-0.161 -1.429 4.311
-0.136 -1.428 4.311
-0.11 -1.428 4.31
-0.084 -1.429 4.312
-0.059 -1.429 4.314
-0.033 -1.428 4.31
-0.008 -1.428 4.309
0.017 -1.428 4.308
0.043 -1.425 4.299
0.068 -1.424 4.295
0.094 -1.425 4.3
0.119 -1.424 4.293
0.145 -1.424 4.294
0.17 -1.425 4.295
0.196 -1.426 4.297
0.221 -1.422 4.284
0.247 -1.423 4.286
0.272 -1.422 4.28
0.297 -1.423 4.282
0.323 -1.424 4.284
0.349 -1.428 4.291
0.375 -1.429 4.293
0.401 -1.431 4.297
0.427 -1.43 4.291
0.452 -1.428 4.283
0.476 -1.426 4.274
0.501 -1.424 4.266
0.526 -1.423 4.26
0.552 -1.423 4.258
0.577 -1.424 4.256
0.603 -1.424 4.255
0.629 -1.425 4.253
0.655 -1.427 4.254
0.681 -1.427 4.253
0.708 -1.43 4.257
0.734 -1.431 4.257
0.76 -1.433 4.259
0.786 -1.433 4.253
0.814 -1.437 4.26
0.84 -1.438 4.259
0.864 -1.436 4.25
0.89 -1.435 4.242
0.916 -1.437 4.241
0.94 -1.434 4.228
0.965 -1.434 4.223
0.992 -1.436 4.222
1.02 -1.438 4.225
1.046 -1.439 4.222
1.072 -1.441 4.219
1.099 -1.442 4.217
1.126 -1.444 4.217
1.152 -1.444 4.209
1.179 -1.445 4.208
1.207 -1.448 4.21
1.233 -1.449 4.206
1.261 -1.451 4.204
1.289 -1.453 4.204
1.315 -1.454 4.2
1.342 -1.455 4.195
1.369 -1.457 4.191
1.397 -1.459 4.19
1.426 -1.462 4.19
1.454 -1.464 4.186
1.483 -1.467 4.188
1.511 -1.469 4.185
1.539 -1.47 4.18
1.566 -1.471 4.174
1.595 -1.474 4.174
1.622 -1.475 4.166
1.649 -1.476 4.159
1.677 -1.478 4.154
1.707 -1.48 4.152
1.732 -1.479 4.14
1.757 -1.479 4.128
1.784 -1.479 4.118
1.809 -1.478 4.105
1.827 -1.471 4.075
0 0 0
0 0 0
0 0 0
0 0 0
0 0 0
0 0 0
0 0 0
0 0 0
0 0 0
1.437 -1.014 2.723
1.542 -1.075 2.878
1.687 -1.161 3.101
1.693 -1.152 3.064
1.697 -1.141 3.025
1.69 -1.123 2.966
1.684 -1.106 2.912
1.677 -1.088 2.855
1.687 -1.082 2.829
1.661 -1.054 2.744
-0.173 -0.11 0.286
0 0 0
-0.185 -0.12 0.315
-0.279 -0.183 0.49
-0.266 -0.177 0.473
-0.26 -0.175 0.47
-0.252 -0.172 0.463
-0.156 -0.108 0.286
-0.147 -0.103 0.273
-0.227 -0.161 0.436
-0.307 -0.22 0.603
-0.3 -0.218 0.6
-0.29 -0.213 0.589
-0.203 -0.152 0.415
-0.115 -0.088 0.233
-0.029 -0.023 0.05
-0.18 -0.14 0.385
-0.253 -0.2 0.558
-0.474 -0.379 1.075
-0.766 -0.62 1.776
-1.122 -0.921 2.651
-1.32 -1.101 3.179
-1.586 -1.342 3.888
-1.697 -1.46 4.239
-1.738 -1.518 4.42
-1.708 -1.517 4.425
-1.678 -1.515 4.427
-1.646 -1.511 4.426
-1.616 -1.51 4.429
-1.586 -1.507 4.43
-1.553 -1.503 4.425
-1.521 -1.498 4.421
-1.489 -1.494 4.416
-1.458 -1.491 4.413
-1.426 -1.485 4.405
-1.396 -1.483 4.404
-1.367 -1.481 4.405
-1.338 -1.479 4.406
-1.308 -1.476 4.403
-1.279 -1.474 4.406
-1.249 -1.471 4.401
-1.218 -1.466 4.393
-1.188 -1.462 4.387
-1.159 -1.46 4.386
-1.129 -1.456 4.38
-1.101 -1.454 4.38
-1.073 -1.453 4.38
-1.045 -1.451 4.379
-1.016 -1.448 4.377
-0.989 -1.447 4.378
-0.96 -1.444 4.373
-0.932 -1.441 4.368
-0.904 -1.439 4.367
-0.876 -1.436 4.363
-0.849 -1.435 4.363
-0.821 -1.433 4.359
-0.794 -1.431 4.359
-0.767 -1.43 4.357
-0.74 -1.429 4.359
-0.713 -1.426 4.353
-0.686 -1.425 4.352
-0.659 -1.423 4.351
-0.632 -1.422 4.35
-0.606 -1.421 4.349
-0.579 -1.419 4.347
-0.553 -1.418 4.345
-0.526 -1.416 4.34
-0.499 -1.414 4.336
-0.472 -1.412 4.331
-0.446 -1.411 4.332
-0.42 -1.411 4.332
-0.394 -1.41 4.333
-0.368 -1.409 4.33
-0.342 -1.408 4.327
-0.316 -1.406 4.322
-0.29 -1.405 4.321
-0.264 -1.404 4.318
-0.238 -1.403 4.318
-0.213 -1.403 4.317
-0.187 -1.402 4.316
-0.161 -1.402 4.315
-0.135 -1.402 4.315
-0.11 -1.402 4.315
-0.084 -1.403 4.318
-0.059 -1.403 4.318
-0.033 -1.402 4.316
-0.007 -1.402 4.315
0.017 -1.401 4.313
0.043 -1.398 4.301
0.068 -1.397 4.297
0.094 -1.398 4.302
0.119 -1.397 4.298
0.145 -1.397 4.296
0.17 -1.398 4.298
0.196 -1.398 4.298
0.221 -1.395 4.285
0.246 -1.396 4.287
0.272 -1.395 4.282
0.297 -1.395 4.282
0.323 -1.397 4.286
0.349 -1.4 4.293
0.375 -1.402 4.295
0.401 -1.404 4.301
0.427 -1.404 4.297
0.452 -1.403 4.292
0.477 -1.401 4.284
0.502 -1.4 4.278
0.527 -1.398 4.27
0.552 -1.398 4.266
0.577 -1.397 4.26
0.603 -1.399 4.262
0.629 -1.398 4.257
0.655 -1.4 4.259
0.681 -1.402 4.26
0.708 -1.405 4.266
0.734 -1.405 4.262
0.76 -1.407 4.265
0.786 -1.407 4.259
0.814 -1.411 4.269
0.84 -1.412 4.267
0.865 -1.412 4.26
0.891 -1.411 4.254
0.916 -1.411 4.249
0.94 -1.409 4.237
0.966 -1.409 4.231
0.992 -1.409 4.227
1.019 -1.411 4.228
1.045 -1.412 4.225
1.071 -1.413 4.222
1.098 -1.414 4.219
1.125 -1.416 4.218
1.15 -1.416 4.211
1.177 -1.417 4.209
1.205 -1.419 4.209
1.231 -1.421 4.206
1.259 -1.422 4.204
1.287 -1.425 4.205
1.314 -1.427 4.202
1.341 -1.428 4.198
1.368 -1.429 4.194
1.396 -1.432 4.194
1.424 -1.434 4.192
1.452 -1.436 4.19
1.481 -1.439 4.191
1.509 -1.441 4.187
1.537 -1.442 4.183
1.564 -1.443 4.177
1.593 -1.446 4.177
1.62 -1.447 4.168
1.648 -1.448 4.163
1.675 -1.449 4.156
1.705 -1.452 4.156
1.73 -1.452 4.144
1.757 -1.452 4.136
1.785 -1.454 4.129
1.814 -1.455 4.124
1.827 -1.446 4.085
0 0 0
0 0 0
0 0 0
0 0 0
0 0 0
0 0 0
0 0 0
0 0 0
0 0 0
1.397 -0.969 2.653
1.529 -1.047 2.859
1.689 -1.142 3.111
1.693 -1.131 3.07
1.696 -1.12 3.03
1.692 -1.103 2.975
1.686 -1.087 2.921
1.676 -1.068 2.86
1.673 -1.055 2.813
1.671 -1.042 2.768
-0.137 -0.086 0.224
-0.097 -0.062 0.157
-0.118 -0.076 0.196
-0.113 -0.074 0.192
-0.106 -0.07 0.182
-0.099 -0.067 0.172
-0.093 -0.063 0.163
-0.083 -0.057 0.147
-0.072 -0.051 0.128
-0.065 -0.046 0.116
-0.06 -0.043 0.107
-0.057 -0.041 0.103
-0.05 -0.038 0.092
-0.048 -0.036 0.087
-0.041 -0.031 0.074
-0.034 -0.027 0.062
-0.105 -0.081 0.22
-0.1 -0.078 0.213
-0.399 -0.313 0.905
-0.692 -0.55 1.604
-1.048 -0.845 2.482
-1.322 -1.081 3.188
-1.659 -1.379 4.078
-1.7 -1.435 4.254
-1.74 -1.492 4.434
-1.709 -1.49 4.437
-1.679 -1.488 4.439
-1.646 -1.484 4.435
-1.615 -1.481 4.435
-1.583 -1.477 4.431
-1.55 -1.472 4.426
-1.517 -1.467 4.418
-1.485 -1.463 4.412
-1.455 -1.46 4.413
-1.424 -1.457 4.408
-1.395 -1.455 4.41
-1.366 -1.453 4.41
-1.337 -1.451 4.411
-1.306 -1.447 4.405
-1.277 -1.445 4.406
-1.246 -1.441 4.4
-1.216 -1.437 4.394
-1.187 -1.434 4.392
-1.157 -1.43 4.386
-1.128 -1.428 4.383
-1.1 -1.426 4.382
-1.072 -1.425 4.385
-1.043 -1.422 4.381
-1.016 -1.422 4.385
-0.988 -1.42 4.383
-0.96 -1.417 4.379
-0.931 -1.413 4.372
-0.903 -1.412 4.372
-0.876 -1.41 4.369
-0.848 -1.408 4.369
-0.821 -1.406 4.364
-0.794 -1.405 4.365
-0.767 -1.403 4.364
-0.74 -1.402 4.363
-0.712 -1.399 4.357
-0.685 -1.398 4.356
-0.658 -1.396 4.354
-0.631 -1.394 4.352
-0.605 -1.394 4.352
-0.578 -1.392 4.349
-0.552 -1.391 4.349
-0.525 -1.389 4.343
-0.498 -1.386 4.338
-0.472 -1.384 4.334
-0.446 -1.385 4.338
-0.42 -1.384 4.337
-0.394 -1.384 4.337
-0.368 -1.382 4.334
-0.342 -1.381 4.331
-0.315 -1.378 4.323
-0.289 -1.377 4.321
-0.263 -1.375 4.316
-0.238 -1.375 4.316
-0.212 -1.374 4.315
-0.186 -1.373 4.311
-0.161 -1.373 4.313
-0.135 -1.373 4.313
-0.109 -1.374 4.315
-0.084 -1.375 4.32
-0.058 -1.377 4.325
-0.033 -1.376 4.322
-0.007 -1.377 4.324
0.017 -1.375 4.318
0.043 -1.369 4.298
0.068 -1.368 4.293
0.094 -1.37 4.299
0.119 -1.37 4.299
0.145 -1.37 4.298
0.17 -1.373 4.305
0.196 -1.375 4.311
0.221 -1.371 4.299
0.247 -1.372 4.299
0.272 -1.372 4.297
0.298 -1.372 4.295
0.323 -1.372 4.293
0.349 -1.374 4.298
0.375 -1.375 4.298
0.401 -1.377 4.302
0.426 -1.376 4.298
0.452 -1.376 4.294
0.477 -1.375 4.288
0.502 -1.375 4.286
0.527 -1.373 4.278
0.552 -1.372 4.272
0.577 -1.372 4.267
0.603 -1.372 4.266
0.628 -1.372 4.26
0.655 -1.374 4.265
0.681 -1.376 4.267
0.709 -1.38 4.276
0.735 -1.381 4.274
0.761 -1.382 4.274
0.786 -1.381 4.266
0.815 -1.387 4.28
0.841 -1.388 4.279
0.866 -1.387 4.27
0.891 -1.386 4.262
0.916 -1.385 4.255
0.94 -1.382 4.241
0.965 -1.382 4.234
0.991 -1.382 4.23
1.018 -1.384 4.23
1.044 -1.386 4.23
1.071 -1.387 4.228
1.097 -1.387 4.223
1.124 -1.389 4.221
1.149 -1.388 4.213
1.175 -1.389 4.209
1.202 -1.39 4.207
1.229 -1.392 4.206
1.257 -1.394 4.205
1.285 -1.397 4.206
1.313 -1.399 4.206
1.34 -1.401 4.202
1.367 -1.402 4.198
1.395 -1.404 4.197
1.422 -1.406 4.194
1.45 -1.407 4.191
1.479 -1.41 4.19
1.507 -1.412 4.188
1.535 -1.414 4.185
1.563 -1.416 4.183
1.592 -1.419 4.181
1.619 -1.419 4.173
1.646 -1.42 4.167
1.673 -1.421 4.16
1.703 -1.424 4.16
1.73 -1.425 4.15
1.759 -1.427 4.146
1.788 -1.429 4.144
1.82 -1.433 4.145
0 0 0
0 0 0
0 0 0
0 0 0
0 0 0
0 0 0
0 0 0
0 0 0
0 0 0
0 0 0
1.34 -0.912 2.549
1.507 -1.013 2.824
1.681 -1.116 3.103
1.686 -1.106 3.064
1.69 -1.095 3.025
1.689 -1.082 2.977
1.685 -1.067 2.926
1.676 -1.049 2.866
1.695 -1.049 2.856
1.675 -1.025 2.779
-0.076 -0.047 0.118
-0.212 -0.132 0.36
-0.137 -0.086 0.232
-0.128 -0.082 0.22
-0.117 -0.076 0.202
-0.107 -0.07 0.187
-0.102 -0.068 0.179
-0.092 -0.062 0.165
-0.081 -0.056 0.146
-0.073 -0.051 0.132
-0.066 -0.047 0.12
-0.06 -0.043 0.109
-0.051 -0.038 0.094
-0.047 -0.035 0.086
-0.038 -0.029 0.07
-0.033 -0.026 0.06
-0.104 -0.079 0.219
-0.177 -0.135 0.387
-0.475 -0.365 1.08
-0.766 -0.598 1.783
-1.121 -0.887 2.661
-1.393 -1.119 3.368
-1.658 -1.352 4.082
-1.697 -1.406 4.256
-1.737 -1.462 4.437
-1.706 -1.46 4.438
-1.676 -1.458 4.44
-1.643 -1.454 4.436
-1.613 -1.452 4.439
-1.581 -1.447 4.434
-1.548 -1.443 4.427
-1.515 -1.438 4.42
-1.484 -1.434 4.417
-1.453 -1.431 4.414
-1.422 -1.427 4.41
-1.394 -1.427 4.415
-1.364 -1.424 4.413
-1.334 -1.421 4.412
-1.304 -1.418 4.408
-1.276 -1.417 4.411
-1.245 -1.413 4.404
-1.215 -1.409 4.398
-1.186 -1.407 4.398
-1.156 -1.403 4.39
-1.127 -1.4 4.387
-1.099 -1.398 4.387
-1.072 -1.398 4.393
-1.042 -1.394 4.384
-1.015 -1.393 4.387
-0.987 -1.392 4.385
-0.958 -1.388 4.379
-0.929 -1.385 4.372
-0.902 -1.384 4.373
-0.875 -1.382 4.372
-0.848 -1.381 4.372
-0.82 -1.378 4.368
-0.793 -1.377 4.367
-0.766 -1.376 4.368
-0.739 -1.374 4.365
-0.711 -1.371 4.36
-0.684 -1.37 4.36
-0.658 -1.369 4.358
-0.63 -1.366 4.352
-0.604 -1.366 4.355
-0.578 -1.365 4.352
-0.551 -1.363 4.349
-0.524 -1.361 4.344
-0.498 -1.359 4.342
-0.471 -1.357 4.334
-0.445 -1.356 4.334
-0.419 -1.355 4.332
-0.393 -1.356 4.337
-0.367 -1.354 4.334
-0.341 -1.354 4.333
-0.315 -1.351 4.326
-0.289 -1.351 4.325
-0.263 -1.347 4.315
-0.237 -1.348 4.317
-0.211 -1.346 4.313
-0.186 -1.345 4.31
-0.16 -1.345 4.311
-0.135 -1.346 4.313
-0.109 -1.345 4.312
-0.084 -1.347 4.318
-0.058 -1.35 4.326
-0.033 -1.348 4.32
-0.007 -1.349 4.324
0.018 -1.348 4.319
0.043 -1.341 4.296
0.068 -1.339 4.291
0.094 -1.344 4.305
0.119 -1.344 4.304
0.145 -1.344 4.303
0.171 -1.347 4.313
0.196 -1.35 4.319
0.222 -1.347 4.309
0.247 -1.348 4.31
0.273 -1.347 4.305
0.298 -1.345 4.299
0.323 -1.347 4.301
0.349 -1.347 4.302
0.374 -1.346 4.296
0.401 -1.349 4.303
0.426 -1.349 4.3
0.45 -1.346 4.288
0.476 -1.347 4.288
0.502 -1.348 4.29
0.528 -1.349 4.289
0.553 -1.348 4.283
0.579 -1.349 4.282
0.603 -1.347 4.274
0.628 -1.345 4.264
0.654 -1.347 4.265
0.679 -1.347 4.262
0.707 -1.351 4.273
0.735 -1.355 4.281
0.762 -1.358 4.286
0.785 -1.354 4.268
0.817 -1.364 4.297
0.844 -1.366 4.297
0.867 -1.362 4.279
0.892 -1.361 4.271
0.916 -1.359 4.261
0.94 -1.356 4.246
0.965 -1.355 4.239
0.99 -1.356 4.235
1.017 -1.357 4.233
