 1.887 -1.494 3.868
 1.888 -1.485 3.84
 1.894 -1.48 3.821
 1.896 -1.472 3.794
 1.905 -1.469 3.781
 0 0 0
 0 0 0
 0 0 0
 0 0 0
 0 0 0
 0 0 0
 0 0 0
 0 0 0
 0 0 0
 0 0 0
 0 0 0
 0 0 0
 0 0 0
 0 0 0
 0 0 0
 0 0 0
 1.804 -1.253 3.135
 1.818 -1.256 3.136
 1.831 -1.258 3.136
 1.841 -1.257 3.129
 1.851 -1.257 3.121
 1.851 -1.25 3.099
 1.85 -1.242 3.073
 1.823 -1.217 3.006
 1.83 -1.215 2.995
 0 0 0
 0 0 0
 -2.395 -1.611 4.128
 -2.372 -1.606 4.12
 -2.356 -1.604 4.124
 -2.333 -1.598 4.114
 -2.316 -1.596 4.114
 -2.3 -1.594 4.118
 -2.29 -1.597 4.132
 -2.279 -1.599 4.144
 -2.269 -1.602 4.158
 -2.257 -1.604 4.168
 -2.246 -1.605 4.179
 -2.23 -1.604 4.182
 -2.217 -1.605 4.19
 -2.204 -1.605 4.198
 -2.189 -1.605 4.203
 -2.175 -1.605 4.209
 -2.159 -1.604 4.212
 -2.143 -1.602 4.214
 -2.128 -1.602 4.219
 -2.112 -1.6 4.221
 -2.094 -1.597 4.218
 -2.079 -1.596 4.222
 -2.063 -1.595 4.223
 -2.047 -1.593 4.224
 -2.037 -1.596 4.237
 -2.022 -1.595 4.242
 -2.007 -1.594 4.246
 -1.993 -1.594 4.251
 -1.976 -1.592 4.25
 -1.959 -1.589 4.249
 -1.946 -1.59 4.255
 -1.933 -1.591 4.263
 -1.918 -1.589 4.265
 -1.904 -1.59 4.271
 -1.89 -1.59 4.276
 -1.877 -1.59 4.282
 -1.86 -1.587 4.279
 -1.847 -1.588 4.287
 -1.833 -1.588 4.293
 -1.822 -1.591 4.305
 -1.803 -1.586 4.296
 -1.791 -1.588 4.305
 -1.775 -1.586 4.305
 -1.761 -1.586 4.311
 -1.743 -1.582 4.304
 -1.729 -1.581 4.308
 -1.713 -1.579 4.306
 -1.697 -1.577 4.306
 -1.679 -1.574 4.3
 -1.662 -1.57 4.295
 -1.648 -1.571 4.3
 -1.632 -1.568 4.298
 -1.616 -1.566 4.295
 -1.601 -1.564 4.296
 -1.587 -1.564 4.299
 -1.57 -1.561 4.295
 -1.557 -1.561 4.301
 -1.543 -1.561 4.302
 -1.528 -1.559 4.303
 -1.515 -1.56 4.308
 -1.501 -1.559 4.311
 -1.483 -1.555 4.302
 -1.468 -1.553 4.301
 -1.452 -1.55 4.297
 -1.435 -1.547 4.291
 -1.421 -1.547 4.294
 -1.407 -1.546 4.295
 -1.392 -1.544 4.296
 -1.378 -1.543 4.296
 -1.364 -1.543 4.298
 -1.348 -1.54 4.294
 -1.334 -1.539 4.293
 -1.32 -1.538 4.295
 -1.305 -1.537 4.295
 -1.29 -1.535 4.293
 -1.277 -1.534 4.295
 -1.263 -1.534 4.297
 -1.248 -1.532 4.294
 -1.233 -1.53 4.292
 -1.219 -1.529 4.292
 -1.204 -1.527 4.289
 -1.189 -1.525 4.287
 -1.176 -1.525 4.289
 -1.163 -1.526 4.295
 -1.15 -1.526 4.299
 -1.136 -1.524 4.296
 -1.122 -1.524 4.3
 -1.108 -1.523 4.299
 -1.094 -1.522 4.297
 -1.079 -1.519 4.292
 -1.066 -1.519 4.294
 -1.05 -1.515 4.288
 -1.036 -1.515 4.288
 -1.023 -1.514 4.288
 -1.009 -1.513 4.289
 -0.995 -1.512 4.289
 -0.983 -1.513 4.293
 -0.969 -1.513 4.294
 -0.956 -1.512 4.296
 -0.942 -1.511 4.295
 -0.929 -1.51 4.294
 -0.916 -1.511 4.299
 -0.902 -1.51 4.297
 -0.888 -1.507 4.292
 -0.874 -1.507 4.292
 -0.86 -1.505 4.29
 -0.846 -1.503 4.287
 -0.833 -1.504 4.29
 -0.82 -1.504 4.292
 -0.806 -1.502 4.29
 -0.793 -1.501 4.289
 -0.779 -1.5 4.287
 -0.765 -1.498 4.283
 -0.751 -1.496 4.28
 -0.739 -1.497 4.284
 -0.726 -1.497 4.286
 -0.713 -1.498 4.289
 -0.7 -1.497 4.288
 -0.687 -1.497 4.291
 -0.674 -1.496 4.289
 -0.66 -1.496 4.29
 -0.647 -1.495 4.288
 -0.634 -1.495 4.29
 -0.621 -1.494 4.289
 -0.608 -1.493 4.288
 -0.595 -1.493 4.289
 -0.582 -1.493 4.29
 -0.568 -1.49 4.282
 -0.554 -1.488 4.277
 -0.541 -1.488 4.279
 -0.528 -1.487 4.279
 -0.514 -1.485 4.274
 -0.502 -1.488 4.283
 -0.49 -1.488 4.283
 -0.476 -1.487 4.281
 -0.463 -1.486 4.278
 -0.45 -1.486 4.28
 -0.437 -1.484 4.276
 -0.424 -1.483 4.275
 -0.411 -1.483 4.274
 -0.398 -1.482 4.271
 -0.385 -1.481 4.27
 -0.372 -1.48 4.269
 -0.359 -1.481 4.271
 -0.346 -1.48 4.271
 -0.334 -1.481 4.274
 -0.321 -1.483 4.281
 -0.309 -1.485 4.286
 -0.296 -1.485 4.286
 -0.283 -1.484 4.283
 -0.27 -1.482 4.279
 -0.257 -1.48 4.273
 -0.244 -1.478 4.267
 -0.231 -1.478 4.269
 -0.218 -1.479 4.272
 -0.206 -1.48 4.274
 -0.193 -1.48 4.275
 -0.18 -1.48 4.276
 -0.167 -1.478 4.271
 -0.154 -1.477 4.268
 -0.141 -1.475 4.262
 -0.129 -1.474 4.26
 -0.116 -1.475 4.262
 -0.103 -1.475 4.262
 -0.09 -1.475 4.264
 -0.078 -1.476 4.266
 -0.065 -1.475 4.261
 -0.052 -1.474 4.26
 -0.04 -1.473 4.258
 -0.027 -1.473 4.256
 -0.014 -1.475 4.261
 -0.001 -1.476 4.264
 0.01 -1.475 4.263
 0.023 -1.476 4.264
 0.036 -1.476 4.264
 0.048 -1.474 4.259
 0.061 -1.475 4.259
 0.074 -1.474 4.258
 0.086 -1.475 4.259
 0.099 -1.475 4.26
 0.112 -1.476 4.262
 0.125 -1.477 4.265
 0.137 -1.476 4.262
 0.15 -1.477 4.262
 0.163 -1.476 4.26
 0.176 -1.476 4.259
 0.188 -1.475 4.257
 0.201 -1.477 4.262
 0.214 -1.478 4.262
 0.227 -1.479 4.264
 0.239 -1.477 4.258
 0.252 -1.476 4.255
 0.264 -1.475 4.251
 0.277 -1.475 4.25
 0.289 -1.473 4.244
 0.302 -1.474 4.247
 0.315 -1.475 4.247
 0.328 -1.474 4.245
 0.34 -1.475 4.246
 0.353 -1.475 4.246
 0.366 -1.475 4.244
 0.378 -1.474 4.241
 0.391 -1.475 4.243
 0.404 -1.475 4.24
 0.417 -1.477 4.245
 0.43 -1.478 4.247
 0.443 -1.48 4.251
 0.456 -1.48 4.251
 0.469 -1.48 4.249
 0.481 -1.48 4.248
 0.494 -1.48 4.247
 0.507 -1.481 4.246
 0.52 -1.482 4.249
 0.534 -1.485 4.256
 0.547 -1.485 4.254
 0.56 -1.485 4.253
 0.572 -1.485 4.251
 0.585 -1.485 4.25
 0.598 -1.484 4.246
 0.61 -1.485 4.245
 0.624 -1.486 4.248
 0.638 -1.489 4.254
 0.651 -1.489 4.253
 0.663 -1.488 4.246
 0.676 -1.49 4.25
 0.688 -1.488 4.245
 0.7 -1.486 4.238
 0.713 -1.487 4.237
 0.727 -1.488 4.238
 0.739 -1.487 4.234
 0.753 -1.489 4.238
 0.766 -1.49 4.236
 0.778 -1.489 4.232
 0.793 -1.492 4.239
 0.806 -1.494 4.242
 0.82 -1.495 4.242
 0.833 -1.496 4.244
 0.846 -1.496 4.24
 0.857 -1.494 4.233
 0.87 -1.493 4.227
 0.883 -1.494 4.228
 0.897 -1.496 4.23
 0.912 -1.499 4.237
 0.926 -1.501 4.239
 0.939 -1.502 4.241
 0.951 -1.5 4.233
 0.964 -1.5 4.231
 0.977 -1.5 4.228
 0.99 -1.5 4.225
 1.004 -1.502 4.228
 1.017 -1.502 4.226
 1.03 -1.503 4.225
 1.044 -1.504 4.224
 1.058 -1.506 4.226
 1.071 -1.506 4.224
 1.084 -1.507 4.224
 1.098 -1.508 4.222
 1.111 -1.509 4.222
 1.124 -1.508 4.219
 1.138 -1.509 4.218
 1.153 -1.513 4.225
 1.168 -1.515 4.226
 1.181 -1.515 4.225
 1.194 -1.516 4.223
 1.207 -1.516 4.22
 1.22 -1.516 4.216
 1.235 -1.518 4.219
 1.249 -1.52 4.22
 1.264 -1.522 4.222
 1.28 -1.525 4.228
 1.293 -1.525 4.224
 1.305 -1.524 4.219
 1.32 -1.526 4.219
 1.333 -1.526 4.215
 1.345 -1.525 4.21
 1.358 -1.525 4.204
 1.371 -1.525 4.2
 1.383 -1.524 4.195
 1.398 -1.526 4.196
 1.413 -1.528 4.198
 1.429 -1.531 4.201
 1.443 -1.533 4.202
 1.457 -1.533 4.2
 1.472 -1.536 4.203
 1.484 -1.534 4.194
 1.499 -1.536 4.195
 1.514 -1.538 4.195
 1.529 -1.54 4.195
 1.542 -1.54 4.192
 1.557 -1.542 4.193
 1.571 -1.542 4.189
 1.586 -1.544 4.19
 1.601 -1.546 4.19
 1.615 -1.547 4.187
 1.63 -1.548 4.187
 1.645 -1.55 4.188
 1.658 -1.55 4.183
 1.672 -1.551 4.181
 1.688 -1.553 4.181
 1.704 -1.556 4.183
 1.718 -1.556 4.18
 1.732 -1.557 4.176
 1.744 -1.556 4.168
 1.757 -1.556 4.162
 1.77 -1.556 4.157
 1.785 -1.557 4.156
 1.8 -1.559 4.155
 1.813 -1.559 4.15
 1.823 -1.555 4.135
 1.832 -1.552 4.12
 1.842 -1.549 4.108
 1.847 -1.543 4.085
 1.856 -1.539 4.07
 1.863 -1.534 4.052
 1.868 -1.528 4.029
 1.87 -1.519 4
 1.879 -1.515 3.985
 1.882 -1.508 3.96
 1.889 -1.503 3.942
 1.893 -1.496 3.917
 1.893 -1.486 3.885
 1.89 -1.474 3.849
 1.894 -1.467 3.825
 1.888 -1.453 3.782
 0 0 0
 0 0 0
 0 0 0
 0 0 0
 0 0 0
 0 0 0
 0 0 0
 0 0 0
 0 0 0
 0 0 0
 0 0 0
 0 0 0
 0 0 0
 0 0 0
 0 0 0
 0 0 0
 0 0 0
 1.8 -1.24 3.133
 1.819 -1.246 3.141
 1.832 -1.248 3.141
 1.846 -1.25 3.14
 1.854 -1.248 3.13
 1.858 -1.244 3.113
 1.854 -1.234 3.084
 1.843 -1.22 3.042
 1.846 -1.215 3.025
 -2.474 -1.631 4.206
 -2.406 -1.595 4.121
 -2.414 -1.61 4.166
 -2.388 -1.602 4.152
 -2.373 -1.602 4.158
 -2.343 -1.591 4.136
 -2.32 -1.585 4.127
 -2.307 -1.586 4.136
 -2.304 -1.593 4.161
 -2.295 -1.596 4.177
 -2.285 -1.6 4.192
 -2.273 -1.601 4.202
 -2.262 -1.603 4.215
 -2.246 -1.602 4.218
 -2.232 -1.602 4.225
 -2.217 -1.601 4.229
 -2.203 -1.601 4.235
 -2.187 -1.6 4.238
 -2.168 -1.597 4.235
 -2.154 -1.596 4.241
 -2.14 -1.596 4.246
 -2.122 -1.594 4.245
 -2.106 -1.592 4.248
 -2.094 -1.593 4.256
 -2.075 -1.59 4.252
 -2.056 -1.586 4.249
 -2.048 -1.591 4.267
 -2.032 -1.589 4.268
 -2.016 -1.587 4.268
 -2.002 -1.588 4.275
 -1.987 -1.587 4.278
 -1.968 -1.583 4.272
 -1.953 -1.582 4.275
 -1.939 -1.582 4.282
 -1.924 -1.581 4.283
 -1.912 -1.582 4.293
 -1.898 -1.582 4.298
 -1.885 -1.583 4.305
 -1.869 -1.581 4.306
 -1.854 -1.581 4.309
 -1.838 -1.579 4.31
 -1.826 -1.58 4.319
 -1.807 -1.575 4.31
 -1.793 -1.576 4.316
 -1.778 -1.575 4.317
 -1.764 -1.575 4.322
 -1.745 -1.57 4.315
 -1.731 -1.57 4.318
 -1.714 -1.567 4.315
 -1.697 -1.564 4.311
 -1.68 -1.561 4.306
 -1.661 -1.556 4.299
 -1.648 -1.556 4.303
 -1.631 -1.554 4.301
 -1.616 -1.553 4.302
 -1.6 -1.55 4.298
 -1.586 -1.549 4.301
 -1.568 -1.546 4.295
 -1.555 -1.545 4.298
 -1.54 -1.545 4.3
 -1.527 -1.544 4.304
 -1.514 -1.545 4.309
 -1.5 -1.545 4.312
 -1.485 -1.544 4.313
 -1.47 -1.542 4.313
 -1.453 -1.539 4.307
 -1.437 -1.536 4.302
 -1.424 -1.536 4.306
 -1.408 -1.533 4.303
 -1.393 -1.531 4.301
 -1.377 -1.529 4.299
 -1.364 -1.53 4.304
 -1.349 -1.527 4.3
 -1.334 -1.526 4.299
 -1.32 -1.525 4.3
 -1.306 -1.525 4.304
 -1.291 -1.523 4.3
 -1.277 -1.522 4.302
 -1.262 -1.52 4.3
 -1.247 -1.518 4.297
 -1.233 -1.517 4.296
 -1.218 -1.515 4.293
 -1.203 -1.513 4.291
 -1.189 -1.512 4.292
 -1.176 -1.512 4.294
 -1.162 -1.511 4.295
 -1.149 -1.511 4.299
 -1.134 -1.509 4.296
 -1.121 -1.51 4.3
 -1.107 -1.508 4.297
 -1.094 -1.508 4.3
 -1.078 -1.504 4.292
 -1.064 -1.503 4.292
 -1.048 -1.499 4.282
 -1.035 -1.499 4.284
 -1.02 -1.496 4.28
 -1.007 -1.497 4.284
 -0.994 -1.497 4.288
 -0.982 -1.5 4.296
 -0.969 -1.499 4.297
 -0.957 -1.5 4.302
 -0.943 -1.499 4.301
 -0.928 -1.497 4.298
 -0.915 -1.497 4.299
 -0.902 -1.496 4.3
 -0.888 -1.495 4.298
 -0.874 -1.494 4.297
 -0.861 -1.493 4.298
 -0.847 -1.493 4.297
 -0.834 -1.492 4.298
 -0.821 -1.491 4.298
 -0.807 -1.491 4.297
 -0.793 -1.489 4.294
 -0.779 -1.487 4.29
 -0.765 -1.484 4.284
 -0.751 -1.483 4.282
 -0.738 -1.484 4.286
 -0.726 -1.484 4.29
 -0.713 -1.485 4.292
 -0.7 -1.484 4.293
 -0.687 -1.484 4.294
 -0.673 -1.482 4.291
 -0.66 -1.482 4.29
 -0.646 -1.481 4.289
 -0.633 -1.48 4.289
 -0.62 -1.48 4.289
 -0.606 -1.477 4.283
 -0.594 -1.478 4.286
 -0.58 -1.477 4.286
 -0.567 -1.475 4.28
 -0.553 -1.473 4.276
 -0.541 -1.476 4.285
 -0.528 -1.475 4.284
 -0.515 -1.473 4.279
 -0.502 -1.475 4.285
 -0.489 -1.473 4.282
 -0.476 -1.473 4.281
 -0.463 -1.471 4.277
 -0.45 -1.471 4.279
 -0.437 -1.471 4.279
 -0.424 -1.471 4.279
 -0.411 -1.47 4.278
 -0.398 -1.469 4.276
 -0.385 -1.469 4.275
 -0.372 -1.467 4.273
 -0.359 -1.469 4.277
 -0.346 -1.468 4.275
 -0.333 -1.467 4.275
 -0.321 -1.469 4.28
 -0.309 -1.471 4.286
 -0.296 -1.47 4.285
 -0.283 -1.47 4.284
 -0.27 -1.468 4.28
 -0.257 -1.467 4.277
 -0.243 -1.464 4.269
 -0.231 -1.464 4.27
 -0.218 -1.464 4.27
 -0.205 -1.466 4.275
 -0.193 -1.465 4.274
 -0.18 -1.466 4.276
 -0.167 -1.465 4.272
 -0.154 -1.463 4.268
 -0.141 -1.461 4.262
 -0.128 -1.46 4.26
 -0.116 -1.461 4.263
 -0.103 -1.462 4.266
 -0.09 -1.463 4.268
 -0.078 -1.464 4.271
 -0.065 -1.462 4.265
 -0.052 -1.462 4.264
 -0.039 -1.459 4.257
 -0.027 -1.459 4.257
 -0.014 -1.46 4.26
 -0.001 -1.462 4.265
 0.01 -1.462 4.264
 0.023 -1.462 4.264
 0.036 -1.461 4.261
 0.048 -1.461 4.26
 0.061 -1.461 4.26
 0.074 -1.46 4.257
 0.086 -1.46 4.258
 0.099 -1.462 4.263
 0.112 -1.462 4.262
 0.125 -1.463 4.263
 0.137 -1.463 4.263
 0.15 -1.463 4.263
 0.163 -1.462 4.26
 0.175 -1.463 4.261
 0.188 -1.462 4.259
 0.201 -1.464 4.263
 0.214 -1.464 4.263
 0.227 -1.465 4.266
 0.239 -1.464 4.263
 0.252 -1.464 4.261
 0.264 -1.463 4.257
 0.277 -1.464 4.258
 0.29 -1.462 4.252
 0.302 -1.462 4.253
 0.315 -1.463 4.254
 0.328 -1.463 4.252
 0.341 -1.464 4.253
 0.354 -1.464 4.254
 0.366 -1.463 4.251
 0.378 -1.462 4.245
 0.391 -1.463 4.247
 0.404 -1.462 4.242
 0.417 -1.463 4.246
 0.43 -1.464 4.248
 0.443 -1.466 4.252
 0.456 -1.466 4.251
 0.469 -1.467 4.251
 0.481 -1.466 4.247
 0.494 -1.466 4.247
 0.506 -1.466 4.245
 0.52 -1.467 4.247
 0.533 -1.469 4.251
 0.546 -1.47 4.253
 0.559 -1.471 4.252
 0.572 -1.471 4.252
 0.585 -1.472 4.254
 0.598 -1.472 4.252
 0.611 -1.473 4.252
 0.624 -1.473 4.251
 0.637 -1.475 4.254
 0.65 -1.475 4.253
 0.662 -1.474 4.248
 0.675 -1.475 4.248
 0.688 -1.475 4.246
 0.701 -1.474 4.243
 0.713 -1.474 4.24
 0.727 -1.475 4.243
 0.74 -1.475 4.24
 0.753 -1.477 4.244
 0.765 -1.476 4.237
 0.778 -1.476 4.237
 0.792 -1.478 4.241
 0.806 -1.48 4.242
 0.819 -1.481 4.243
 0.833 -1.483 4.248
 0.845 -1.482 4.242
 0.858 -1.481 4.236
 0.871 -1.482 4.236
 0.883 -1.482 4.233
 0.896 -1.482 4.231
 0.911 -1.484 4.235
 0.924 -1.486 4.238
 0.938 -1.487 4.239
 0.951 -1.486 4.234
 0.964 -1.488 4.237
 0.978 -1.489 4.236
 0.991 -1.489 4.233
 1.004 -1.49 4.234
 1.018 -1.491 4.232
 1.031 -1.491 4.231
 1.043 -1.49 4.227
 1.057 -1.492 4.228
 1.07 -1.492 4.224
 1.083 -1.493 4.224
 1.096 -1.492 4.22
 1.111 -1.495 4.223
 1.123 -1.494 4.219
 1.137 -1.495 4.218
 1.152 -1.498 4.223
 1.167 -1.5 4.227
 1.181 -1.502 4.227
 1.195 -1.503 4.229
 1.208 -1.504 4.227
 1.222 -1.505 4.226
 1.236 -1.506 4.225
 1.25 -1.507 4.225
 1.264 -1.508 4.225
 1.28 -1.511 4.231
 1.292 -1.511 4.225
 1.306 -1.511 4.223
 1.319 -1.512 4.221
 1.332 -1.512 4.217
 1.344 -1.511 4.211
 1.356 -1.51 4.203
 1.37 -1.511 4.202
 1.385 -1.512 4.203
 1.4 -1.515 4.205
 1.415 -1.517 4.208
 1.431 -1.521 4.214
 1.445 -1.521 4.212
 1.458 -1.521 4.207
 1.472 -1.523 4.207
 1.484 -1.521 4.198
 1.499 -1.523 4.198
 1.513 -1.524 4.198
 1.528 -1.526 4.198
 1.542 -1.526 4.195
 1.556 -1.528 4.195
 1.569 -1.527 4.189
 1.584 -1.529 4.19
 1.599 -1.531 4.19
 1.614 -1.533 4.19
 1.629 -1.534 4.189
 1.646 -1.537 4.193
 1.659 -1.538 4.19
 1.672 -1.538 4.185
 1.687 -1.539 4.182
 1.703 -1.541 4.184
 1.715 -1.541 4.177
 1.728 -1.54 4.172
 1.742 -1.541 4.169
 1.754 -1.54 4.161
 1.769 -1.541 4.158
 1.784 -1.543 4.158
 1.801 -1.546 4.161
 1.814 -1.546 4.156
 1.826 -1.545 4.148
 1.836 -1.542 4.134
 1.845 -1.538 4.119
 1.849 -1.531 4.094
 1.857 -1.527 4.076
 1.861 -1.52 4.052
 1.866 -1.513 4.03
 1.872 -1.508 4.009
 1.883 -1.506 3.998
 1.888 -1.499 3.976
 1.898 -1.497 3.963
 1.904 -1.492 3.944
 1.905 -1.482 3.914
 1.893 -1.464 3.859
 1.898 -1.457 3.836
 0 0 0
 0 0 0
 0 0 0
 0 0 0
 0 0 0
 0 0 0
 0 0 0
 0 0 0
 0 0 0
 0 0 0
 0 0 0
 0 0 0
 0 0 0
 0 0 0
 0 0 0
 0 0 0
 0 0 0
 0 0 0
 1.794 -1.226 3.126
 1.812 -1.231 3.134
 1.835 -1.239 3.149
 1.846 -1.239 3.145
 1.853 -1.237 3.132
 1.862 -1.236 3.124
 1.859 -1.227 3.096
 0 0 0
 1.821 -1.189 2.988
 -2.466 -1.612 4.198
 -2.424 -1.593 4.156
 -2.436 -1.611 4.21
 -2.417 -1.607 4.208
 -2.399 -1.605 4.209
 -2.365 -1.592 4.18
 -2.342 -1.586 4.171
 -2.327 -1.585 4.176
 -2.319 -1.589 4.194
 -2.31 -1.593 4.209
 -2.298 -1.594 4.22
 -2.284 -1.595 4.228
 -2.272 -1.596 4.238
 -2.256 -1.595 4.241
 -2.242 -1.595 4.248
 -2.229 -1.596 4.256
 -2.216 -1.597 4.265
 -2.201 -1.596 4.269
 -2.184 -1.594 4.271
 -2.17 -1.594 4.276
 -2.154 -1.593 4.279
 -2.134 -1.588 4.274
 -2.119 -1.588 4.279
 -2.104 -1.587 4.283
 -2.085 -1.583 4.277
 -2.067 -1.581 4.276
 -2.059 -1.585 4.295
 -2.043 -1.583 4.295
 -2.025 -1.581 4.293
 -2.011 -1.581 4.299
 -1.997 -1.58 4.303
 -1.977 -1.576 4.297
 -1.96 -1.574 4.296
 -1.947 -1.574 4.302
 -1.931 -1.573 4.304
 -1.918 -1.573 4.31
 -1.902 -1.572 4.313
 -1.89 -1.573 4.321
 -1.875 -1.572 4.324
 -1.857 -1.569 4.32
 -1.84 -1.567 4.318
 -1.827 -1.567 4.325
 -1.808 -1.563 4.319
 -1.793 -1.562 4.321
 -1.78 -1.563 4.328
 -1.767 -1.563 4.333
 -1.747 -1.558 4.323
 -1.731 -1.556 4.324
 -1.715 -1.554 4.321
 -1.699 -1.552 4.319
 -1.68 -1.548 4.313
 -1.664 -1.546 4.311
 -1.65 -1.545 4.314
 -1.634 -1.542 4.311
 -1.618 -1.541 4.311
 -1.602 -1.538 4.309
 -1.587 -1.537 4.31
 -1.571 -1.535 4.307
 -1.558 -1.535 4.313
 -1.542 -1.533 4.311
 -1.528 -1.532 4.312
 -1.514 -1.532 4.316
 -1.5 -1.531 4.317
 -1.485 -1.53 4.318
 -1.471 -1.529 4.319
 -1.455 -1.527 4.318
 -1.44 -1.525 4.315
 -1.425 -1.524 4.316
 -1.409 -1.521 4.311
 -1.393 -1.519 4.308
 -1.378 -1.517 4.305
 -1.365 -1.517 4.31
 -1.35 -1.515 4.309
 -1.336 -1.514 4.309
 -1.322 -1.514 4.31
 -1.307 -1.512 4.31
 -1.291 -1.509 4.305
 -1.277 -1.508 4.304
 -1.262 -1.506 4.302
 -1.246 -1.504 4.297
 -1.233 -1.504 4.301
 -1.218 -1.502 4.298
 -1.203 -1.5 4.296
 -1.189 -1.498 4.295
 -1.176 -1.499 4.3
 -1.161 -1.497 4.297
 -1.148 -1.497 4.299
 -1.134 -1.495 4.298
 -1.12 -1.495 4.3
 -1.106 -1.493 4.296
 -1.092 -1.493 4.3
 -1.077 -1.49 4.293
 -1.063 -1.489 4.293
 -1.047 -1.485 4.284
 -1.034 -1.485 4.285
 -1.019 -1.482 4.28
 -1.006 -1.482 4.284
 -0.993 -1.483 4.286
 -0.981 -1.484 4.294
 -0.967 -1.483 4.292
 -0.955 -1.484 4.298
 -0.941 -1.484 4.3
 -0.928 -1.484 4.301
 -0.915 -1.483 4.302
 -0.902 -1.484 4.305
 -0.889 -1.483 4.306
 -0.875 -1.482 4.305
 -0.861 -1.481 4.303
 -0.847 -1.48 4.303
 -0.834 -1.479 4.301
 -0.82 -1.478 4.3
 -0.806 -1.476 4.297
 -0.792 -1.475 4.295
 -0.779 -1.473 4.292
 -0.765 -1.472 4.29
 -0.751 -1.469 4.285
 -0.738 -1.47 4.289
 -0.726 -1.471 4.292
 -0.713 -1.471 4.296
 -0.699 -1.47 4.294
 -0.686 -1.47 4.295
 -0.673 -1.469 4.292
 -0.659 -1.467 4.288
 -0.645 -1.465 4.285
 -0.633 -1.467 4.29
 -0.62 -1.467 4.293
 -0.606 -1.464 4.287
 -0.594 -1.466 4.292
 -0.581 -1.465 4.292
 -0.567 -1.462 4.283
 -0.553 -1.461 4.281
 -0.541 -1.464 4.291
 -0.529 -1.464 4.292
 -0.515 -1.462 4.289
 -0.503 -1.464 4.294
 -0.489 -1.461 4.287
 -0.476 -1.46 4.286
 -0.463 -1.459 4.283
 -0.45 -1.458 4.282
 -0.436 -1.457 4.278
 -0.423 -1.456 4.278
 -0.41 -1.456 4.277
 -0.397 -1.454 4.272
 -0.384 -1.453 4.271
 -0.371 -1.453 4.272
 -0.359 -1.454 4.276
 -0.346 -1.453 4.274
 -0.333 -1.452 4.272
 -0.32 -1.454 4.278
 -0.308 -1.456 4.283
 -0.295 -1.456 4.284
 -0.282 -1.455 4.283
 -0.27 -1.455 4.283
 -0.257 -1.454 4.279
 -0.243 -1.452 4.274
 -0.231 -1.451 4.273
 -0.218 -1.452 4.274
 -0.205 -1.453 4.278
 -0.193 -1.453 4.279
 -0.18 -1.453 4.279
 -0.167 -1.452 4.278
 -0.154 -1.452 4.275
 -0.141 -1.449 4.269
 -0.128 -1.449 4.268
 -0.116 -1.451 4.273
 -0.103 -1.451 4.274
 -0.09 -1.451 4.274
 -0.078 -1.452 4.276
 -0.065 -1.45 4.27
 -0.052 -1.448 4.267
 -0.039 -1.446 4.26
 -0.027 -1.447 4.261
 -0.014 -1.446 4.26
 -0.001 -1.448 4.264
 0.01 -1.447 4.263
 0.023 -1.449 4.266
 0.036 -1.447 4.262
 0.049 -1.449 4.266
 0.061 -1.449 4.266
 0.074 -1.449 4.266
 0.087 -1.449 4.264
 0.099 -1.449 4.266
 0.112 -1.449 4.264
 0.125 -1.449 4.265
 0.137 -1.449 4.264
 0.15 -1.449 4.263
 0.163 -1.449 4.263
 0.175 -1.449 4.261
 0.188 -1.448 4.259
 0.201 -1.449 4.261
 0.214 -1.449 4.26
 0.226 -1.45 4.262
 0.239 -1.449 4.259
 0.252 -1.449 4.257
 0.264 -1.447 4.252
 0.277 -1.448 4.253
 0.289 -1.447 4.249
 0.302 -1.448 4.25
 0.315 -1.448 4.252
 0.328 -1.448 4.251
 0.341 -1.45 4.254
 0.353 -1.45 4.254
 0.366 -1.45 4.253
 0.379 -1.45 4.25
 0.391 -1.451 4.252
 0.404 -1.45 4.249
 0.417 -1.451 4.252
 0.43 -1.453 4.256
 0.443 -1.454 4.258
 0.456 -1.455 4.258
 0.469 -1.455 4.258
 0.481 -1.454 4.254
 0.494 -1.454 4.251
 0.507 -1.453 4.248
 0.52 -1.455 4.251
 0.533 -1.456 4.254
 0.547 -1.459 4.26
 0.559 -1.458 4.256
 0.572 -1.458 4.256
 0.585 -1.46 4.259
 0.598 -1.459 4.255
 0.61 -1.457 4.246
 0.623 -1.458 4.248
 0.636 -1.46 4.251
 0.649 -1.459 4.247
 0.662 -1.459 4.246
 0.676 -1.462 4.253
 0.688 -1.462 4.249
 0.701 -1.462 4.249
 0.714 -1.462 4.247
 0.727 -1.463 4.248
 0.739 -1.462 4.243
 0.754 -1.465 4.25
 0.765 -1.463 4.24
 0.778 -1.463 4.238
 0.792 -1.464 4.241
 0.805 -1.466 4.244
 0.818 -1.466 4.242
 0.832 -1.469 4.247
 0.845 -1.468 4.244
 0.857 -1.467 4.236
 0.87 -1.467 4.234
 0.882 -1.466 4.231
 0.896 -1.467 4.231
 0.91 -1.47 4.236
 0.924 -1.472 4.238
 0.937 -1.473 4.239
 0.95 -1.472 4.235
 0.964 -1.474 4.237
 0.977 -1.475 4.238
 0.991 -1.476 4.238
 1.005 -1.479 4.242
 1.019 -1.48 4.242
 1.031 -1.479 4.237
 1.043 -1.478 4.23
 1.057 -1.479 4.232
 1.07 -1.478 4.227
 1.084 -1.48 4.229
 1.098 -1.481 4.229
 1.112 -1.483 4.232
 1.124 -1.483 4.227
 1.138 -1.483 4.226
 1.152 -1.485 4.227
 1.167 -1.488 4.232
 1.181 -1.489 4.233
 1.195 -1.491 4.234
 1.208 -1.491 4.231
 1.222 -1.491 4.229
 1.235 -1.491 4.225
 1.248 -1.491 4.222
 1.261 -1.492 4.22
 1.277 -1.495 4.226
 1.291 -1.496 4.225
 1.305 -1.498 4.226
 1.318 -1.497 4.221
 1.332 -1.498 4.219
 1.344 -1.498 4.215
 1.356 -1.497 4.207
 1.369 -1.496 4.202
 1.384 -1.499 4.206
 1.399 -1.5 4.206
 1.414 -1.503 4.21
 1.43 -1.506 4.214
 1.445 -1.507 4.214
 1.458 -1.507 4.21
 1.472 -1.509 4.21
 1.484 -1.508 4.203
 1.499 -1.51 4.204
 1.514 -1.511 4.202
 1.528 -1.512 4.201
 1.541 -1.512 4.198
 1.554 -1.512 4.193
 1.567 -1.512 4.189
 1.582 -1.514 4.189
 1.599 -1.517 4.193
 1.614 -1.519 4.194
 1.63 -1.522 4.196
 1.646 -1.525 4.2
 1.66 -1.525 4.197
 1.673 -1.525 4.19
 1.686 -1.525 4.186
 1.702 -1.527 4.187
 1.715 -1.527 4.181
 1.727 -1.526 4.173
 1.742 -1.527 4.171
 1.754 -1.526 4.165
 1.768 -1.527 4.161
 1.784 -1.529 4.162
 1.802 -1.533 4.168
 1.815 -1.534 4.163
 1.829 -1.534 4.158
 1.84 -1.532 4.147
 1.848 -1.527 4.13
 1.852 -1.52 4.104
 1.86 -1.516 4.087
 1.864 -1.508 4.061
 1.868 -1.501 4.038
 1.876 -1.497 4.02
 1.887 -1.496 4.012
 1.895 -1.492 3.995
 1.906 -1.49 3.985
 1.918 -1.489 3.977
 1.927 -1.487 3.964
 0 0 0
 0 0 0
 0 0 0
 0 0 0
 0 0 0
 0 0 0
 0 0 0
 0 0 0
 0 0 0
 0 0 0
 0 0 0
 0 0 0
 0 0 0
 0 0 0
 0 0 0
 0 0 0
 0 0 0
 0 0 0
 0 0 0
 0 0 0
 1.793 -1.214 3.127
 1.813 -1.22 3.138
 1.835 -1.228 3.153
 1.843 -1.226 3.142
 1.848 -1.223 3.127
 1.859 -1.223 3.122
 1.855 -1.214 3.093
 1.894 -1.232 3.134
 1.813 -1.173 2.978
 -2.505 -1.622 4.269
 -2.423 -1.578 4.159
 -2.441 -1.599 4.222
 -2.421 -1.596 4.22
 -2.412 -1.599 4.236
 -2.383 -1.59 4.217
 -2.367 -1.588 4.22
 -2.353 -1.589 4.229
 -2.342 -1.591 4.241
 -2.33 -1.593 4.252
 -2.315 -1.592 4.256
 -2.3 -1.592 4.263
 -2.289 -1.594 4.274
 -2.274 -1.593 4.279
 -2.26 -1.594 4.287
 -2.245 -1.593 4.293
 -2.232 -1.594 4.301
 -2.213 -1.591 4.298
 -2.195 -1.588 4.298
 -2.179 -1.586 4.299
 -2.162 -1.585 4.301
 -2.143 -1.581 4.296
 -2.127 -1.58 4.299
 -2.11 -1.578 4.299
 -2.089 -1.573 4.291
 -2.072 -1.571 4.291
 -2.061 -1.573 4.303
 -2.048 -1.574 4.312
 -2.033 -1.573 4.315
 -2.019 -1.573 4.32
 -2.005 -1.573 4.325
 -1.986 -1.569 4.32
 -1.966 -1.564 4.312
 -1.95 -1.563 4.315
 -1.935 -1.562 4.318
 -1.919 -1.561 4.319
 -1.904 -1.56 4.322
 -1.892 -1.561 4.331
 -1.876 -1.56 4.332
 -1.858 -1.556 4.326
 -1.841 -1.553 4.324
 -1.827 -1.554 4.331
 -1.809 -1.55 4.324
 -1.792 -1.548 4.323
 -1.778 -1.547 4.326
 -1.763 -1.546 4.329
 -1.744 -1.541 4.32
 -1.728 -1.54 4.321
 -1.713 -1.539 4.322
 -1.698 -1.538 4.323
 -1.68 -1.534 4.316
 -1.663 -1.531 4.313
 -1.649 -1.531 4.317
 -1.633 -1.528 4.314
 -1.617 -1.526 4.311
 -1.601 -1.524 4.309
 -1.587 -1.523 4.313
 -1.571 -1.521 4.309
 -1.556 -1.52 4.312
 -1.543 -1.52 4.315
 -1.528 -1.519 4.318
 -1.514 -1.519 4.32
 -1.499 -1.517 4.318
 -1.483 -1.515 4.317
 -1.469 -1.514 4.319
 -1.454 -1.513 4.318
 -1.439 -1.511 4.316
 -1.425 -1.51 4.318
 -1.409 -1.508 4.316
 -1.393 -1.506 4.312
 -1.378 -1.504 4.311
 -1.364 -1.503 4.311
 -1.349 -1.501 4.309
 -1.335 -1.5 4.312
 -1.32 -1.498 4.309
 -1.305 -1.497 4.308
 -1.289 -1.494 4.303
 -1.276 -1.494 4.306
 -1.261 -1.492 4.304
 -1.246 -1.49 4.3
 -1.232 -1.489 4.301
 -1.217 -1.487 4.3
 -1.201 -1.484 4.294
 -1.188 -1.484 4.294
 -1.176 -1.485 4.302
 -1.161 -1.484 4.301
 -1.148 -1.484 4.304
 -1.134 -1.483 4.304
 -1.121 -1.483 4.307
 -1.106 -1.481 4.303
 -1.093 -1.481 4.306
 -1.077 -1.478 4.299
 -1.064 -1.477 4.301
 -1.047 -1.473 4.289
 -1.034 -1.472 4.289
 -1.019 -1.47 4.287
 -1.007 -1.471 4.292
 -0.993 -1.47 4.292
 -0.982 -1.472 4.301
 -0.967 -1.471 4.299
 -0.954 -1.47 4.299
 -0.94 -1.469 4.298
 -0.928 -1.47 4.303
 -0.914 -1.469 4.303
 -0.901 -1.47 4.307
 -0.889 -1.47 4.31
 -0.875 -1.469 4.31
 -0.861 -1.467 4.306
 -0.847 -1.466 4.305
 -0.833 -1.464 4.301
 -0.819 -1.463 4.299
 -0.805 -1.461 4.294
 -0.791 -1.459 4.292
 -0.778 -1.458 4.29
 -0.764 -1.458 4.29
 -0.75 -1.455 4.285
 -0.738 -1.457 4.291
 -0.725 -1.456 4.291
 -0.712 -1.457 4.294
 -0.698 -1.456 4.292
 -0.685 -1.456 4.294
 -0.672 -1.455 4.295
 -0.659 -1.455 4.295
 -0.646 -1.453 4.292
 -0.633 -1.455 4.297
 -0.621 -1.455 4.3
 -0.606 -1.451 4.288
 -0.593 -1.451 4.29
 -0.58 -1.451 4.291
 -0.566 -1.449 4.287
 -0.553 -1.448 4.284
 -0.541 -1.451 4.295
 -0.529 -1.451 4.297
 -0.515 -1.45 4.294
 -0.502 -1.45 4.294
 -0.489 -1.449 4.292
 -0.476 -1.448 4.291
 -0.463 -1.447 4.289
 -0.45 -1.445 4.285
 -0.436 -1.444 4.281
 -0.423 -1.443 4.279
 -0.41 -1.442 4.277
 -0.397 -1.44 4.273
 -0.384 -1.44 4.275
 -0.371 -1.44 4.275
 -0.359 -1.442 4.281
 -0.346 -1.441 4.279
 -0.333 -1.44 4.277
 -0.32 -1.442 4.282
 -0.308 -1.444 4.29
 -0.295 -1.442 4.285
 -0.282 -1.441 4.282
 -0.269 -1.441 4.282
 -0.256 -1.439 4.277
 -0.243 -1.437 4.271
 -0.23 -1.438 4.274
 -0.218 -1.439 4.278
 -0.205 -1.441 4.283
 -0.193 -1.441 4.285
 -0.18 -1.44 4.283
 -0.167 -1.439 4.279
 -0.154 -1.438 4.276
 -0.141 -1.436 4.27
 -0.128 -1.435 4.268
 -0.116 -1.437 4.274
 -0.103 -1.437 4.274
 -0.09 -1.438 4.276
 -0.078 -1.439 4.279
 -0.065 -1.437 4.275
 -0.052 -1.437 4.273
 -0.039 -1.436 4.27
 -0.027 -1.435 4.269
 -0.014 -1.435 4.267
 -0.001 -1.436 4.271
 0.01 -1.436 4.271
 0.023 -1.437 4.273
 0.036 -1.436 4.269
 0.049 -1.437 4.273
 0.061 -1.436 4.27
 0.074 -1.435 4.266
 0.087 -1.435 4.264
 0.099 -1.436 4.269
 0.112 -1.435 4.266
 0.125 -1.436 4.268
 0.137 -1.436 4.268
 0.15 -1.436 4.267
 0.163 -1.435 4.264
 0.175 -1.435 4.261
 0.188 -1.433 4.255
 0.2 -1.433 4.255
 0.213 -1.433 4.254
 0.226 -1.434 4.257
 0.239 -1.434 4.257
 0.252 -1.436 4.261
 0.264 -1.436 4.261
 0.277 -1.437 4.262
 0.29 -1.436 4.259
 0.303 -1.438 4.263
 0.315 -1.437 4.26
 0.328 -1.437 4.258
 0.341 -1.437 4.258
 0.353 -1.437 4.255
 0.366 -1.435 4.251
 0.379 -1.437 4.253
 0.391 -1.437 4.254
 0.404 -1.437 4.253
 0.417 -1.439 4.257
 0.43 -1.441 4.261
 0.443 -1.44 4.258
 0.456 -1.441 4.258
 0.469 -1.441 4.258
 0.481 -1.441 4.255
 0.494 -1.442 4.257
 0.507 -1.442 4.257
 0.52 -1.443 4.259
 0.534 -1.445 4.261
 0.547 -1.447 4.268
 0.56 -1.447 4.264
 0.573 -1.447 4.263
 0.586 -1.449 4.267
 0.598 -1.447 4.262
 0.61 -1.444 4.249
 0.622 -1.444 4.249
 0.636 -1.446 4.253
 0.648 -1.445 4.249
 0.661 -1.446 4.248
 0.675 -1.448 4.254
 0.687 -1.447 4.247
 0.7 -1.446 4.244
 0.713 -1.447 4.243
 0.726 -1.448 4.245
 0.739 -1.448 4.243
 0.754 -1.453 4.255
 0.766 -1.451 4.249
 0.779 -1.451 4.246
 0.792 -1.453 4.248
 0.806 -1.454 4.251
 0.818 -1.454 4.247
 0.832 -1.455 4.248
 0.845 -1.455 4.247
 0.857 -1.454 4.24
 0.87 -1.454 4.239
 0.882 -1.453 4.234
 0.896 -1.455 4.235
 0.909 -1.455 4.235
 0.924 -1.458 4.241
 0.937 -1.459 4.241
 0.95 -1.46 4.24
 0.964 -1.461 4.242
 0.978 -1.463 4.245
 0.991 -1.464 4.243
 1.005 -1.465 4.245
 1.019 -1.467 4.247
 1.032 -1.466 4.243
 1.044 -1.465 4.236
 1.058 -1.467 4.238
 1.071 -1.467 4.234
 1.083 -1.467 4.231
 1.097 -1.467 4.229
 1.111 -1.469 4.232
 1.123 -1.468 4.226
 1.135 -1.467 4.221
 1.149 -1.468 4.221
 1.164 -1.47 4.224
 1.178 -1.472 4.225
 1.192 -1.474 4.227
 1.206 -1.475 4.226
 1.22 -1.476 4.225
 1.234 -1.477 4.226
 1.247 -1.478 4.224
 1.261 -1.478 4.222
 1.276 -1.481 4.228
 1.291 -1.483 4.23
 1.306 -1.485 4.231
 1.318 -1.484 4.225
 1.331 -1.485 4.222
 1.344 -1.485 4.218
 1.356 -1.483 4.21
 1.368 -1.482 4.204
 1.384 -1.486 4.21
 1.398 -1.487 4.209
 1.413 -1.488 4.21
 1.429 -1.492 4.215
 1.444 -1.493 4.215
 1.457 -1.493 4.21
 1.472 -1.496 4.213
 1.486 -1.496 4.211
 1.499 -1.497 4.208
 1.513 -1.498 4.206
 1.528 -1.499 4.205
 1.541 -1.498 4.2
 1.554 -1.499 4.196
 1.568 -1.5 4.194
 1.582 -1.5 4.192
 1.598 -1.503 4.194
 1.614 -1.506 4.198
 1.629 -1.508 4.198
 1.645 -1.51 4.2
 1.66 -1.512 4.2
 1.672 -1.511 4.193
 1.685 -1.51 4.186
 1.701 -1.513 4.189
 1.715 -1.513 4.185
 1.726 -1.512 4.175
 1.742 -1.514 4.177
 1.756 -1.514 4.173
 1.77 -1.515 4.17
 1.786 -1.518 4.171
 1.803 -1.521 4.175
 1.815 -1.52 4.166
 1.829 -1.52 4.162
 1.839 -1.518 4.15
 1.847 -1.513 4.132
 1.852 -1.507 4.108
 1.86 -1.503 4.092
 1.863 -1.494 4.064
 1.868 -1.488 4.041
 1.875 -1.483 4.023
 1.887 -1.483 4.015
 1.896 -1.48 4.001
 1.912 -1.482 4.001
 1.927 -1.484 4.001
 0 0 0
 0 0 0
 0 0 0
 0 0 0
 0 0 0
 0 0 0
 0 0 0
 0 0 0
 0 0 0
 0 0 0
 0 0 0
 0 0 0
 0 0 0
 0 0 0
 0 0 0
 0 0 0
 0 0 0
 0 0 0
 0 0 0
 0 0 0
 0 0 0
 0 0 0
 1.826 -1.218 3.164
 1.844 -1.223 3.171
 1.845 -1.217 3.15
 1.85 -1.213 3.134
 1.861 -1.213 3.129
 1.856 -1.203 3.097
 1.885 -1.215 3.123
 1.852 -1.188 3.045
 0 0 0
 -2.44 -1.575 4.194
 -2.451 -1.592 4.245
 -2.427 -1.586 4.236
 -2.435 -1.6 4.281
 -2.411 -1.594 4.271
 -2.399 -1.595 4.283
 -2.383 -1.595 4.287
 -2.365 -1.592 4.288
 -2.342 -1.587 4.279
 -2.327 -1.586 4.284
 -2.309 -1.584 4.284
 -2.297 -1.585 4.294
 -2.28 -1.583 4.296
 -2.266 -1.584 4.304
 -2.251 -1.583 4.308
 -2.238 -1.584 4.316
 -2.218 -1.58 4.313
 -2.201 -1.578 4.313
 -2.183 -1.575 4.311
 -2.169 -1.576 4.319
 -2.151 -1.573 4.318
 -2.135 -1.572 4.32
 -2.118 -1.57 4.321
 -2.098 -1.565 4.314
 -2.078 -1.561 4.307
 -2.064 -1.561 4.314
 -2.05 -1.561 4.321
 -2.035 -1.561 4.325
 -2.021 -1.56 4.329
 -2.006 -1.56 4.333
 -1.986 -1.555 4.325
 -1.965 -1.55 4.317
 -1.947 -1.547 4.313
 -1.933 -1.546 4.317
 -1.916 -1.544 4.315
 -1.901 -1.543 4.318
 -1.887 -1.543 4.324
 -1.873 -1.543 4.329
 -1.855 -1.54 4.325
 -1.839 -1.538 4.326
 -1.826 -1.539 4.332
 -1.808 -1.536 4.328
 -1.792 -1.533 4.326
 -1.776 -1.532 4.326
 -1.761 -1.53 4.327
 -1.742 -1.526 4.32
 -1.727 -1.525 4.321
 -1.712 -1.524 4.324
 -1.697 -1.523 4.325
 -1.679 -1.519 4.318
 -1.661 -1.515 4.312
 -1.647 -1.515 4.314
 -1.63 -1.511 4.309
 -1.614 -1.51 4.309
 -1.599 -1.509 4.31
 -1.587 -1.51 4.317
 -1.571 -1.508 4.316
 -1.558 -1.508 4.32
 -1.544 -1.508 4.324
 -1.529 -1.506 4.324
 -1.514 -1.506 4.325
 -1.499 -1.503 4.323
 -1.484 -1.503 4.324
 -1.47 -1.501 4.325
 -1.455 -1.5 4.326
 -1.438 -1.497 4.319
 -1.423 -1.496 4.319
 -1.408 -1.493 4.317
 -1.392 -1.491 4.313
 -1.376 -1.488 4.309
 -1.364 -1.489 4.315
 -1.349 -1.488 4.314
 -1.335 -1.487 4.314
 -1.319 -1.484 4.309
 -1.304 -1.482 4.308
 -1.288 -1.479 4.302
 -1.274 -1.478 4.303
 -1.258 -1.475 4.297
 -1.244 -1.475 4.299
 -1.231 -1.474 4.301
 -1.216 -1.473 4.299
 -1.2 -1.47 4.294
 -1.187 -1.47 4.297
 -1.175 -1.471 4.302
 -1.16 -1.469 4.301
 -1.148 -1.47 4.306
 -1.134 -1.47 4.309
 -1.121 -1.47 4.31
 -1.107 -1.468 4.309
 -1.092 -1.467 4.307
 -1.076 -1.462 4.297
 -1.062 -1.462 4.297
 -1.046 -1.458 4.288
 -1.031 -1.455 4.283
 -1.019 -1.456 4.288
 -1.006 -1.457 4.293
 -0.992 -1.456 4.292
 -0.981 -1.458 4.302
 -0.967 -1.456 4.299
 -0.953 -1.455 4.297
 -0.939 -1.454 4.296
 -0.926 -1.455 4.301
 -0.913 -1.454 4.301
 -0.9 -1.455 4.305
 -0.887 -1.455 4.308
 -0.875 -1.456 4.312
 -0.86 -1.453 4.306
 -0.847 -1.453 4.308
 -0.832 -1.45 4.301
 -0.819 -1.449 4.3
 -0.804 -1.447 4.296
 -0.79 -1.445 4.291
 -0.776 -1.442 4.284
 -0.763 -1.442 4.287
 -0.749 -1.441 4.285
 -0.736 -1.441 4.286
 -0.723 -1.441 4.288
 -0.712 -1.443 4.297
 -0.698 -1.442 4.295
 -0.685 -1.441 4.292
 -0.672 -1.442 4.297
 -0.659 -1.442 4.299
 -0.646 -1.441 4.297
 -0.633 -1.441 4.3
 -0.62 -1.441 4.301
 -0.605 -1.437 4.288
 -0.592 -1.436 4.288
 -0.579 -1.434 4.284
 -0.565 -1.433 4.283
 -0.552 -1.433 4.281
 -0.54 -1.436 4.291
 -0.528 -1.436 4.294
 -0.515 -1.436 4.294
 -0.501 -1.435 4.291
 -0.488 -1.434 4.29
 -0.475 -1.433 4.29
 -0.462 -1.432 4.287
 -0.448 -1.429 4.28
 -0.436 -1.429 4.281
 -0.422 -1.428 4.277
 -0.409 -1.427 4.276
 -0.396 -1.426 4.273
 -0.384 -1.427 4.278
 -0.371 -1.427 4.277
 -0.359 -1.429 4.284
 -0.346 -1.429 4.284
 -0.333 -1.427 4.279
 -0.32 -1.427 4.282
 -0.308 -1.43 4.289
 -0.295 -1.428 4.284
 -0.282 -1.427 4.282
 -0.269 -1.427 4.283
 -0.256 -1.426 4.28
 -0.243 -1.424 4.275
 -0.23 -1.426 4.28
 -0.218 -1.425 4.278
 -0.205 -1.427 4.283
 -0.192 -1.427 4.283
 -0.179 -1.425 4.28
 -0.167 -1.424 4.277
 -0.154 -1.424 4.275
 -0.141 -1.422 4.27
 -0.128 -1.421 4.269
 -0.116 -1.423 4.275
 -0.103 -1.424 4.277
 -0.09 -1.425 4.281
 -0.078 -1.427 4.287
 -0.065 -1.427 4.287
 -0.052 -1.428 4.289
 -0.039 -1.426 4.284
 -0.027 -1.426 4.282
 -0.014 -1.425 4.279
 -0.001 -1.425 4.279
 0.011 -1.424 4.278
 0.023 -1.425 4.278
 0.036 -1.423 4.274
 0.049 -1.424 4.274
 0.061 -1.424 4.274
 0.074 -1.423 4.271
 0.087 -1.423 4.272
 0.1 -1.425 4.276
 0.112 -1.424 4.273
 0.125 -1.423 4.27
 0.137 -1.423 4.269
 0.15 -1.422 4.267
 0.163 -1.422 4.265
 0.175 -1.421 4.263
 0.188 -1.42 4.26
 0.2 -1.419 4.256
 0.213 -1.42 4.256
 0.226 -1.419 4.254
 0.238 -1.42 4.255
 0.252 -1.423 4.263
 0.264 -1.423 4.263
 0.277 -1.424 4.264
 0.29 -1.424 4.264
 0.303 -1.425 4.267
 0.315 -1.424 4.262
 0.328 -1.423 4.258
 0.34 -1.423 4.258
 0.353 -1.423 4.256
 0.366 -1.423 4.255
 0.379 -1.424 4.257
 0.392 -1.427 4.264
 0.405 -1.427 4.263
 0.418 -1.428 4.266
 0.431 -1.428 4.265
 0.443 -1.428 4.263
 0.456 -1.427 4.259
 0.468 -1.427 4.257
 0.481 -1.426 4.254
 0.494 -1.426 4.253
 0.506 -1.426 4.251
 0.519 -1.427 4.253
 0.532 -1.428 4.253
 0.546 -1.43 4.259
 0.558 -1.429 4.252
 0.571 -1.43 4.255
 0.584 -1.431 4.255
 0.597 -1.431 4.253
 0.609 -1.429 4.247
 0.622 -1.431 4.251
 0.635 -1.432 4.252
 0.648 -1.431 4.248
 0.661 -1.432 4.248
 0.674 -1.433 4.25
 0.686 -1.432 4.244
 0.699 -1.432 4.242
 0.712 -1.433 4.243
 0.725 -1.433 4.243
 0.738 -1.433 4.241
 0.753 -1.438 4.252
 0.766 -1.438 4.251
 0.779 -1.438 4.248
 0.792 -1.44 4.251
 0.806 -1.442 4.255
 0.819 -1.442 4.254
 0.832 -1.442 4.252
 0.845 -1.443 4.253
 0.858 -1.442 4.246
 0.87 -1.442 4.244
 0.882 -1.44 4.235
 0.895 -1.441 4.236
 0.908 -1.441 4.234
 0.923 -1.444 4.241
 0.938 -1.447 4.247
 0.952 -1.449 4.249
 0.965 -1.449 4.248
 0.979 -1.452 4.253
 0.992 -1.452 4.25
 1.005 -1.452 4.248
 1.019 -1.453 4.249
 1.032 -1.453 4.245
 1.043 -1.451 4.237
 1.057 -1.453 4.238
 1.069 -1.452 4.233
 1.083 -1.453 4.233
 1.097 -1.454 4.233
 1.111 -1.456 4.236
 1.123 -1.455 4.23
 1.136 -1.455 4.226
 1.149 -1.455 4.223
 1.163 -1.456 4.225
 1.177 -1.458 4.227
 1.192 -1.46 4.228
 1.206 -1.461 4.228
 1.219 -1.462 4.228
 1.234 -1.464 4.229
 1.247 -1.464 4.226
 1.262 -1.466 4.229
 1.276 -1.468 4.231
 1.291 -1.47 4.232
 1.304 -1.47 4.231
 1.317 -1.47 4.225
 1.329 -1.469 4.218
 1.343 -1.469 4.217
 1.355 -1.469 4.211
 1.368 -1.469 4.207
 1.384 -1.473 4.214
 1.398 -1.473 4.213
 1.412 -1.475 4.212
 1.429 -1.478 4.219
 1.444 -1.48 4.22
 1.457 -1.481 4.217
 1.474 -1.484 4.223
 1.489 -1.486 4.223
 1.501 -1.485 4.216
 1.515 -1.486 4.215
 1.529 -1.487 4.214
 1.541 -1.485 4.204
 1.553 -1.484 4.197
 1.568 -1.486 4.198
 1.581 -1.486 4.192
 1.596 -1.488 4.194
 1.614 -1.492 4.202
 1.63 -1.495 4.205
 1.646 -1.497 4.207
 1.661 -1.499 4.206
 1.673 -1.498 4.198
 1.684 -1.496 4.189
 1.699 -1.498 4.188
 1.713 -1.498 4.184
 1.725 -1.498 4.178
 1.742 -1.501 4.181
 1.757 -1.502 4.179
 1.773 -1.504 4.181
 1.789 -1.507 4.182
 1.806 -1.509 4.184
 1.817 -1.508 4.175
 1.831 -1.509 4.172
 1.84 -1.505 4.155
 1.846 -1.499 4.135
 1.852 -1.494 4.114
 1.862 -1.491 4.101
 1.866 -1.483 4.074
 1.872 -1.478 4.054
 1.881 -1.475 4.04
 1.893 -1.474 4.032
 1.9 -1.469 4.013
 1.915 -1.471 4.012
 1.931 -1.474 4.014
 0 0 0
 0 0 0
 0 0 0
 0 0 0
 0 0 0
 0 0 0
 0 0 0
 0 0 0
 0 0 0
 0 0 0
 0 0 0
 0 0 0
 0 0 0
 0 0 0
 0 0 0
 0 0 0
 0 0 0
 0 0 0
 0 0 0
 0 0 0
 0 0 0
 0 0 0
 1.825 -1.207 3.166
 1.846 -1.214 3.178
 1.849 -1.209 3.16
 1.852 -1.204 3.141
 1.861 -1.202 3.132
 1.857 -1.193 3.102
 1.875 -1.198 3.109
 1.801 -1.145 2.965
 -2.498 -1.589 4.266
 0 0 0
 -2.471 -1.59 4.284
 -2.449 -1.586 4.279
 -2.454 -1.598 4.32
 -2.439 -1.598 4.326
 -2.42 -1.595 4.326
 -2.399 -1.591 4.322
 -2.381 -1.588 4.321
 -2.357 -1.582 4.31
 -2.336 -1.578 4.305
 -2.317 -1.575 4.303
 -2.304 -1.575 4.312
 -2.288 -1.574 4.316
 -2.272 -1.574 4.32
 -2.258 -1.574 4.326
 -2.243 -1.573 4.331
 -2.225 -1.571 4.331
 -2.207 -1.568 4.33
 -2.191 -1.567 4.333
 -2.176 -1.566 4.337
 -2.16 -1.565 4.341
 -2.142 -1.562 4.338
 -2.123 -1.559 4.336
 -2.101 -1.553 4.325
 -2.082 -1.55 4.32
 -2.065 -1.548 4.321
 -2.05 -1.547 4.324
 -2.034 -1.545 4.326
 -2.019 -1.545 4.331
 -2.004 -1.544 4.334
 -1.985 -1.54 4.328
 -1.965 -1.536 4.321
 -1.948 -1.533 4.319
 -1.934 -1.533 4.324
 -1.916 -1.53 4.32
 -1.901 -1.529 4.324
 -1.887 -1.529 4.329
 -1.873 -1.53 4.335
 -1.856 -1.527 4.332
 -1.842 -1.527 4.336
 -1.827 -1.526 4.339
 -1.81 -1.523 4.336
 -1.79 -1.518 4.327
 -1.773 -1.516 4.324
 -1.756 -1.513 4.321
 -1.738 -1.509 4.315
 -1.723 -1.508 4.317
 -1.71 -1.509 4.323
 -1.696 -1.509 4.327
 -1.681 -1.507 4.326
 -1.665 -1.505 4.325
 -1.65 -1.504 4.327
 -1.632 -1.5 4.319
 -1.615 -1.497 4.315
 -1.599 -1.495 4.314
 -1.586 -1.495 4.318
 -1.572 -1.495 4.322
 -1.558 -1.495 4.326
 -1.545 -1.495 4.331
 -1.529 -1.493 4.329
 -1.515 -1.492 4.33
 -1.498 -1.489 4.326
 -1.485 -1.49 4.33
 -1.47 -1.488 4.33
 -1.455 -1.487 4.33
 -1.438 -1.483 4.322
 -1.423 -1.482 4.323
 -1.407 -1.479 4.318
 -1.391 -1.476 4.312
 -1.376 -1.475 4.312
 -1.364 -1.476 4.319
 -1.349 -1.474 4.318
 -1.335 -1.474 4.321
 -1.32 -1.472 4.319
 -1.305 -1.47 4.315
 -1.289 -1.468 4.311
 -1.274 -1.465 4.308
 -1.257 -1.461 4.3
 -1.244 -1.461 4.301
 -1.23 -1.461 4.305
 -1.215 -1.459 4.301
 -1.201 -1.458 4.301
 -1.188 -1.458 4.304
 -1.174 -1.457 4.305
 -1.159 -1.454 4.3
 -1.146 -1.455 4.304
 -1.132 -1.454 4.304
 -1.119 -1.454 4.307
 -1.105 -1.453 4.306
 -1.091 -1.452 4.307
 -1.075 -1.449 4.299
 -1.062 -1.448 4.3
 -1.047 -1.445 4.294
 -1.033 -1.445 4.296
 -1.02 -1.445 4.299
 -1.007 -1.445 4.301
 -0.993 -1.444 4.3
 -0.981 -1.445 4.306
 -0.966 -1.442 4.299
 -0.952 -1.441 4.298
 -0.938 -1.44 4.298
 -0.925 -1.44 4.3
 -0.912 -1.439 4.299
 -0.899 -1.44 4.305
 -0.886 -1.44 4.306
 -0.873 -1.44 4.307
 -0.858 -1.437 4.3
 -0.845 -1.436 4.3
 -0.83 -1.433 4.291
 -0.816 -1.432 4.29
 -0.802 -1.431 4.29
 -0.789 -1.43 4.29
 -0.775 -1.428 4.284
 -0.762 -1.428 4.287
 -0.749 -1.427 4.286
 -0.736 -1.427 4.287
 -0.722 -1.426 4.286
 -0.711 -1.429 4.296
 -0.698 -1.428 4.296
 -0.684 -1.427 4.293
 -0.672 -1.428 4.299
 -0.659 -1.428 4.299
 -0.645 -1.426 4.295
 -0.632 -1.426 4.296
 -0.62 -1.427 4.301
 -0.605 -1.423 4.288
 -0.592 -1.422 4.289
 -0.578 -1.421 4.286
 -0.566 -1.421 4.288
 -0.552 -1.42 4.285
 -0.54 -1.423 4.295
 -0.528 -1.424 4.299
 -0.515 -1.424 4.3
 -0.501 -1.421 4.294
 -0.488 -1.42 4.292
 -0.475 -1.42 4.293
 -0.462 -1.418 4.287
 -0.448 -1.416 4.283
 -0.436 -1.416 4.284
 -0.422 -1.415 4.279
 -0.409 -1.414 4.277
 -0.396 -1.414 4.278
 -0.384 -1.414 4.279
 -0.371 -1.414 4.282
 -0.359 -1.417 4.29
 -0.346 -1.417 4.291
 -0.333 -1.414 4.283
 -0.32 -1.414 4.284
 -0.307 -1.415 4.287
 -0.294 -1.413 4.282
 -0.281 -1.412 4.28
 -0.269 -1.413 4.282
 -0.256 -1.412 4.281
 -0.243 -1.411 4.276
 -0.23 -1.411 4.277
 -0.217 -1.41 4.275
 -0.205 -1.412 4.282
 -0.192 -1.412 4.281
 -0.179 -1.412 4.281
 -0.166 -1.412 4.281
 -0.154 -1.41 4.276
 -0.141 -1.408 4.27
 -0.128 -1.408 4.27
 -0.115 -1.41 4.277
 -0.103 -1.412 4.283
 -0.09 -1.413 4.284
 -0.078 -1.414 4.289
 -0.065 -1.414 4.289
 -0.052 -1.413 4.287
 -0.039 -1.41 4.276
 -0.026 -1.409 4.274
 -0.014 -1.409 4.273
 -0.001 -1.408 4.27
 0.011 -1.408 4.271
 0.023 -1.41 4.276
 0.036 -1.409 4.271
 0.049 -1.409 4.272
 0.061 -1.411 4.278
 0.074 -1.41 4.273
 0.087 -1.409 4.27
 0.1 -1.411 4.278
 0.112 -1.41 4.275
 0.125 -1.409 4.269
 0.138 -1.41 4.273
 0.15 -1.41 4.272
 0.163 -1.409 4.268
 0.175 -1.408 4.265
 0.188 -1.408 4.264
 0.2 -1.406 4.258
 0.213 -1.407 4.26
 0.226 -1.408 4.262
 0.239 -1.409 4.263
 0.252 -1.41 4.266
 0.264 -1.41 4.267
 0.277 -1.409 4.262
 0.289 -1.409 4.26
 0.302 -1.409 4.261
 0.315 -1.409 4.258
 0.327 -1.408 4.254
 0.34 -1.408 4.254
 0.353 -1.409 4.256
 0.366 -1.409 4.256
 0.378 -1.41 4.258
 0.392 -1.413 4.264
 0.404 -1.413 4.262
 0.418 -1.414 4.265
 0.43 -1.413 4.261
 0.443 -1.414 4.261
 0.455 -1.413 4.259
 0.468 -1.414 4.261
 0.48 -1.412 4.254
 0.494 -1.414 4.258
 0.506 -1.414 4.255
 0.519 -1.414 4.255
 0.532 -1.414 4.252
 0.546 -1.417 4.26
 0.557 -1.414 4.251
 0.57 -1.415 4.252
 0.583 -1.416 4.254
 0.597 -1.418 4.257
 0.608 -1.415 4.248
 0.622 -1.417 4.251
 0.635 -1.417 4.251
 0.647 -1.416 4.244
 0.66 -1.416 4.244
 0.673 -1.418 4.247
 0.686 -1.418 4.245
 0.699 -1.419 4.245
 0.712 -1.419 4.246
 0.725 -1.42 4.245
 0.738 -1.421 4.246
 0.753 -1.424 4.254
 0.766 -1.424 4.252
 0.779 -1.425 4.251
 0.791 -1.425 4.249
 0.805 -1.426 4.252
 0.817 -1.426 4.248
 0.831 -1.427 4.249
 0.844 -1.428 4.249
 0.856 -1.427 4.245
 0.87 -1.428 4.245
 0.882 -1.426 4.238
 0.895 -1.428 4.239
 0.907 -1.427 4.233
 0.922 -1.43 4.242
 0.936 -1.432 4.243
 0.95 -1.434 4.247
 0.963 -1.434 4.244
 0.978 -1.437 4.252
 0.991 -1.437 4.249
 1.004 -1.437 4.246
 1.018 -1.438 4.247
 1.03 -1.438 4.244
 1.042 -1.436 4.235
 1.056 -1.437 4.236
 1.069 -1.438 4.235
 1.083 -1.439 4.235
 1.097 -1.441 4.237
 1.111 -1.443 4.241
 1.125 -1.444 4.239
 1.137 -1.443 4.234
 1.149 -1.442 4.229
 1.163 -1.443 4.229
 1.178 -1.446 4.232
 1.191 -1.446 4.23
 1.205 -1.447 4.228
 1.218 -1.448 4.227
 1.232 -1.449 4.228
 1.246 -1.449 4.226
 1.26 -1.451 4.227
 1.275 -1.453 4.23
 1.29 -1.455 4.233
 1.303 -1.456 4.231
 1.315 -1.455 4.223
 1.328 -1.455 4.221
 1.342 -1.455 4.218
 1.355 -1.456 4.215
 1.369 -1.457 4.213
 1.385 -1.46 4.22
 1.398 -1.46 4.217
 1.413 -1.462 4.218
 1.43 -1.466 4.225
 1.445 -1.468 4.226
 1.459 -1.469 4.225
 1.475 -1.472 4.23
 1.49 -1.473 4.229
 1.502 -1.473 4.223
 1.518 -1.475 4.226
 1.531 -1.475 4.221
 1.542 -1.473 4.212
 1.555 -1.473 4.207
 1.569 -1.474 4.204
 1.581 -1.472 4.196
 1.597 -1.475 4.199
 1.614 -1.479 4.206
 1.63 -1.482 4.209
 1.645 -1.484 4.209
 1.66 -1.485 4.208
 1.673 -1.484 4.202
 1.685 -1.483 4.194
 1.698 -1.483 4.189
 1.712 -1.484 4.187
 1.725 -1.484 4.18
 1.741 -1.486 4.182
 1.756 -1.488 4.181
 1.772 -1.49 4.184
 1.789 -1.493 4.185
 1.805 -1.496 4.188
 1.818 -1.495 4.181
 1.832 -1.496 4.178
 1.843 -1.494 4.166
 1.848 -1.488 4.144
 1.855 -1.482 4.123
 1.864 -1.479 4.108
 1.867 -1.471 4.082
 1.873 -1.466 4.061
 1.884 -1.464 4.05
 1.897 -1.464 4.045
 1.903 -1.459 4.025
 1.917 -1.46 4.021
 0 0 0
 0 0 0
 0 0 0
 0 0 0
 0 0 0
 0 0 0
 0 0 0
 0 0 0
 0 0 0
 0 0 0
 0 0 0
 0 0 0
 0 0 0
 0 0 0
 0 0 0
 0 0 0
 0 0 0
 0 0 0
 0 0 0
 0 0 0
 0 0 0
 0 0 0
 0 0 0
 1.822 -1.194 3.165
 1.837 -1.197 3.166
 1.839 -1.191 3.146
 1.845 -1.189 3.133
 1.853 -1.187 3.123
 1.85 -1.179 3.095
 1.859 -1.177 3.086
 1.853 -1.167 3.054
 -2.542 -1.602 4.347
 0 0 0
 -2.484 -1.584 4.312
 -2.467 -1.583 4.315
 -2.465 -1.591 4.345
 -2.445 -1.588 4.343
 -2.421 -1.581 4.332
 -2.405 -1.581 4.337
 -2.384 -1.576 4.332
 -2.36 -1.57 4.322
 -2.34 -1.566 4.317
 -2.323 -1.565 4.32
 -2.309 -1.564 4.326
 -2.293 -1.563 4.33
 -2.274 -1.561 4.328
 -2.261 -1.561 4.337
 -2.243 -1.559 4.336
 -2.224 -1.556 4.334
 -2.208 -1.555 4.337
 -2.191 -1.553 4.338
 -2.175 -1.551 4.34
 -2.16 -1.551 4.345
 -2.14 -1.547 4.34
 -2.12 -1.542 4.333
 -2.098 -1.537 4.323
 -2.08 -1.534 4.321
 -2.061 -1.531 4.317
 -2.048 -1.531 4.325
 -2.035 -1.532 4.333
 -2.022 -1.533 4.341
 -2.006 -1.532 4.343
 -1.988 -1.528 4.339
 -1.968 -1.525 4.333
 -1.952 -1.522 4.332
 -1.937 -1.522 4.336
 -1.918 -1.518 4.331
 -1.903 -1.517 4.333
 -1.888 -1.516 4.336
 -1.873 -1.516 4.339
 -1.855 -1.512 4.334
 -1.841 -1.512 4.338
 -1.826 -1.512 4.342
 -1.809 -1.509 4.339
 -1.79 -1.504 4.33
 -1.774 -1.502 4.329
 -1.756 -1.499 4.326
 -1.739 -1.496 4.322
 -1.725 -1.496 4.325
 -1.711 -1.496 4.329
 -1.697 -1.495 4.333
 -1.681 -1.494 4.332
 -1.664 -1.491 4.329
 -1.649 -1.49 4.329
 -1.63 -1.485 4.32
 -1.615 -1.483 4.319
 -1.599 -1.481 4.318
 -1.584 -1.48 4.318
 -1.57 -1.48 4.321
 -1.556 -1.479 4.325
 -1.541 -1.478 4.325
 -1.526 -1.476 4.323
 -1.512 -1.476 4.326
 -1.496 -1.474 4.324
 -1.482 -1.473 4.327
 -1.468 -1.472 4.327
 -1.454 -1.472 4.33
 -1.438 -1.469 4.326
 -1.422 -1.467 4.324
 -1.406 -1.465 4.32
 -1.39 -1.462 4.315
 -1.375 -1.46 4.312
 -1.362 -1.461 4.318
 -1.349 -1.461 4.322
 -1.336 -1.461 4.327
 -1.321 -1.46 4.325
 -1.306 -1.458 4.322
 -1.29 -1.455 4.317
 -1.274 -1.452 4.312
 -1.258 -1.449 4.306
 -1.244 -1.448 4.306
 -1.23 -1.447 4.307
 -1.215 -1.446 4.306
 -1.202 -1.445 4.306
 -1.187 -1.444 4.306
 -1.174 -1.444 4.31
 -1.16 -1.443 4.308
 -1.147 -1.443 4.312
 -1.132 -1.441 4.308
 -1.119 -1.441 4.311
 -1.105 -1.44 4.31
 -1.09 -1.438 4.309
 -1.075 -1.435 4.302
 -1.062 -1.436 4.306
 -1.048 -1.434 4.304
 -1.034 -1.433 4.303
 -1.021 -1.433 4.306
 -1.008 -1.433 4.307
 -0.993 -1.43 4.302
 -0.979 -1.43 4.303
 -0.965 -1.428 4.298
 -0.951 -1.426 4.296
 -0.937 -1.425 4.295
 -0.924 -1.426 4.299
 -0.91 -1.424 4.297
 -0.897 -1.425 4.3
 -0.884 -1.424 4.3
 -0.871 -1.423 4.301
 -0.856 -1.421 4.296
 -0.843 -1.421 4.296
 -0.828 -1.418 4.289
 -0.815 -1.418 4.292
 -0.802 -1.418 4.292
 -0.789 -1.416 4.291
 -0.775 -1.414 4.286
 -0.762 -1.415 4.289
 -0.748 -1.413 4.287
 -0.734 -1.411 4.282
 -0.721 -1.411 4.284
 -0.71 -1.414 4.294
 -0.697 -1.414 4.294
 -0.684 -1.413 4.295
 -0.672 -1.416 4.304
 -0.659 -1.416 4.304
 -0.645 -1.413 4.298
 -0.632 -1.412 4.297
 -0.618 -1.411 4.296
 -0.604 -1.408 4.288
 -0.591 -1.407 4.285
 -0.578 -1.407 4.286
 -0.565 -1.407 4.287
 -0.552 -1.406 4.287
 -0.539 -1.408 4.291
 -0.528 -1.41 4.3
 -0.515 -1.41 4.3
 -0.501 -1.409 4.298
 -0.488 -1.408 4.296
 -0.475 -1.408 4.299
 -0.461 -1.405 4.289
 -0.448 -1.404 4.286
 -0.435 -1.403 4.286
 -0.422 -1.402 4.283
 -0.409 -1.4 4.277
 -0.396 -1.401 4.281
 -0.383 -1.4 4.281
 -0.371 -1.401 4.284
 -0.359 -1.403 4.291
 -0.346 -1.404 4.294
 -0.332 -1.399 4.28
 -0.32 -1.401 4.285
 -0.307 -1.401 4.286
 -0.294 -1.399 4.282
 -0.281 -1.398 4.279
 -0.269 -1.4 4.286
 -0.255 -1.398 4.281
 -0.243 -1.398 4.279
 -0.23 -1.398 4.279
 -0.217 -1.397 4.278
 -0.204 -1.398 4.28
 -0.192 -1.397 4.279
 -0.179 -1.396 4.277
 -0.166 -1.396 4.275
 -0.153 -1.396 4.275
 -0.14 -1.394 4.269
 -0.128 -1.394 4.271
 -0.115 -1.396 4.275
 -0.103 -1.397 4.279
 -0.09 -1.397 4.278
 -0.077 -1.399 4.285
 -0.065 -1.399 4.287
 -0.052 -1.399 4.286
 -0.039 -1.397 4.28
 -0.026 -1.397 4.279
 -0.014 -1.397 4.28
 -0.001 -1.396 4.274
 0.011 -1.397 4.278
 0.023 -1.399 4.284
 0.036 -1.397 4.279
 0.049 -1.397 4.277
 0.062 -1.399 4.284
 0.074 -1.398 4.28
 0.087 -1.397 4.275
 0.1 -1.399 4.282
 0.112 -1.398 4.279
 0.125 -1.397 4.275
 0.138 -1.398 4.278
 0.15 -1.398 4.278
 0.163 -1.398 4.275
 0.176 -1.396 4.27
 0.188 -1.395 4.267
 0.2 -1.393 4.261
 0.213 -1.395 4.265
 0.226 -1.395 4.263
 0.239 -1.395 4.265
 0.252 -1.397 4.268
 0.264 -1.397 4.269
 0.277 -1.395 4.262
 0.289 -1.394 4.257
 0.302 -1.394 4.256
 0.314 -1.393 4.254
 0.327 -1.392 4.249
 0.339 -1.393 4.249
 0.352 -1.394 4.253
 0.365 -1.394 4.251
 0.378 -1.396 4.256
 0.391 -1.398 4.261
 0.404 -1.398 4.26
 0.417 -1.399 4.262
 0.43 -1.399 4.261
 0.442 -1.398 4.256
 0.455 -1.398 4.254
 0.468 -1.399 4.257
 0.48 -1.397 4.25
 0.493 -1.4 4.257
 0.506 -1.4 4.257
 0.519 -1.401 4.257
 0.532 -1.401 4.257
 0.545 -1.403 4.259
 0.557 -1.4 4.249
 0.57 -1.4 4.249
 0.582 -1.4 4.248
 0.595 -1.402 4.25
 0.608 -1.402 4.248
 0.622 -1.404 4.253
 0.635 -1.405 4.254
 0.647 -1.404 4.249
 0.66 -1.403 4.247
 0.674 -1.407 4.256
 0.686 -1.406 4.25
 0.699 -1.406 4.25
 0.713 -1.408 4.253
 0.726 -1.409 4.253
 0.738 -1.407 4.247
 0.753 -1.412 4.258
 0.766 -1.412 4.258
 0.778 -1.411 4.253
 0.791 -1.411 4.249
 0.804 -1.412 4.251
 0.816 -1.411 4.245
 0.829 -1.411 4.243
 0.842 -1.412 4.244
 0.855 -1.412 4.241
 0.868 -1.412 4.239
 0.881 -1.412 4.237
 0.894 -1.413 4.237
 0.907 -1.413 4.235
 0.922 -1.416 4.242
 0.936 -1.418 4.245
 0.95 -1.42 4.247
 0.961 -1.418 4.24
 0.976 -1.422 4.247
 0.989 -1.421 4.245
 1.002 -1.422 4.242
 1.016 -1.423 4.243
 1.03 -1.424 4.244
 1.042 -1.423 4.239
 1.056 -1.425 4.24
 1.069 -1.425 4.238
 1.082 -1.425 4.235
 1.096 -1.427 4.238
 1.11 -1.428 4.239
 1.124 -1.43 4.239
 1.137 -1.43 4.238
 1.15 -1.43 4.234
 1.164 -1.431 4.234
 1.177 -1.432 4.234
 1.19 -1.431 4.229
 1.203 -1.432 4.227
 1.216 -1.432 4.224
 1.23 -1.434 4.225
 1.244 -1.435 4.225
 1.259 -1.437 4.227
 1.273 -1.438 4.229
 1.289 -1.441 4.233
 1.302 -1.441 4.23
 1.314 -1.44 4.223
 1.327 -1.44 4.219
 1.34 -1.441 4.217
 1.355 -1.442 4.217
 1.368 -1.443 4.216
 1.384 -1.446 4.221
 1.397 -1.446 4.216
 1.412 -1.447 4.217
 1.427 -1.45 4.22
 1.441 -1.451 4.22
 1.456 -1.453 4.222
 1.474 -1.457 4.229
 1.488 -1.458 4.228
 1.501 -1.458 4.223
 1.517 -1.461 4.226
 1.53 -1.461 4.223
 1.543 -1.46 4.217
 1.556 -1.461 4.213
 1.571 -1.462 4.213
 1.582 -1.46 4.203
 1.597 -1.463 4.205
 1.614 -1.466 4.21
 1.63 -1.468 4.212
 1.645 -1.47 4.212
 1.661 -1.472 4.213
 1.674 -1.472 4.209
 1.687 -1.472 4.203
 1.7 -1.471 4.197
 1.713 -1.472 4.193
 1.727 -1.472 4.189
 1.74 -1.472 4.183
 1.755 -1.473 4.182
 1.771 -1.476 4.185
 1.787 -1.478 4.187
 1.804 -1.481 4.189
 1.818 -1.482 4.185
 1.832 -1.482 4.181
 1.842 -1.479 4.168
 1.848 -1.474 4.147
 1.855 -1.469 4.128
 1.865 -1.467 4.116
 1.871 -1.461 4.093
 1.877 -1.455 4.072
 1.888 -1.453 4.062
 1.9 -1.453 4.054
 1.902 -1.445 4.026
 0 0 0
 0 0 0
 0 0 0
 0 0 0
 0 0 0
 0 0 0
 0 0 0
 0 0 0
 0 0 0
 0 0 0
 0 0 0
 0 0 0
 0 0 0
 0 0 0
 0 0 0
 0 0 0
 0 0 0
 0 0 0
 0 0 0
 0 0 0
 0 0 0
 0 0 0
 0 0 0
 0 0 0
 1.808 -1.174 3.143
