-2.109 -1.634 3.63
-2.085 -1.635 3.645
-2.042 -1.621 3.625
-1.992 -1.601 3.591
-2.002 -1.629 3.666
-1.953 -1.61 3.634
-1.966 -1.641 3.717
-1.909 -1.614 3.665
-1.932 -1.655 3.77
-1.863 -1.617 3.694
-1.862 -1.638 3.753
-1.844 -1.645 3.78
-1.814 -1.641 3.78
-1.787 -1.639 3.786
-1.744 -1.622 3.758
-1.733 -1.635 3.797
-1.684 -1.612 3.754
-1.661 -1.614 3.766
-1.649 -1.627 3.806
-1.615 -1.617 3.793
-1.594 -1.621 3.811
-1.577 -1.629 3.839
-1.517 -1.593 3.762
-1.516 -1.618 3.83
-1.497 -1.625 3.853
-1.499 -1.655 3.933
-1.442 -1.618 3.854
-1.425 -1.627 3.883
-1.383 -1.608 3.845
-1.378 -1.63 3.906
-1.329 -1.602 3.844
-1.315 -1.614 3.882
-1.29 -1.614 3.889
-1.261 -1.609 3.883
-1.235 -1.608 3.887
-1.22 -1.62 3.924
-1.198 -1.624 3.939
-1.158 -1.603 3.893
-1.141 -1.614 3.927
-1.122 -1.622 3.951
-1.099 -1.625 3.966
-1.062 -1.606 3.924
-1.044 -1.616 3.954
-1.017 -1.613 3.953
-0.987 -1.605 3.937
-0.975 -1.625 3.993
-0.944 -1.615 3.972
-0.933 -1.639 4.037
-0.903 -1.63 4.018
-0.867 -1.609 3.971
-0.845 -1.614 3.987
-0.823 -1.619 4.003
-0.799 -1.621 4.012
-0.776 -1.624 4.024
-0.747 -1.615 4.006
-0.729 -1.631 4.048
-0.706 -1.635 4.061
-0.678 -1.627 4.047
-0.648 -1.614 4.016
-0.624 -1.618 4.028
-0.603 -1.627 4.055
-0.575 -1.618 4.036
-0.545 -1.602 3.998
-0.523 -1.61 4.02
-0.506 -1.633 4.081
-0.478 -1.622 4.055
-0.455 -1.629 4.075
-0.428 -1.62 4.053
-0.402 -1.616 4.045
-0.379 -1.623 4.064
-0.358 -1.638 4.103
-0.33 -1.622 4.066
-0.308 -1.637 4.104
-0.28 -1.619 4.061
-0.258 -1.639 4.113
-0.233 -1.638 4.111
-0.207 -1.625 4.079
-0.181 -1.617 4.058
-0.156 -1.618 4.062
-0.131 -1.614 4.052
-0.106 -1.606 4.031
-0.082 -1.612 4.047
-0.058 -1.631 4.094
-0.033 -1.594 4.002
-0.009 -1.634 4.104
0.015 -1.62 4.068
0.039 -1.617 4.058
0.064 -1.624 4.076
0.089 -1.632 4.095
0.113 -1.615 4.051
0.139 -1.63 4.088
0.163 -1.621 4.065
0.188 -1.624 4.072
0.213 -1.629 4.083
0.238 -1.632 4.089
0.26 -1.618 4.052
0.286 -1.625 4.068
0.308 -1.608 4.023
0.338 -1.637 4.094
0.364 -1.643 4.106
0.388 -1.639 4.096
0.409 -1.621 4.048
0.438 -1.641 4.094
0.453 -1.605 4.003
0.483 -1.623 4.044
0.509 -1.63 4.058
0.528 -1.611 4.008
0.556 -1.621 4.03
0.587 -1.641 4.077
0.606 -1.624 4.03
0.637 -1.64 4.068
0.657 -1.628 4.034
0.683 -1.633 4.042
0.714 -1.646 4.072
0.731 -1.629 4.024
0.76 -1.639 4.045
0.779 -1.626 4.007
0.811 -1.641 4.041
0.835 -1.64 4.033
0.861 -1.643 4.036
0.867 -1.608 3.946
0.902 -1.626 3.984
0.942 -1.653 4.046
0.96 -1.642 4.013
0.986 -1.644 4.013
1.014 -1.649 4.019
1.027 -1.629 3.966
1.068 -1.655 4.022
1.102 -1.67 4.051
1.111 -1.645 3.984
1.141 -1.653 3.999
1.153 -1.634 3.945
1.185 -1.644 3.963
1.204 -1.637 3.938
1.236 -1.647 3.955
1.258 -1.643 3.938
1.287 -1.648 3.943
1.313 -1.65 3.94
1.348 -1.662 3.961
1.362 -1.648 3.921
1.392 -1.655 3.929
1.423 -1.661 3.936
1.431 -1.643 3.884
1.471 -1.66 3.915
1.514 -1.68 3.953
1.511 -1.649 3.872
1.523 -1.635 3.83
1.556 -1.644 3.841
1.597 -1.661 3.873
1.601 -1.639 3.812
1.634 -1.648 3.823
1.663 -1.652 3.823
1.676 -1.641 3.786
1.702 -1.641 3.777
1.73 -1.645 3.776
1.744 -1.635 3.742
1.741 -1.61 3.674
1.755 -1.601 3.642
1.751 -1.575 3.574
1.756 -1.559 3.526
1.75 -1.533 3.457
0 0 0
0 0 0
0 0 0
1.672 -1.392 3.098
1.681 -1.382 3.065
1.683 -1.367 3.021
1.674 -1.343 2.958
1.654 -1.312 2.879
1.685 -1.32 2.887
1.672 -1.295 2.821
1.666 -1.276 2.77
1.643 -1.244 2.69
1.662 -1.244 2.68
-2.148 -1.601 3.596
-2.129 -1.605 3.618
-2.127 -1.623 3.672
-2.105 -1.625 3.69
-2.082 -1.628 3.707
-2.057 -1.628 3.719
-2.03 -1.627 3.728
-2.005 -1.627 3.741
-1.981 -1.628 3.755
-1.955 -1.627 3.764
-1.932 -1.629 3.779
-1.907 -1.63 3.791
-1.879 -1.627 3.797
-1.855 -1.629 3.812
-1.83 -1.63 3.824
-1.803 -1.628 3.83
-1.774 -1.625 3.832
-1.749 -1.625 3.842
-1.721 -1.622 3.846
-1.696 -1.623 3.856
-1.671 -1.623 3.867
-1.648 -1.625 3.881
-1.621 -1.624 3.887
-1.593 -1.622 3.89
-1.568 -1.621 3.898
-1.543 -1.622 3.908
-1.519 -1.623 3.918
-1.494 -1.623 3.928
-1.47 -1.624 3.939
-1.443 -1.623 3.944
-1.416 -1.621 3.946
-1.39 -1.619 3.95
-1.364 -1.619 3.956
-1.338 -1.618 3.961
-1.311 -1.616 3.962
-1.284 -1.614 3.964
-1.261 -1.616 3.977
-1.235 -1.615 3.98
-1.21 -1.616 3.988
-1.186 -1.617 3.998
-1.162 -1.619 4.009
-1.135 -1.616 4.008
-1.111 -1.618 4.018
-1.087 -1.619 4.026
-1.061 -1.619 4.031
-1.036 -1.618 4.034
-1.011 -1.618 4.039
-0.986 -1.619 4.049
-0.961 -1.618 4.051
-0.936 -1.619 4.058
-0.911 -1.619 4.061
-0.886 -1.619 4.066
-0.859 -1.616 4.064
-0.834 -1.617 4.069
-0.809 -1.616 4.071
-0.784 -1.616 4.076
-0.76 -1.618 4.084
-0.735 -1.619 4.09
-0.709 -1.617 4.088
-0.684 -1.617 4.092
-0.659 -1.618 4.097
-0.633 -1.616 4.095
-0.608 -1.615 4.096
-0.583 -1.616 4.1
-0.559 -1.617 4.107
-0.534 -1.617 4.109
-0.509 -1.619 4.118
-0.485 -1.622 4.126
-0.461 -1.624 4.134
-0.435 -1.623 4.132
-0.41 -1.624 4.137
-0.385 -1.622 4.134
-0.359 -1.621 4.134
-0.334 -1.62 4.132
-0.309 -1.622 4.138
-0.284 -1.623 4.141
-0.259 -1.623 4.143
-0.234 -1.623 4.144
-0.209 -1.622 4.143
-0.184 -1.621 4.141
-0.159 -1.62 4.138
-0.134 -1.619 4.137
-0.109 -1.62 4.139
-0.084 -1.62 4.14
-0.059 -1.622 4.145
-0.034 -1.621 4.143
-0.009 -1.62 4.14
0.015 -1.621 4.141
0.04 -1.621 4.141
0.065 -1.618 4.134
0.09 -1.62 4.136
0.115 -1.62 4.137
0.14 -1.619 4.134
0.165 -1.619 4.132
0.19 -1.621 4.137
0.215 -1.62 4.132
0.24 -1.621 4.132
0.265 -1.62 4.127
0.29 -1.622 4.131
0.315 -1.619 4.123
0.34 -1.621 4.126
0.365 -1.621 4.124
0.391 -1.624 4.128
0.415 -1.622 4.122
0.441 -1.624 4.124
0.465 -1.623 4.119
0.491 -1.625 4.12
0.516 -1.625 4.118
0.541 -1.626 4.119
0.567 -1.627 4.116
0.592 -1.628 4.116
0.617 -1.628 4.113
0.642 -1.628 4.11
0.667 -1.629 4.108
0.693 -1.63 4.106
0.718 -1.629 4.101
0.743 -1.631 4.1
0.769 -1.631 4.097
0.793 -1.63 4.091
0.819 -1.632 4.091
0.844 -1.633 4.087
0.869 -1.632 4.08
0.894 -1.632 4.074
0.919 -1.632 4.07
0.945 -1.632 4.066
0.97 -1.634 4.064
0.996 -1.635 4.061
1.022 -1.636 4.058
1.049 -1.64 4.062
1.075 -1.64 4.056
1.1 -1.641 4.052
1.127 -1.644 4.052
1.153 -1.645 4.049
1.177 -1.643 4.037
1.203 -1.643 4.032
1.229 -1.645 4.028
1.254 -1.645 4.022
1.279 -1.644 4.011
1.304 -1.645 4.006
1.329 -1.644 3.996
1.353 -1.642 3.985
1.376 -1.64 3.972
1.402 -1.642 3.967
1.427 -1.641 3.958
1.453 -1.642 3.952
1.478 -1.642 3.942
1.506 -1.645 3.941
1.532 -1.646 3.934
1.558 -1.646 3.926
1.581 -1.644 3.912
1.607 -1.646 3.905
1.628 -1.642 3.887
1.654 -1.642 3.878
1.677 -1.641 3.864
1.702 -1.64 3.853
1.721 -1.635 3.83
1.739 -1.628 3.804
1.747 -1.612 3.757
1.756 -1.598 3.713
1.757 -1.578 3.655
1.76 -1.559 3.601
1.762 -1.54 3.547
1.767 -1.524 3.498
1.75 -1.49 3.409
1.682 -1.414 3.225
1.653 -1.372 3.118
1.656 -1.357 3.075
1.668 -1.351 3.049
1.674 -1.339 3.013
1.681 -1.329 2.979
1.681 -1.312 2.933
1.678 -1.295 2.882
1.674 -1.277 2.832
1.674 -1.262 2.789
1.656 -1.234 2.718
1.666 -1.228 2.694
-2.187 -1.605 3.673
-2.185 -1.621 3.724
-2.151 -1.616 3.723
-2.131 -1.62 3.745
-2.103 -1.619 3.754
-2.08 -1.62 3.771
-2.054 -1.62 3.782
-2.031 -1.622 3.799
-2.005 -1.622 3.81
-1.982 -1.624 3.826
-1.959 -1.627 3.844
-1.935 -1.628 3.858
-1.907 -1.626 3.864
-1.884 -1.629 3.881
-1.857 -1.628 3.889
-1.829 -1.626 3.894
-1.801 -1.624 3.9
-1.775 -1.624 3.91
-1.746 -1.621 3.913
-1.72 -1.621 3.922
-1.694 -1.62 3.93
-1.67 -1.621 3.942
-1.643 -1.621 3.95
-1.616 -1.619 3.955
-1.59 -1.619 3.963
-1.566 -1.621 3.976
-1.541 -1.621 3.986
-1.515 -1.621 3.993
-1.49 -1.621 4.002
-1.463 -1.62 4.009
-1.436 -1.618 4.01
-1.409 -1.616 4.014
-1.383 -1.617 4.022
-1.357 -1.616 4.028
-1.331 -1.615 4.031
-1.305 -1.615 4.038
-1.28 -1.616 4.048
-1.254 -1.615 4.052
-1.229 -1.616 4.061
-1.204 -1.616 4.068
-1.179 -1.617 4.077
-1.152 -1.615 4.077
-1.128 -1.616 4.087
-1.103 -1.617 4.094
-1.077 -1.617 4.099
-1.05 -1.615 4.101
-1.026 -1.616 4.109
-1.001 -1.618 4.117
-0.974 -1.616 4.118
-0.95 -1.617 4.126
-0.924 -1.618 4.131
-0.898 -1.616 4.132
-0.871 -1.614 4.131
-0.846 -1.614 4.135
-0.82 -1.613 4.137
-0.795 -1.614 4.142
-0.77 -1.615 4.15
-0.745 -1.616 4.155
-0.719 -1.614 4.154
-0.693 -1.614 4.156
-0.668 -1.613 4.159
-0.642 -1.612 4.158
-0.616 -1.611 4.159
-0.591 -1.612 4.165
-0.566 -1.613 4.171
-0.541 -1.613 4.172
-0.515 -1.614 4.177
-0.491 -1.615 4.183
-0.466 -1.617 4.19
-0.44 -1.616 4.187
-0.415 -1.616 4.191
-0.389 -1.616 4.193
-0.364 -1.615 4.191
-0.338 -1.614 4.191
-0.313 -1.616 4.197
-0.288 -1.617 4.201
-0.262 -1.617 4.202
-0.237 -1.618 4.205
-0.212 -1.617 4.204
-0.186 -1.616 4.201
-0.161 -1.614 4.198
-0.135 -1.614 4.196
-0.11 -1.613 4.194
-0.084 -1.612 4.192
-0.059 -1.614 4.197
-0.034 -1.612 4.193
-0.009 -1.611 4.19
0.016 -1.612 4.191
0.041 -1.612 4.192
0.066 -1.61 4.185
0.091 -1.611 4.188
0.117 -1.611 4.186
0.142 -1.611 4.185
0.167 -1.61 4.183
0.192 -1.612 4.185
0.217 -1.61 4.18
0.243 -1.611 4.18
0.268 -1.609 4.173
0.293 -1.611 4.178
0.318 -1.611 4.174
0.344 -1.613 4.178
0.369 -1.613 4.176
0.395 -1.615 4.179
0.42 -1.614 4.174
0.445 -1.614 4.172
0.47 -1.614 4.168
0.496 -1.614 4.166
0.521 -1.616 4.167
0.547 -1.616 4.166
0.573 -1.618 4.167
0.598 -1.619 4.165
0.623 -1.618 4.161
0.648 -1.618 4.157
0.674 -1.619 4.155
0.699 -1.619 4.151
0.725 -1.62 4.149
0.751 -1.623 4.152
0.777 -1.623 4.15
0.802 -1.623 4.144
0.828 -1.624 4.143
0.853 -1.624 4.138
0.878 -1.623 4.131
0.904 -1.623 4.126
0.93 -1.625 4.125
0.955 -1.624 4.118
0.981 -1.626 4.118
1.006 -1.626 4.111
1.032 -1.626 4.106
1.059 -1.629 4.108
1.085 -1.63 4.104
1.111 -1.63 4.099
1.139 -1.635 4.104
1.165 -1.636 4.099
1.19 -1.635 4.089
1.216 -1.636 4.086
1.243 -1.637 4.082
1.268 -1.637 4.074
1.294 -1.638 4.068
1.32 -1.638 4.063
1.345 -1.638 4.053
1.37 -1.637 4.043
1.394 -1.636 4.033
1.422 -1.638 4.03
1.447 -1.638 4.02
1.473 -1.638 4.014
1.498 -1.638 4.005
1.526 -1.641 4.001
1.552 -1.641 3.994
1.577 -1.641 3.985
1.601 -1.64 3.972
1.629 -1.642 3.967
1.652 -1.639 3.951
1.677 -1.639 3.941
1.699 -1.636 3.924
1.722 -1.634 3.908
1.738 -1.625 3.876
1.752 -1.615 3.843
1.756 -1.596 3.786
1.766 -1.582 3.743
1.766 -1.561 3.682
1.772 -1.545 3.634
1.776 -1.528 3.583
1.783 -1.514 3.539
1.78 -1.492 3.476
0 0 0
1.643 -1.343 3.108
1.66 -1.339 3.09
1.67 -1.331 3.06
1.678 -1.321 3.027
1.685 -1.311 2.994
1.681 -1.292 2.94
1.677 -1.274 2.889
1.672 -1.256 2.837
1.671 -1.24 2.792
1.662 -1.22 2.735
1.673 -1.214 2.712
-2.211 -1.597 3.723
-2.234 -1.632 3.819
-2.185 -1.615 3.792
-2.166 -1.62 3.817
-2.138 -1.619 3.827
-2.115 -1.622 3.845
-2.087 -1.62 3.853
-2.062 -1.621 3.868
-2.032 -1.618 3.872
-2.008 -1.62 3.888
-1.984 -1.621 3.902
-1.96 -1.623 3.918
-1.931 -1.621 3.924
-1.909 -1.624 3.942
-1.881 -1.623 3.949
-1.853 -1.621 3.955
-1.827 -1.621 3.966
-1.802 -1.622 3.979
-1.774 -1.621 3.986
-1.749 -1.621 3.996
-1.721 -1.62 4.003
-1.695 -1.62 4.012
-1.67 -1.621 4.023
-1.641 -1.618 4.026
-1.615 -1.618 4.035
-1.589 -1.619 4.045
-1.564 -1.619 4.055
-1.535 -1.616 4.056
-1.51 -1.617 4.065
-1.483 -1.616 4.071
-1.457 -1.616 4.079
-1.43 -1.615 4.084
-1.404 -1.616 4.093
-1.378 -1.615 4.098
-1.352 -1.615 4.105
-1.324 -1.613 4.107
-1.299 -1.613 4.116
-1.273 -1.613 4.122
-1.248 -1.614 4.131
-1.221 -1.613 4.136
-1.196 -1.614 4.145
-1.169 -1.613 4.148
-1.143 -1.613 4.154
-1.118 -1.614 4.162
-1.093 -1.615 4.169
-1.066 -1.613 4.17
-1.04 -1.613 4.175
-1.014 -1.614 4.182
-0.987 -1.612 4.182
-0.962 -1.613 4.191
-0.937 -1.614 4.196
-0.909 -1.611 4.194
-0.883 -1.609 4.194
-0.856 -1.609 4.196
-0.829 -1.606 4.194
-0.804 -1.606 4.198
-0.779 -1.608 4.206
-0.753 -1.608 4.209
-0.726 -1.606 4.208
-0.701 -1.606 4.211
-0.675 -1.606 4.214
-0.649 -1.604 4.214
-0.623 -1.604 4.217
-0.598 -1.605 4.222
-0.572 -1.606 4.226
-0.546 -1.605 4.227
-0.521 -1.605 4.229
-0.495 -1.606 4.233
-0.47 -1.607 4.239
-0.444 -1.606 4.236
-0.418 -1.606 4.24
-0.393 -1.606 4.242
-0.367 -1.604 4.239
-0.341 -1.603 4.237
-0.315 -1.604 4.24
-0.29 -1.604 4.243
-0.264 -1.604 4.243
-0.239 -1.605 4.247
-0.213 -1.604 4.244
-0.187 -1.603 4.243
-0.162 -1.603 4.242
-0.136 -1.601 4.239
-0.111 -1.6 4.236
-0.085 -1.6 4.237
-0.06 -1.601 4.239
-0.034 -1.599 4.234
-0.009 -1.598 4.23
0.016 -1.598 4.23
0.041 -1.597 4.227
0.067 -1.596 4.224
0.092 -1.597 4.225
0.118 -1.597 4.224
0.143 -1.597 4.224
0.168 -1.597 4.222
0.194 -1.597 4.222
0.219 -1.596 4.218
0.245 -1.597 4.218
0.27 -1.596 4.213
0.295 -1.598 4.217
0.321 -1.597 4.212
0.346 -1.598 4.215
0.372 -1.599 4.214
0.398 -1.6 4.215
0.423 -1.601 4.215
0.449 -1.602 4.214
0.474 -1.602 4.212
0.5 -1.603 4.211
0.526 -1.605 4.213
0.551 -1.604 4.207
0.577 -1.605 4.208
0.603 -1.605 4.204
0.627 -1.603 4.197
0.653 -1.604 4.194
0.679 -1.604 4.191
0.704 -1.604 4.187
0.73 -1.605 4.185
0.757 -1.608 4.19
0.782 -1.608 4.185
0.808 -1.608 4.181
0.834 -1.61 4.181
0.86 -1.611 4.179
0.885 -1.61 4.172
0.911 -1.61 4.167
0.937 -1.612 4.167
0.963 -1.612 4.16
0.989 -1.613 4.158
1.014 -1.613 4.152
1.041 -1.614 4.149
1.067 -1.616 4.148
1.094 -1.617 4.145
1.12 -1.618 4.14
1.149 -1.622 4.146
1.175 -1.624 4.142
1.201 -1.624 4.137
1.228 -1.626 4.134
1.256 -1.628 4.132
1.281 -1.627 4.123
1.307 -1.628 4.118
1.333 -1.628 4.11
1.358 -1.627 4.101
1.383 -1.627 4.091
1.408 -1.626 4.08
1.435 -1.628 4.077
1.461 -1.628 4.069
1.486 -1.627 4.059
1.512 -1.627 4.05
1.541 -1.631 4.051
1.567 -1.632 4.043
1.593 -1.632 4.034
1.62 -1.632 4.026
1.647 -1.635 4.022
1.669 -1.631 4.002
1.694 -1.63 3.991
1.717 -1.627 3.974
1.737 -1.622 3.951
1.749 -1.609 3.91
1.762 -1.598 3.872
1.764 -1.578 3.812
1.774 -1.565 3.769
1.773 -1.543 3.706
1.783 -1.53 3.665
1.782 -1.509 3.603
1.788 -1.494 3.558
0 0 0
0 0 0
1.642 -1.321 3.114
1.663 -1.321 3.103
1.672 -1.312 3.072
1.68 -1.302 3.039
1.687 -1.292 3.005
1.683 -1.273 2.951
1.677 -1.254 2.896
1.672 -1.236 2.843
1.669 -1.22 2.797
1.684 -1.217 2.779
1.668 -1.191 2.71
-2.238 -1.59 3.778
-2.285 -1.643 3.917
-2.223 -1.617 3.868
-2.201 -1.62 3.888
-2.172 -1.618 3.897
-2.146 -1.619 3.911
-2.114 -1.615 3.913
-2.089 -1.616 3.929
-2.06 -1.614 3.934
-2.035 -1.616 3.95
-2.011 -1.617 3.965
-1.99 -1.621 3.987
-1.961 -1.62 3.994
-1.937 -1.622 4.011
-1.908 -1.62 4.016
-1.881 -1.619 4.026
-1.856 -1.621 4.04
-1.83 -1.621 4.051
-1.803 -1.621 4.061
-1.777 -1.621 4.071
-1.747 -1.618 4.073
-1.718 -1.616 4.077
-1.691 -1.615 4.085
-1.663 -1.614 4.09
-1.637 -1.614 4.1
-1.613 -1.616 4.114
-1.587 -1.617 4.124
-1.558 -1.614 4.127
-1.531 -1.614 4.134
-1.504 -1.613 4.139
-1.477 -1.612 4.144
-1.45 -1.611 4.15
-1.425 -1.613 4.162
-1.398 -1.612 4.168
-1.371 -1.612 4.174
-1.345 -1.611 4.181
-1.318 -1.611 4.186
-1.292 -1.611 4.193
-1.266 -1.611 4.201
-1.239 -1.611 4.206
-1.212 -1.61 4.211
-1.185 -1.609 4.213
-1.157 -1.606 4.212
-1.131 -1.607 4.221
-1.106 -1.608 4.228
-1.078 -1.606 4.229
-1.053 -1.607 4.236
-1.027 -1.608 4.243
-0.999 -1.606 4.243
-0.973 -1.605 4.247
-0.947 -1.605 4.251
-0.919 -1.603 4.249
-0.892 -1.601 4.248
-0.865 -1.599 4.248
-0.838 -1.597 4.247
-0.812 -1.597 4.249
-0.786 -1.598 4.257
-0.76 -1.598 4.261
-0.734 -1.598 4.263
-0.708 -1.597 4.265
-0.682 -1.596 4.265
-0.655 -1.594 4.263
-0.629 -1.594 4.265
-0.603 -1.593 4.266
-0.577 -1.593 4.27
-0.551 -1.593 4.271
-0.525 -1.592 4.272
-0.499 -1.592 4.273
-0.473 -1.592 4.276
-0.447 -1.59 4.272
-0.421 -1.59 4.273
-0.395 -1.589 4.273
-0.369 -1.588 4.273
-0.343 -1.588 4.273
-0.317 -1.587 4.273
-0.291 -1.588 4.275
-0.265 -1.586 4.272
-0.24 -1.587 4.274
-0.214 -1.585 4.271
-0.188 -1.586 4.273
-0.162 -1.584 4.27
-0.137 -1.584 4.27
-0.111 -1.582 4.266
-0.085 -1.581 4.262
-0.06 -1.582 4.263
-0.034 -1.58 4.26
-0.008 -1.579 4.256
0.016 -1.579 4.256
0.042 -1.579 4.256
0.067 -1.579 4.254
0.093 -1.579 4.254
0.118 -1.58 4.257
0.144 -1.58 4.254
0.169 -1.579 4.252
0.195 -1.58 4.253
0.22 -1.579 4.247
0.246 -1.578 4.243
0.271 -1.578 4.241
0.297 -1.58 4.246
0.322 -1.578 4.239
0.348 -1.58 4.242
0.374 -1.581 4.241
0.399 -1.581 4.24
0.425 -1.581 4.238
0.451 -1.582 4.238
0.477 -1.583 4.238
0.502 -1.584 4.238
0.529 -1.586 4.242
0.554 -1.585 4.235
0.58 -1.586 4.234
0.605 -1.584 4.226
0.63 -1.583 4.218
0.655 -1.583 4.215
0.681 -1.584 4.213
0.707 -1.584 4.211
0.733 -1.586 4.212
0.76 -1.589 4.215
0.785 -1.588 4.209
0.811 -1.589 4.205
0.838 -1.59 4.206
0.864 -1.592 4.204
0.89 -1.592 4.2
0.916 -1.593 4.198
0.942 -1.595 4.197
0.967 -1.593 4.188
0.994 -1.594 4.185
1.019 -1.594 4.179
1.045 -1.595 4.175
1.072 -1.597 4.175
1.1 -1.6 4.176
1.126 -1.601 4.173
1.155 -1.605 4.178
1.182 -1.606 4.174
1.208 -1.608 4.17
1.235 -1.609 4.166
1.263 -1.611 4.165
1.289 -1.611 4.158
1.315 -1.612 4.153
1.342 -1.613 4.147
1.368 -1.613 4.139
1.394 -1.614 4.133
1.42 -1.613 4.125
1.448 -1.615 4.121
1.474 -1.616 4.114
1.5 -1.616 4.107
1.525 -1.615 4.095
1.554 -1.618 4.093
1.58 -1.619 4.086
1.606 -1.618 4.076
1.633 -1.62 4.069
1.661 -1.622 4.065
1.684 -1.619 4.048
1.709 -1.618 4.036
1.731 -1.614 4.016
1.75 -1.608 3.989
1.761 -1.595 3.946
1.773 -1.582 3.905
1.775 -1.562 3.845
1.786 -1.55 3.803
1.785 -1.528 3.739
1.788 -1.51 3.685
1.783 -1.486 3.614
0 0 0
0 0 0
0 0 0
1.654 -1.309 3.143
1.668 -1.304 3.121
1.676 -1.294 3.087
1.684 -1.284 3.054
1.689 -1.272 3.015
1.686 -1.255 2.964
1.679 -1.236 2.907
1.674 -1.218 2.854
1.67 -1.201 2.805
1.657 -1.178 2.741
1.685 -1.185 2.746
-2.307 -1.612 3.905
-2.269 -1.605 3.899
-2.257 -1.615 3.937
-2.23 -1.615 3.95
-2.202 -1.614 3.962
-2.176 -1.615 3.975
-2.146 -1.612 3.982
-2.12 -1.614 3.997
-2.091 -1.611 4.004
-2.066 -1.613 4.019
-2.039 -1.613 4.03
-2.017 -1.617 4.052
-1.99 -1.617 4.063
-1.966 -1.619 4.081
-1.937 -1.617 4.087
-1.91 -1.618 4.099
-1.884 -1.618 4.11
-1.857 -1.618 4.12
-1.829 -1.618 4.13
-1.803 -1.618 4.14
-1.772 -1.615 4.141
-1.743 -1.613 4.146
-1.716 -1.612 4.154
-1.687 -1.61 4.159
-1.659 -1.609 4.165
-1.634 -1.611 4.179
-1.608 -1.611 4.188
-1.579 -1.609 4.191
-1.552 -1.609 4.2
-1.526 -1.609 4.208
-1.497 -1.607 4.211
-1.47 -1.607 4.218
-1.445 -1.609 4.23
-1.417 -1.607 4.234
-1.391 -1.608 4.244
-1.364 -1.609 4.252
-1.337 -1.608 4.256
-1.31 -1.607 4.262
-1.283 -1.607 4.268
-1.255 -1.605 4.268
-1.227 -1.603 4.27
-1.199 -1.601 4.271
-1.169 -1.597 4.267
-1.143 -1.598 4.274
-1.117 -1.598 4.281
-1.089 -1.597 4.282
-1.062 -1.596 4.285
-1.036 -1.596 4.292
-1.009 -1.594 4.292
-0.981 -1.593 4.292
-0.954 -1.591 4.293
-0.927 -1.59 4.293
-0.899 -1.586 4.289
-0.871 -1.583 4.285
-0.844 -1.582 4.286
-0.817 -1.582 4.288
-0.792 -1.583 4.295
-0.766 -1.583 4.3
-0.74 -1.584 4.306
-0.713 -1.582 4.303
-0.686 -1.58 4.302
-0.659 -1.578 4.299
-0.633 -1.577 4.3
-0.606 -1.575 4.296
-0.58 -1.576 4.3
-0.553 -1.575 4.3
-0.527 -1.573 4.299
-0.501 -1.573 4.299
-0.475 -1.573 4.304
-0.448 -1.571 4.3
-0.422 -1.571 4.3
-0.396 -1.57 4.3
-0.37 -1.57 4.301
-0.344 -1.568 4.298
-0.318 -1.567 4.295
-0.292 -1.566 4.294
-0.266 -1.565 4.293
-0.24 -1.564 4.291
-0.214 -1.563 4.29
-0.189 -1.564 4.293
-0.163 -1.563 4.291
-0.137 -1.562 4.288
-0.111 -1.561 4.286
-0.085 -1.56 4.282
-0.06 -1.56 4.283
-0.034 -1.56 4.282
-0.008 -1.559 4.28
0.016 -1.558 4.276
0.042 -1.558 4.276
0.068 -1.558 4.275
0.093 -1.558 4.274
0.119 -1.559 4.276
0.144 -1.559 4.274
0.17 -1.559 4.274
0.196 -1.558 4.27
0.221 -1.556 4.263
0.246 -1.555 4.259
0.272 -1.556 4.259
0.298 -1.557 4.26
0.323 -1.556 4.258
0.349 -1.558 4.259
0.375 -1.558 4.257
0.4 -1.557 4.253
0.426 -1.558 4.253
0.451 -1.558 4.251
0.477 -1.56 4.252
0.503 -1.56 4.251
0.529 -1.562 4.253
0.555 -1.561 4.246
0.58 -1.561 4.243
0.605 -1.56 4.237
0.63 -1.558 4.229
0.656 -1.558 4.226
0.682 -1.56 4.227
0.708 -1.561 4.225
0.734 -1.562 4.224
0.761 -1.564 4.227
0.786 -1.564 4.22
0.812 -1.564 4.216
0.838 -1.566 4.217
0.865 -1.568 4.217
0.891 -1.568 4.215
0.918 -1.57 4.215
0.945 -1.572 4.215
0.97 -1.571 4.207
0.996 -1.572 4.202
1.021 -1.572 4.197
1.048 -1.573 4.195
1.075 -1.575 4.193
1.103 -1.579 4.197
1.13 -1.581 4.196
1.159 -1.585 4.2
1.185 -1.584 4.193
1.212 -1.586 4.19
1.238 -1.587 4.185
1.266 -1.588 4.182
1.292 -1.589 4.176
1.319 -1.591 4.174
1.346 -1.592 4.169
1.372 -1.591 4.16
1.399 -1.593 4.157
1.426 -1.594 4.151
1.454 -1.596 4.149
1.481 -1.597 4.143
1.509 -1.599 4.139
1.535 -1.6 4.131
1.563 -1.601 4.126
1.59 -1.602 4.12
1.617 -1.603 4.111
1.643 -1.603 4.103
1.671 -1.605 4.097
1.695 -1.603 4.083
1.718 -1.6 4.066
1.739 -1.596 4.044
1.757 -1.588 4.014
1.768 -1.575 3.971
1.78 -1.563 3.929
1.784 -1.545 3.873
1.796 -1.534 3.834
1.8 -1.516 3.779
1.804 -1.499 3.725
0 0 0
0 0 0
0 0 0
0 0 0
0 0 0
1.666 -1.281 3.123
1.678 -1.274 3.097
1.684 -1.264 3.061
1.689 -1.252 3.022
1.688 -1.236 2.974
1.682 -1.218 2.919
1.674 -1.198 2.861
1.67 -1.181 2.811
1.654 -1.157 2.742
1.655 -1.145 2.704
-2.371 -1.629 4.023
-2.326 -1.617 4.006
-2.196 -1.545 3.84
-2.168 -1.544 3.85
-2.14 -1.543 3.86
-2.116 -1.544 3.875
-2.088 -1.543 3.884
-2.063 -1.544 3.897
-2.034 -1.542 3.904
-2.095 -1.609 4.086
-2.069 -1.61 4.101
-2.045 -1.612 4.119
-2.02 -1.614 4.136
-1.996 -1.616 4.152
-1.967 -1.615 4.161
-1.94 -1.616 4.173
-1.913 -1.616 4.185
-1.884 -1.615 4.191
-1.857 -1.615 4.201
-1.829 -1.615 4.211
-1.796 -1.61 4.208
-1.767 -1.608 4.213
-1.739 -1.607 4.221
-1.71 -1.605 4.226
-1.681 -1.604 4.23
-1.656 -1.606 4.244
-1.629 -1.605 4.252
-1.6 -1.603 4.256
-1.573 -1.604 4.265
-1.545 -1.603 4.271
-1.515 -1.6 4.273
-1.486 -1.598 4.275
-1.46 -1.599 4.285
-1.431 -1.597 4.286
-1.405 -1.598 4.296
-1.378 -1.598 4.304
-1.35 -1.597 4.307
-1.322 -1.596 4.312
-1.294 -1.595 4.315
-1.266 -1.592 4.316
-1.237 -1.59 4.314
-1.208 -1.587 4.313
-1.178 -1.583 4.309
-1.151 -1.583 4.314
-1.124 -1.582 4.317
-1.097 -1.581 4.321
-1.07 -1.581 4.325
-1.043 -1.581 4.33
-1.016 -1.579 4.331
-0.988 -1.577 4.331
-0.96 -1.576 4.331
-0.933 -1.574 4.33
-0.905 -1.571 4.327
-0.876 -1.568 4.321
-0.849 -1.566 4.322
-0.822 -1.565 4.324
-0.796 -1.566 4.329
-0.769 -1.565 4.329
-0.743 -1.565 4.334
-0.716 -1.562 4.33
-0.688 -1.56 4.326
-0.661 -1.557 4.322
-0.635 -1.557 4.324
-0.607 -1.554 4.319
-0.581 -1.554 4.322
-0.555 -1.553 4.321
-0.528 -1.552 4.32
-0.502 -1.549 4.315
-0.475 -1.549 4.316
-0.449 -1.547 4.313
-0.423 -1.547 4.314
-0.397 -1.546 4.313
-0.371 -1.546 4.316
-0.345 -1.545 4.314
-0.318 -1.543 4.31
-0.292 -1.542 4.307
-0.266 -1.54 4.303
-0.24 -1.539 4.301
-0.214 -1.538 4.3
-0.188 -1.539 4.301
-0.163 -1.538 4.299
-0.137 -1.537 4.298
-0.111 -1.537 4.297
-0.085 -1.535 4.291
-0.059 -1.534 4.29
-0.034 -1.534 4.289
-0.008 -1.533 4.287
0.016 -1.532 4.283
0.042 -1.532 4.283
0.068 -1.532 4.282
0.093 -1.532 4.281
0.119 -1.533 4.282
0.145 -1.532 4.281
0.17 -1.532 4.28
0.196 -1.532 4.277
0.221 -1.531 4.272
0.247 -1.53 4.268
0.272 -1.53 4.268
0.298 -1.531 4.268
0.323 -1.531 4.265
0.349 -1.531 4.265
0.375 -1.532 4.264
0.4 -1.531 4.26
0.426 -1.532 4.261
0.452 -1.533 4.26
0.478 -1.534 4.26
0.503 -1.533 4.254
0.529 -1.534 4.255
0.554 -1.533 4.25
0.58 -1.533 4.246
0.605 -1.532 4.24
0.63 -1.532 4.236
0.656 -1.533 4.234
0.682 -1.534 4.233
0.708 -1.534 4.231
0.734 -1.535 4.23
0.761 -1.538 4.232
0.785 -1.536 4.224
0.811 -1.537 4.221
0.838 -1.539 4.222
0.865 -1.541 4.223
0.891 -1.542 4.221
0.919 -1.546 4.226
0.946 -1.547 4.226
0.971 -1.547 4.219
0.997 -1.547 4.214
1.023 -1.548 4.21
1.05 -1.549 4.208
1.076 -1.55 4.204
1.104 -1.553 4.206
1.13 -1.554 4.203
1.159 -1.557 4.206
1.184 -1.557 4.197
1.211 -1.558 4.195
1.238 -1.56 4.192
1.266 -1.562 4.192
1.293 -1.563 4.186
1.321 -1.566 4.186
1.348 -1.567 4.183
1.374 -1.568 4.175
1.402 -1.57 4.173
1.429 -1.571 4.168
1.458 -1.574 4.167
1.485 -1.575 4.162
1.513 -1.577 4.158
1.539 -1.577 4.15
1.567 -1.579 4.145
1.594 -1.579 4.138
1.621 -1.58 4.13
1.649 -1.582 4.126
1.677 -1.584 4.121
1.702 -1.582 4.107
1.725 -1.58 4.09
1.746 -1.575 4.068
1.763 -1.567 4.037
1.775 -1.555 3.995
1.787 -1.543 3.953
1.791 -1.525 3.897
1.797 -1.509 3.845
1.796 -1.487 3.778
0 0 0
0 0 0
0 0 0
0 0 0
0 0 0
0 0 0
1.675 -1.267 3.148
1.687 -1.26 3.121
1.69 -1.247 3.079
1.693 -1.234 3.038
1.691 -1.218 2.987
1.683 -1.198 2.927
1.672 -1.177 2.864
1.668 -1.16 2.815
1.673 -1.151 2.781
1.674 -1.138 2.741
-2.424 -1.638 4.123
-2.306 -1.577 3.983
-1.763 -1.22 3.088
-1.829 -1.281 3.255
-1.807 -1.281 3.265
-1.786 -1.282 3.277
-1.762 -1.28 3.283
-1.739 -1.28 3.291
-1.715 -1.279 3.298
-1.779 -1.343 3.476
-1.756 -1.343 3.487
-1.734 -1.345 3.499
-1.714 -1.347 3.515
-1.61 -1.283 3.356
-1.669 -1.348 3.536
-1.726 -1.414 3.72
-1.781 -1.479 3.902
-1.832 -1.543 4.083
-1.805 -1.543 4.093
-1.778 -1.543 4.102
-1.747 -1.539 4.101
-1.718 -1.537 4.106
-1.69 -1.536 4.111
-1.732 -1.598 4.289
-1.701 -1.596 4.291
-1.674 -1.596 4.301
-1.646 -1.595 4.307
-1.617 -1.594 4.312
-1.589 -1.593 4.32
-1.56 -1.591 4.323
-1.53 -1.588 4.322
-1.5 -1.586 4.325
-1.472 -1.585 4.329
-1.443 -1.583 4.33
-1.415 -1.582 4.336
-1.387 -1.581 4.341
-1.359 -1.58 4.344
-1.331 -1.58 4.351
-1.303 -1.578 4.352
-1.274 -1.575 4.352
-1.245 -1.573 4.352
-1.215 -1.57 4.35
-1.185 -1.565 4.343
-1.158 -1.565 4.348
-1.131 -1.565 4.352
-1.103 -1.563 4.353
-1.075 -1.562 4.355
-1.048 -1.562 4.36
-1.02 -1.56 4.359
-0.992 -1.557 4.356
-0.964 -1.554 4.354
-0.936 -1.552 4.352
-0.907 -1.548 4.345
-0.878 -1.545 4.34
-0.851 -1.543 4.34
-0.824 -1.542 4.34
-0.797 -1.542 4.344
-0.771 -1.541 4.345
-0.744 -1.54 4.345
-0.716 -1.538 4.342
-0.689 -1.536 4.34
-0.662 -1.533 4.336
-0.635 -1.532 4.336
-0.608 -1.529 4.329
-0.581 -1.528 4.33
-0.555 -1.527 4.328
-0.528 -1.526 4.327
-0.501 -1.523 4.323
-0.475 -1.524 4.326
-0.449 -1.522 4.323
-0.423 -1.521 4.323
-0.396 -1.52 4.32
-0.371 -1.52 4.323
-0.344 -1.519 4.32
-0.318 -1.516 4.315
-0.292 -1.514 4.31
-0.266 -1.513 4.306
-0.239 -1.51 4.301
-0.214 -1.509 4.299
-0.188 -1.51 4.3
-0.162 -1.509 4.299
-0.136 -1.508 4.296
-0.111 -1.509 4.298
-0.085 -1.507 4.295
-0.059 -1.507 4.294
-0.034 -1.507 4.293
-0.008 -1.507 4.294
0.017 -1.505 4.289
0.042 -1.506 4.29
0.068 -1.506 4.289
0.093 -1.506 4.287
0.119 -1.506 4.287
0.145 -1.505 4.284
0.17 -1.505 4.282
0.196 -1.505 4.281
0.221 -1.504 4.277
0.247 -1.503 4.274
0.272 -1.505 4.275
0.298 -1.505 4.274
0.323 -1.504 4.271
0.349 -1.505 4.272
0.375 -1.506 4.271
0.4 -1.505 4.266
0.426 -1.506 4.266
0.452 -1.507 4.266
0.478 -1.507 4.266
0.503 -1.507 4.262
0.529 -1.509 4.263
0.554 -1.508 4.258
0.579 -1.507 4.251
0.605 -1.506 4.247
0.63 -1.507 4.244
0.656 -1.507 4.241
0.682 -1.508 4.241
0.708 -1.509 4.24
0.734 -1.51 4.238
0.76 -1.51 4.236
0.785 -1.51 4.23
0.811 -1.511 4.228
0.838 -1.512 4.227
0.864 -1.513 4.226
0.89 -1.514 4.224
0.917 -1.517 4.227
0.943 -1.518 4.224
0.97 -1.519 4.221
0.996 -1.519 4.217
1.023 -1.521 4.217
1.05 -1.523 4.217
1.077 -1.525 4.216
1.104 -1.528 4.216
1.131 -1.529 4.214
1.159 -1.531 4.214
1.184 -1.531 4.207
1.211 -1.532 4.202
1.239 -1.534 4.202
1.266 -1.536 4.2
1.293 -1.537 4.194
1.32 -1.539 4.192
1.348 -1.541 4.19
1.374 -1.541 4.182
1.402 -1.544 4.182
1.43 -1.545 4.178
1.459 -1.548 4.178
1.486 -1.549 4.172
1.513 -1.551 4.167
1.54 -1.551 4.161
1.569 -1.554 4.158
1.596 -1.555 4.151
1.623 -1.556 4.145
1.653 -1.559 4.144
1.68 -1.56 4.137
1.704 -1.558 4.122
1.728 -1.556 4.106
1.749 -1.552 4.084
1.767 -1.544 4.054
1.782 -1.535 4.018
1.795 -1.524 3.981
1.809 -1.515 3.945
1.815 -1.499 3.893
0 0 0
0 0 0
0 0 0
0 0 0
0 0 0
0 0 0
0 0 0
1.673 -1.244 3.151
1.686 -1.238 3.127
1.69 -1.226 3.085
1.693 -1.213 3.043
1.694 -1.2 2.999
1.684 -1.179 2.936
1.673 -1.158 2.873
1.668 -1.141 2.82
1.655 -1.119 2.757
1.653 -1.106 2.714
-2.416 -1.604 4.12
-0.054 -0.038 0.082
-1.47 -1 2.58
-1.45 -0.998 2.583
-1.431 -0.997 2.588
-1.359 -0.959 2.497
-1.342 -0.959 2.504
-1.324 -0.958 2.51
-1.306 -0.957 2.514
-1.375 -1.02 2.689
-1.357 -1.02 2.697
-1.34 -1.021 2.707
-1.324 -1.023 2.718
-1.307 -1.023 2.727
-1.371 -1.088 2.908
-1.431 -1.152 3.088
-1.488 -1.215 3.266
-1.62 -1.342 3.618
-1.595 -1.34 3.623
-1.646 -1.404 3.804
-1.691 -1.465 3.979
-1.737 -1.527 4.16
-1.709 -1.526 4.165
-1.75 -1.588 4.343
-1.719 -1.584 4.344
-1.691 -1.584 4.352
-1.661 -1.583 4.357
-1.632 -1.581 4.36
-1.603 -1.58 4.366
-1.572 -1.576 4.365
-1.541 -1.573 4.363
-1.51 -1.569 4.361
-1.48 -1.567 4.363
-1.451 -1.565 4.364
-1.423 -1.564 4.369
-1.395 -1.563 4.374
-1.367 -1.562 4.379
-1.338 -1.561 4.382
-1.309 -1.558 4.382
-1.28 -1.556 4.382
-1.25 -1.552 4.378
-1.219 -1.548 4.372
-1.189 -1.543 4.365
-1.161 -1.542 4.367
-1.133 -1.541 4.37
-1.105 -1.54 4.372
-1.078 -1.539 4.374
-1.05 -1.538 4.376
-1.021 -1.535 4.372
-0.992 -1.53 4.364
-0.963 -1.528 4.363
-0.936 -1.526 4.363
-0.907 -1.522 4.355
-0.879 -1.52 4.352
-0.852 -1.519 4.354
-0.825 -1.517 4.353
-0.798 -1.516 4.353
-0.771 -1.516 4.357
-0.744 -1.515 4.357
-0.716 -1.512 4.351
-0.689 -1.51 4.349
-0.662 -1.507 4.343
-0.635 -1.505 4.341
-0.607 -1.502 4.333
-0.581 -1.501 4.335
-0.554 -1.499 4.332
-0.528 -1.499 4.332
-0.501 -1.496 4.327
-0.475 -1.497 4.331
-0.448 -1.495 4.327
-0.422 -1.494 4.328
-0.396 -1.493 4.326
-0.37 -1.493 4.327
-0.344 -1.491 4.324
-0.318 -1.49 4.32
-0.292 -1.488 4.317
-0.265 -1.486 4.31
-0.239 -1.485 4.308
-0.213 -1.484 4.307
-0.188 -1.484 4.308
-0.162 -1.484 4.308
-0.136 -1.484 4.309
-0.111 -1.484 4.308
-0.085 -1.482 4.304
-0.059 -1.482 4.303
-0.033 -1.481 4.3
-0.008 -1.481 4.3
0.017 -1.48 4.297
0.042 -1.48 4.296
0.068 -1.479 4.292
0.094 -1.478 4.29
0.119 -1.478 4.287
0.145 -1.477 4.285
0.17 -1.477 4.284
0.196 -1.478 4.285
0.221 -1.478 4.282
0.247 -1.477 4.279
0.272 -1.478 4.279
0.298 -1.478 4.278
0.323 -1.477 4.273
0.349 -1.477 4.272
0.374 -1.477 4.27
0.399 -1.476 4.265
0.425 -1.477 4.264
0.451 -1.477 4.263
0.477 -1.478 4.263
0.502 -1.478 4.26
0.528 -1.48 4.261
0.553 -1.479 4.257
0.579 -1.479 4.252
0.604 -1.478 4.248
0.63 -1.48 4.249
0.656 -1.48 4.245
0.681 -1.48 4.243
0.707 -1.481 4.242
0.734 -1.483 4.243
0.759 -1.483 4.24
0.785 -1.484 4.236
0.812 -1.485 4.237
0.837 -1.486 4.234
0.864 -1.487 4.232
0.89 -1.488 4.23
0.917 -1.49 4.231
0.943 -1.491 4.227
0.969 -1.492 4.225
0.995 -1.492 4.219
1.021 -1.493 4.218
1.048 -1.495 4.218
1.075 -1.497 4.218
1.103 -1.499 4.218
1.13 -1.501 4.216
1.157 -1.503 4.217
1.183 -1.503 4.209
1.21 -1.504 4.205
1.237 -1.506 4.204
1.264 -1.507 4.201
1.291 -1.508 4.196
1.318 -1.51 4.194
1.347 -1.513 4.195
1.373 -1.514 4.189
1.402 -1.517 4.189
1.429 -1.518 4.184
1.458 -1.521 4.184
1.485 -1.522 4.178
1.512 -1.523 4.173
1.54 -1.525 4.168
1.568 -1.527 4.165
1.596 -1.528 4.16
1.624 -1.53 4.155
1.653 -1.533 4.153
1.681 -1.534 4.147
1.706 -1.533 4.135
1.729 -1.531 4.118
1.751 -1.527 4.098
1.771 -1.522 4.073
1.79 -1.516 4.047
1.81 -1.511 4.022
1.827 -1.504 3.993
0 0 0
0 0 0
0 0 0
0 0 0
0 0 0
0 0 0
0 0 0
0 0 0
1.401 -1.025 2.645
1.534 -1.108 2.851
1.691 -1.206 3.095
1.694 -1.193 3.052
1.696 -1.181 3.01
1.687 -1.161 2.948
1.677 -1.141 2.887
1.671 -1.124 2.833
1.671 -1.111 2.791
1.679 -1.104 2.763
-0.093 -0.062 0.147
-0.048 -0.033 0.071
-1.014 -0.678 1.779
-0.996 -0.674 1.775
-0.983 -0.674 1.779
-0.935 -0.649 1.717
-0.925 -0.65 1.725
-0.91 -0.647 1.724
-0.896 -0.646 1.725
-0.968 -0.707 1.894
-0.954 -0.706 1.897
-0.94 -0.705 1.9
-0.929 -0.706 1.908
-0.916 -0.705 1.912
-0.984 -0.768 2.09
-1.049 -0.83 2.264
-1.109 -0.89 2.437
-1.247 -1.015 2.788
-1.304 -1.077 2.965
-1.434 -1.202 3.321
-1.559 -1.326 3.673
-1.68 -1.451 4.031
-1.724 -1.513 4.212
-1.765 -1.573 4.39
-1.732 -1.568 4.386
-1.701 -1.566 4.387
-1.671 -1.564 4.391
-1.639 -1.56 4.389
-1.609 -1.558 4.392
-1.578 -1.555 4.391
-1.548 -1.552 4.392
-1.516 -1.548 4.389
-1.486 -1.545 4.388
-1.455 -1.542 4.387
-1.426 -1.54 4.389
-1.396 -1.537 4.387
-1.367 -1.536 4.39
-1.338 -1.534 4.391
-1.309 -1.532 4.392
-1.28 -1.529 4.39
-1.251 -1.527 4.39
-1.221 -1.524 4.387
-1.191 -1.52 4.382
-1.162 -1.518 4.381
-1.134 -1.516 4.383
-1.105 -1.513 4.381
-1.077 -1.511 4.38
-1.049 -1.509 4.379
-1.019 -1.505 4.372
-0.99 -1.501 4.366
-0.962 -1.499 4.365
-0.934 -1.497 4.362
-0.905 -1.493 4.356
-0.878 -1.492 4.356
-0.851 -1.491 4.357
-0.824 -1.49 4.357
-0.796 -1.488 4.355
-0.77 -1.488 4.359
-0.743 -1.485 4.356
-0.715 -1.483 4.35
-0.688 -1.481 4.349
-0.661 -1.479 4.345
-0.634 -1.477 4.343
-0.606 -1.474 4.338
-0.58 -1.473 4.337
-0.553 -1.471 4.332
-0.527 -1.47 4.332
-0.5 -1.467 4.327
-0.474 -1.468 4.33
-0.448 -1.467 4.329
-0.422 -1.466 4.329
-0.396 -1.466 4.329
-0.37 -1.465 4.329
-0.343 -1.464 4.327
-0.317 -1.463 4.324
-0.291 -1.461 4.321
-0.265 -1.459 4.316
-0.239 -1.458 4.314
-0.213 -1.457 4.311
-0.187 -1.455 4.307
-0.162 -1.456 4.308
-0.136 -1.455 4.307
-0.11 -1.454 4.302
-0.084 -1.453 4.301
-0.059 -1.454 4.303
-0.033 -1.453 4.299
-0.008 -1.454 4.302
0.017 -1.453 4.3
0.042 -1.451 4.295
0.068 -1.45 4.291
0.093 -1.45 4.288
0.119 -1.448 4.282
0.144 -1.448 4.281
0.17 -1.449 4.283
0.195 -1.449 4.283
0.221 -1.449 4.281
0.246 -1.449 4.279
0.272 -1.449 4.278
0.297 -1.449 4.275
0.323 -1.449 4.273
0.348 -1.449 4.271
0.374 -1.448 4.268
0.399 -1.447 4.262
0.424 -1.448 4.262
0.45 -1.448 4.259
0.475 -1.448 4.258
0.501 -1.449 4.257
0.527 -1.45 4.257
0.552 -1.451 4.256
0.578 -1.45 4.251
0.603 -1.451 4.249
0.629 -1.452 4.249
0.655 -1.452 4.245
0.68 -1.451 4.241
0.706 -1.453 4.242
0.733 -1.455 4.244
0.759 -1.456 4.243
0.785 -1.458 4.243
0.812 -1.46 4.246
0.838 -1.46 4.242
0.863 -1.461 4.238
0.89 -1.462 4.236
0.916 -1.463 4.235
0.942 -1.463 4.229
0.968 -1.465 4.23
0.994 -1.465 4.225
1.021 -1.467 4.224
1.048 -1.468 4.223
1.075 -1.47 4.223
1.101 -1.471 4.22
1.128 -1.473 4.218
1.155 -1.475 4.217
1.182 -1.475 4.212
1.208 -1.476 4.208
1.236 -1.478 4.207
1.262 -1.479 4.203
1.289 -1.481 4.199
1.317 -1.483 4.198
1.345 -1.485 4.197
1.372 -1.486 4.193
1.401 -1.489 4.193
1.428 -1.49 4.188
1.456 -1.492 4.185
1.483 -1.493 4.18
1.51 -1.494 4.173
1.538 -1.496 4.17
1.566 -1.498 4.167
1.595 -1.501 4.165
1.623 -1.502 4.16
1.653 -1.506 4.16
1.68 -1.507 4.154
1.706 -1.506 4.143
1.729 -1.503 4.124
1.752 -1.501 4.106
1.773 -1.497 4.086
1.794 -1.492 4.063
1.814 -1.488 4.039
1.836 -1.484 4.019
0 0 0
0 0 0
0 0 0
0 0 0
0 0 0
0 0 0
0 0 0
0 0 0
1.397 -1.004 2.642
1.535 -1.089 2.859
1.692 -1.186 3.103
1.695 -1.173 3.061
1.697 -1.161 3.018
1.689 -1.142 2.958
1.678 -1.121 2.894
1.672 -1.105 2.841
1.664 -1.087 2.786
1.672 -1.08 2.758
-2.406 -1.542 4.122
-0.061 -0.041 0.093
-0.561 -0.369 0.982
-0.545 -0.363 0.967
-0.534 -0.36 0.962
-0.512 -0.349 0.936
-0.504 -0.348 0.936
-0.49 -0.343 0.925
-0.482 -0.342 0.924
-0.558 -0.401 1.089
-0.548 -0.398 1.086
-0.537 -0.396 1.082
-0.529 -0.395 1.084
-0.52 -0.394 1.083
-0.592 -0.454 1.254
-0.661 -0.514 1.425
-0.726 -0.573 1.594
-0.868 -0.695 1.941
-0.929 -0.755 2.115
-1.065 -0.877 2.468
-1.268 -1.06 2.993
-1.466 -1.245 3.524
-1.586 -1.367 3.881
-1.699 -1.488 4.234
-1.738 -1.546 4.41
-1.706 -1.543 4.41
-1.676 -1.541 4.414
-1.645 -1.538 4.414
-1.614 -1.535 4.414
-1.582 -1.531 4.411
-1.552 -1.529 4.413
-1.519 -1.524 4.407
-1.487 -1.519 4.401
-1.456 -1.516 4.397
-1.426 -1.513 4.398
-1.395 -1.509 4.393
-1.366 -1.507 4.395
-1.337 -1.505 4.395
-1.308 -1.503 4.396
-1.278 -1.5 4.394
-1.249 -1.498 4.395
-1.22 -1.495 4.391
-1.19 -1.492 4.387
-1.161 -1.489 4.385
-1.133 -1.487 4.385
-1.104 -1.484 4.382
-1.075 -1.483 4.382
-1.047 -1.48 4.381
-1.018 -1.477 4.376
-0.989 -1.474 4.371
-0.962 -1.472 4.371
-0.934 -1.47 4.369
-0.905 -1.467 4.363
-0.878 -1.465 4.363
-0.851 -1.465 4.365
-0.823 -1.462 4.362
-0.795 -1.459 4.355
-0.769 -1.459 4.36
-0.741 -1.456 4.355
-0.714 -1.454 4.351
-0.687 -1.452 4.349
-0.66 -1.451 4.349
-0.633 -1.449 4.346
-0.606 -1.448 4.343
-0.579 -1.445 4.339
-0.552 -1.442 4.332
-0.526 -1.442 4.334
-0.499 -1.439 4.328
-0.473 -1.44 4.331
-0.447 -1.439 4.332
-0.421 -1.439 4.332
-0.395 -1.437 4.329
-0.369 -1.436 4.328
-0.342 -1.435 4.324
-0.317 -1.434 4.324
-0.291 -1.434 4.323
-0.265 -1.432 4.319
-0.239 -1.432 4.321
-0.213 -1.432 4.319
-0.187 -1.429 4.312
-0.161 -1.429 4.313
-0.136 -1.428 4.308
-0.11 -1.425 4.301
-0.084 -1.423 4.295
-0.059 -1.423 4.296
-0.033 -1.422 4.293
-0.007 -1.424 4.299
0.017 -1.424 4.298
0.043 -1.424 4.298
0.068 -1.424 4.295
0.094 -1.423 4.291
0.119 -1.42 4.283
0.144 -1.42 4.282
0.17 -1.421 4.283
0.195 -1.422 4.286
0.221 -1.422 4.284
0.246 -1.423 4.284
0.272 -1.423 4.282
0.297 -1.422 4.28
0.323 -1.422 4.276
0.348 -1.421 4.273
0.373 -1.421 4.269
0.398 -1.42 4.263
0.424 -1.42 4.263
0.449 -1.421 4.262
0.475 -1.421 4.261
0.501 -1.422 4.261
0.527 -1.424 4.263
0.552 -1.425 4.262
0.578 -1.424 4.256
0.603 -1.424 4.255
0.629 -1.426 4.256
0.655 -1.426 4.251
0.68 -1.425 4.247
0.706 -1.427 4.248
0.732 -1.428 4.246
0.758 -1.428 4.243
0.784 -1.43 4.245
0.812 -1.434 4.253
0.837 -1.434 4.247
0.864 -1.436 4.248
0.89 -1.436 4.245
0.916 -1.437 4.242
0.941 -1.435 4.232
0.968 -1.438 4.233
0.994 -1.439 4.231
1.021 -1.44 4.23
1.048 -1.442 4.23
1.075 -1.444 4.231
1.102 -1.446 4.228
1.127 -1.445 4.221
1.154 -1.447 4.22
1.181 -1.448 4.216
1.207 -1.448 4.211
1.234 -1.45 4.208
1.261 -1.451 4.204
1.288 -1.452 4.201
1.315 -1.454 4.198
1.342 -1.456 4.196
1.37 -1.458 4.193
1.399 -1.46 4.194
1.425 -1.461 4.187
1.453 -1.463 4.186
1.481 -1.465 4.183
1.508 -1.466 4.176
1.536 -1.468 4.172
1.564 -1.47 4.17
1.592 -1.472 4.166
1.62 -1.473 4.16
1.649 -1.476 4.159
1.677 -1.478 4.154
1.703 -1.477 4.144
1.728 -1.476 4.131
1.752 -1.474 4.115
1.776 -1.473 4.1
1.797 -1.468 4.078
1.817 -1.464 4.055
0 0 0
0 0 0
0 0 0
0 0 0
0 0 0
0 0 0
0 0 0
0 0 0
0 0 0
1.225 -0.865 2.321
1.533 -1.068 2.86
1.694 -1.166 3.113
1.696 -1.153 3.069
1.698 -1.141 3.027
1.691 -1.123 2.968
1.679 -1.102 2.902
1.67 -1.084 2.844
1.672 -1.073 2.805
1.675 -1.063 2.769
-0.176 -0.112 0.29
-0.086 -0.056 0.137
-0.197 -0.128 0.337
-0.184 -0.121 0.318
-0.178 -0.119 0.312
-0.172 -0.116 0.306
-0.166 -0.114 0.301
-0.154 -0.107 0.282
-0.147 -0.104 0.274
-0.139 -0.099 0.262
-0.132 -0.096 0.253
-0.127 -0.093 0.246
-0.121 -0.09 0.239
-0.117 -0.088 0.235
-0.194 -0.147 0.403
-0.268 -0.205 0.571
-0.338 -0.262 0.736
-0.564 -0.443 1.259
-0.705 -0.562 1.603
-0.918 -0.743 2.13
-1.198 -0.983 2.832
-1.469 -1.225 3.539
-1.589 -1.345 3.896
-1.702 -1.464 4.251
-1.741 -1.521 4.428
-1.709 -1.518 4.428
-1.678 -1.515 4.429
-1.647 -1.512 4.428
-1.614 -1.508 4.424
-1.582 -1.503 4.419
-1.551 -1.501 4.419
-1.519 -1.497 4.416
-1.486 -1.491 4.408
-1.455 -1.488 4.404
-1.426 -1.486 4.405
-1.394 -1.481 4.4
-1.365 -1.479 4.399
-1.336 -1.477 4.4
-1.307 -1.475 4.402
-1.277 -1.471 4.396
-1.248 -1.47 4.399
-1.22 -1.468 4.399
-1.19 -1.465 4.395
-1.161 -1.462 4.392
-1.133 -1.461 4.394
-1.103 -1.457 4.387
-1.074 -1.454 4.385
-1.045 -1.451 4.381
-1.016 -1.448 4.376
-0.987 -1.444 4.368
-0.959 -1.442 4.368
-0.931 -1.44 4.366
-0.903 -1.437 4.361
-0.876 -1.436 4.361
-0.849 -1.436 4.364
-0.822 -1.435 4.365
-0.794 -1.431 4.359
-0.768 -1.433 4.366
-0.741 -1.43 4.361
-0.713 -1.427 4.357
-0.686 -1.425 4.353
-0.66 -1.425 4.355
-0.633 -1.423 4.352
-0.606 -1.422 4.351
-0.579 -1.419 4.347
-0.552 -1.416 4.338
-0.525 -1.415 4.339
-0.499 -1.413 4.334
-0.473 -1.413 4.337
-0.447 -1.412 4.334
-0.42 -1.411 4.334
-0.394 -1.409 4.328
-0.368 -1.407 4.325
-0.342 -1.406 4.321
-0.316 -1.406 4.322
-0.29 -1.405 4.322
-0.264 -1.404 4.32
-0.238 -1.405 4.322
-0.213 -1.404 4.32
-0.187 -1.402 4.314
-0.161 -1.401 4.313
-0.135 -1.398 4.305
-0.109 -1.396 4.298
-0.084 -1.394 4.292
-0.058 -1.395 4.294
-0.033 -1.394 4.291
-0.007 -1.397 4.301
0.017 -1.397 4.301
0.043 -1.398 4.301
0.068 -1.397 4.3
0.094 -1.396 4.295
0.119 -1.394 4.287
0.144 -1.394 4.286
0.17 -1.395 4.289
0.196 -1.396 4.292
0.221 -1.396 4.291
0.247 -1.397 4.291
0.272 -1.397 4.289
0.297 -1.397 4.287
0.323 -1.396 4.282
0.348 -1.396 4.279
0.373 -1.394 4.272
0.398 -1.393 4.267
0.424 -1.393 4.266
0.449 -1.393 4.263
0.475 -1.394 4.264
0.501 -1.396 4.267
0.527 -1.398 4.269
0.553 -1.399 4.269
0.578 -1.399 4.266
0.604 -1.4 4.264
0.63 -1.401 4.264
0.655 -1.4 4.258
0.68 -1.399 4.253
0.706 -1.401 4.254
0.732 -1.402 4.252
0.757 -1.402 4.248
0.785 -1.405 4.253
0.813 -1.41 4.263
0.838 -1.409 4.258
0.865 -1.411 4.258
0.891 -1.411 4.254
0.916 -1.41 4.246
0.94 -1.408 4.234
0.966 -1.409 4.233
0.993 -1.411 4.232
1.019 -1.412 4.23
1.046 -1.414 4.231
1.074 -1.417 4.233
1.1 -1.418 4.23
1.126 -1.417 4.223
1.153 -1.419 4.221
1.179 -1.42 4.217
1.205 -1.42 4.211
1.232 -1.422 4.209
1.259 -1.423 4.205
1.286 -1.424 4.202
1.313 -1.426 4.2
1.341 -1.428 4.198
1.368 -1.43 4.196
1.397 -1.432 4.195
1.423 -1.432 4.188
1.45 -1.434 4.185
1.478 -1.436 4.181
1.505 -1.436 4.175
1.533 -1.439 4.173
1.562 -1.441 4.171
1.59 -1.443 4.168
1.618 -1.445 4.164
1.648 -1.448 4.163
1.675 -1.449 4.157
1.703 -1.45 4.15
1.729 -1.45 4.14
1.754 -1.449 4.127
1.778 -1.448 4.113
1.8 -1.445 4.094
0 0 0
0 0 0
0 0 0
0 0 0
0 0 0
0 0 0
0 0 0
0 0 0
0 0 0
0 0 0
1.221 -0.847 2.318
1.526 -1.045 2.854
1.689 -1.142 3.111
1.691 -1.129 3.066
1.696 -1.119 3.029
1.691 -1.103 2.975
1.68 -1.084 2.911
1.67 -1.065 2.85
1.658 -1.045 2.788
1.685 -1.05 2.791
-0.235 -0.146 0.393
-0.159 -0.101 0.266
-0.22 -0.14 0.379
-0.109 -0.071 0.185
-0.101 -0.067 0.172
-0.097 -0.065 0.168
-0.09 -0.061 0.157
-0.078 -0.054 0.137
-0.07 -0.049 0.124
-0.064 -0.046 0.114
-0.057 -0.041 0.102
-0.051 -0.038 0.092
-0.045 -0.034 0.081
-0.125 -0.092 0.25
-0.117 -0.088 0.239
-0.111 -0.085 0.23
-0.105 -0.081 0.219
-0.256 -0.198 0.565
-0.476 -0.373 1.082
-0.768 -0.61 1.784
-1.123 -0.905 2.66
-1.469 -1.202 3.545
-1.659 -1.379 4.078
-1.7 -1.435 4.255
-1.74 -1.492 4.433
-1.708 -1.489 4.433
-1.677 -1.486 4.434
-1.645 -1.483 4.433
-1.613 -1.479 4.43
-1.58 -1.475 4.424
-1.55 -1.472 4.425
-1.517 -1.467 4.418
-1.485 -1.462 4.411
-1.453 -1.458 4.406
-1.424 -1.456 4.408
-1.393 -1.452 4.402
-1.363 -1.45 4.403
-1.334 -1.447 4.401
-1.305 -1.446 4.404
-1.275 -1.442 4.398
-1.246 -1.441 4.401
-1.217 -1.439 4.399
-1.189 -1.437 4.4
-1.16 -1.435 4.4
-1.133 -1.434 4.403
-1.103 -1.431 4.397
-1.075 -1.429 4.397
-1.045 -1.425 4.389
-1.015 -1.42 4.379
-0.986 -1.416 4.372
-0.958 -1.415 4.372
-0.93 -1.412 4.369
-0.903 -1.41 4.367
-0.875 -1.409 4.367
-0.849 -1.409 4.37
-0.822 -1.408 4.372
-0.793 -1.404 4.364
-0.768 -1.405 4.371
-0.74 -1.403 4.368
-0.713 -1.401 4.362
-0.685 -1.397 4.356
-0.659 -1.398 4.36
-0.632 -1.396 4.357
-0.606 -1.395 4.356
-0.579 -1.393 4.352
-0.551 -1.39 4.345
-0.525 -1.39 4.347
-0.498 -1.387 4.34
-0.472 -1.387 4.341
-0.446 -1.384 4.336
-0.42 -1.383 4.334
-0.393 -1.381 4.328
-0.367 -1.38 4.327
-0.341 -1.378 4.323
-0.315 -1.379 4.325
-0.29 -1.379 4.327
-0.264 -1.378 4.326
-0.238 -1.379 4.328
-0.213 -1.378 4.327
-0.187 -1.376 4.321
-0.161 -1.375 4.319
-0.135 -1.372 4.309
-0.109 -1.369 4.3
-0.083 -1.367 4.294
-0.058 -1.367 4.294
-0.033 -1.365 4.287
-0.007 -1.369 4.299
0.017 -1.369 4.3
0.043 -1.369 4.298
0.068 -1.369 4.296
0.094 -1.367 4.291
0.119 -1.365 4.284
0.144 -1.367 4.287
0.17 -1.37 4.296
0.196 -1.371 4.299
0.221 -1.371 4.298
0.247 -1.371 4.295
0.272 -1.37 4.29
0.297 -1.369 4.286
0.322 -1.368 4.281
0.348 -1.367 4.277
0.373 -1.366 4.271
0.398 -1.366 4.268
0.423 -1.366 4.268
0.449 -1.366 4.264
0.474 -1.367 4.264
0.5 -1.369 4.269
0.526 -1.37 4.267
0.552 -1.372 4.27
0.578 -1.372 4.269
0.603 -1.372 4.266
0.629 -1.373 4.266
0.654 -1.373 4.262
0.679 -1.371 4.252
0.705 -1.373 4.254
0.731 -1.373 4.25
0.756 -1.373 4.247
0.784 -1.378 4.256
0.813 -1.384 4.27
0.839 -1.384 4.266
0.866 -1.387 4.271
0.891 -1.386 4.262
0.915 -1.384 4.251
0.94 -1.382 4.241
0.966 -1.383 4.238
0.992 -1.384 4.236
1.019 -1.386 4.237
1.046 -1.387 4.235
1.072 -1.388 4.232
1.098 -1.389 4.228
1.123 -1.388 4.219
1.15 -1.389 4.216
1.176 -1.39 4.213
1.203 -1.391 4.21
1.23 -1.393 4.207
1.256 -1.394 4.204
1.284 -1.396 4.202
1.311 -1.397 4.199
1.338 -1.399 4.196
1.366 -1.401 4.196
1.395 -1.404 4.196
1.421 -1.404 4.189
1.449 -1.406 4.187
1.477 -1.408 4.185
1.504 -1.409 4.18
1.532 -1.412 4.178
1.559 -1.413 4.172
1.587 -1.414 4.168
1.615 -1.416 4.164
1.643 -1.418 4.159
1.671 -1.419 4.154
1.698 -1.42 4.147
1.724 -1.42 4.137
1.75 -1.419 4.125
1.775 -1.419 4.113
1.794 -1.413 4.086
0 0 0
0 0 0
0 0 0
0 0 0
0 0 0
0 0 0
0 0 0
0 0 0
0 0 0
0 0 0
1.143 -0.778 2.173
1.507 -1.013 2.823
1.686 -1.119 3.112
1.69 -1.108 3.071
1.697 -1.1 3.037
1.695 -1.085 2.988
1.684 -1.066 2.923
1.672 -1.047 2.86
1.64 -1.015 2.763
1.64 -1.004 2.722
-0.162 -0.099 0.267
-0.133 -0.083 0.221
-0.14 -0.088 0.237
-0.123 -0.079 0.209
-0.112 -0.072 0.192
-0.107 -0.071 0.188
-0.099 -0.066 0.175
-0.087 -0.059 0.154
-0.078 -0.054 0.14
-0.073 -0.051 0.131
-0.065 -0.046 0.118
-0.057 -0.041 0.104
-0.049 -0.036 0.089
-0.045 -0.034 0.083
-0.036 -0.027 0.064
-0.03 -0.023 0.053
-0.024 -0.019 0.04
-0.177 -0.135 0.387
-0.475 -0.365 1.08
-0.767 -0.598 1.785
-1.123 -0.888 2.664
-1.468 -1.179 3.55
-1.657 -1.351 4.08
-1.697 -1.406 4.256
-1.736 -1.461 4.433
-1.704 -1.458 4.431
-1.673 -1.455 4.433
-1.643 -1.453 4.434
-1.611 -1.45 4.433
-1.579 -1.446 4.43
-1.548 -1.443 4.429
-1.516 -1.439 4.423
-1.483 -1.433 4.413
-1.449 -1.427 4.402
-1.42 -1.425 4.404
-1.389 -1.422 4.4
-1.36 -1.419 4.399
-1.33 -1.417 4.398
-1.303 -1.417 4.405
-1.272 -1.413 4.398
-1.245 -1.413 4.404
-1.216 -1.411 4.403
-1.189 -1.41 4.406
-1.16 -1.408 4.408
-1.133 -1.408 4.411
-1.103 -1.403 4.403
-1.075 -1.402 4.404
-1.045 -1.397 4.394
-1.014 -1.392 4.383
-0.985 -1.389 4.377
-0.958 -1.387 4.377
-0.929 -1.385 4.373
-0.902 -1.383 4.371
-0.875 -1.382 4.371
-0.848 -1.381 4.375
-0.822 -1.381 4.378
-0.793 -1.377 4.368
-0.767 -1.378 4.375
-0.74 -1.376 4.371
-0.712 -1.373 4.366
-0.684 -1.369 4.356
-0.658 -1.37 4.361
-0.632 -1.37 4.364
-0.606 -1.37 4.366
-0.578 -1.366 4.357
-0.551 -1.364 4.352
-0.525 -1.364 4.355
-0.498 -1.361 4.347
-0.472 -1.36 4.345
-0.445 -1.357 4.338
-0.419 -1.355 4.332
-0.392 -1.352 4.327
-0.366 -1.352 4.326
-0.34 -1.351 4.324
-0.315 -1.351 4.325
-0.289 -1.351 4.328
-0.263 -1.351 4.328
-0.238 -1.351 4.328
-0.212 -1.35 4.326
-0.186 -1.348 4.321
-0.16 -1.347 4.318
-0.134 -1.344 4.308
-0.109 -1.342 4.302
-0.083 -1.339 4.293
-0.058 -1.339 4.292
-0.032 -1.337 4.286
-0.007 -1.341 4.299
0.017 -1.341 4.297
0.043 -1.344 4.305
0.068 -1.343 4.303
0.094 -1.342 4.299
0.119 -1.339 4.29
0.145 -1.341 4.295
0.17 -1.343 4.301
0.196 -1.344 4.301
0.221 -1.343 4.296
0.246 -1.343 4.295
0.272 -1.342 4.292
0.297 -1.341 4.285
0.322 -1.343 4.289
0.348 -1.342 4.285
0.372 -1.339 4.274
0.397 -1.338 4.266
0.423 -1.339 4.268
0.448 -1.338 4.262
0.473 -1.338 4.26
0.5 -1.343 4.275
0.526 -1.345 4.277
0.553 -1.349 4.285
0.578 -1.348 4.278
0.604 -1.349 4.279
0.629 -1.347 4.271
0.654 -1.346 4.262
0.678 -1.344 4.253
0.705 -1.347 4.258
0.729 -1.345 4.249
0.754 -1.345 4.243
0.783 -1.35 4.258
0.813 -1.357 4.275
0.839 -1.358 4.272
0.867 -1.363 4.282
0.891 -1.36 4.268
0.916 -1.358 4.26
0.94 -1.356 4.247
0.965 -1.356 4.243
0.992 -1.358 4.241
1.019 -1.359 4.241
1.044 -1.359 4.235
1.071 -1.36 4.233
1.096 -1.36 4.227
1.121 -1.359 4.218
1.147 -1.36 4.215
1.174 -1.362 4.212
1.201 -1.363 4.209
1.227 -1.364 4.207
1.254 -1.365 4.204
1.282 -1.367 4.202
1.309 -1.369 4.2
1.335 -1.37 4.195
1.364 -1.373 4.197
1.392 -1.375 4.196
1.419 -1.376 4.191
1.447 -1.378 4.189
1.475 -1.38 4.188
1.502 -1.381 4.182
1.53 -1.383 4.18
1.557 -1.384 4.173
1.585 -1.386 4.169
1.612 -1.387 4.163
1.64 -1.388 4.158
1.667 -1.39 4.152
1.695 -1.391 4.146
1.721 -1.391 4.137
1.747 -1.391 4.126
1.772 -1.39 4.114
1.791 -1.385 4.089
0 0 0
0 0 0
0 0 0
0 0 0
0 0 0
0 0 0
0 0 0
0 0 0
0 0 0
0 0 0
1.284 -0.858 2.447
1.673 -1.103 3.141
1.686 -1.098 3.118
1.69 -1.088 3.078
1.696 -1.079 3.042
1.698 -1.067 2.999
1.685 -1.047 2.931
1.672 -1.027 2.866
1.662 -1.009 2.805
1.639 -0.984 2.726
-0.196 -0.118 0.328
-0.174 -0.106 0.293
-0.147 -0.091 0.25
-0.131 -0.082 0.225
-0.118 -0.075 0.204
-0.112 -0.072 0.197
-0.102 -0.066 0.18
-0.089 -0.059 0.16
-0.079 -0.053 0.142
-0.073 -0.05 0.132
-0.063 -0.044 0.115
-0.055 -0.039 0.1
-0.047 -0.034 0.084
-0.043 -0.031 0.077
-0.114 -0.082 0.233
-0.187 -0.136 0.398
-0.258 -0.19 0.563
-0.485 -0.361 1.088
-0.779 -0.587 1.784
-0.992 -0.758 2.316
-1.27 -0.985 3.02
-1.54 -1.213 3.732
-1.656 -1.325 4.086
-1.697 -1.379 4.262
-1.735 -1.432 4.438
-1.704 -1.43 4.439
-1.672 -1.426 4.437
-1.641 -1.424 4.439
-1.61 -1.421 4.437
-1.578 -1.417 4.434
-1.546 -1.413 4.43
-1.514 -1.409 4.424
-1.48 -1.403 4.413
-1.447 -1.398 4.404
-1.418 -1.396 4.405
-1.387 -1.393 4.402
-1.358 -1.391 4.403
-1.33 -1.389 4.404
-1.304 -1.391 4.415
-1.272 -1.386 4.406
-1.245 -1.385 4.41
-1.216 -1.383 4.409
-1.188 -1.382 4.412
-1.16 -1.381 4.415
-1.133 -1.381 4.42
-1.104 -1.378 4.414
-1.075 -1.376 4.414
-1.045 -1.372 4.404
-1.015 -1.367 4.395
-0.985 -1.363 4.385
-0.958 -1.361 4.384
-0.93 -1.359 4.383
-0.902 -1.357 4.379
-0.874 -1.354 4.374
-0.848 -1.355 4.381
-0.822 -1.356 4.388
-0.793 -1.351 4.376
-0.768 -1.353 4.385
-0.741 -1.352 4.387
-0.714 -1.35 4.383
-0.684 -1.344 4.366
-0.66 -1.348 4.381
-0.634 -1.348 4.383
-0.607 -1.346 4.381
-0.579 -1.342 4.368
-0.551 -1.339 4.361
-0.526 -1.339 4.365
-0.499 -1.336 4.358
-0.473 -1.337 4.361
-0.444 -1.328 4.334
-0.418 -1.326 4.329
-0.392 -1.325 4.327
-0.366 -1.324 4.326
-0.34 -1.323 4.324
-0.314 -1.324 4.328
-0.289 -1.324 4.329
-0.263 -1.323 4.328
-0.237 -1.323 4.327
-0.212 -1.322 4.326
-0.186 -1.321 4.323
-0.16 -1.32 4.321
-0.134 -1.317 4.309
-0.109 -1.316 4.306
-0.083 -1.313 4.296
-0.058 -1.311 4.291
-0.032 -1.306 4.274
0 0 0
0 0 0
0 0 0
0 0 0
0 0 0
0 0 0
0 0 0
0 0 0
0 0 0
0 0 0
0 0 0
0 0 0
0 0 0
0 0 0
0 0 0
0 0 0
0 0 0
0 0 0
0 0 0
0 0 0
