1.67 -1.249 2.885
1.666 -1.232 2.834
1.666 -1.217 2.79
1.658 -1.198 2.735
1.65 -1.179 2.682
-2.253 -1.6 3.803
-2.265 -1.628 3.882
-2.224 -1.618 3.87
-2.196 -1.617 3.881
-2.168 -1.615 3.889
-2.14 -1.614 3.899
-2.116 -1.616 3.916
-2.095 -1.62 3.938
-2.068 -1.62 3.95
-2.044 -1.622 3.967
-2.017 -1.622 3.977
-1.99 -1.622 3.989
-1.962 -1.62 3.995
-1.939 -1.623 4.014
-1.912 -1.623 4.024
-1.884 -1.622 4.033
-1.856 -1.621 4.04
-1.832 -1.623 4.055
-1.802 -1.62 4.059
-1.774 -1.619 4.065
-1.751 -1.622 4.082
-1.722 -1.62 4.087
-1.692 -1.616 4.087
-1.664 -1.614 4.092
-1.635 -1.612 4.096
-1.607 -1.61 4.099
-1.581 -1.611 4.11
-1.555 -1.611 4.117
-1.528 -1.61 4.124
-1.502 -1.61 4.133
-1.476 -1.611 4.143
-1.449 -1.61 4.147
-1.424 -1.612 4.161
-1.399 -1.613 4.17
-1.373 -1.614 4.179
-1.345 -1.612 4.181
-1.319 -1.612 4.189
-1.291 -1.611 4.192
-1.264 -1.61 4.196
-1.237 -1.608 4.198
-1.21 -1.607 4.202
-1.183 -1.606 4.204
-1.157 -1.606 4.213
-1.13 -1.605 4.215
-1.104 -1.605 4.22
-1.077 -1.605 4.225
-1.051 -1.605 4.23
-1.023 -1.602 4.228
-0.998 -1.603 4.236
-0.972 -1.603 4.24
-0.945 -1.602 4.244
-0.919 -1.602 4.246
-0.892 -1.601 4.249
-0.866 -1.601 4.253
-0.839 -1.6 4.254
-0.813 -1.599 4.255
-0.787 -1.599 4.26
-0.761 -1.6 4.266
-0.735 -1.598 4.265
-0.708 -1.598 4.267
-0.683 -1.599 4.273
-0.657 -1.598 4.275
-0.63 -1.597 4.274
-0.604 -1.597 4.276
-0.578 -1.597 4.279
-0.552 -1.595 4.277
-0.526 -1.595 4.278
-0.499 -1.594 4.278
-0.474 -1.594 4.281
-0.448 -1.594 4.284
-0.422 -1.593 4.282
-0.395 -1.591 4.279
-0.37 -1.592 4.282
-0.344 -1.591 4.281
-0.317 -1.589 4.277
-0.291 -1.588 4.276
-0.266 -1.587 4.275
-0.24 -1.586 4.271
-0.214 -1.584 4.268
-0.188 -1.583 4.264
-0.162 -1.582 4.263
-0.136 -1.581 4.261
-0.111 -1.58 4.258
-0.085 -1.579 4.257
-0.06 -1.581 4.262
-0.034 -1.58 4.258
-0.008 -1.58 4.258
0.016 -1.582 4.263
0.042 -1.581 4.26
0.067 -1.579 4.256
0.093 -1.58 4.256
0.118 -1.58 4.254
0.144 -1.578 4.25
0.169 -1.579 4.251
0.195 -1.58 4.253
0.221 -1.58 4.252
0.246 -1.581 4.252
0.272 -1.581 4.25
0.297 -1.58 4.247
0.322 -1.579 4.241
0.348 -1.58 4.242
0.374 -1.58 4.239
0.399 -1.578 4.233
0.424 -1.579 4.233
0.45 -1.579 4.231
0.475 -1.578 4.226
0.501 -1.58 4.226
0.527 -1.582 4.23
0.553 -1.582 4.226
0.579 -1.583 4.225
0.605 -1.584 4.225
0.63 -1.583 4.219
0.654 -1.581 4.211
0.681 -1.583 4.211
0.707 -1.584 4.21
0.732 -1.585 4.208
0.759 -1.587 4.209
0.785 -1.589 4.21
0.812 -1.591 4.212
0.838 -1.591 4.208
0.864 -1.592 4.204
0.89 -1.592 4.201
0.916 -1.593 4.198
0.941 -1.593 4.192
0.968 -1.594 4.189
0.994 -1.594 4.185
1.019 -1.594 4.179
1.046 -1.596 4.179
1.072 -1.597 4.173
1.098 -1.598 4.17
1.125 -1.6 4.169
1.152 -1.601 4.167
1.179 -1.602 4.163
1.207 -1.606 4.165
1.234 -1.607 4.161
1.26 -1.608 4.157
1.287 -1.609 4.152
1.313 -1.609 4.145
1.339 -1.609 4.137
1.364 -1.608 4.127
1.39 -1.609 4.122
1.417 -1.61 4.115
1.444 -1.612 4.111
1.47 -1.612 4.104
1.499 -1.615 4.103
1.526 -1.617 4.098
1.554 -1.619 4.094
1.581 -1.62 4.088
1.607 -1.62 4.079
1.633 -1.62 4.07
1.658 -1.618 4.056
1.682 -1.617 4.042
1.704 -1.613 4.024
1.723 -1.607 3.997
1.74 -1.599 3.967
1.755 -1.589 3.932
1.769 -1.579 3.896
1.78 -1.567 3.856
1.79 -1.554 3.813
1.805 -1.545 3.782
1.819 -1.536 3.747
1.822 -1.518 3.694
0 0 0
0 0 0
0 0 0
1.662 -1.316 3.159
1.672 -1.307 3.127
1.679 -1.296 3.092
1.682 -1.283 3.05
1.688 -1.272 3.013
1.679 -1.25 2.952
1.672 -1.231 2.895
1.668 -1.213 2.843
1.667 -1.198 2.799
1.678 -1.193 2.776
1.693 -1.19 2.759
-2.309 -1.613 3.907
-2.316 -1.638 3.981
-2.258 -1.616 3.94
-2.232 -1.616 3.954
-2.202 -1.614 3.961
-2.173 -1.613 3.971
-2.147 -1.613 3.983
-2.124 -1.616 4.004
-2.096 -1.616 4.014
-2.072 -1.617 4.031
-2.043 -1.616 4.04
-2.018 -1.617 4.054
-1.987 -1.615 4.058
-1.963 -1.617 4.075
-1.937 -1.617 4.087
-1.911 -1.618 4.1
-1.882 -1.617 4.106
-1.859 -1.62 4.126
-1.829 -1.618 4.13
-1.8 -1.616 4.134
-1.776 -1.618 4.15
-1.747 -1.616 4.156
-1.717 -1.613 4.157
-1.689 -1.612 4.164
-1.662 -1.612 4.172
-1.633 -1.61 4.175
-1.607 -1.611 4.187
-1.58 -1.611 4.195
-1.553 -1.61 4.202
-1.525 -1.609 4.208
-1.498 -1.609 4.215
-1.47 -1.607 4.218
-1.443 -1.607 4.225
-1.416 -1.607 4.233
-1.39 -1.608 4.242
-1.362 -1.606 4.244
-1.335 -1.605 4.25
-1.307 -1.604 4.253
-1.28 -1.603 4.257
-1.251 -1.601 4.257
-1.225 -1.601 4.263
-1.197 -1.599 4.266
-1.171 -1.6 4.275
-1.144 -1.599 4.277
-1.117 -1.598 4.281
-1.09 -1.597 4.284
-1.063 -1.597 4.287
-1.033 -1.592 4.279
-1.007 -1.592 4.285
-0.98 -1.591 4.287
-0.953 -1.59 4.288
-0.925 -1.587 4.287
-0.899 -1.588 4.292
-0.872 -1.587 4.293
-0.845 -1.585 4.293
-0.818 -1.584 4.293
-0.793 -1.585 4.302
-0.767 -1.586 4.307
-0.74 -1.585 4.307
-0.713 -1.583 4.306
-0.687 -1.583 4.31
-0.661 -1.582 4.309
-0.634 -1.58 4.307
-0.607 -1.578 4.304
-0.581 -1.578 4.307
-0.554 -1.577 4.307
-0.528 -1.575 4.304
-0.501 -1.574 4.302
-0.475 -1.575 4.308
-0.449 -1.575 4.309
-0.423 -1.572 4.305
-0.397 -1.571 4.302
-0.371 -1.571 4.303
-0.344 -1.569 4.299
-0.318 -1.566 4.294
-0.292 -1.567 4.296
-0.266 -1.567 4.297
-0.24 -1.565 4.293
-0.214 -1.563 4.288
-0.188 -1.562 4.287
-0.162 -1.56 4.283
-0.137 -1.559 4.279
-0.111 -1.559 4.28
-0.085 -1.56 4.282
-0.06 -1.56 4.282
-0.034 -1.558 4.277
-0.008 -1.557 4.274
0.016 -1.558 4.277
0.042 -1.557 4.273
0.067 -1.556 4.269
0.093 -1.556 4.27
0.119 -1.556 4.269
0.144 -1.555 4.265
0.17 -1.555 4.262
0.195 -1.555 4.263
0.221 -1.556 4.263
0.247 -1.556 4.262
0.272 -1.555 4.258
0.298 -1.556 4.258
0.323 -1.555 4.253
0.349 -1.556 4.253
0.374 -1.557 4.254
0.4 -1.556 4.251
0.426 -1.557 4.25
0.451 -1.557 4.248
0.476 -1.556 4.242
0.502 -1.555 4.238
0.528 -1.558 4.242
0.554 -1.558 4.239
0.579 -1.558 4.236
0.605 -1.56 4.238
0.631 -1.56 4.235
0.656 -1.559 4.228
0.682 -1.56 4.228
0.708 -1.562 4.228
0.734 -1.562 4.225
0.761 -1.564 4.226
0.786 -1.564 4.222
0.813 -1.566 4.222
0.839 -1.567 4.219
0.864 -1.567 4.215
0.89 -1.567 4.212
0.917 -1.57 4.213
0.943 -1.57 4.208
0.97 -1.572 4.208
0.997 -1.573 4.206
1.022 -1.573 4.199
1.048 -1.574 4.196
1.074 -1.574 4.191
1.101 -1.575 4.187
1.127 -1.576 4.184
1.155 -1.579 4.184
1.182 -1.58 4.182
1.21 -1.583 4.182
1.237 -1.584 4.179
1.264 -1.586 4.177
1.291 -1.587 4.173
1.317 -1.588 4.167
1.345 -1.59 4.164
1.371 -1.591 4.158
1.398 -1.592 4.153
1.426 -1.594 4.15
1.454 -1.596 4.147
1.481 -1.597 4.143
1.509 -1.6 4.14
1.538 -1.602 4.137
1.564 -1.603 4.13
1.592 -1.604 4.125
1.618 -1.604 4.115
1.644 -1.604 4.106
1.669 -1.603 4.093
1.694 -1.602 4.081
1.715 -1.597 4.058
1.734 -1.591 4.033
1.75 -1.582 3.998
1.764 -1.572 3.963
1.778 -1.562 3.926
1.792 -1.552 3.891
1.804 -1.54 3.852
1.821 -1.533 3.823
1.832 -1.522 3.783
0 0 0
0 0 0
0 0 0
0 0 0
1.661 -1.293 3.164
1.67 -1.284 3.132
1.678 -1.275 3.098
1.681 -1.261 3.056
1.688 -1.251 3.021
1.681 -1.231 2.961
1.675 -1.213 2.907
1.67 -1.195 2.854
1.669 -1.18 2.809
1.671 -1.169 2.771
1.65 -1.141 2.696
-2.36 -1.622 4.004
-2.307 -1.604 3.974
-2.104 -1.48 3.678
-2.172 -1.547 3.856
-2.231 -1.608 4.024
-2.204 -1.609 4.038
-2.178 -1.609 4.051
-2.153 -1.611 4.068
-2.126 -1.612 4.081
-2.016 -1.548 3.932
-1.989 -1.548 3.942
-1.963 -1.548 3.954
-1.935 -1.546 3.961
-1.91 -1.547 3.974
-1.964 -1.613 4.154
-1.938 -1.614 4.167
-1.91 -1.613 4.177
-1.885 -1.616 4.194
-1.856 -1.614 4.2
-1.827 -1.613 4.206
-1.801 -1.613 4.218
-1.77 -1.611 4.221
-1.74 -1.608 4.222
-1.711 -1.606 4.228
-1.684 -1.607 4.238
-1.655 -1.605 4.242
-1.629 -1.606 4.253
-1.602 -1.605 4.261
-1.573 -1.604 4.266
-1.545 -1.603 4.272
-1.518 -1.603 4.279
-1.488 -1.6 4.279
-1.46 -1.599 4.285
-1.433 -1.599 4.292
-1.405 -1.598 4.297
-1.377 -1.596 4.299
-1.349 -1.595 4.304
-1.321 -1.594 4.306
-1.293 -1.592 4.309
-1.264 -1.59 4.31
-1.236 -1.588 4.311
-1.208 -1.587 4.314
-1.18 -1.586 4.316
-1.152 -1.583 4.315
-1.124 -1.581 4.315
-1.096 -1.58 4.318
-1.069 -1.579 4.32
-1.04 -1.576 4.316
-1.013 -1.575 4.321
-0.986 -1.575 4.324
-0.959 -1.573 4.324
-0.932 -1.572 4.325
-0.905 -1.571 4.328
-0.877 -1.569 4.327
-0.85 -1.567 4.324
-0.822 -1.564 4.32
-0.795 -1.564 4.324
-0.769 -1.564 4.327
-0.742 -1.563 4.328
-0.715 -1.561 4.326
-0.689 -1.562 4.331
-0.662 -1.56 4.329
-0.635 -1.557 4.324
-0.608 -1.555 4.321
-0.582 -1.555 4.323
-0.555 -1.553 4.322
-0.528 -1.551 4.318
-0.502 -1.551 4.319
-0.476 -1.551 4.323
-0.45 -1.551 4.325
-0.423 -1.548 4.318
-0.397 -1.546 4.314
-0.37 -1.545 4.311
-0.344 -1.543 4.309
-0.318 -1.541 4.303
-0.292 -1.542 4.307
-0.266 -1.542 4.308
-0.24 -1.541 4.307
-0.214 -1.54 4.305
-0.188 -1.539 4.302
-0.162 -1.537 4.296
-0.137 -1.535 4.293
-0.111 -1.535 4.293
-0.085 -1.534 4.29
-0.06 -1.535 4.293
-0.034 -1.534 4.288
-0.008 -1.532 4.285
0.017 -1.533 4.285
0.042 -1.532 4.284
0.068 -1.532 4.281
0.093 -1.532 4.281
0.119 -1.533 4.283
0.145 -1.532 4.279
0.17 -1.53 4.273
0.196 -1.531 4.273
0.221 -1.531 4.274
0.247 -1.531 4.271
0.272 -1.53 4.267
0.298 -1.531 4.268
0.323 -1.531 4.266
0.349 -1.531 4.263
0.374 -1.53 4.26
0.4 -1.53 4.258
0.426 -1.531 4.257
0.451 -1.531 4.254
0.476 -1.53 4.249
0.502 -1.531 4.249
0.528 -1.533 4.251
0.554 -1.533 4.248
0.579 -1.533 4.245
0.606 -1.535 4.247
0.631 -1.535 4.244
0.656 -1.534 4.237
0.682 -1.534 4.235
0.708 -1.536 4.235
0.734 -1.536 4.231
0.76 -1.537 4.231
0.786 -1.538 4.229
0.813 -1.54 4.23
0.839 -1.541 4.227
0.865 -1.541 4.224
0.891 -1.543 4.224
0.918 -1.545 4.225
0.945 -1.546 4.222
0.971 -1.548 4.221
0.998 -1.55 4.22
1.024 -1.549 4.213
1.05 -1.55 4.209
1.076 -1.55 4.206
1.102 -1.551 4.2
1.128 -1.551 4.194
1.156 -1.554 4.195
1.184 -1.556 4.196
1.21 -1.558 4.192
1.238 -1.559 4.191
1.266 -1.563 4.192
1.293 -1.564 4.188
1.319 -1.564 4.18
1.347 -1.566 4.18
1.374 -1.568 4.176
1.401 -1.569 4.171
1.43 -1.572 4.17
1.458 -1.574 4.169
1.486 -1.576 4.165
1.514 -1.578 4.163
1.542 -1.58 4.158
1.569 -1.58 4.149
1.596 -1.582 4.144
1.623 -1.582 4.136
1.65 -1.583 4.128
1.675 -1.582 4.116
1.702 -1.583 4.107
1.724 -1.579 4.087
1.743 -1.572 4.061
1.758 -1.563 4.025
1.773 -1.554 3.992
1.788 -1.544 3.957
1.803 -1.535 3.922
1.818 -1.527 3.891
1.837 -1.521 3.865
0 0 0
0 0 0
0 0 0
0 0 0
0 0 0
1.654 -1.266 3.158
1.666 -1.26 3.131
1.674 -1.25 3.098
1.679 -1.239 3.058
1.688 -1.231 3.028
1.682 -1.212 2.971
1.677 -1.194 2.917
1.674 -1.178 2.867
1.673 -1.164 2.822
1.679 -1.155 2.791
1.644 -1.118 2.692
-2.374 -1.604 4.039
-2.367 -1.618 4.087
-1.758 -1.217 3.08
-1.741 -1.219 3.096
-1.806 -1.28 3.262
-1.782 -1.279 3.269
-1.761 -1.28 3.281
-1.741 -1.281 3.296
-1.718 -1.28 3.303
-1.698 -1.282 3.317
-1.676 -1.282 3.328
-1.654 -1.282 3.336
-1.63 -1.281 3.342
-1.691 -1.347 3.525
-1.668 -1.347 3.535
-1.725 -1.413 3.717
-1.779 -1.478 3.9
-1.834 -1.545 4.089
-1.806 -1.544 4.096
-1.852 -1.607 4.272
-1.75 -1.542 4.108
-1.72 -1.539 4.109
-1.69 -1.536 4.111
-1.662 -1.534 4.114
-1.635 -1.534 4.123
-1.675 -1.597 4.302
-1.647 -1.596 4.31
-1.619 -1.595 4.317
-1.59 -1.594 4.322
-1.561 -1.593 4.326
-1.533 -1.592 4.333
-1.503 -1.589 4.331
-1.473 -1.587 4.333
-1.444 -1.585 4.335
-1.416 -1.584 4.341
-1.388 -1.583 4.344
-1.359 -1.581 4.347
-1.33 -1.578 4.346
-1.301 -1.576 4.348
-1.272 -1.573 4.346
-1.243 -1.571 4.346
-1.215 -1.57 4.348
-1.187 -1.568 4.349
-1.158 -1.565 4.348
-1.129 -1.562 4.345
-1.101 -1.56 4.344
-1.073 -1.559 4.346
-1.045 -1.557 4.345
-1.017 -1.556 4.347
-0.99 -1.554 4.349
-0.962 -1.553 4.349
-0.935 -1.55 4.347
-0.907 -1.549 4.347
-0.878 -1.545 4.341
-0.851 -1.543 4.339
-0.823 -1.54 4.335
-0.796 -1.54 4.338
-0.769 -1.539 4.338
-0.743 -1.539 4.342
-0.716 -1.538 4.342
-0.69 -1.538 4.345
-0.663 -1.535 4.342
-0.636 -1.533 4.338
-0.608 -1.53 4.332
-0.582 -1.529 4.331
-0.555 -1.527 4.329
-0.528 -1.524 4.324
-0.501 -1.524 4.324
-0.476 -1.525 4.328
-0.45 -1.524 4.33
-0.423 -1.522 4.325
-0.397 -1.522 4.325
-0.37 -1.519 4.321
-0.344 -1.517 4.317
-0.318 -1.514 4.309
-0.292 -1.515 4.312
-0.266 -1.514 4.31
-0.24 -1.514 4.311
-0.214 -1.513 4.309
-0.188 -1.512 4.306
-0.162 -1.51 4.302
-0.136 -1.509 4.299
-0.111 -1.508 4.297
-0.085 -1.507 4.293
-0.059 -1.508 4.296
-0.034 -1.506 4.291
-0.008 -1.506 4.292
0.017 -1.506 4.291
0.042 -1.506 4.291
0.068 -1.506 4.288
0.093 -1.506 4.288
0.119 -1.506 4.287
0.145 -1.506 4.285
0.17 -1.503 4.277
0.196 -1.504 4.278
0.221 -1.504 4.277
0.247 -1.503 4.273
0.272 -1.503 4.27
0.298 -1.504 4.273
0.323 -1.505 4.272
0.349 -1.505 4.269
0.374 -1.504 4.267
0.4 -1.504 4.264
0.426 -1.505 4.263
0.451 -1.503 4.257
0.476 -1.503 4.253
0.502 -1.504 4.253
0.528 -1.505 4.254
0.553 -1.505 4.251
0.579 -1.506 4.249
0.605 -1.508 4.252
0.631 -1.508 4.247
0.656 -1.507 4.242
0.682 -1.508 4.24
0.708 -1.509 4.241
0.734 -1.509 4.237
0.76 -1.511 4.237
0.786 -1.512 4.235
0.813 -1.513 4.236
0.839 -1.514 4.234
0.865 -1.515 4.231
0.891 -1.517 4.231
0.919 -1.519 4.232
0.945 -1.521 4.232
0.972 -1.523 4.232
0.999 -1.524 4.23
1.024 -1.524 4.224
1.051 -1.525 4.221
1.077 -1.525 4.216
1.103 -1.525 4.21
1.129 -1.526 4.205
1.156 -1.528 4.204
1.184 -1.53 4.204
1.21 -1.531 4.199
1.238 -1.533 4.198
1.267 -1.537 4.201
1.293 -1.537 4.196
1.319 -1.537 4.187
1.347 -1.54 4.187
1.374 -1.541 4.182
1.4 -1.541 4.175
1.43 -1.545 4.178
1.459 -1.548 4.179
1.487 -1.551 4.177
1.516 -1.553 4.174
1.544 -1.555 4.171
1.57 -1.555 4.162
1.598 -1.557 4.157
1.625 -1.558 4.15
1.653 -1.559 4.145
1.679 -1.559 4.135
1.706 -1.56 4.127
1.729 -1.557 4.108
1.749 -1.552 4.084
1.765 -1.542 4.049
1.782 -1.535 4.02
1.798 -1.527 3.988
1.817 -1.521 3.961
1.83 -1.511 3.925
1.854 -1.51 3.911
0 0 0
0 0 0
0 0 0
0 0 0
0 0 0
1.758 -1.323 3.365
1.719 -1.278 3.239
1.712 -1.257 3.175
1.679 -1.218 3.066
1.688 -1.21 3.035
1.684 -1.193 2.981
1.68 -1.176 2.929
1.675 -1.159 2.876
1.673 -1.145 2.83
1.655 -1.119 2.758
1.679 -1.123 2.757
-0.008 -0.007 0.001
-0.043 -0.03 0.062
-1.318 -0.897 2.311
-1.304 -0.898 2.322
-1.377 -0.96 2.49
-1.358 -0.958 2.494
-1.338 -0.956 2.496
-1.322 -0.956 2.505
-1.305 -0.957 2.513
-1.289 -0.957 2.52
-1.272 -0.957 2.528
-1.257 -0.958 2.538
-1.242 -0.959 2.548
-1.305 -1.022 2.723
-1.288 -1.022 2.732
-1.349 -1.086 2.911
-1.408 -1.15 3.09
-1.466 -1.214 3.273
-1.521 -1.278 3.454
-1.645 -1.403 3.802
-1.618 -1.401 3.807
-1.664 -1.463 3.983
-1.706 -1.524 4.159
-1.677 -1.522 4.163
-1.651 -1.522 4.171
-1.69 -1.584 4.351
-1.66 -1.581 4.354
-1.632 -1.581 4.361
-1.602 -1.578 4.363
-1.572 -1.576 4.364
-1.543 -1.575 4.369
-1.512 -1.571 4.368
-1.482 -1.569 4.367
-1.452 -1.566 4.368
-1.423 -1.565 4.371
-1.395 -1.563 4.375
-1.366 -1.561 4.377
-1.336 -1.558 4.374
-1.307 -1.556 4.375
-1.277 -1.553 4.374
-1.248 -1.55 4.372
-1.218 -1.547 4.368
-1.189 -1.544 4.367
-1.16 -1.541 4.365
-1.131 -1.538 4.362
-1.103 -1.536 4.361
-1.075 -1.536 4.364
-1.047 -1.533 4.363
-1.019 -1.532 4.364
-0.991 -1.53 4.363
-0.963 -1.528 4.361
-0.934 -1.524 4.355
-0.906 -1.522 4.353
-0.878 -1.519 4.35
-0.851 -1.517 4.347
-0.823 -1.514 4.343
-0.796 -1.513 4.343
-0.769 -1.512 4.344
-0.742 -1.511 4.345
-0.715 -1.509 4.343
-0.689 -1.508 4.344
-0.662 -1.508 4.347
-0.635 -1.506 4.343
-0.608 -1.503 4.339
-0.581 -1.502 4.338
-0.555 -1.501 4.336
-0.527 -1.497 4.329
-0.501 -1.496 4.327
-0.475 -1.497 4.33
-0.449 -1.496 4.331
-0.422 -1.494 4.327
-0.396 -1.494 4.328
-0.37 -1.493 4.326
-0.344 -1.491 4.322
-0.317 -1.488 4.315
-0.292 -1.488 4.317
-0.266 -1.488 4.317
-0.24 -1.487 4.315
-0.214 -1.486 4.313
-0.188 -1.485 4.312
-0.162 -1.484 4.309
-0.136 -1.482 4.303
-0.11 -1.481 4.301
-0.085 -1.48 4.297
-0.059 -1.48 4.298
-0.033 -1.479 4.293
-0.008 -1.479 4.293
0.017 -1.479 4.292
0.042 -1.478 4.291
0.068 -1.478 4.29
0.093 -1.478 4.289
0.119 -1.478 4.287
0.145 -1.477 4.285
0.17 -1.476 4.28
0.196 -1.476 4.28
0.221 -1.476 4.278
0.246 -1.475 4.274
0.272 -1.475 4.271
0.297 -1.476 4.272
0.323 -1.476 4.272
0.349 -1.476 4.269
0.374 -1.477 4.268
0.4 -1.477 4.268
0.425 -1.478 4.266
0.45 -1.476 4.26
0.476 -1.477 4.259
0.502 -1.478 4.26
0.528 -1.478 4.258
0.553 -1.479 4.256
0.579 -1.479 4.254
0.605 -1.48 4.254
0.63 -1.48 4.249
0.656 -1.48 4.247
0.681 -1.48 4.243
0.708 -1.482 4.243
0.733 -1.483 4.242
0.76 -1.484 4.242
0.785 -1.484 4.238
0.811 -1.485 4.235
0.837 -1.486 4.234
0.863 -1.485 4.228
0.889 -1.487 4.228
0.916 -1.49 4.23
0.944 -1.493 4.235
0.971 -1.495 4.235
0.998 -1.497 4.236
1.024 -1.497 4.229
1.05 -1.498 4.226
1.076 -1.498 4.22
1.102 -1.499 4.217
1.128 -1.499 4.21
1.155 -1.501 4.209
1.183 -1.503 4.209
1.21 -1.504 4.205
1.237 -1.506 4.203
1.266 -1.509 4.205
1.291 -1.509 4.198
1.318 -1.51 4.193
1.346 -1.512 4.191
1.372 -1.513 4.185
1.399 -1.514 4.18
1.429 -1.518 4.185
1.458 -1.521 4.183
1.486 -1.522 4.18
1.514 -1.525 4.177
1.542 -1.526 4.173
1.569 -1.527 4.166
1.597 -1.529 4.162
1.626 -1.532 4.16
1.654 -1.534 4.156
1.681 -1.534 4.148
1.709 -1.536 4.141
1.732 -1.533 4.125
1.754 -1.529 4.104
1.772 -1.522 4.074
1.792 -1.517 4.05
1.81 -1.511 4.022
1.828 -1.504 3.994
1.837 -1.491 3.947
0 0 0
0 0 0
0 0 0
0 0 0
0 0 0
0 0 0
1.786 -1.322 3.426
1.728 -1.263 3.262
1.72 -1.242 3.198
1.685 -1.202 3.084
1.693 -1.193 3.051
1.691 -1.178 3.001
1.686 -1.16 2.947
1.679 -1.142 2.889
1.675 -1.126 2.839
1.679 -1.116 2.803
1.655 -1.088 2.723
-2.366 -1.543 4.043
-0.064 -0.043 0.098
-0.875 -0.586 1.534
-0.87 -0.589 1.548
-0.95 -0.651 1.718
-0.936 -0.649 1.718
-0.922 -0.648 1.72
-0.909 -0.647 1.723
-0.897 -0.646 1.726
-0.883 -0.645 1.727
-0.872 -0.645 1.732
-0.86 -0.645 1.737
-0.849 -0.645 1.743
-0.916 -0.706 1.913
-0.902 -0.704 1.914
-0.967 -0.766 2.088
-1.031 -0.828 2.265
-1.171 -0.953 2.616
-1.306 -1.079 2.971
-1.434 -1.202 3.32
-1.485 -1.264 3.499
-1.605 -1.387 3.852
-1.65 -1.448 4.029
-1.621 -1.445 4.032
-1.664 -1.507 4.214
-1.702 -1.567 4.391
-1.67 -1.564 4.39
-1.64 -1.562 4.393
-1.609 -1.558 4.392
-1.578 -1.555 4.391
-1.549 -1.553 4.395
-1.518 -1.551 4.395
-1.488 -1.548 4.396
-1.458 -1.545 4.395
-1.429 -1.543 4.397
-1.4 -1.541 4.398
-1.37 -1.538 4.398
-1.339 -1.534 4.393
-1.31 -1.533 4.394
-1.28 -1.529 4.391
-1.25 -1.525 4.387
-1.22 -1.522 4.383
-1.19 -1.518 4.379
-1.161 -1.515 4.376
-1.131 -1.512 4.372
-1.102 -1.509 4.369
-1.075 -1.508 4.37
-1.047 -1.507 4.373
-1.019 -1.505 4.371
-0.991 -1.503 4.371
-0.964 -1.502 4.371
-0.935 -1.498 4.366
-0.907 -1.496 4.362
-0.878 -1.492 4.357
-0.85 -1.49 4.355
-0.823 -1.487 4.351
-0.795 -1.485 4.349
-0.768 -1.484 4.349
-0.742 -1.484 4.35
-0.714 -1.481 4.347
-0.687 -1.48 4.346
-0.661 -1.48 4.348
-0.634 -1.478 4.344
-0.607 -1.475 4.34
-0.58 -1.474 4.34
-0.554 -1.472 4.337
-0.526 -1.469 4.33
-0.5 -1.468 4.329
-0.474 -1.468 4.329
-0.448 -1.467 4.329
-0.421 -1.466 4.327
-0.395 -1.465 4.328
-0.369 -1.464 4.326
-0.343 -1.463 4.325
-0.317 -1.461 4.318
-0.291 -1.461 4.32
-0.265 -1.461 4.32
-0.239 -1.46 4.318
-0.213 -1.459 4.317
-0.188 -1.458 4.315
-0.162 -1.457 4.312
-0.136 -1.455 4.306
-0.11 -1.454 4.304
-0.084 -1.452 4.299
-0.059 -1.452 4.298
-0.033 -1.451 4.293
-0.008 -1.451 4.293
0.017 -1.45 4.291
0.042 -1.45 4.289
0.068 -1.45 4.29
0.094 -1.45 4.291
0.119 -1.45 4.29
0.145 -1.451 4.289
0.17 -1.45 4.286
0.195 -1.449 4.283
0.221 -1.449 4.281
0.246 -1.448 4.276
0.272 -1.448 4.273
0.297 -1.448 4.274
0.323 -1.45 4.276
0.348 -1.449 4.273
0.374 -1.45 4.271
0.4 -1.45 4.271
0.425 -1.45 4.268
0.45 -1.449 4.261
0.476 -1.45 4.262
0.502 -1.451 4.264
0.527 -1.451 4.261
0.553 -1.452 4.259
0.578 -1.452 4.257
0.604 -1.453 4.257
0.63 -1.453 4.254
0.655 -1.453 4.25
0.681 -1.454 4.247
0.707 -1.454 4.244
0.732 -1.454 4.241
0.758 -1.455 4.239
0.784 -1.455 4.237
0.809 -1.456 4.233
0.836 -1.457 4.233
0.862 -1.457 4.228
0.888 -1.459 4.23
0.915 -1.461 4.231
0.943 -1.465 4.237
0.97 -1.467 4.236
0.997 -1.469 4.236
1.023 -1.469 4.231
1.049 -1.47 4.228
1.075 -1.47 4.222
1.101 -1.471 4.219
1.127 -1.471 4.213
1.154 -1.472 4.21
1.181 -1.475 4.211
1.208 -1.476 4.208
1.236 -1.478 4.207
1.264 -1.481 4.209
1.291 -1.482 4.203
1.317 -1.483 4.198
1.345 -1.485 4.197
1.372 -1.486 4.192
1.399 -1.487 4.188
1.429 -1.491 4.191
1.457 -1.493 4.188
1.484 -1.494 4.182
1.512 -1.496 4.18
1.54 -1.498 4.176
1.566 -1.499 4.168
1.595 -1.501 4.165
1.624 -1.504 4.164
1.652 -1.506 4.16
1.68 -1.507 4.153
1.709 -1.509 4.149
1.734 -1.508 4.136
1.756 -1.504 4.116
1.777 -1.5 4.095
1.799 -1.497 4.074
1.817 -1.49 4.045
1.835 -1.484 4.019
0 0 0
0 0 0
0 0 0
0 0 0
0 0 0
0 0 0
0 0 0
1.386 -1.008 2.662
1.545 -1.11 2.922
1.601 -1.136 2.983
1.684 -1.18 3.089
1.692 -1.172 3.056
1.694 -1.159 3.012
1.689 -1.142 2.958
1.682 -1.124 2.901
1.676 -1.108 2.848
1.67 -1.091 2.795
1.683 -1.087 2.775
-0.065 -0.043 0.1
-0.044 -0.03 0.063
-0.437 -0.288 0.76
-0.432 -0.288 0.764
-0.519 -0.35 0.934
-0.506 -0.345 0.925
-0.499 -0.345 0.927
-0.49 -0.343 0.924
-0.484 -0.343 0.927
-0.471 -0.338 0.917
-0.462 -0.336 0.914
-0.455 -0.335 0.914
-0.449 -0.336 0.917
-0.521 -0.394 1.083
-0.511 -0.393 1.082
-0.661 -0.514 1.425
-0.807 -0.636 1.772
-0.947 -0.757 2.118
-1.16 -0.941 2.642
-1.366 -1.125 3.169
-1.418 -1.186 3.349
-1.539 -1.306 3.699
-1.657 -1.428 4.055
-1.628 -1.425 4.056
-1.668 -1.484 4.234
-1.706 -1.543 4.41
-1.673 -1.539 4.407
-1.643 -1.536 4.408
-1.611 -1.532 4.405
-1.581 -1.53 4.407
-1.55 -1.527 4.409
-1.521 -1.526 4.412
-1.491 -1.523 4.412
-1.46 -1.52 4.409
-1.429 -1.516 4.407
-1.4 -1.514 4.408
-1.369 -1.511 4.405
-1.338 -1.507 4.4
-1.309 -1.505 4.4
-1.279 -1.502 4.398
-1.248 -1.497 4.39
-1.218 -1.494 4.387
-1.189 -1.49 4.382
-1.16 -1.488 4.381
-1.131 -1.485 4.377
-1.102 -1.482 4.376
-1.074 -1.48 4.376
-1.046 -1.479 4.376
-1.018 -1.477 4.375
-0.99 -1.475 4.375
-0.962 -1.474 4.375
-0.934 -1.471 4.371
-0.905 -1.467 4.365
-0.878 -1.465 4.362
-0.85 -1.462 4.358
-0.822 -1.46 4.356
-0.794 -1.458 4.352
-0.768 -1.457 4.353
-0.74 -1.454 4.347
-0.713 -1.452 4.345
-0.686 -1.45 4.343
-0.659 -1.449 4.343
-0.632 -1.448 4.34
-0.606 -1.447 4.34
-0.58 -1.447 4.343
-0.553 -1.445 4.339
-0.526 -1.443 4.337
-0.5 -1.443 4.338
-0.474 -1.441 4.335
-0.447 -1.439 4.329
-0.421 -1.438 4.328
-0.394 -1.436 4.325
-0.368 -1.435 4.323
-0.343 -1.435 4.325
-0.316 -1.433 4.321
-0.291 -1.434 4.323
-0.265 -1.433 4.323
-0.239 -1.432 4.321
-0.213 -1.431 4.319
-0.187 -1.431 4.317
-0.161 -1.43 4.314
-0.136 -1.428 4.311
-0.11 -1.427 4.306
-0.084 -1.426 4.303
-0.059 -1.426 4.303
-0.033 -1.426 4.304
-0.008 -1.426 4.305
0.017 -1.426 4.304
0.043 -1.426 4.302
0.068 -1.426 4.303
0.094 -1.425 4.297
0.119 -1.425 4.297
0.145 -1.425 4.295
0.17 -1.424 4.293
0.196 -1.424 4.29
0.221 -1.423 4.288
0.246 -1.422 4.283
0.272 -1.422 4.281
0.297 -1.423 4.281
0.323 -1.424 4.282
0.348 -1.423 4.278
0.374 -1.423 4.275
0.399 -1.424 4.276
0.425 -1.424 4.274
0.45 -1.422 4.266
0.476 -1.424 4.268
0.502 -1.426 4.272
0.527 -1.425 4.267
0.553 -1.426 4.265
0.579 -1.426 4.264
0.604 -1.427 4.262
0.629 -1.426 4.257
0.655 -1.427 4.255
0.681 -1.427 4.252
0.706 -1.427 4.248
0.732 -1.428 4.246
0.758 -1.428 4.243
0.784 -1.429 4.243
0.811 -1.432 4.245
0.837 -1.433 4.245
0.862 -1.433 4.24
0.889 -1.435 4.24
0.916 -1.436 4.239
0.942 -1.438 4.239
0.969 -1.439 4.237
0.995 -1.441 4.237
1.021 -1.441 4.232
1.048 -1.442 4.23
1.074 -1.443 4.225
1.1 -1.443 4.222
1.126 -1.444 4.216
1.152 -1.445 4.212
1.179 -1.446 4.211
1.207 -1.448 4.209
1.234 -1.45 4.208
1.262 -1.453 4.21
1.289 -1.454 4.204
1.316 -1.455 4.201
1.343 -1.457 4.199
1.371 -1.458 4.196
1.398 -1.46 4.192
1.427 -1.463 4.193
1.454 -1.464 4.189
1.481 -1.465 4.182
1.51 -1.468 4.181
1.537 -1.469 4.176
1.565 -1.471 4.172
1.594 -1.473 4.169
1.623 -1.476 4.17
1.652 -1.478 4.165
1.679 -1.479 4.159
1.708 -1.481 4.155
1.734 -1.482 4.146
1.757 -1.479 4.127
1.78 -1.476 4.109
1.804 -1.475 4.095
1.822 -1.468 4.065
1.839 -1.46 4.034
0 0 0
0 0 0
0 0 0
0 0 0
0 0 0
0 0 0
0 0 0
0 0 0
1.513 -1.068 2.869
1.593 -1.11 2.973
1.688 -1.162 3.102
1.694 -1.152 3.066
1.696 -1.14 3.023
1.692 -1.124 2.971
1.684 -1.106 2.912
1.677 -1.088 2.855
1.68 -1.078 2.818
1.638 -1.04 2.707
-0.049 -0.032 0.071
-0.073 -0.048 0.115
-0.181 -0.118 0.309
-0.088 -0.059 0.146
-0.088 -0.06 0.149
-0.078 -0.053 0.131
-0.075 -0.052 0.128
-0.068 -0.048 0.118
-0.065 -0.047 0.114
-0.141 -0.1 0.265
-0.135 -0.097 0.258
-0.129 -0.094 0.25
-0.126 -0.093 0.248
-0.199 -0.149 0.408
-0.112 -0.085 0.226
-0.266 -0.204 0.567
-0.417 -0.324 0.911
-0.64 -0.503 1.43
-0.934 -0.744 2.129
-1.219 -0.986 2.834
-1.348 -1.107 3.189
-1.543 -1.286 3.717
-1.661 -1.406 4.073
-1.632 -1.403 4.075
-1.672 -1.461 4.253
-1.709 -1.518 4.427
-1.676 -1.513 4.424
-1.645 -1.511 4.424
-1.612 -1.505 4.417
-1.581 -1.502 4.416
-1.55 -1.5 4.416
-1.521 -1.498 4.42
-1.49 -1.494 4.417
-1.459 -1.491 4.414
-1.428 -1.488 4.413
-1.399 -1.486 4.413
-1.367 -1.482 4.407
-1.337 -1.478 4.405
-1.308 -1.476 4.405
-1.277 -1.472 4.4
-1.246 -1.468 4.392
-1.217 -1.465 4.389
-1.187 -1.461 4.384
-1.159 -1.459 4.384
-1.13 -1.457 4.384
-1.102 -1.455 4.383
-1.073 -1.453 4.38
-1.045 -1.451 4.38
-1.017 -1.449 4.38
-0.989 -1.447 4.378
-0.961 -1.445 4.376
-0.933 -1.443 4.375
-0.905 -1.44 4.369
-0.876 -1.436 4.363
-0.848 -1.434 4.361
-0.821 -1.432 4.359
-0.794 -1.431 4.358
-0.767 -1.43 4.359
-0.74 -1.428 4.355
-0.712 -1.425 4.351
-0.685 -1.424 4.349
-0.658 -1.421 4.343
-0.631 -1.42 4.343
-0.605 -1.42 4.346
-0.58 -1.421 4.351
-0.553 -1.419 4.348
-0.526 -1.418 4.346
-0.5 -1.417 4.345
-0.473 -1.415 4.342
-0.447 -1.412 4.334
-0.42 -1.41 4.331
-0.394 -1.408 4.327
-0.368 -1.407 4.324
-0.342 -1.406 4.322
-0.316 -1.405 4.32
-0.29 -1.406 4.324
-0.264 -1.406 4.326
-0.239 -1.405 4.324
-0.213 -1.404 4.321
-0.187 -1.403 4.319
-0.161 -1.401 4.313
-0.135 -1.399 4.306
-0.109 -1.397 4.302
-0.084 -1.397 4.302
-0.058 -1.397 4.3
-0.033 -1.398 4.305
-0.007 -1.4 4.311
0.017 -1.4 4.31
0.043 -1.399 4.306
0.068 -1.4 4.308
0.094 -1.398 4.3
0.119 -1.397 4.298
0.145 -1.398 4.298
0.17 -1.398 4.297
0.196 -1.397 4.293
0.221 -1.396 4.29
0.246 -1.396 4.286
0.272 -1.395 4.284
0.297 -1.396 4.284
0.323 -1.398 4.288
0.349 -1.397 4.285
0.374 -1.398 4.285
0.4 -1.399 4.284
0.425 -1.399 4.282
0.45 -1.396 4.271
0.476 -1.398 4.274
0.502 -1.399 4.276
0.527 -1.399 4.271
0.552 -1.399 4.268
0.578 -1.4 4.269
0.604 -1.399 4.264
0.629 -1.399 4.258
0.654 -1.399 4.256
0.68 -1.4 4.255
0.705 -1.4 4.25
0.731 -1.401 4.249
0.757 -1.401 4.247
0.784 -1.403 4.247
0.81 -1.405 4.25
0.837 -1.407 4.251
0.862 -1.407 4.246
0.889 -1.409 4.246
0.915 -1.409 4.244
0.941 -1.41 4.242
0.968 -1.412 4.241
0.994 -1.413 4.238
1.02 -1.413 4.234
1.047 -1.414 4.232
1.072 -1.414 4.226
1.098 -1.415 4.222
1.125 -1.416 4.219
1.151 -1.417 4.215
1.178 -1.419 4.214
1.206 -1.421 4.213
1.233 -1.423 4.212
1.261 -1.425 4.211
1.287 -1.425 4.205
1.315 -1.427 4.204
1.342 -1.429 4.201
1.368 -1.43 4.196
1.396 -1.432 4.194
1.425 -1.435 4.195
1.452 -1.435 4.188
1.478 -1.436 4.181
1.507 -1.438 4.18
1.534 -1.44 4.176
1.563 -1.442 4.175
1.592 -1.445 4.173
1.622 -1.448 4.173
1.65 -1.45 4.169
1.678 -1.452 4.164
1.706 -1.453 4.159
1.733 -1.454 4.151
1.759 -1.454 4.139
1.786 -1.454 4.131
1.813 -1.455 4.122
1.834 -1.45 4.099
0 0 0
0 0 0
0 0 0
0 0 0
0 0 0
0 0 0
0 0 0
0 0 0
0 0 0
1.449 -1.005 2.753
1.576 -1.078 2.947
1.69 -1.142 3.112
1.692 -1.13 3.068
1.697 -1.12 3.03
1.693 -1.105 2.979
1.685 -1.086 2.919
1.675 -1.068 2.859
1.69 -1.065 2.842
1.641 -1.023 2.718
-0.189 -0.118 0.314
-0.131 -0.083 0.216
-0.111 -0.072 0.185
-0.106 -0.069 0.179
-0.108 -0.072 0.186
-0.096 -0.064 0.166
-0.091 -0.062 0.16
-0.082 -0.057 0.145
-0.079 -0.055 0.14
-0.066 -0.047 0.118
-0.059 -0.043 0.106
-0.053 -0.039 0.096
-0.049 -0.037 0.089
-0.04 -0.031 0.072
-0.033 -0.026 0.059
-0.108 -0.082 0.224
-0.181 -0.139 0.389
-0.407 -0.315 0.907
-0.781 -0.611 1.782
-1.07 -0.849 2.489
-1.348 -1.087 3.196
-1.618 -1.323 3.905
-1.734 -1.441 4.262
-1.704 -1.438 4.263
-1.742 -1.494 4.44
-1.709 -1.49 4.436
-1.676 -1.485 4.431
-1.644 -1.482 4.43
-1.611 -1.477 4.424
-1.579 -1.474 4.422
-1.549 -1.471 4.422
-1.52 -1.469 4.425
-1.488 -1.466 4.421
-1.456 -1.461 4.415
-1.425 -1.457 4.411
-1.395 -1.455 4.409
-1.364 -1.451 4.404
-1.334 -1.448 4.403
-1.306 -1.447 4.405
-1.276 -1.444 4.403
-1.245 -1.439 4.395
-1.215 -1.436 4.392
-1.185 -1.432 4.385
-1.157 -1.43 4.386
-1.128 -1.428 4.384
-1.101 -1.427 4.387
-1.073 -1.425 4.386
-1.044 -1.424 4.386
-1.017 -1.422 4.386
-0.988 -1.42 4.384
-0.96 -1.417 4.38
-0.932 -1.416 4.379
-0.905 -1.414 4.378
-0.876 -1.41 4.37
-0.848 -1.408 4.369
-0.821 -1.406 4.366
-0.794 -1.405 4.365
-0.767 -1.404 4.365
-0.739 -1.401 4.359
-0.711 -1.398 4.354
-0.684 -1.396 4.352
-0.657 -1.393 4.345
-0.63 -1.392 4.344
-0.605 -1.394 4.352
-0.579 -1.395 4.358
-0.553 -1.393 4.355
-0.526 -1.392 4.354
-0.5 -1.392 4.355
-0.473 -1.388 4.347
-0.446 -1.384 4.335
-0.419 -1.382 4.33
-0.393 -1.379 4.322
-0.367 -1.378 4.32
-0.341 -1.378 4.321
-0.315 -1.377 4.319
-0.289 -1.378 4.324
-0.264 -1.379 4.328
-0.238 -1.378 4.326
-0.212 -1.377 4.324
-0.187 -1.377 4.324
-0.161 -1.375 4.317
-0.135 -1.371 4.306
-0.109 -1.37 4.303
-0.084 -1.37 4.304
-0.058 -1.368 4.298
-0.033 -1.371 4.306
-0.007 -1.374 4.316
0.017 -1.375 4.317
0.043 -1.372 4.308
0.068 -1.374 4.313
0.094 -1.37 4.3
0.119 -1.371 4.301
0.145 -1.371 4.3
0.17 -1.372 4.304
0.196 -1.37 4.297
0.221 -1.37 4.295
0.246 -1.369 4.291
0.272 -1.369 4.287
0.297 -1.369 4.285
0.323 -1.37 4.289
0.348 -1.371 4.288
0.374 -1.372 4.288
0.4 -1.373 4.289
0.425 -1.372 4.285
0.45 -1.37 4.277
0.476 -1.371 4.278
0.502 -1.373 4.281
0.527 -1.373 4.278
0.553 -1.374 4.277
0.579 -1.375 4.277
0.604 -1.374 4.271
0.629 -1.373 4.265
0.654 -1.373 4.26
0.68 -1.373 4.257
0.704 -1.372 4.249
0.73 -1.373 4.249
0.756 -1.373 4.245
0.782 -1.375 4.246
0.81 -1.378 4.253
0.836 -1.38 4.254
0.862 -1.38 4.25
0.888 -1.381 4.249
0.914 -1.382 4.246
0.94 -1.382 4.24
0.966 -1.383 4.239
0.992 -1.384 4.237
1.018 -1.385 4.233
1.045 -1.386 4.231
1.071 -1.386 4.226
1.096 -1.386 4.219
1.122 -1.387 4.215
1.149 -1.388 4.212
1.175 -1.389 4.209
1.203 -1.392 4.211
1.231 -1.394 4.212
1.259 -1.396 4.212
1.285 -1.397 4.207
1.313 -1.4 4.207
1.341 -1.401 4.205
1.367 -1.402 4.2
1.394 -1.404 4.196
1.422 -1.406 4.194
1.449 -1.406 4.187
1.475 -1.407 4.18
1.504 -1.409 4.18
1.532 -1.412 4.178
1.561 -1.414 4.177
1.59 -1.416 4.174
1.618 -1.419 4.172
1.647 -1.421 4.168
1.675 -1.422 4.164
1.704 -1.425 4.161
1.732 -1.427 4.156
1.76 -1.428 4.149
1.788 -1.429 4.144
1.818 -1.432 4.141
0 0 0
0 0 0
0 0 0
0 0 0
0 0 0
0 0 0
0 0 0
0 0 0
0 0 0
0 0 0
1.263 -0.86 2.402
1.502 -1.009 2.814
1.688 -1.12 3.115
1.692 -1.11 3.075
1.699 -1.101 3.04
1.695 -1.086 2.988
1.687 -1.068 2.929
1.677 -1.049 2.868
1.673 -1.035 2.819
1.659 -1.015 2.754
-0.112 -0.069 0.181
-0.153 -0.095 0.257
-0.129 -0.081 0.217
-0.123 -0.078 0.209
-0.123 -0.079 0.213
-0.11 -0.072 0.192
-0.105 -0.07 0.185
-0.095 -0.064 0.169
-0.088 -0.06 0.159
-0.074 -0.052 0.135
-0.068 -0.048 0.124
-0.058 -0.042 0.107
-0.051 -0.037 0.094
-0.042 -0.031 0.076
-0.034 -0.026 0.059
-0.186 -0.138 0.395
-0.337 -0.252 0.737
-0.561 -0.425 1.256
-0.932 -0.715 2.133
-1.219 -0.95 2.845
-1.422 -1.125 3.379
-1.617 -1.298 3.911
-1.734 -1.414 4.271
-1.704 -1.411 4.272
-1.741 -1.465 4.446
-1.707 -1.461 4.441
-1.675 -1.457 4.438
-1.643 -1.453 4.434
-1.61 -1.449 4.429
-1.578 -1.445 4.426
-1.548 -1.442 4.426
-1.518 -1.44 4.428
-1.487 -1.437 4.425
-1.454 -1.432 4.418
-1.424 -1.429 4.417
-1.394 -1.427 4.415
-1.363 -1.423 4.409
-1.334 -1.421 4.41
-1.305 -1.419 4.413
-1.276 -1.417 4.41
-1.245 -1.412 4.402
-1.215 -1.409 4.399
-1.184 -1.404 4.39
-1.156 -1.403 4.391
-1.127 -1.4 4.388
-1.1 -1.4 4.392
-1.072 -1.398 4.392
-1.044 -1.397 4.392
-1.016 -1.395 4.393
-0.988 -1.393 4.392
-0.96 -1.391 4.388
-0.933 -1.39 4.39
-0.905 -1.388 4.388
-0.876 -1.384 4.377
-0.848 -1.382 4.375
-0.82 -1.379 4.371
-0.793 -1.378 4.371
-0.766 -1.377 4.37
-0.739 -1.374 4.365
-0.711 -1.372 4.36
-0.684 -1.37 4.359
-0.656 -1.365 4.345
-0.629 -1.363 4.343
-0.604 -1.366 4.353
-0.579 -1.368 4.362
-0.552 -1.366 4.357
-0.526 -1.366 4.36
-0.5 -1.367 4.365
-0.473 -1.363 4.355
-0.445 -1.355 4.331
-0.418 -1.352 4.325
-0.392 -1.35 4.319
-0.366 -1.349 4.316
-0.34 -1.349 4.317
-0.314 -1.349 4.32
-0.289 -1.35 4.325
-0.263 -1.35 4.326
-0.237 -1.349 4.323
-0.212 -1.349 4.322
-0.186 -1.349 4.323
-0.16 -1.346 4.314
-0.134 -1.343 4.305
-0.109 -1.342 4.303
-0.083 -1.343 4.305
-0.058 -1.34 4.297
-0.032 -1.344 4.307
-0.007 -1.35 4.325
0.018 -1.35 4.326
0.043 -1.346 4.314
0.069 -1.348 4.32
0.094 -1.343 4.301
0.119 -1.346 4.31
0.145 -1.346 4.31
0.171 -1.347 4.313
0.196 -1.344 4.301
0.221 -1.344 4.299
0.247 -1.344 4.298
0.272 -1.344 4.297
0.297 -1.344 4.293
0.323 -1.346 4.301
0.349 -1.348 4.303
0.374 -1.347 4.298
0.4 -1.347 4.296
0.425 -1.346 4.291
0.45 -1.344 4.282
0.475 -1.344 4.278
0.501 -1.346 4.282
0.527 -1.346 4.28
0.552 -1.345 4.275
0.578 -1.347 4.276
0.603 -1.347 4.272
0.628 -1.345 4.265
0.654 -1.346 4.262
0.681 -1.349 4.27
0.705 -1.347 4.26
0.731 -1.348 4.257
0.756 -1.347 4.253
0.783 -1.35 4.256
0.812 -1.356 4.27
0.838 -1.357 4.27
0.865 -1.358 4.269
0.89 -1.358 4.262
0.915 -1.357 4.254
0.939 -1.355 4.242
0.964 -1.355 4.238
0.99 -1.355 4.234
1.016 -1.356 4.231
1.043 -1.357 4.23
1.068 -1.358 4.224
1.094 -1.357 4.217
1.12 -1.358 4.214
1.146 -1.359 4.21
1.173 -1.36 4.208
1.201 -1.363 4.211
1.229 -1.366 4.212
1.256 -1.368 4.211
1.284 -1.369 4.209
1.311 -1.371 4.206
1.338 -1.373 4.205
1.365 -1.374 4.199
1.392 -1.375 4.197
1.419 -1.376 4.192
1.446 -1.377 4.186
1.473 -1.378 4.181
1.502 -1.381 4.182
1.53 -1.383 4.178
1.559 -1.386 4.178
1.587 -1.388 4.175
1.615 -1.389 4.171
1.643 -1.391 4.166
1.672 -1.394 4.164
1.701 -1.396 4.163
1.73 -1.398 4.157
1.758 -1.4 4.154
1.788 -1.403 4.152
0 0 0
0 0 0
0 0 0
0 0 0
0 0 0
0 0 0
0 0 0
0 0 0
0 0 0
0 0 0
0 0 0
0 0 0
1.468 -0.969 2.757
1.68 -1.094 3.106
1.687 -1.086 3.072
1.696 -1.078 3.041
1.696 -1.066 2.995
1.691 -1.05 2.941
1.682 -1.033 2.883
1.695 -1.03 2.862
1.659 -0.996 2.759
-0.16 -0.096 0.264
-0.136 -0.084 0.227
-0.144 -0.089 0.244
-0.133 -0.084 0.229
-0.131 -0.083 0.228
-0.116 -0.075 0.204
-0.107 -0.07 0.19
-0.096 -0.063 0.172
-0.089 -0.06 0.162
-0.075 -0.051 0.137
-0.067 -0.046 0.122
-0.057 -0.041 0.105
-0.049 -0.035 0.089
-0.039 -0.029 0.07
-0.113 -0.081 0.23
-0.266 -0.193 0.57
-0.492 -0.361 1.085
-0.715 -0.531 1.609
-1.007 -0.758 2.31
-1.293 -0.988 3.024
-1.495 -1.159 3.558
-1.615 -1.272 3.915
-1.732 -1.385 4.274
-1.772 -1.44 4.453
-1.738 -1.435 4.446
-1.705 -1.431 4.444
-1.673 -1.428 4.441
-1.641 -1.424 4.439
-1.608 -1.42 4.433
-1.578 -1.417 4.433
-1.547 -1.414 4.432
-1.517 -1.412 4.433
-1.484 -1.407 4.426
-1.453 -1.403 4.421
-1.422 -1.4 4.418
-1.392 -1.397 4.416
-1.36 -1.392 4.408
-1.331 -1.391 4.409
-1.303 -1.39 4.413
-1.274 -1.388 4.413
-1.244 -1.384 4.406
-1.214 -1.381 4.403
-1.183 -1.377 4.395
-1.156 -1.376 4.397
-1.126 -1.373 4.392
-1.099 -1.372 4.397
-1.071 -1.37 4.396
-1.043 -1.369 4.396
-1.016 -1.368 4.398
-0.987 -1.365 4.394
-0.958 -1.362 4.388
-0.931 -1.362 4.39
-0.904 -1.36 4.39
-0.874 -1.355 4.377
-0.847 -1.354 4.377
-0.819 -1.351 4.371
-0.793 -1.351 4.375
-0.766 -1.349 4.373
-0.738 -1.346 4.367
-0.71 -1.344 4.362
-0.684 -1.344 4.367
-0.654 -1.336 4.342
-0.627 -1.334 4.34
-0.604 -1.339 4.357
-0.579 -1.342 4.369
-0.552 -1.34 4.366
-0.526 -1.341 4.371
-0.501 -1.344 4.381
-0.473 -1.338 4.366
-0.444 -1.327 4.329
-0.417 -1.323 4.32
-0.391 -1.322 4.318
-0.365 -1.321 4.317
-0.339 -1.322 4.319
-0.314 -1.322 4.323
-0.289 -1.324 4.328
-0.263 -1.323 4.327
-0.237 -1.322 4.325
-0.211 -1.322 4.324
-0.186 -1.321 4.323
-0.16 -1.318 4.312
-0.134 -1.315 4.305
-0.109 -1.315 4.303
-0.083 -1.315 4.303
-0.058 -1.312 4.292
-0.032 -1.318 4.312
0 0 0
0 0 0
0 0 0
0 0 0
0 0 0
0 0 0
0 0 0
0 0 0
0 0 0
0 0 0
0 0 0
0 0 0
0 0 0
0 0 0
0 0 0
0 0 0
0 0 0
0 0 0
0 0 0
0 0 0
0 0 0
0 0 0
0 0 0
0 0 0
0 0 0
0 0 0
0 0 0
0 0 0
0 0 0
0 0 0
0 0 0
0 0 0
0 0 0
0 0 0
0.869 -1.34 4.299
0.891 -1.333 4.273
0.914 -1.33 4.26
0.938 -1.328 4.245
0.964 -1.328 4.241
0.989 -1.328 4.237
1.015 -1.329 4.234
1.042 -1.33 4.233
1.067 -1.33 4.227
1.093 -1.33 4.221
1.119 -1.331 4.216
1.145 -1.332 4.213
1.171 -1.332 4.208
1.199 -1.335 4.209
1.226 -1.337 4.21
1.254 -1.339 4.208
1.28 -1.34 4.204
1.308 -1.342 4.205
1.336 -1.344 4.203
1.362 -1.344 4.196
1.39 -1.346 4.195
1.417 -1.348 4.192
1.444 -1.349 4.186
1.471 -1.35 4.183
1.5 -1.353 4.182
1.526 -1.353 4.175
1.556 -1.357 4.177
1.584 -1.359 4.174
1.612 -1.36 4.17
1.641 -1.363 4.168
1.67 -1.365 4.166
1.699 -1.367 4.163
1.727 -1.369 4.159
1.755 -1.371 4.153
1.784 -1.373 4.15
0 0 0
0 0 0
0 0 0
0 0 0
0 0 0
0 0 0
0 0 0
0 0 0
0 0 0
0 0 0
0 0 0
0 0 0
1.672 -1.082 3.147
1.681 -1.074 3.115
1.687 -1.065 3.078
1.695 -1.058 3.046
1.695 -1.045 3
1.689 -1.029 2.944
1.681 -1.013 2.887
1.663 -0.991 2.814
1.66 -0.978 2.767
-0.189 -0.112 0.316
-0.127 -0.076 0.212
-0.148 -0.089 0.251
-0.137 -0.084 0.237
-0.133 -0.083 0.233
-0.119 -0.075 0.21
-0.109 -0.07 0.194
-0.096 -0.062 0.172
-0.086 -0.057 0.155
-0.074 -0.05 0.135
-0.066 -0.045 0.12
-0.055 -0.038 0.1
-0.046 -0.032 0.083
-0.037 -0.027 0.066
-0.11 -0.078 0.224
-0.183 -0.131 0.39
-0.412 -0.296 0.908
-0.713 -0.52 1.609
-1.007 -0.743 2.315
-1.292 -0.968 3.028
-1.568 -1.192 3.74
-1.687 -1.302 4.096
-1.73 -1.357 4.278
-1.77 -1.41 4.456
-1.736 -1.406 4.45
-1.703 -1.401 4.445
-1.671 -1.398 4.443
-1.639 -1.394 4.44
-1.606 -1.39 4.436
-1.574 -1.387 4.432
-1.544 -1.384 4.432
-1.514 -1.382 4.432
-1.481 -1.377 4.425
-1.45 -1.374 4.421
-1.421 -1.372 4.422
-1.391 -1.369 4.421
-1.359 -1.365 4.413
-1.33 -1.362 4.412
-1.303 -1.363 4.419
-1.274 -1.361 4.42
-1.244 -1.358 4.416
-1.214 -1.354 4.409
-1.183 -1.349 4.4
-1.155 -1.348 4.401
-1.125 -1.345 4.395
-1.098 -1.344 4.398
-1.07 -1.342 4.398
-1.043 -1.342 4.402
-1.015 -1.341 4.404
-0.986 -1.338 4.397
-0.957 -1.335 4.391
-0.932 -1.336 4.401
-0.905 -1.336 4.404
-0.874 -1.328 4.383
-0.848 -1.329 4.388
-0.818 -1.324 4.375
-0.793 -1.326 4.386
-0.766 -1.324 4.383
0 0 0
0 0 0
0 0 0
0 0 0
0 0 0
0 0 0
0 0 0
0 0 0
0 0 0
0 0 0
0 0 0
-0.441 -1.294 4.313
-0.415 -1.293 4.313
-0.39 -1.294 4.318
-0.365 -1.295 4.322
-0.339 -1.295 4.321
-0.313 -1.295 4.324
-0.288 -1.296 4.328
-0.262 -1.296 4.328
-0.237 -1.295 4.326
-0.211 -1.295 4.327
-0.185 -1.295 4.326
-0.16 -1.292 4.317
-0.134 -1.288 4.305
-0.108 -1.287 4.301
-0.083 -1.285 4.294
-0.057 -1.28 4.278
-0.032 -1.275 4.262
0 0 0
0 0 0
0 0 0
0 0 0
0 0 0
0 0 0
0 0 0
0 0 0
0 0 0
0 0 0
0 0 0
0 0 0
0 0 0
0 0 0
0 0 0
0 0 0
0 0 0
0 0 0
0 0 0
0 0 0
0 0 0
0 0 0
0 0 0
0 0 0
0 0 0
0 0 0
0 0 0
0 0 0
0 0 0
0 0 0
0 0 0
0 0 0
0 0 0
0 0 0
0 0 0
0.886 -1.3 4.255
0.911 -1.3 4.25
0.936 -1.299 4.244
0.962 -1.3 4.239
0.988 -1.3 4.236
1.014 -1.301 4.232
1.04 -1.302 4.23
1.066 -1.303 4.227
1.092 -1.303 4.222
1.118 -1.304 4.218
1.144 -1.305 4.216
1.17 -1.305 4.211
1.197 -1.307 4.209
1.225 -1.309 4.21
1.251 -1.31 4.207
1.278 -1.311 4.202
1.305 -1.313 4.202
1.333 -1.315 4.2
1.359 -1.315 4.194
1.387 -1.317 4.193
1.414 -1.319 4.191
1.441 -1.321 4.187
1.469 -1.322 4.185
1.497 -1.325 4.183
1.524 -1.325 4.175
1.552 -1.327 4.173
1.579 -1.328 4.168
1.607 -1.33 4.164
1.636 -1.332 4.163
1.666 -1.335 4.163
1.696 -1.338 4.163
1.724 -1.341 4.159
1.752 -1.342 4.152
1.78 -1.344 4.148
1.817 -1.351 4.161
0 0 0
0 0 0
0 0 0
0 0 0
0 0 0
0 0 0
0 0 0
0 0 0
0 0 0
0 0 0
0 0 0
1.672 -1.061 3.153
1.681 -1.054 3.121
1.687 -1.045 3.085
1.696 -1.038 3.054
1.697 -1.026 3.009
1.691 -1.011 2.954
1.685 -0.995 2.899
1.701 -0.994 2.884
1.691 -0.977 2.824
-0.171 -0.099 0.286
-0.137 -0.081 0.23
-0.148 -0.088 0.253
-0.136 -0.082 0.235
-0.127 -0.077 0.221
-0.114 -0.071 0.201
-0.105 -0.066 0.187
-0.092 -0.059 0.165
-0.083 -0.054 0.15
-0.073 -0.048 0.133
-0.063 -0.042 0.116
-0.052 -0.036 0.095
-0.044 -0.03 0.079
-0.117 -0.08 0.237
-0.191 -0.132 0.4
-0.263 -0.184 0.567
-0.57 -0.401 1.263
-0.791 -0.565 1.789
-1.005 -0.728 2.317
-1.29 -0.947 3.027
-1.565 -1.167 3.741
-1.611 -1.219 3.918
-1.726 -1.327 4.276
-1.766 -1.379 4.453
-1.732 -1.374 4.447
-1.699 -1.37 4.442
-1.667 -1.367 4.442
-1.635 -1.363 4.437
-1.604 -1.361 4.437
-1.572 -1.357 4.434
-1.542 -1.355 4.433
-1.511 -1.352 4.432
-1.481 -1.349 4.431
-1.45 -1.346 4.428
-1.42 -1.344 4.428
-1.39 -1.341 4.426
-1.358 -1.337 4.417
-1.327 -1.332 4.41
-1.3 -1.333 4.418
-1.275 -1.335 4.432
-1.246 -1.333 4.429
-1.214 -1.327 4.417
-1.183 -1.323 4.407
-1.155 -1.322 4.41
-1.124 -1.316 4.398
-1.097 -1.316 4.401
0 0 0
0 0 0
0 0 0
0 0 0
0 0 0
0 0 0
0 0 0
0 0 0
0 0 0
0 0 0
0 0 0
0 0 0
0 0 0
0 0 0
0 0 0
0 0 0
0 0 0
0 0 0
0 0 0
0 0 0
0 0 0
0 0 0
0 0 0
-0.44 -1.265 4.308
-0.414 -1.266 4.311
-0.39 -1.268 4.32
-0.364 -1.269 4.325
-0.338 -1.268 4.324
-0.313 -1.269 4.327
-0.288 -1.269 4.329
-0.262 -1.268 4.326
-0.236 -1.266 4.322
-0.211 -1.267 4.324
-0.185 -1.266 4.323
-0.159 -1.264 4.315
-0.133 -1.262 4.307
-0.108 -1.261 4.306
-0.083 -1.259 4.3
-0.057 -1.256 4.287
-0.032 -1.255 4.286
0 0 0
0 0 0
0 0 0
0 0 0
0 0 0
0 0 0
0 0 0
0 0 0
0 0 0
0 0 0
0 0 0
0 0 0
0 0 0
0 0 0
0 0 0
0 0 0
0 0 0
0 0 0
0 0 0
0 0 0
0 0 0
0 0 0
0 0 0
0 0 0
0 0 0
0 0 0
0 0 0
0 0 0
0 0 0
0 0 0
0 0 0
0 0 0
0 0 0
0 0 0
0 0 0
0.885 -1.273 4.257
0.91 -1.272 4.249
0.936 -1.273 4.246
0.961 -1.272 4.24
0.986 -1.273 4.236
1.012 -1.273 4.23
1.038 -1.274 4.229
1.064 -1.274 4.224
1.09 -1.275 4.221
1.116 -1.275 4.216
1.143 -1.277 4.216
1.168 -1.277 4.21
1.195 -1.279 4.208
1.222 -1.28 4.207
1.25 -1.283 4.207
1.276 -1.284 4.204
1.304 -1.286 4.204
1.332 -1.288 4.203
1.358 -1.288 4.198
1.385 -1.29 4.194
1.412 -1.291 4.191
1.439 -1.292 4.186
1.467 -1.294 4.184
1.495 -1.296 4.183
1.521 -1.297 4.175
1.549 -1.298 4.173
1.577 -1.3 4.169
1.605 -1.302 4.166
1.634 -1.305 4.165
1.664 -1.307 4.165
1.696 -1.312 4.17
1.724 -1.314 4.165
1.751 -1.315 4.159
1.782 -1.318 4.158
1.819 -1.326 4.173
0 0 0
0 0 0
0 0 0
0 0 0
0 0 0
0 0 0
0 0 0
0 0 0
0 0 0
0 0 0
0 0 0
1.672 -1.04 3.158
1.678 -1.031 3.121
1.686 -1.023 3.087
1.696 -1.017 3.059
1.697 -1.006 3.015
1.691 -0.991 2.96
1.687 -0.977 2.908
1.683 -0.964 2.858
1.657 -0.938 2.772
-0.189 -0.107 0.318
-0.135 -0.078 0.227
-0.15 -0.087 0.256
-0.137 -0.081 0.237
-0.123 -0.074 0.215
-0.112 -0.068 0.197
-0.102 -0.063 0.182
-0.087 -0.055 0.156
-0.078 -0.049 0.14
-0.07 -0.045 0.128
-0.061 -0.04 0.112
-0.051 -0.034 0.091
-0.044 -0.03 0.078
-0.117 -0.078 0.236
-0.27 -0.182 0.574
-0.422 -0.287 0.918
-0.757 -0.522 1.685
-0.942 -0.659 2.137
-1.174 -0.833 2.713
-1.4 -1.007 3.292
-1.618 -1.181 3.873
-1.598 -1.185 3.893
-1.723 -1.298 4.275
-1.763 -1.349 4.454
-1.729 -1.344 4.448
-1.696 -1.34 4.444
-1.665 -1.338 4.444
-1.632 -1.334 4.438
-1.601 -1.331 4.436
-1.569 -1.327 4.433
-1.538 -1.324 4.43
-1.507 -1.321 4.429
-1.478 -1.319 4.429
-1.448 -1.317 4.43
-1.42 -1.317 4.435
-1.392 -1.316 4.439
-1.361 -1.313 4.434
0 0 0
0 0 0
0 0 0
0 0 0
0 0 0
0 0 0
0 0 0
0 0 0
0 0 0
0 0 0
0 0 0
0 0 0
0 0 0
0 0 0
0 0 0
0 0 0
0 0 0
0 0 0
0 0 0
0 0 0
0 0 0
0 0 0
0 0 0
0 0 0
0 0 0
0 0 0
0 0 0
0 0 0
0 0 0
0 0 0
0 0 0
0 0 0
-0.437 -1.232 4.287
-0.413 -1.235 4.3
-0.388 -1.238 4.314
-0.363 -1.24 4.321
-0.338 -1.24 4.322
-0.313 -1.243 4.332
-0.287 -1.243 4.335
-0.262 -1.242 4.332
-0.236 -1.241 4.327
-0.21 -1.241 4.328
-0.185 -1.239 4.324
-0.159 -1.237 4.317
-0.133 -1.236 4.312
-0.108 -1.236 4.311
-0.082 -1.234 4.307
-0.057 -1.232 4.3
-0.032 -1.233 4.304
0 0 0
0 0 0
0 0 0
0 0 0
0 0 0
0 0 0
0 0 0
0 0 0
0 0 0
0 0 0
0 0 0
0 0 0
0 0 0
0 0 0
0 0 0
0 0 0
0 0 0
0 0 0
0 0 0
0 0 0
0 0 0
0 0 0
0 0 0
0 0 0
0 0 0
0 0 0
0 0 0
0 0 0
0 0 0
0 0 0
0 0 0
0 0 0
0 0 0
0 0 0
0 0 0
0.885 -1.247 4.261
0.909 -1.245 4.251
0.935 -1.246 4.25
0.96 -1.245 4.242
0.985 -1.245 4.236
1.01 -1.245 4.228
1.036 -1.245 4.225
1.061 -1.245 4.219
1.087 -1.246 4.217
1.113 -1.247 4.214
1.141 -1.25 4.216
1.168 -1.251 4.215
1.194 -1.252 4.212
1.221 -1.253 4.208
1.248 -1.255 4.209
1.274 -1.256 4.203
1.302 -1.258 4.203
1.329 -1.26 4.202
1.356 -1.261 4.198
1.384 -1.263 4.197
1.411 -1.264 4.193
1.436 -1.264 4.185
1.464 -1.266 4.183
1.492 -1.268 4.181
1.518 -1.268 4.172
1.547 -1.27 4.172
1.575 -1.273 4.171
1.604 -1.275 4.169
1.632 -1.277 4.167
1.661 -1.279 4.164
1.692 -1.283 4.168
1.72 -1.285 4.163
1.747 -1.285 4.156
1.777 -1.288 4.155
1.816 -1.298 4.174
0 0 0
0 0 0
0 0 0
0 0 0
0 0 0
0 0 0
0 0 0
0 0 0
0 0 0
0 0 0
0 0 0
1.671 -1.018 3.162
1.674 -1.008 3.119
1.68 -0.999 3.083
1.69 -0.993 3.054
1.693 -0.984 3.014
1.69 -0.97 2.963
1.686 -0.957 2.912
1.68 -0.943 2.858
1.691 -0.939 2.836
-0.128 -0.072 0.211
-0.226 -0.127 0.388
-0.148 -0.085 0.254
-0.136 -0.079 0.237
-0.121 -0.071 0.211
-0.11 -0.065 0.194
-0.102 -0.061 0.182
-0.083 -0.051 0.148
-0.072 -0.045 0.129
-0.065 -0.041 0.118
-0.055 -0.036 0.1
-0.045 -0.03 0.08
-0.038 -0.026 0.067
-0.113 -0.074 0.228
-0.348 -0.229 0.743
-0.499 -0.332 1.089
-0.834 -0.563 1.863
-1.07 -0.732 2.434
-1.311 -0.91 3.036
-1.458 -1.027 3.435
-1.685 -1.205 4.043
-1.664 -1.208 4.062
-1.719 -1.268 4.273
-1.76 -1.318 4.453
-1.727 -1.315 4.45
-1.694 -1.311 4.446
-1.662 -1.308 4.444
-1.63 -1.304 4.439
-1.598 -1.301 4.436
-1.566 -1.297 4.432
-1.535 -1.295 4.431
-1.505 -1.292 4.43
-1.476 -1.291 4.432
-1.448 -1.29 4.436
-1.419 -1.289 4.441
-1.392 -1.289 4.447
0 0 0
0 0 0
0 0 0
0 0 0
0 0 0
0 0 0
0 0 0
0 0 0
0 0 0
0 0 0
0 0 0
0 0 0
0 0 0
0 0 0
0 0 0
0 0 0
0 0 0
0 0 0
0 0 0
0 0 0
0 0 0
0 0 0
0 0 0
0 0 0
0 0 0
0 0 0
0 0 0
-0.185 -0.379 1.331
-0.176 -0.377 1.326
-0.166 -0.372 1.308
-0.157 -0.369 1.298
0 0 0
0 0 0
-0.437 -1.208 4.299
-0.412 -1.208 4.301
-0.387 -1.211 4.311
-0.362 -1.212 4.318
-0.337 -1.212 4.32
-0.312 -1.214 4.326
-0.287 -1.215 4.331
-0.261 -1.215 4.331
-0.235 -1.214 4.329
-0.21 -1.213 4.328
-0.184 -1.212 4.325
-0.159 -1.211 4.319
-0.133 -1.21 4.317
-0.108 -1.209 4.315
-0.082 -1.209 4.314
-0.057 -1.208 4.311
-0.032 -1.212 4.323
0 0 0
0 0 0
0 0 0
0 0 0
0 0 0
0 0 0
0 0 0
0 0 0
0 0 0
0 0 0
0 0 0
0 0 0
0 0 0
0 0 0
0 0 0
0 0 0
0 0 0
0 0 0
0 0 0
0 0 0
0 0 0
0 0 0
0 0 0
0 0 0
0 0 0
0 0 0
0 0 0
0 0 0
0 0 0
0 0 0
0 0 0
0 0 0
0 0 0
0 0 0
0 0 0
0.885 -1.222 4.269
0.909 -1.219 4.256
0.934 -1.219 4.252
0.959 -1.219 4.245
0.985 -1.219 4.239
1.009 -1.218 4.231
1.035 -1.218 4.227
1.06 -1.219 4.222
1.087 -1.22 4.221
1.113 -1.221 4.217
1.14 -1.223 4.219
1.167 -1.224 4.217
1.193 -1.225 4.213
1.219 -1.226 4.209
1.247 -1.228 4.211
1.272 -1.228 4.203
1.3 -1.231 4.205
1.328 -1.232 4.204
1.354 -1.233 4.199
1.381 -1.234 4.195
1.409 -1.236 4.194
1.435 -1.236 4.186
1.463 -1.239 4.186
1.491 -1.241 4.184
1.517 -1.241 4.177
1.545 -1.242 4.173
1.574 -1.245 4.173
1.601 -1.247 4.17
1.629 -1.248 4.164
1.657 -1.25 4.162
1.69 -1.255 4.168
1.717 -1.256 4.161
1.743 -1.256 4.153
1.775 -1.26 4.157
1.815 -1.27 4.177
0 0 0
0 0 0
0 0 0
0 0 0
0 0 0
0 0 0
0 0 0
0 0 0
0 0 0
0 0 0
0 0 0
1.677 -1.001 3.179
1.678 -0.989 3.132
1.683 -0.98 3.093
1.691 -0.973 3.061
1.696 -0.965 3.024
1.69 -0.951 2.969
1.686 -0.937 2.917
1.689 -0.928 2.879
1.673 -0.909 2.809
-0.19 -0.104 0.321
-0.19 -0.105 0.326
-0.145 -0.081 0.249
-0.133 -0.076 0.232
-0.118 -0.068 0.206
-0.106 -0.062 0.187
-0.1 -0.059 0.179
-0.081 -0.049 0.145
-0.068 -0.042 0.122
-0.06 -0.037 0.108
-0.051 -0.032 0.091
-0.039 -0.026 0.068
-0.116 -0.074 0.232
-0.273 -0.174 0.572
-0.507 -0.326 1.091
-0.734 -0.479 1.614
-1.077 -0.711 2.412
-1.242 -0.832 2.831
-1.48 -1.006 3.435
-1.623 -1.119 3.833
-1.763 -1.234 4.239
-1.738 -1.235 4.251
-1.786 -1.29 4.448
-1.755 -1.287 4.449
-1.723 -1.284 4.448
-1.691 -1.281 4.445
-1.659 -1.278 4.442
-1.627 -1.274 4.438
-1.595 -1.271 4.435
-1.563 -1.268 4.431
-1.533 -1.265 4.429
-1.503 -1.263 4.43
-1.474 -1.262 4.434
-1.446 -1.261 4.438
-1.418 -1.261 4.444
-1.392 -1.261 4.453
0 0 0
0 0 0
0 0 0
0 0 0
0 0 0
0 0 0
0 0 0
0 0 0
0 0 0
0 0 0
0 0 0
0 0 0
0 0 0
0 0 0
0 0 0
0 0 0
0 0 0
0 0 0
0 0 0
0 0 0
0 0 0
0 0 0
0 0 0
0 0 0
0 0 0
-0.202 -0.373 1.339
-0.193 -0.37 1.331
-0.183 -0.368 1.322
-0.175 -0.367 1.32
-0.167 -0.366 1.316
-0.158 -0.365 1.313
-0.151 -0.365 1.313
0 0 0
-0.386 -1.045 3.803
-0.411 -1.181 4.299
-0.387 -1.183 4.309
-0.361 -1.184 4.314
-0.336 -1.184 4.316
-0.311 -1.186 4.323
-0.286 -1.186 4.326
-0.26 -1.187 4.327
-0.235 -1.186 4.327
-0.209 -1.186 4.326
-0.184 -1.185 4.323
-0.158 -1.183 4.318
-0.133 -1.183 4.318
-0.107 -1.183 4.316
-0.082 -1.183 4.317
-0.057 -1.182 4.314
-0.032 -1.187 4.333
0 0 0
0 0 0
0 0 0
0 0 0
0 0 0
0 0 0
0 0 0
0 0 0
0 0 0
0 0 0
0 0 0
0 0 0
0 0 0
0 0 0
0 0 0
0 0 0
0 0 0
0 0 0
0 0 0
0 0 0
0 0 0
0 0 0
0 0 0
0 0 0
0 0 0
0 0 0
0 0 0
0 0 0
0 0 0
0 0 0
0 0 0
0 0 0
0 0 0
0 0 0
0 0 0
0.883 -1.193 4.263
0.907 -1.191 4.251
0.932 -1.19 4.245
0.957 -1.19 4.24
0.982 -1.19 4.233
1.007 -1.19 4.228
1.033 -1.19 4.224
1.059 -1.192 4.222
1.086 -1.193 4.222
1.112 -1.194 4.22
1.139 -1.196 4.219
1.166 -1.198 4.22
1.192 -1.198 4.216
1.218 -1.199 4.212
1.245 -1.201 4.21
1.271 -1.201 4.204
1.298 -1.202 4.203
1.326 -1.204 4.202
1.352 -1.205 4.198
1.38 -1.207 4.197
1.408 -1.209 4.196
1.434 -1.21 4.19
1.461 -1.211 4.186
1.488 -1.212 4.183
1.515 -1.213 4.178
1.542 -1.215 4.174
1.571 -1.217 4.172
1.598 -1.218 4.168
1.625 -1.219 4.162
1.653 -1.221 4.158
1.686 -1.225 4.165
1.712 -1.226 4.157
1.74 -1.227 4.152
1.772 -1.231 4.155
1.808 -1.239 4.169
0 0 0
0 0 0
0 0 0
0 0 0
0 0 0
0 0 0
0 0 0
0 0 0
0 0 0
0 0 0
0 0 0
0 0 0
1.677 -0.968 3.135
1.683 -0.96 3.098
1.688 -0.952 3.062
1.695 -0.944 3.028
1.692 -0.932 2.977
1.686 -0.918 2.923
1.675 -0.902 2.86
