 1.288 -1.63 4.05
 1.316 -1.634 4.052
 1.344 -1.637 4.052
 1.371 -1.638 4.047
 1.398 -1.64 4.044
 1.424 -1.641 4.037
 1.45 -1.641 4.029
 1.473 -1.639 4.016
 1.499 -1.64 4.008
 1.522 -1.637 3.993
 1.547 -1.636 3.981
 1.572 -1.636 3.971
 1.597 -1.636 3.962
 1.623 -1.636 3.953
 1.648 -1.636 3.942
 1.674 -1.636 3.934
 1.698 -1.635 3.921
 1.723 -1.635 3.91
 1.746 -1.632 3.894
 1.769 -1.63 3.879
 1.787 -1.624 3.853
 1.802 -1.615 3.82
 1.812 -1.602 3.778
 1.818 -1.585 3.728
 1.82 -1.566 3.673
 1.821 -1.546 3.615
 1.821 -1.526 3.557
 1.82 -1.506 3.499
 1.822 -1.489 3.447
 1.799 -1.451 3.349
 1.766 -1.407 3.237
 1.757 -1.383 3.171
 1.759 -1.369 3.126
 1.766 -1.357 3.089
 1.768 -1.343 3.045
 1.768 -1.328 3.001
 1.766 -1.311 2.952
 1.759 -1.291 2.895
 1.766 -1.282 2.864
 -2.256 -1.629 3.799
 -2.234 -1.632 3.819
 -2.186 -1.616 3.794
 -2.163 -1.618 3.812
 -2.136 -1.617 3.822
 -2.11 -1.617 3.834
 -2.086 -1.619 3.851
 -2.066 -1.624 3.874
 -2.039 -1.623 3.884
 -2.014 -1.624 3.898
 -1.99 -1.626 3.913
 -1.963 -1.626 3.924
 -1.935 -1.625 3.932
 -1.91 -1.625 3.944
 -1.883 -1.624 3.953
 -1.857 -1.624 3.964
 -1.83 -1.624 3.972
 -1.804 -1.624 3.983
 -1.776 -1.622 3.989
 -1.748 -1.621 3.995
 -1.722 -1.621 4.005
 -1.697 -1.622 4.017
 -1.669 -1.621 4.023
 -1.643 -1.62 4.03
 -1.617 -1.621 4.041
 -1.589 -1.619 4.045
 -1.561 -1.616 4.048
 -1.534 -1.615 4.053
 -1.507 -1.615 4.06
 -1.48 -1.613 4.064
 -1.454 -1.613 4.071
 -1.427 -1.612 4.075
 -1.401 -1.612 4.084
 -1.374 -1.611 4.088
 -1.348 -1.61 4.094
 -1.323 -1.611 4.104
 -1.298 -1.612 4.114
 -1.271 -1.611 4.117
 -1.248 -1.614 4.132
 -1.223 -1.615 4.141
 -1.195 -1.613 4.141
 -1.168 -1.611 4.142
 -1.141 -1.609 4.144
 -1.112 -1.605 4.138
 -1.086 -1.604 4.142
 -1.058 -1.601 4.139
 -1.032 -1.601 4.145
 -1.007 -1.601 4.15
 -0.981 -1.602 4.156
 -0.955 -1.601 4.159
 -0.931 -1.603 4.169
 -0.905 -1.603 4.173
 -0.879 -1.603 4.178
 -0.854 -1.605 4.186
 -0.828 -1.603 4.187
 -0.802 -1.602 4.187
 -0.777 -1.603 4.194
 -0.751 -1.604 4.198
 -0.725 -1.602 4.199
 -0.698 -1.601 4.198
 -0.674 -1.603 4.207
 -0.647 -1.6 4.203
 -0.62 -1.597 4.198
 -0.594 -1.596 4.198
 -0.569 -1.598 4.204
 -0.543 -1.595 4.199
 -0.517 -1.594 4.2
 -0.492 -1.595 4.205
 -0.467 -1.597 4.212
 -0.442 -1.597 4.215
 -0.416 -1.598 4.219
 -0.391 -1.598 4.221
 -0.365 -1.599 4.223
 -0.34 -1.598 4.222
 -0.314 -1.595 4.217
 -0.288 -1.596 4.221
 -0.263 -1.598 4.226
 -0.238 -1.598 4.227
 -0.212 -1.597 4.225
 -0.187 -1.598 4.229
 -0.161 -1.597 4.227
 -0.136 -1.596 4.226
 -0.11 -1.597 4.227
 -0.085 -1.597 4.227
 -0.059 -1.597 4.227
 -0.034 -1.596 4.225
 -0.009 -1.596 4.224
 0.016 -1.596 4.225
 0.041 -1.596 4.224
 0.067 -1.596 4.223
 0.092 -1.595 4.219
 0.117 -1.594 4.217
 0.143 -1.592 4.212
 0.168 -1.592 4.21
 0.193 -1.592 4.208
 0.219 -1.594 4.211
 0.244 -1.593 4.209
 0.269 -1.592 4.204
 0.295 -1.594 4.206
 0.32 -1.594 4.204
 0.345 -1.594 4.202
 0.371 -1.596 4.206
 0.397 -1.596 4.205
 0.422 -1.596 4.202
 0.448 -1.597 4.203
 0.473 -1.597 4.198
 0.498 -1.596 4.194
 0.524 -1.598 4.197
 0.549 -1.598 4.192
 0.575 -1.598 4.189
 0.6 -1.599 4.189
 0.626 -1.601 4.19
 0.652 -1.6 4.185
 0.678 -1.602 4.186
 0.704 -1.603 4.185
 0.729 -1.604 4.183
 0.755 -1.604 4.178
 0.781 -1.605 4.176
 0.806 -1.604 4.171
 0.831 -1.604 4.167
 0.857 -1.605 4.162
 0.883 -1.605 4.159
 0.909 -1.606 4.157
 0.936 -1.609 4.159
 0.961 -1.609 4.153
 0.988 -1.611 4.153
 1.015 -1.614 4.154
 1.041 -1.615 4.153
 1.067 -1.615 4.145
 1.093 -1.616 4.141
 1.119 -1.617 4.139
 1.144 -1.616 4.129
 1.169 -1.615 4.121
 1.195 -1.616 4.116
 1.222 -1.618 4.113
 1.248 -1.618 4.108
 1.276 -1.621 4.108
 1.305 -1.625 4.111
 1.333 -1.628 4.11
 1.361 -1.631 4.11
 1.388 -1.633 4.107
 1.416 -1.635 4.103
 1.441 -1.634 4.094
 1.468 -1.636 4.089
 1.493 -1.635 4.077
 1.519 -1.635 4.069
 1.543 -1.633 4.056
 1.568 -1.632 4.044
 1.592 -1.63 4.031
 1.618 -1.631 4.023
 1.643 -1.63 4.012
 1.668 -1.629 3.999
 1.695 -1.631 3.993
 1.721 -1.631 3.983
 1.746 -1.63 3.971
 1.769 -1.628 3.954
 1.791 -1.624 3.936
 1.805 -1.615 3.901
 1.815 -1.601 3.858
 1.823 -1.586 3.809
 1.828 -1.569 3.757
 1.828 -1.548 3.698
 1.828 -1.528 3.638
 1.83 -1.51 3.584
 1.826 -1.487 3.519
 1.831 -1.473 3.473
 1.803 -1.432 3.366
 1.752 -1.374 3.219
 1.743 -1.351 3.153
 1.753 -1.342 3.123
 1.764 -1.334 3.093
 1.767 -1.321 3.052
 1.77 -1.308 3.011
 1.77 -1.293 2.965
 1.77 -1.278 2.92
 1.777 -1.269 2.889
 -2.262 -1.607 3.819
 -2.245 -1.614 3.848
 -2.218 -1.613 3.859
 -2.195 -1.616 3.879
 -2.168 -1.615 3.889
 -2.142 -1.616 3.904
 -2.117 -1.617 3.918
 -2.094 -1.62 3.937
 -2.065 -1.618 3.945
 -2.038 -1.617 3.955
 -2.013 -1.618 3.969
 -1.985 -1.618 3.978
 -1.958 -1.617 3.989
 -1.932 -1.617 3.999
 -1.908 -1.62 4.017
 -1.881 -1.619 4.025
 -1.855 -1.62 4.037
 -1.83 -1.621 4.051
 -1.803 -1.621 4.061
 -1.772 -1.617 4.061
 -1.747 -1.618 4.074
 -1.72 -1.618 4.082
 -1.691 -1.615 4.083
 -1.662 -1.613 4.088
 -1.637 -1.614 4.101
 -1.609 -1.612 4.104
 -1.581 -1.611 4.11
 -1.555 -1.611 4.118
 -1.528 -1.61 4.124
 -1.5 -1.608 4.127
 -1.472 -1.607 4.132
 -1.445 -1.606 4.137
 -1.419 -1.607 4.147
 -1.393 -1.606 4.152
 -1.367 -1.606 4.16
 -1.341 -1.607 4.17
 -1.315 -1.607 4.176
 -1.287 -1.605 4.179
 -1.262 -1.607 4.189
 -1.238 -1.609 4.202
 -1.21 -1.607 4.201
 -1.182 -1.605 4.203
 -1.155 -1.604 4.206
 -1.126 -1.6 4.202
 -1.099 -1.598 4.201
 -1.071 -1.596 4.201
 -1.045 -1.596 4.208
 -1.019 -1.595 4.21
 -0.993 -1.596 4.217
 -0.967 -1.595 4.219
 -0.941 -1.596 4.227
 -0.915 -1.595 4.228
 -0.889 -1.596 4.235
 -0.863 -1.595 4.238
 -0.836 -1.594 4.237
 -0.809 -1.592 4.236
 -0.784 -1.592 4.241
 -0.757 -1.59 4.24
 -0.73 -1.589 4.24
 -0.704 -1.588 4.24
 -0.679 -1.589 4.247
 -0.652 -1.586 4.243
 -0.625 -1.585 4.241
 -0.599 -1.584 4.241
 -0.574 -1.585 4.246
 -0.548 -1.583 4.246
 -0.522 -1.583 4.246
 -0.496 -1.583 4.25
 -0.471 -1.584 4.254
 -0.445 -1.584 4.257
 -0.419 -1.584 4.257
 -0.393 -1.584 4.259
 -0.368 -1.584 4.261
 -0.342 -1.583 4.26
 -0.316 -1.581 4.256
 -0.29 -1.581 4.257
 -0.265 -1.582 4.261
 -0.239 -1.582 4.262
 -0.213 -1.581 4.261
 -0.188 -1.582 4.264
 -0.162 -1.582 4.264
 -0.136 -1.58 4.26
 -0.111 -1.58 4.259
 -0.085 -1.579 4.257
 -0.06 -1.579 4.257
 -0.034 -1.579 4.255
 -0.008 -1.578 4.254
 0.016 -1.578 4.254
 0.042 -1.579 4.255
 0.067 -1.578 4.253
 0.093 -1.577 4.248
 0.118 -1.576 4.245
 0.144 -1.575 4.242
 0.169 -1.575 4.239
 0.194 -1.575 4.238
 0.22 -1.577 4.243
 0.246 -1.578 4.245
 0.271 -1.578 4.242
 0.297 -1.579 4.243
 0.322 -1.579 4.241
 0.348 -1.578 4.238
 0.373 -1.579 4.237
 0.399 -1.579 4.236
 0.425 -1.58 4.234
 0.451 -1.581 4.236
 0.476 -1.58 4.231
 0.502 -1.581 4.231
 0.528 -1.583 4.231
 0.553 -1.582 4.226
 0.578 -1.581 4.222
 0.604 -1.583 4.222
 0.63 -1.584 4.221
 0.655 -1.583 4.215
 0.681 -1.585 4.216
 0.707 -1.586 4.215
 0.734 -1.588 4.216
 0.759 -1.587 4.21
 0.785 -1.589 4.21
 0.811 -1.589 4.208
 0.838 -1.59 4.206
 0.863 -1.59 4.2
 0.89 -1.592 4.2
 0.916 -1.593 4.198
 0.943 -1.595 4.199
 0.969 -1.596 4.195
 0.996 -1.598 4.196
 1.023 -1.601 4.196
 1.05 -1.602 4.195
 1.075 -1.602 4.187
 1.101 -1.602 4.182
 1.128 -1.603 4.179
 1.154 -1.603 4.173
 1.18 -1.604 4.167
 1.207 -1.605 4.164
 1.234 -1.608 4.163
 1.261 -1.609 4.159
 1.288 -1.611 4.157
 1.317 -1.615 4.159
 1.345 -1.616 4.155
 1.373 -1.619 4.154
 1.399 -1.619 4.148
 1.427 -1.622 4.146
 1.453 -1.622 4.138
 1.481 -1.624 4.135
 1.508 -1.624 4.127
 1.534 -1.625 4.12
 1.56 -1.624 4.109
 1.585 -1.624 4.098
 1.611 -1.623 4.088
 1.636 -1.623 4.078
 1.662 -1.623 4.067
 1.687 -1.622 4.055
 1.715 -1.623 4.048
 1.74 -1.623 4.036
 1.765 -1.622 4.024
 1.786 -1.617 4.002
 1.804 -1.61 3.975
 1.816 -1.598 3.933
 1.823 -1.582 3.884
 1.829 -1.566 3.832
 1.834 -1.549 3.779
 1.833 -1.528 3.717
 1.833 -1.507 3.655
 1.832 -1.487 3.596
 1.833 -1.469 3.541
 1.841 -1.457 3.499
 1.811 -1.415 3.388
 1.733 -1.338 3.192
 1.734 -1.322 3.144
 1.751 -1.32 3.127
 1.762 -1.312 3.098
 1.769 -1.301 3.062
 1.773 -1.289 3.023
 1.774 -1.275 2.979
 1.771 -1.259 2.93
 1.791 -1.258 2.918
 -2.306 -1.611 3.903
 -2.294 -1.622 3.941
 -2.255 -1.613 3.934
 -2.23 -1.615 3.95
 -2.202 -1.614 3.962
 -2.176 -1.615 3.975
 -2.148 -1.614 3.987
 -2.123 -1.616 4.002
 -2.094 -1.614 4.01
 -2.066 -1.613 4.019
 -2.039 -1.613 4.03
 -2.011 -1.612 4.04
 -1.984 -1.612 4.051
 -1.958 -1.612 4.063
 -1.933 -1.614 4.078
 -1.905 -1.613 4.087
 -1.88 -1.615 4.102
 -1.855 -1.616 4.116
 -1.827 -1.616 4.124
 -1.796 -1.612 4.126
 -1.772 -1.614 4.14
 -1.743 -1.612 4.146
 -1.713 -1.609 4.147
 -1.685 -1.609 4.154
 -1.66 -1.61 4.166
 -1.63 -1.607 4.169
 -1.603 -1.607 4.176
 -1.576 -1.607 4.184
 -1.549 -1.606 4.19
 -1.52 -1.604 4.194
 -1.492 -1.602 4.197
 -1.465 -1.602 4.204
 -1.438 -1.601 4.211
 -1.411 -1.6 4.215
 -1.384 -1.6 4.221
 -1.357 -1.6 4.228
 -1.329 -1.598 4.231
 -1.301 -1.596 4.233
 -1.274 -1.596 4.239
 -1.249 -1.598 4.25
 -1.222 -1.596 4.253
 -1.194 -1.595 4.256
 -1.167 -1.595 4.26
 -1.139 -1.592 4.257
 -1.11 -1.588 4.253
 -1.081 -1.585 4.25
 -1.055 -1.585 4.255
 -1.028 -1.583 4.256
 -1.002 -1.583 4.262
 -0.975 -1.582 4.263
 -0.949 -1.583 4.27
 -0.922 -1.581 4.27
 -0.895 -1.581 4.274
 -0.869 -1.58 4.276
 -0.842 -1.58 4.278
 -0.815 -1.578 4.278
 -0.789 -1.577 4.279
 -0.762 -1.576 4.279
 -0.735 -1.574 4.279
 -0.708 -1.572 4.276
 -0.683 -1.572 4.28
 -0.656 -1.57 4.277
 -0.629 -1.569 4.276
 -0.602 -1.567 4.273
 -0.576 -1.567 4.276
 -0.55 -1.565 4.275
 -0.524 -1.564 4.275
 -0.498 -1.565 4.277
 -0.473 -1.565 4.281
 -0.447 -1.566 4.284
 -0.421 -1.565 4.283
 -0.395 -1.565 4.285
 -0.369 -1.564 4.285
 -0.343 -1.563 4.283
 -0.317 -1.561 4.28
 -0.291 -1.562 4.283
 -0.266 -1.562 4.285
 -0.24 -1.562 4.286
 -0.214 -1.561 4.284
 -0.188 -1.561 4.284
 -0.162 -1.559 4.279
 -0.137 -1.559 4.278
 -0.111 -1.558 4.277
 -0.085 -1.558 4.276
 -0.06 -1.557 4.274
 -0.034 -1.556 4.272
 -0.008 -1.555 4.267
 0.016 -1.555 4.267
 0.042 -1.555 4.268
 0.067 -1.555 4.268
 0.093 -1.555 4.267
 0.119 -1.555 4.266
 0.144 -1.554 4.262
 0.17 -1.554 4.261
 0.195 -1.554 4.26
 0.221 -1.557 4.265
 0.247 -1.557 4.265
 0.272 -1.558 4.265
 0.298 -1.558 4.265
 0.324 -1.558 4.262
 0.349 -1.558 4.26
 0.375 -1.559 4.261
 0.4 -1.559 4.257
 0.426 -1.559 4.255
 0.452 -1.56 4.255
 0.477 -1.558 4.249
 0.503 -1.559 4.247
 0.529 -1.56 4.248
 0.554 -1.56 4.246
 0.58 -1.561 4.244
 0.606 -1.563 4.245
 0.632 -1.563 4.241
 0.657 -1.562 4.237
 0.683 -1.563 4.235
 0.709 -1.564 4.234
 0.736 -1.566 4.236
 0.762 -1.566 4.232
 0.789 -1.569 4.234
 0.815 -1.57 4.233
 0.841 -1.571 4.231
 0.867 -1.571 4.227
 0.894 -1.573 4.228
 0.921 -1.575 4.227
 0.947 -1.576 4.225
 0.974 -1.578 4.224
 1.001 -1.58 4.225
 1.028 -1.582 4.225
 1.055 -1.584 4.224
 1.082 -1.585 4.22
 1.108 -1.585 4.213
 1.135 -1.587 4.213
 1.162 -1.588 4.209
 1.188 -1.588 4.203
 1.214 -1.589 4.198
 1.242 -1.592 4.198
 1.269 -1.593 4.195
 1.297 -1.595 4.192
 1.326 -1.598 4.194
 1.354 -1.601 4.193
 1.382 -1.603 4.191
 1.409 -1.604 4.185
 1.436 -1.605 4.181
 1.463 -1.606 4.174
 1.491 -1.608 4.17
 1.519 -1.61 4.167
 1.547 -1.612 4.162
 1.574 -1.613 4.156
 1.601 -1.613 4.148
 1.629 -1.615 4.142
 1.654 -1.614 4.13
 1.68 -1.613 4.12
 1.705 -1.613 4.108
 1.732 -1.613 4.098
 1.756 -1.611 4.082
 1.78 -1.609 4.067
 1.8 -1.603 4.042
 1.816 -1.594 4.009
 1.826 -1.581 3.964
 1.831 -1.563 3.909
 1.837 -1.547 3.858
 1.842 -1.53 3.804
 1.844 -1.512 3.747
 1.842 -1.49 3.682
 1.844 -1.473 3.628
 1.846 -1.455 3.574
 0 0 0
 0 0 0
 0 0 0
 1.739 -1.304 3.16
 1.757 -1.302 3.145
 1.766 -1.293 3.113
 1.773 -1.283 3.078
 1.779 -1.273 3.041
 1.778 -1.258 2.994
 1.756 -1.228 2.911
 1.793 -1.24 2.93
 -2.351 -1.615 3.989
 -2.318 -1.612 3.993
 -2.194 -1.544 3.837
 -2.17 -1.546 3.854
 -2.144 -1.545 3.865
 -2.117 -1.545 3.878
 -2.092 -1.546 3.891
 -2.065 -1.545 3.902
 -2.037 -1.544 3.911
 -2.097 -1.61 4.089
 -2.068 -1.609 4.099
 -2.041 -1.609 4.11
 -2.014 -1.609 4.123
 -1.984 -1.607 4.128
 -1.956 -1.607 4.138
 -1.93 -1.607 4.15
 -1.903 -1.608 4.162
 -1.878 -1.609 4.177
 -1.85 -1.609 4.186
 -1.82 -1.606 4.189
 -1.794 -1.607 4.202
 -1.764 -1.605 4.205
 -1.734 -1.602 4.208
 -1.706 -1.602 4.215
 -1.68 -1.603 4.227
 -1.65 -1.6 4.229
 -1.623 -1.599 4.236
 -1.595 -1.599 4.243
 -1.567 -1.598 4.249
 -1.538 -1.596 4.253
 -1.508 -1.593 4.253
 -1.482 -1.593 4.261
 -1.454 -1.593 4.267
 -1.426 -1.591 4.27
 -1.397 -1.589 4.273
 -1.371 -1.589 4.28
 -1.341 -1.587 4.28
 -1.312 -1.583 4.277
 -1.284 -1.582 4.281
 -1.259 -1.584 4.293
 -1.231 -1.582 4.293
 -1.203 -1.581 4.296
 -1.176 -1.581 4.302
 -1.148 -1.577 4.299
 -1.118 -1.573 4.293
 -1.09 -1.571 4.292
 -1.063 -1.57 4.295
 -1.034 -1.567 4.293
 -1.008 -1.568 4.299
 -0.981 -1.566 4.301
 -0.954 -1.566 4.303
 -0.926 -1.563 4.299
 -0.899 -1.562 4.301
 -0.872 -1.56 4.3
 -0.845 -1.558 4.3
 -0.818 -1.557 4.3
 -0.791 -1.556 4.302
 -0.764 -1.555 4.301
 -0.737 -1.553 4.3
 -0.71 -1.551 4.297
 -0.684 -1.55 4.298
 -0.657 -1.548 4.295
 -0.631 -1.547 4.295
 -0.604 -1.545 4.292
 -0.578 -1.544 4.293
 -0.552 -1.544 4.294
 -0.525 -1.542 4.293
 -0.499 -1.541 4.293
 -0.473 -1.541 4.295
 -0.447 -1.541 4.296
 -0.421 -1.54 4.293
 -0.395 -1.54 4.296
 -0.369 -1.54 4.298
 -0.343 -1.54 4.299
 -0.317 -1.538 4.296
 -0.291 -1.538 4.296
 -0.266 -1.538 4.296
 -0.24 -1.537 4.295
 -0.214 -1.535 4.292
 -0.188 -1.536 4.293
 -0.162 -1.534 4.289
 -0.136 -1.533 4.287
 -0.111 -1.533 4.286
 -0.085 -1.532 4.283
 -0.059 -1.531 4.281
 -0.034 -1.532 4.283
 -0.008 -1.531 4.28
 0.016 -1.531 4.281
 0.042 -1.532 4.282
 0.068 -1.533 4.284
 0.093 -1.532 4.282
 0.119 -1.532 4.282
 0.145 -1.532 4.279
 0.17 -1.532 4.278
 0.196 -1.531 4.274
 0.221 -1.532 4.276
 0.247 -1.532 4.273
 0.272 -1.531 4.271
 0.298 -1.532 4.271
 0.324 -1.532 4.268
 0.349 -1.532 4.267
 0.375 -1.534 4.269
 0.401 -1.534 4.267
 0.426 -1.533 4.263
 0.452 -1.534 4.265
 0.477 -1.533 4.258
 0.503 -1.533 4.256
 0.529 -1.535 4.257
 0.555 -1.536 4.257
 0.581 -1.536 4.255
 0.607 -1.537 4.254
 0.633 -1.538 4.252
 0.658 -1.538 4.249
 0.685 -1.54 4.25
 0.711 -1.541 4.249
 0.738 -1.544 4.255
 0.764 -1.544 4.25
 0.79 -1.545 4.248
 0.816 -1.547 4.248
 0.843 -1.548 4.246
 0.868 -1.548 4.241
 0.895 -1.55 4.243
 0.923 -1.552 4.245
 0.948 -1.552 4.239
 0.975 -1.554 4.238
 1.002 -1.556 4.237
 1.029 -1.558 4.237
 1.057 -1.56 4.238
 1.085 -1.563 4.239
 1.111 -1.564 4.235
 1.139 -1.566 4.235
 1.166 -1.567 4.232
 1.192 -1.567 4.226
 1.219 -1.569 4.222
 1.247 -1.571 4.222
 1.275 -1.573 4.22
 1.303 -1.575 4.219
 1.331 -1.578 4.22
 1.36 -1.581 4.219
 1.388 -1.583 4.217
 1.415 -1.584 4.211
 1.443 -1.586 4.209
 1.471 -1.588 4.205
 1.498 -1.589 4.199
 1.527 -1.591 4.196
 1.555 -1.593 4.192
 1.584 -1.596 4.19
 1.611 -1.597 4.183
 1.64 -1.599 4.179
 1.667 -1.599 4.17
 1.694 -1.599 4.162
 1.719 -1.599 4.149
 1.745 -1.598 4.138
 1.768 -1.595 4.121
 1.791 -1.592 4.102
 1.809 -1.585 4.072
 1.822 -1.574 4.033
 1.833 -1.561 3.988
 1.838 -1.544 3.934
 1.845 -1.528 3.883
 1.852 -1.513 3.833
 1.854 -1.495 3.776
 1.852 -1.474 3.711
 1.852 -1.454 3.651
 0 0 0
 0 0 0
 0 0 0
 0 0 0
 1.732 -1.278 3.156
 1.753 -1.278 3.145
 1.766 -1.272 3.12
 1.776 -1.264 3.089
 1.784 -1.255 3.057
 1.786 -1.242 3.014
 1.756 -1.207 2.918
 1.788 -1.216 2.929
 -2.387 -1.612 4.06
 -2.358 -1.612 4.072
 -1.756 -1.215 3.076
 -1.737 -1.216 3.089
 -1.715 -1.216 3.098
 -1.694 -1.216 3.107
 -1.761 -1.28 3.282
 -1.827 -1.344 3.459
 -1.803 -1.344 3.467
 -1.865 -1.408 3.644
 -1.925 -1.472 3.823
 -1.899 -1.472 3.833
 -1.873 -1.472 3.842
 -1.926 -1.534 4.017
 -1.98 -1.599 4.199
 -1.952 -1.598 4.208
 -1.925 -1.599 4.221
 -1.899 -1.6 4.234
 -1.872 -1.601 4.245
 -1.841 -1.597 4.247
 -1.814 -1.598 4.26
 -1.783 -1.595 4.261
 -1.752 -1.592 4.263
 -1.723 -1.591 4.268
 -1.696 -1.591 4.277
 -1.667 -1.589 4.281
 -1.638 -1.587 4.286
 -1.609 -1.586 4.291
 -1.581 -1.585 4.296
 -1.551 -1.583 4.299
 -1.52 -1.579 4.296
 -1.494 -1.579 4.305
 -1.465 -1.578 4.309
 -1.436 -1.575 4.309
 -1.408 -1.574 4.314
 -1.381 -1.574 4.322
 -1.351 -1.571 4.321
 -1.321 -1.568 4.318
 -1.293 -1.566 4.318
 -1.265 -1.565 4.323
 -1.236 -1.562 4.32
 -1.207 -1.559 4.318
 -1.179 -1.557 4.32
 -1.151 -1.556 4.321
 -1.122 -1.553 4.319
 -1.094 -1.551 4.318
 -1.067 -1.549 4.32
 -1.038 -1.547 4.317
 -1.011 -1.546 4.32
 -0.984 -1.544 4.32
 -0.956 -1.542 4.32
 -0.928 -1.54 4.317
 -0.901 -1.539 4.32
 -0.874 -1.537 4.318
 -0.846 -1.535 4.316
 -0.819 -1.533 4.315
 -0.792 -1.532 4.316
 -0.765 -1.53 4.312
 -0.738 -1.528 4.312
 -0.711 -1.525 4.307
 -0.684 -1.524 4.307
 -0.657 -1.522 4.303
 -0.63 -1.521 4.303
 -0.604 -1.519 4.3
 -0.577 -1.518 4.301
 -0.552 -1.518 4.304
 -0.525 -1.517 4.302
 -0.499 -1.516 4.302
 -0.473 -1.515 4.302
 -0.447 -1.515 4.303
 -0.421 -1.514 4.302
 -0.395 -1.514 4.304
 -0.369 -1.515 4.308
 -0.343 -1.515 4.309
 -0.317 -1.513 4.306
 -0.291 -1.512 4.303
 -0.265 -1.511 4.302
 -0.239 -1.51 4.299
 -0.214 -1.509 4.297
 -0.188 -1.509 4.298
 -0.162 -1.507 4.293
 -0.136 -1.507 4.293
 -0.111 -1.507 4.293
 -0.085 -1.505 4.289
 -0.059 -1.504 4.286
 -0.034 -1.505 4.288
 -0.008 -1.505 4.288
 0.017 -1.505 4.287
 0.042 -1.506 4.289
 0.068 -1.507 4.292
 0.094 -1.507 4.291
 0.119 -1.506 4.288
 0.145 -1.506 4.286
 0.17 -1.506 4.284
 0.196 -1.505 4.281
 0.221 -1.506 4.283
 0.247 -1.506 4.281
 0.273 -1.506 4.279
 0.298 -1.506 4.279
 0.324 -1.505 4.274
 0.349 -1.505 4.271
 0.375 -1.506 4.272
 0.4 -1.506 4.269
 0.426 -1.506 4.266
 0.452 -1.508 4.27
 0.477 -1.507 4.265
 0.503 -1.508 4.264
 0.529 -1.509 4.264
 0.555 -1.51 4.264
 0.581 -1.51 4.261
 0.607 -1.511 4.261
 0.633 -1.512 4.259
 0.659 -1.512 4.257
 0.685 -1.514 4.257
 0.711 -1.515 4.257
 0.738 -1.517 4.259
 0.763 -1.517 4.255
 0.789 -1.518 4.252
 0.816 -1.519 4.252
 0.842 -1.52 4.248
 0.868 -1.521 4.247
 0.895 -1.523 4.247
 0.923 -1.526 4.252
 0.948 -1.525 4.244
 0.975 -1.528 4.246
 1.002 -1.529 4.244
 1.029 -1.531 4.243
 1.056 -1.533 4.243
 1.085 -1.537 4.247
 1.112 -1.538 4.245
 1.14 -1.541 4.247
 1.168 -1.544 4.249
 1.195 -1.545 4.245
 1.223 -1.547 4.244
 1.251 -1.55 4.244
 1.278 -1.551 4.24
 1.305 -1.552 4.236
 1.334 -1.555 4.236
 1.361 -1.556 4.232
 1.39 -1.558 4.23
 1.417 -1.56 4.227
 1.446 -1.563 4.226
 1.474 -1.564 4.222
 1.502 -1.566 4.218
 1.531 -1.569 4.216
 1.56 -1.571 4.213
 1.589 -1.574 4.212
 1.618 -1.576 4.208
 1.647 -1.578 4.205
 1.674 -1.579 4.197
 1.701 -1.579 4.188
 1.727 -1.579 4.177
 1.752 -1.578 4.164
 1.776 -1.575 4.146
 1.798 -1.571 4.126
 1.816 -1.564 4.096
 1.83 -1.554 4.057
 1.841 -1.541 4.014
 1.849 -1.527 3.965
 1.86 -1.514 3.922
 1.872 -1.504 3.884
 1.88 -1.49 3.837
 1.885 -1.475 3.785
 0 0 0
 0 0 0
 0 0 0
 0 0 0
 0 0 0
 1.744 -1.265 3.184
 1.759 -1.26 3.162
 1.771 -1.254 3.135
 1.78 -1.246 3.104
 1.789 -1.238 3.073
 1.79 -1.224 3.029
 1.781 -1.204 2.968
 1.781 -1.191 2.924
 -2.424 -1.61 4.134
 -0.022 -0.016 0.025
 -1.314 -0.894 2.305
 -1.298 -0.894 2.31
 -1.282 -0.894 2.318
 -1.265 -0.892 2.322
 -1.335 -0.954 2.491
 -1.407 -1.018 2.667
 -1.388 -1.017 2.673
 -1.454 -1.079 2.846
 -1.519 -1.142 3.021
 -1.585 -1.208 3.204
 -1.562 -1.206 3.209
 -1.701 -1.332 3.554
 -1.839 -1.46 3.907
 -1.891 -1.522 4.085
 -1.865 -1.522 4.096
 -1.915 -1.586 4.28
 -1.888 -1.586 4.291
 -1.856 -1.583 4.292
 -1.83 -1.585 4.307
 -1.798 -1.581 4.305
 -1.767 -1.578 4.309
 -1.737 -1.576 4.31
 -1.708 -1.575 4.318
 -1.678 -1.572 4.32
 -1.649 -1.571 4.325
 -1.619 -1.568 4.327
 -1.591 -1.568 4.334
 -1.561 -1.565 4.335
 -1.53 -1.561 4.331
 -1.501 -1.56 4.336
 -1.473 -1.559 4.342
 -1.443 -1.556 4.341
 -1.415 -1.555 4.345
 -1.387 -1.554 4.349
 -1.356 -1.55 4.346
 -1.326 -1.547 4.343
 -1.297 -1.544 4.342
 -1.268 -1.542 4.342
 -1.238 -1.538 4.338
 -1.21 -1.537 4.34
 -1.181 -1.534 4.338
 -1.153 -1.531 4.336
 -1.124 -1.528 4.333
 -1.095 -1.526 4.332
 -1.067 -1.524 4.331
 -1.039 -1.522 4.33
 -1.012 -1.521 4.332
 -0.985 -1.52 4.335
 -0.957 -1.517 4.332
 -0.929 -1.515 4.329
 -0.901 -1.513 4.327
 -0.873 -1.509 4.321
 -0.845 -1.506 4.317
 -0.818 -1.505 4.319
 -0.791 -1.503 4.316
 -0.764 -1.502 4.316
 -0.738 -1.502 4.319
 -0.711 -1.5 4.317
 -0.684 -1.498 4.314
 -0.657 -1.496 4.312
 -0.63 -1.495 4.311
 -0.604 -1.493 4.308
 -0.577 -1.492 4.307
 -0.551 -1.491 4.309
 -0.525 -1.491 4.309
 -0.498 -1.489 4.306
 -0.472 -1.488 4.305
 -0.446 -1.488 4.307
 -0.42 -1.487 4.307
 -0.394 -1.487 4.307
 -0.369 -1.488 4.313
 -0.343 -1.488 4.313
 -0.317 -1.486 4.309
 -0.291 -1.486 4.309
 -0.265 -1.485 4.307
 -0.239 -1.483 4.303
 -0.213 -1.483 4.303
 -0.188 -1.482 4.303
 -0.162 -1.479 4.294
 -0.136 -1.478 4.292
 -0.11 -1.478 4.292
 -0.085 -1.477 4.289
 -0.059 -1.476 4.286
 -0.033 -1.477 4.289
 -0.008 -1.478 4.291
 0.017 -1.478 4.29
 0.042 -1.478 4.289
 0.068 -1.479 4.292
 0.094 -1.479 4.293
 0.119 -1.479 4.29
 0.145 -1.478 4.288
 0.17 -1.479 4.288
 0.196 -1.478 4.284
 0.221 -1.479 4.285
 0.247 -1.479 4.285
 0.273 -1.479 4.283
 0.298 -1.479 4.281
 0.324 -1.479 4.279
 0.349 -1.478 4.276
 0.375 -1.479 4.276
 0.4 -1.479 4.274
 0.426 -1.48 4.272
 0.452 -1.481 4.274
 0.477 -1.48 4.269
 0.503 -1.48 4.266
 0.528 -1.481 4.265
 0.554 -1.482 4.264
 0.58 -1.481 4.26
 0.606 -1.483 4.262
 0.632 -1.484 4.262
 0.658 -1.486 4.263
 0.685 -1.487 4.263
 0.711 -1.489 4.264
 0.737 -1.49 4.263
 0.763 -1.491 4.26
 0.789 -1.491 4.257
 0.815 -1.492 4.257
 0.842 -1.493 4.255
 0.868 -1.495 4.254
 0.895 -1.496 4.253
 0.922 -1.499 4.256
 0.948 -1.498 4.25
 0.975 -1.5 4.25
 1.002 -1.502 4.25
 1.028 -1.504 4.248
 1.056 -1.506 4.249
 1.085 -1.51 4.256
 1.112 -1.512 4.254
 1.14 -1.514 4.253
 1.168 -1.517 4.254
 1.195 -1.518 4.251
 1.222 -1.52 4.249
 1.25 -1.522 4.249
 1.278 -1.524 4.247
 1.306 -1.526 4.245
 1.334 -1.528 4.243
 1.361 -1.529 4.237
 1.389 -1.531 4.235
 1.417 -1.533 4.232
 1.445 -1.535 4.231
 1.474 -1.537 4.229
 1.502 -1.539 4.226
 1.531 -1.542 4.225
 1.56 -1.545 4.224
 1.59 -1.548 4.223
 1.619 -1.55 4.22
 1.65 -1.555 4.222
 1.678 -1.556 4.217
 1.706 -1.557 4.21
 1.734 -1.558 4.202
 1.759 -1.557 4.189
 1.779 -1.551 4.163
 1.801 -1.547 4.142
 1.818 -1.539 4.109
 1.832 -1.529 4.071
 1.845 -1.518 4.03
 1.857 -1.507 3.991
 1.869 -1.496 3.949
 1.88 -1.485 3.909
 1.887 -1.471 3.861
 0 0 0
 0 0 0
 0 0 0
 0 0 0
 0 0 0
 0 0 0
 1.499 -1.069 2.742
 1.614 -1.137 2.908
 1.772 -1.234 3.146
 1.783 -1.227 3.117
 1.795 -1.221 3.09
 1.798 -1.209 3.049
 1.805 -1.2 3.015
 1.83 -1.203 3.011
 -0.007 -0.006 0
 -0.018 -0.013 0.018
 -0.876 -0.586 1.534
 -0.863 -0.584 1.536
 -0.851 -0.583 1.537
 -0.836 -0.58 1.535
 -0.913 -0.641 1.703
 -0.988 -0.703 1.873
 -0.972 -0.7 1.871
 -1.044 -0.762 2.044
 -1.112 -0.822 2.212
 -1.18 -0.884 2.388
 -1.164 -0.884 2.394
 -1.391 -1.07 2.91
 -1.611 -1.257 3.43
 -1.748 -1.383 3.784
 -1.801 -1.445 3.965
 -1.929 -1.57 4.32
 -1.901 -1.57 4.331
 -1.871 -1.568 4.335
 -1.842 -1.567 4.344
 -1.81 -1.564 4.345
 -1.779 -1.561 4.347
 -1.748 -1.558 4.347
 -1.717 -1.555 4.349
 -1.686 -1.552 4.349
 -1.655 -1.55 4.351
 -1.624 -1.546 4.349
 -1.595 -1.545 4.354
 -1.565 -1.542 4.354
 -1.534 -1.538 4.353
 -1.505 -1.537 4.357
 -1.476 -1.535 4.359
 -1.445 -1.531 4.355
 -1.416 -1.529 4.357
 -1.387 -1.528 4.36
 -1.357 -1.524 4.356
 -1.328 -1.521 4.356
 -1.299 -1.519 4.357
 -1.269 -1.516 4.353
 -1.239 -1.512 4.348
 -1.21 -1.51 4.348
 -1.181 -1.507 4.345
 -1.152 -1.505 4.344
 -1.124 -1.503 4.344
 -1.096 -1.501 4.345
 -1.068 -1.498 4.341
 -1.04 -1.496 4.34
 -1.012 -1.494 4.339
 -0.984 -1.493 4.341
 -0.956 -1.49 4.338
 -0.929 -1.488 4.337
 -0.901 -1.486 4.334
 -0.873 -1.483 4.33
 -0.845 -1.481 4.327
 -0.818 -1.479 4.325
 -0.79 -1.476 4.322
 -0.764 -1.475 4.322
 -0.737 -1.475 4.324
 -0.71 -1.472 4.32
 -0.683 -1.47 4.317
 -0.656 -1.47 4.318
 -0.63 -1.468 4.315
 -0.603 -1.466 4.315
 -0.577 -1.465 4.312
 -0.55 -1.464 4.312
 -0.524 -1.463 4.311
 -0.498 -1.462 4.31
 -0.472 -1.46 4.308
 -0.446 -1.46 4.309
 -0.42 -1.46 4.31
 -0.394 -1.459 4.308
 -0.368 -1.46 4.313
 -0.342 -1.459 4.312
 -0.316 -1.458 4.309
 -0.29 -1.457 4.309
 -0.265 -1.457 4.309
 -0.238 -1.454 4.301
 -0.213 -1.454 4.301
 -0.187 -1.453 4.301
 -0.161 -1.451 4.295
 -0.135 -1.451 4.294
 -0.11 -1.451 4.294
 -0.084 -1.45 4.293
 -0.059 -1.449 4.289
 -0.033 -1.45 4.292
 -0.008 -1.45 4.293
 0.017 -1.45 4.291
 0.042 -1.449 4.288
 0.068 -1.451 4.292
 0.094 -1.452 4.294
 0.119 -1.451 4.292
 0.145 -1.451 4.291
 0.17 -1.452 4.293
 0.196 -1.451 4.288
 0.221 -1.451 4.286
 0.247 -1.451 4.286
 0.272 -1.452 4.286
 0.298 -1.452 4.284
 0.324 -1.453 4.285
 0.349 -1.452 4.281
 0.375 -1.452 4.28
 0.4 -1.452 4.278
 0.426 -1.453 4.276
 0.452 -1.454 4.277
 0.477 -1.453 4.273
 0.502 -1.453 4.27
 0.528 -1.454 4.268
 0.554 -1.454 4.267
 0.579 -1.454 4.263
 0.606 -1.457 4.267
 0.632 -1.458 4.267
 0.658 -1.459 4.267
 0.684 -1.46 4.267
 0.71 -1.461 4.267
 0.736 -1.462 4.265
 0.762 -1.463 4.262
 0.788 -1.463 4.259
 0.814 -1.463 4.255
 0.84 -1.465 4.255
 0.867 -1.466 4.254
 0.893 -1.468 4.254
 0.921 -1.47 4.256
 0.947 -1.471 4.252
 0.974 -1.473 4.253
 1.001 -1.475 4.254
 1.028 -1.476 4.253
 1.056 -1.479 4.254
 1.085 -1.484 4.262
 1.112 -1.486 4.261
 1.139 -1.487 4.258
 1.167 -1.489 4.258
 1.194 -1.49 4.255
 1.221 -1.491 4.251
 1.249 -1.494 4.251
 1.276 -1.496 4.249
 1.305 -1.498 4.25
 1.332 -1.5 4.246
 1.359 -1.5 4.241
 1.388 -1.503 4.241
 1.416 -1.506 4.239
 1.445 -1.508 4.238
 1.474 -1.511 4.239
 1.503 -1.514 4.238
 1.532 -1.516 4.235
 1.561 -1.518 4.232
 1.59 -1.521 4.23
 1.619 -1.523 4.227
 1.648 -1.526 4.225
 1.677 -1.527 4.22
 1.705 -1.529 4.216
 1.733 -1.53 4.209
 1.758 -1.529 4.194
 1.78 -1.525 4.172
 1.803 -1.522 4.153
 1.821 -1.515 4.123
 1.836 -1.506 4.089
 1.852 -1.497 4.055
 1.866 -1.488 4.018
 1.875 -1.474 3.97
 1.886 -1.463 3.928
 0 0 0
 0 0 0
 0 0 0
 0 0 0
 0 0 0
 0 0 0
 0 0 0
 1.457 -1.021 2.67
 1.609 -1.114 2.905
 1.781 -1.218 3.168
 1.792 -1.211 3.139
 1.806 -1.207 3.116
 1.813 -1.198 3.081
 0 0 0
 0 0 0
 -0.066 -0.044 0.101
 -0.047 -0.032 0.068
 -0.431 -0.284 0.751
 -0.422 -0.282 0.747
 -0.413 -0.279 0.742
 -0.403 -0.275 0.734
 -0.486 -0.336 0.902
 -0.563 -0.394 1.065
 -0.552 -0.391 1.06
 -0.63 -0.452 1.231
 -0.702 -0.51 1.395
 -0.774 -0.57 1.564
 -0.761 -0.568 1.564
 -1.074 -0.812 2.248
 -1.379 -1.056 2.938
 -1.598 -1.242 3.466
 -1.731 -1.364 3.819
 -1.937 -1.548 4.347
 -1.909 -1.549 4.358
 -1.879 -1.547 4.363
 -1.849 -1.545 4.369
 -1.817 -1.542 4.37
 -1.786 -1.539 4.373
 -1.753 -1.535 4.369
 -1.722 -1.532 4.37
 -1.69 -1.528 4.368
 -1.659 -1.525 4.368
 -1.627 -1.521 4.365
 -1.597 -1.519 4.368
 -1.566 -1.516 4.367
 -1.535 -1.513 4.366
 -1.506 -1.51 4.367
 -1.477 -1.509 4.37
 -1.446 -1.505 4.366
 -1.416 -1.502 4.366
 -1.387 -1.5 4.367
 -1.357 -1.497 4.364
 -1.327 -1.494 4.362
 -1.298 -1.491 4.362
 -1.268 -1.489 4.36
 -1.238 -1.485 4.355
 -1.209 -1.482 4.354
 -1.18 -1.479 4.349
 -1.152 -1.477 4.35
 -1.123 -1.475 4.348
 -1.095 -1.473 4.348
 -1.066 -1.47 4.344
 -1.038 -1.468 4.343
 -1.01 -1.465 4.341
 -0.983 -1.464 4.342
 -0.955 -1.462 4.339
 -0.927 -1.46 4.338
 -0.899 -1.457 4.335
 -0.871 -1.454 4.33
 -0.844 -1.452 4.328
 -0.816 -1.451 4.327
 -0.789 -1.448 4.324
 -0.763 -1.448 4.327
 -0.736 -1.447 4.328
 -0.709 -1.445 4.325
 -0.682 -1.443 4.321
 -0.656 -1.442 4.322
 -0.629 -1.44 4.319
 -0.603 -1.439 4.318
 -0.576 -1.438 4.316
 -0.55 -1.437 4.317
 -0.524 -1.436 4.315
 -0.497 -1.434 4.312
 -0.471 -1.433 4.31
 -0.445 -1.432 4.31
 -0.419 -1.432 4.31
 -0.393 -1.43 4.306
 -0.367 -1.431 4.312
 -0.341 -1.431 4.311
 -0.316 -1.43 4.31
 -0.29 -1.429 4.31
 -0.264 -1.429 4.311
 -0.238 -1.427 4.305
 -0.213 -1.428 4.307
 -0.187 -1.427 4.306
 -0.161 -1.425 4.3
 -0.135 -1.424 4.296
 -0.11 -1.424 4.296
 -0.084 -1.423 4.296
 -0.059 -1.422 4.292
 -0.033 -1.423 4.296
 -0.007 -1.425 4.301
 0.017 -1.425 4.3
 0.043 -1.423 4.294
 0.068 -1.423 4.294
 0.094 -1.424 4.294
 0.119 -1.423 4.291
 0.144 -1.422 4.288
 0.17 -1.425 4.294
 0.196 -1.424 4.291
 0.221 -1.424 4.291
 0.247 -1.425 4.291
 0.272 -1.426 4.291
 0.298 -1.425 4.287
 0.324 -1.426 4.29
 0.349 -1.425 4.283
 0.374 -1.425 4.281
 0.4 -1.425 4.281
 0.426 -1.426 4.28
 0.451 -1.426 4.279
 0.477 -1.427 4.279
 0.502 -1.427 4.276
 0.528 -1.427 4.273
 0.554 -1.428 4.271
 0.579 -1.428 4.27
 0.606 -1.43 4.271
 0.632 -1.432 4.273
 0.658 -1.432 4.272
 0.684 -1.433 4.271
 0.71 -1.434 4.269
 0.735 -1.434 4.265
 0.761 -1.435 4.263
 0.787 -1.436 4.262
 0.814 -1.437 4.261
 0.84 -1.439 4.261
 0.867 -1.44 4.262
 0.893 -1.441 4.26
 0.92 -1.443 4.261
 0.946 -1.443 4.256
 0.973 -1.445 4.255
 1 -1.447 4.256
 1.026 -1.448 4.254
 1.054 -1.45 4.254
 1.083 -1.455 4.262
 1.111 -1.457 4.262
 1.137 -1.458 4.258
 1.165 -1.461 4.259
 1.193 -1.463 4.259
 1.22 -1.464 4.255
 1.247 -1.466 4.254
 1.275 -1.468 4.254
 1.303 -1.47 4.251
 1.331 -1.471 4.249
 1.357 -1.471 4.241
 1.386 -1.474 4.241
 1.414 -1.477 4.242
 1.443 -1.48 4.241
 1.472 -1.482 4.24
 1.502 -1.486 4.241
 1.53 -1.487 4.238
 1.559 -1.49 4.236
 1.588 -1.493 4.235
 1.617 -1.495 4.232
 1.646 -1.497 4.229
 1.675 -1.499 4.226
 1.704 -1.501 4.221
 1.732 -1.502 4.214
 1.758 -1.502 4.202
 1.781 -1.499 4.185
 1.805 -1.497 4.167
 1.823 -1.49 4.138
 1.84 -1.482 4.106
 1.857 -1.475 4.074
 1.876 -1.469 4.047
 1.885 -1.457 4.001
 0 0 0
 0 0 0
 0 0 0
 0 0 0
 0 0 0
 0 0 0
 0 0 0
 0.468 -0.328 0.868
 1.169 -0.806 2.146
 1.452 -0.988 2.628
 1.65 -1.109 2.941
 1.798 -1.194 3.157
 1.816 -1.192 3.14
 1.83 -1.188 3.118
 0 0 0
 0 0 0
 -0.117 -0.075 0.188
 -0.086 -0.056 0.138
 -0.076 -0.05 0.122
 -0.071 -0.048 0.115
 -0.066 -0.045 0.108
 -0.057 -0.039 0.093
 -0.142 -0.097 0.255
 -0.223 -0.154 0.414
 -0.213 -0.149 0.402
 -0.206 -0.146 0.395
 -0.284 -0.203 0.558
 -0.359 -0.26 0.72
 -0.434 -0.319 0.888
 -0.835 -0.62 1.749
 -1.225 -0.922 2.616
 -1.446 -1.103 3.141
 -1.661 -1.285 3.67
 -1.866 -1.465 4.197
 -1.838 -1.464 4.205
 -1.807 -1.461 4.205
 -1.85 -1.519 4.382
 -1.817 -1.514 4.379
 -1.786 -1.512 4.382
 -1.753 -1.508 4.379
 -1.722 -1.504 4.378
 -1.691 -1.501 4.379
 -1.66 -1.499 4.381
 -1.628 -1.495 4.377
 -1.597 -1.492 4.377
 -1.566 -1.489 4.376
 -1.535 -1.485 4.374
 -1.504 -1.482 4.372
 -1.475 -1.48 4.374
 -1.444 -1.476 4.369
 -1.414 -1.473 4.369
 -1.385 -1.471 4.37
 -1.356 -1.469 4.37
 -1.327 -1.467 4.37
 -1.297 -1.464 4.369
 -1.267 -1.461 4.365
 -1.237 -1.457 4.359
 -1.207 -1.453 4.354
 -1.177 -1.449 4.349
 -1.15 -1.448 4.352
 -1.122 -1.446 4.35
 -1.094 -1.445 4.351
 -1.065 -1.441 4.347
 -1.036 -1.439 4.344
 -1.008 -1.436 4.339
 -0.98 -1.434 4.339
 -0.953 -1.432 4.338
 -0.925 -1.43 4.336
 -0.897 -1.428 4.334
 -0.87 -1.426 4.331
 -0.842 -1.424 4.33
 -0.816 -1.424 4.332
 -0.789 -1.422 4.331
 -0.763 -1.423 4.336
 -0.737 -1.422 4.339
 -0.71 -1.42 4.335
 -0.681 -1.416 4.325
 -0.655 -1.416 4.327
 -0.628 -1.414 4.323
 -0.602 -1.413 4.325
 -0.576 -1.412 4.322
 -0.55 -1.411 4.324
 -0.523 -1.41 4.322
 -0.497 -1.408 4.318
 -0.47 -1.406 4.313
 -0.444 -1.405 4.314
 -0.419 -1.405 4.315
 -0.392 -1.402 4.306
 -0.367 -1.403 4.312
 -0.341 -1.402 4.311
 -0.315 -1.402 4.312
 -0.289 -1.402 4.311
 -0.264 -1.403 4.315
 -0.238 -1.4 4.308
 -0.212 -1.4 4.309
 -0.186 -1.399 4.306
 -0.16 -1.397 4.299
 -0.135 -1.395 4.295
 -0.109 -1.396 4.296
 -0.084 -1.396 4.298
 -0.058 -1.395 4.295
 -0.033 -1.397 4.299
 -0.007 -1.398 4.303
 0.017 -1.398 4.303
 0.043 -1.396 4.295
 0.068 -1.396 4.294
 0.094 -1.396 4.296
 0.119 -1.396 4.293
 0.144 -1.395 4.291
 0.17 -1.398 4.298
 0.196 -1.397 4.294
 0.221 -1.398 4.294
 0.247 -1.399 4.297
 0.273 -1.4 4.3
 0.298 -1.399 4.292
 0.324 -1.401 4.297
 0.349 -1.399 4.289
 0.374 -1.399 4.286
 0.4 -1.399 4.284
 0.425 -1.4 4.284
 0.451 -1.4 4.284
 0.477 -1.401 4.285
 0.502 -1.401 4.281
 0.528 -1.4 4.276
 0.554 -1.401 4.277
 0.579 -1.402 4.274
 0.606 -1.404 4.277
 0.632 -1.406 4.28
 0.658 -1.407 4.28
 0.684 -1.408 4.278
 0.71 -1.408 4.276
 0.735 -1.408 4.271
 0.761 -1.408 4.268
 0.787 -1.41 4.269
 0.814 -1.411 4.268
 0.84 -1.413 4.269
 0.867 -1.415 4.27
 0.893 -1.415 4.267
 0.919 -1.416 4.263
 0.945 -1.416 4.258
 0.972 -1.417 4.257
 0.999 -1.42 4.26
 1.026 -1.421 4.258
 1.054 -1.424 4.261
 1.083 -1.428 4.267
 1.11 -1.43 4.267
 1.136 -1.43 4.261
 1.164 -1.433 4.262
 1.192 -1.435 4.262
 1.218 -1.436 4.257
 1.246 -1.438 4.257
 1.273 -1.439 4.254
 1.302 -1.442 4.254
 1.329 -1.443 4.252
 1.356 -1.443 4.244
 1.384 -1.446 4.244
 1.413 -1.449 4.246
 1.441 -1.451 4.243
 1.47 -1.453 4.241
 1.5 -1.457 4.242
 1.528 -1.458 4.239
 1.557 -1.461 4.238
 1.586 -1.463 4.235
 1.615 -1.466 4.235
 1.644 -1.468 4.231
 1.673 -1.47 4.228
 1.701 -1.471 4.22
 1.729 -1.473 4.214
 1.755 -1.472 4.203
 1.78 -1.471 4.188
 1.805 -1.469 4.174
 1.826 -1.465 4.152
 1.846 -1.46 4.127
 1.867 -1.456 4.104
 1.888 -1.452 4.082
 0 0 0
 0 0 0
 0 0 0
 0 0 0
 0 0 0
 0 0 0
 0 0 0
 0 0 0
 0 0 0
 0.887 -0.601 1.63
 1.341 -0.897 2.431
 1.595 -1.053 2.849
 1.802 -1.175 3.17
 1.823 -1.175 3.159
 1.67 -1.064 2.849
 0 0 0
 0 0 0
 -0.114 -0.072 0.185
 -0.112 -0.072 0.184
 -0.094 -0.061 0.154
 -0.087 -0.057 0.145
 -0.081 -0.054 0.136
 -0.071 -0.048 0.119
 -0.064 -0.044 0.109
 -0.055 -0.038 0.092
 -0.045 -0.032 0.075
 -0.038 -0.027 0.062
 -0.03 -0.023 0.048
 -0.108 -0.078 0.209
 -0.27 -0.195 0.548
 -0.591 -0.431 1.236
 -0.983 -0.727 2.101
 -1.287 -0.964 2.801
 -1.582 -1.202 3.504
 -1.789 -1.378 4.03
 -1.836 -1.436 4.209
 -1.806 -1.433 4.212
 -1.849 -1.49 4.388
 -1.816 -1.486 4.386
 -1.786 -1.484 4.389
 -1.754 -1.48 4.389
 -1.722 -1.477 4.388
 -1.69 -1.474 4.387
 -1.658 -1.47 4.385
 -1.626 -1.466 4.381
 -1.594 -1.462 4.378
 -1.563 -1.459 4.376
 -1.533 -1.455 4.375
 -1.502 -1.452 4.373
 -1.472 -1.45 4.374
 -1.442 -1.447 4.371
 -1.412 -1.444 4.37
 -1.382 -1.441 4.369
 -1.353 -1.439 4.369
 -1.323 -1.436 4.366
 -1.293 -1.433 4.364
 -1.263 -1.429 4.357
 -1.232 -1.425 4.351
 -1.204 -1.423 4.351
 -1.175 -1.42 4.349
 -1.148 -1.42 4.353
 -1.121 -1.419 4.357
 -1.094 -1.419 4.36
 -1.065 -1.415 4.354
 -1.036 -1.413 4.352
 -1.007 -1.409 4.345
 -0.98 -1.407 4.345
 -0.952 -1.405 4.343
 -0.924 -1.403 4.34
 -0.896 -1.4 4.336
 -0.868 -1.398 4.332
 -0.841 -1.397 4.332
 -0.815 -1.397 4.337
 -0.788 -1.395 4.335
 -0.763 -1.396 4.342
 -0.736 -1.396 4.344
 -0.709 -1.394 4.341
 -0.681 -1.389 4.328
 -0.655 -1.389 4.333
 -0.628 -1.387 4.33
 -0.603 -1.388 4.335
 -0.576 -1.387 4.332
 -0.55 -1.386 4.332
 -0.524 -1.385 4.331
 -0.497 -1.382 4.326
 -0.47 -1.381 4.322
 -0.444 -1.38 4.322
 -0.418 -1.379 4.321
 -0.391 -1.375 4.308
 -0.366 -1.376 4.313
 -0.34 -1.375 4.312
 -0.314 -1.375 4.312
 -0.289 -1.374 4.313
 -0.263 -1.376 4.318
 -0.237 -1.374 4.312
 -0.212 -1.373 4.309
 -0.186 -1.372 4.307
 -0.16 -1.369 4.3
 -0.134 -1.368 4.295
 -0.109 -1.367 4.295
 -0.084 -1.369 4.299
 -0.058 -1.368 4.296
 -0.033 -1.37 4.302
 -0.007 -1.371 4.306
 0.017 -1.371 4.307
 0.043 -1.368 4.295
 0.068 -1.368 4.295
 0.094 -1.368 4.295
 0.119 -1.368 4.294
 0.144 -1.368 4.293
 0.17 -1.372 4.302
 0.196 -1.371 4.298
 0.221 -1.371 4.299
 0.247 -1.373 4.303
 0.273 -1.374 4.304
 0.298 -1.372 4.297
 0.324 -1.375 4.305
 0.349 -1.374 4.297
 0.374 -1.373 4.294
 0.4 -1.374 4.295
 0.426 -1.375 4.294
 0.451 -1.374 4.29
 0.477 -1.375 4.291
 0.503 -1.375 4.288
 0.528 -1.374 4.281
 0.553 -1.375 4.281
 0.579 -1.376 4.281
 0.605 -1.377 4.282
 0.632 -1.379 4.284
 0.658 -1.38 4.284
 0.684 -1.381 4.282
 0.709 -1.381 4.278
 0.735 -1.381 4.275
 0.761 -1.382 4.273
 0.787 -1.383 4.273
 0.814 -1.385 4.273
 0.841 -1.387 4.277
 0.868 -1.389 4.278
 0.894 -1.39 4.277
 0.919 -1.39 4.269
 0.945 -1.39 4.266
 0.971 -1.391 4.263
 0.999 -1.394 4.266
 1.025 -1.394 4.263
 1.053 -1.397 4.266
 1.082 -1.401 4.27
 1.108 -1.402 4.268
 1.134 -1.402 4.261
 1.162 -1.404 4.262
 1.189 -1.405 4.26
 1.216 -1.406 4.255
 1.244 -1.409 4.257
 1.272 -1.411 4.255
 1.3 -1.413 4.255
 1.328 -1.415 4.254
 1.355 -1.416 4.25
 1.383 -1.418 4.247
 1.412 -1.421 4.249
 1.44 -1.423 4.245
 1.468 -1.424 4.242
 1.496 -1.427 4.24
 1.525 -1.429 4.239
 1.554 -1.431 4.237
 1.582 -1.433 4.233
 1.611 -1.436 4.231
 1.641 -1.438 4.23
 1.669 -1.44 4.226
 1.698 -1.442 4.22
 1.727 -1.444 4.217
 1.755 -1.445 4.211
 1.781 -1.445 4.199
 1.807 -1.445 4.188
 1.829 -1.441 4.168
 1.852 -1.439 4.149
 1.87 -1.432 4.119
 0 0 0
 0 0 0
 0 0 0
 0 0 0
 0 0 0
 0 0 0
 0 0 0
 0 0 0
 0.068 -0.049 0.122
 0 0 0
 0 0 0
 1.2 -0.788 2.179
 1.503 -0.974 2.69
 1.817 -1.163 3.203
 1.838 -1.163 3.191
 1.587 -0.993 2.714
 0 0 0
 0 0 0
 -0.118 -0.073 0.191
 -0.115 -0.072 0.188
 -0.104 -0.066 0.172
 -0.097 -0.062 0.162
 -0.087 -0.057 0.148
 -0.079 -0.052 0.134
 -0.071 -0.048 0.122
 -0.059 -0.041 0.101
 -0.05 -0.035 0.085
 -0.042 -0.03 0.07
 -0.033 -0.024 0.053
 -0.109 -0.077 0.211
 -0.27 -0.192 0.551
 -0.59 -0.423 1.237
 -0.984 -0.713 2.106
 -1.287 -0.946 2.806
 -1.581 -1.178 3.507
 -1.788 -1.352 4.036
 -1.835 -1.408 4.215
 -1.805 -1.405 4.217
 -1.847 -1.46 4.393
 -1.816 -1.458 4.394
 -1.784 -1.455 4.394
 -1.753 -1.452 4.395
 -1.72 -1.448 4.393
 -1.688 -1.444 4.391
 -1.656 -1.44 4.387
 -1.624 -1.436 4.383
 -1.591 -1.432 4.378
 -1.56 -1.428 4.375
 -1.529 -1.425 4.373
 -1.498 -1.422 4.371
 -1.469 -1.42 4.373
 -1.438 -1.416 4.369
 -1.409 -1.414 4.369
 -1.38 -1.412 4.371
 -1.352 -1.411 4.373
 -1.321 -1.407 4.369
 -1.292 -1.405 4.368
 -1.262 -1.401 4.361
 -1.231 -1.397 4.355
 -1.202 -1.394 4.352
 -1.174 -1.392 4.351
 -1.147 -1.392 4.356
 -1.12 -1.392 4.361
 -1.093 -1.391 4.365
 -1.064 -1.388 4.36
 -1.036 -1.386 4.358
 -1.007 -1.382 4.351
 -0.979 -1.38 4.348
 -0.951 -1.378 4.349
 -0.923 -1.376 4.344
 -0.895 -1.373 4.341
 -0.868 -1.371 4.339
 -0.842 -1.371 4.341
 -0.815 -1.37 4.343
 -0.788 -1.368 4.339
 -0.762 -1.369 4.344
 -0.735 -1.367 4.343
 -0.707 -1.364 4.337
 -0.679 -1.36 4.327
 -0.654 -1.362 4.335
 -0.628 -1.36 4.333
 -0.602 -1.361 4.339
 -0.576 -1.36 4.337
 -0.55 -1.36 4.339
 -0.523 -1.358 4.337
 -0.497 -1.357 4.335
 -0.471 -1.356 4.332
 -0.444 -1.354 4.329
 -0.418 -1.352 4.324
 -0.391 -1.347 4.31
 -0.365 -1.347 4.311
 -0.339 -1.345 4.307
 -0.314 -1.346 4.31
 -0.288 -1.345 4.308
 -0.263 -1.346 4.313
 -0.237 -1.345 4.308
 -0.211 -1.345 4.309
 -0.186 -1.344 4.307
 -0.16 -1.343 4.305
 -0.134 -1.342 4.301
 -0.109 -1.341 4.298
 -0.083 -1.341 4.298
 -0.058 -1.34 4.296
 -0.032 -1.341 4.298
 -0.007 -1.342 4.3
 0.017 -1.345 4.309
 0.043 -1.343 4.303
 0.068 -1.342 4.299
 0.094 -1.341 4.297
 0.119 -1.342 4.299
 0.145 -1.342 4.296
 0.17 -1.346 4.308
 0.196 -1.346 4.306
 0.222 -1.347 4.31
 0.247 -1.348 4.312
 0.273 -1.349 4.314
 0.298 -1.348 4.307
 0.324 -1.351 4.314
 0.349 -1.348 4.303
 0.375 -1.347 4.3
 0.401 -1.349 4.303
 0.426 -1.35 4.305
 0.452 -1.35 4.3
 0.478 -1.352 4.305
 0.503 -1.351 4.3
 0.528 -1.349 4.289
 0.554 -1.35 4.289
 0.58 -1.352 4.294
 0.606 -1.353 4.292
 0.632 -1.354 4.294
 0.658 -1.355 4.292
 0.684 -1.355 4.288
 0.708 -1.353 4.279
 0.734 -1.354 4.277
 0.76 -1.354 4.273
 0.787 -1.356 4.276
 0.814 -1.359 4.28
 0.841 -1.361 4.284
 0.868 -1.363 4.284
 0.894 -1.365 4.284
 0.918 -1.362 4.272
 0.944 -1.362 4.265
 0.97 -1.362 4.262
 0.998 -1.366 4.266
 1.024 -1.366 4.263
 1.052 -1.369 4.265
 1.08 -1.372 4.27
 1.107 -1.374 4.269
 1.133 -1.374 4.263
 1.161 -1.376 4.263
 1.188 -1.378 4.263
 1.214 -1.378 4.257
 1.243 -1.382 4.261
 1.271 -1.384 4.26
 1.299 -1.386 4.258
 1.326 -1.387 4.255
 1.354 -1.389 4.253
 1.381 -1.389 4.248
 1.41 -1.393 4.25
 1.438 -1.395 4.248
 1.466 -1.397 4.246
 1.495 -1.399 4.244
 1.524 -1.401 4.242
 1.553 -1.403 4.241
 1.581 -1.405 4.238
 1.61 -1.408 4.236
 1.638 -1.409 4.231
 1.667 -1.411 4.227
 1.695 -1.412 4.221
 1.723 -1.414 4.215
 1.752 -1.416 4.213
 1.781 -1.418 4.206
 1.808 -1.418 4.197
 1.835 -1.419 4.188
 1.863 -1.42 4.181
 0 0 0
 0 0 0
 0 0 0
 0 0 0
 0 0 0
 0 0 0
 0 0 0
 0 0 0
 0 0 0
 0 0 0
 0 0 0
 0 0 0
 0 0 0
 0 0 0
 0 0 0
 0 0 0
 1.169 -0.719 2.002
 0 0 0
 0.47 -0.285 0.777
 -0.131 -0.08 0.215
 -0.106 -0.065 0.174
 -0.106 -0.066 0.177
 -0.1 -0.063 0.168
 -0.09 -0.058 0.154
 -0.08 -0.052 0.137
 -0.069 -0.045 0.118
 -0.058 -0.039 0.099
 -0.048 -0.033 0.081
 -0.124 -0.084 0.234
 -0.115 -0.079 0.22
 -0.276 -0.19 0.555
 -0.518 -0.359 1.069
 -0.834 -0.585 1.758
 -1.143 -0.813 2.455
 -1.445 -1.041 3.157
 -1.657 -1.211 3.684
 -1.784 -1.324 4.037
 -1.833 -1.379 4.218
 -1.802 -1.376 4.218
 -1.845 -1.43 4.394
 -1.813 -1.427 4.395
 -1.781 -1.425 4.396
 -1.749 -1.421 4.395
 -1.718 -1.419 4.396
 -1.686 -1.415 4.394
 -1.654 -1.411 4.389
 -1.622 -1.407 4.386
 -1.59 -1.403 4.382
 -1.559 -1.4 4.38
 -1.528 -1.397 4.377
 -1.497 -1.394 4.376
 -1.468 -1.392 4.377
 -1.437 -1.388 4.374
 -1.408 -1.386 4.374
 -1.379 -1.384 4.375
 -1.351 -1.383 4.378
 -1.32 -1.379 4.372
 -1.29 -1.376 4.368
 -1.259 -1.371 4.36
 -1.229 -1.368 4.355
 -1.2 -1.365 4.353
 -1.172 -1.363 4.351
 -1.145 -1.363 4.356
 -1.118 -1.363 4.362
 -1.092 -1.363 4.368
 -1.063 -1.36 4.363
 -1.035 -1.358 4.36
 -1.005 -1.354 4.353
 -0.977 -1.352 4.35
 -0.951 -1.351 4.352
 -0.921 -1.347 4.342
 -0.893 -1.344 4.339
 -0.866 -1.342 4.336
 -0.84 -1.343 4.341
 -0.815 -1.344 4.348
 -0.787 -1.342 4.346
 -0.762 -1.344 4.356
 -0.736 -1.344 4.358
 -0.709 -1.341 4.352
 -0.679 -1.334 4.334
 -0.654 -1.336 4.342
 -0.627 -1.334 4.337
 -0.601 -1.334 4.34
 -0.575 -1.333 4.34
 -0.55 -1.334 4.346
 -0.523 -1.333 4.344
 -0.496 -1.329 4.334
 -0.47 -1.328 4.332
 -0.443 -1.326 4.329
 -0.417 -1.323 4.318
 -0.39 -1.319 4.309
 -0.364 -1.319 4.309
 -0.339 -1.318 4.309
 -0.313 -1.319 4.31
 -0.288 -1.319 4.313
 -0.262 -1.32 4.315
 -0.236 -1.319 4.313
 -0.211 -1.318 4.313
 -0.185 -1.317 4.31
 -0.16 -1.316 4.305
 -0.134 -1.314 4.299
 -0.108 -1.313 4.296
 -0.083 -1.311 4.291
 -0.057 -1.31 4.288
 -0.032 -1.31 4.288
 -0.007 -1.311 4.291
 0.018 -1.314 4.299
 0.043 -1.317 4.309
 0.068 -1.315 4.303
 0.094 -1.314 4.297
 0.119 -1.314 4.296
 0.144 -1.311 4.286
 0.17 -1.318 4.308
 0.196 -1.32 4.312
 0.222 -1.324 4.324
 0.248 -1.325 4.325
 0.273 -1.325 4.323
 0.298 -1.321 4.309
 0.324 -1.322 4.31
 0.348 -1.317 4.294
 0.374 -1.32 4.301
 0.401 -1.323 4.309
 0.426 -1.324 4.308
 0.451 -1.323 4.302
 0.479 -1.328 4.317
 0.503 -1.325 4.303
 0.528 -1.323 4.295
 0.554 -1.325 4.298
 0.582 -1.33 4.31
 0.606 -1.327 4.298
 0.633 -1.33 4.304
 0.659 -1.331 4.303
 0.684 -1.33 4.296
 0.709 -1.328 4.288
 0.735 -1.329 4.285
 0.761 -1.33 4.286
 0.788 -1.332 4.288
 0.816 -1.337 4.3
 0.843 -1.339 4.302
 0.871 -1.342 4.307
 0.896 -1.341 4.297
 0.918 -1.336 4.277
 0.943 -1.335 4.268
 0.969 -1.335 4.263
 0.996 -1.337 4.265
 1.023 -1.338 4.263
 1.05 -1.34 4.265
 1.078 -1.343 4.268
 1.105 -1.345 4.267
 1.131 -1.346 4.263
 1.159 -1.348 4.264
 1.187 -1.35 4.263
 1.213 -1.35 4.258
 1.241 -1.353 4.26
 1.268 -1.354 4.258
 1.296 -1.356 4.257
 1.323 -1.358 4.254
 1.352 -1.36 4.255
 1.379 -1.361 4.25
 1.408 -1.364 4.252
 1.436 -1.366 4.248
 1.464 -1.367 4.245
 1.492 -1.369 4.242
 1.521 -1.372 4.242
 1.549 -1.374 4.239
 1.578 -1.376 4.238
 1.608 -1.379 4.236
 1.636 -1.381 4.233
 1.665 -1.383 4.229
 1.692 -1.384 4.223
 1.721 -1.385 4.218
 1.752 -1.389 4.219
 1.78 -1.39 4.212
 1.808 -1.392 4.206
 1.838 -1.394 4.202
 1.87 -1.398 4.204
 0 0 0
 0 0 0
 0 0 0
 0 0 0
 0 0 0
 0 0 0
 0 0 0
 0 0 0
 0 0 0
 0 0 0
 0 0 0
 0 0 0
 0 0 0
 0 0 0
 0 0 0
 0 0 0
 0.795 -0.481 1.362
 0 0 0
 0 0 0
 -0.111 -0.066 0.18
 -0.131 -0.079 0.219
 -0.104 -0.064 0.174
 -0.098 -0.06 0.165
 -0.09 -0.056 0.153
 -0.08 -0.051 0.138
 -0.068 -0.044 0.116
 -0.059 -0.039 0.1
 -0.047 -0.032 0.08
 -0.121 -0.08 0.229
 -0.112 -0.076 0.215
 -0.359 -0.241 0.726
 -0.599 -0.407 1.24
 -0.915 -0.629 1.933
 -1.224 -0.853 2.633
 -1.523 -1.077 3.336
 -1.655 -1.187 3.688
 -1.783 -1.296 4.04
 -1.83 -1.351 4.22
 -1.799 -1.347 4.219
 -1.841 -1.4 4.394
 -1.809 -1.397 4.395
 -1.777 -1.394 4.393
 -1.745 -1.39 4.393
 -1.714 -1.388 4.394
 -1.683 -1.385 4.393
 -1.65 -1.381 4.389
 -1.618 -1.377 4.385
 -1.587 -1.373 4.382
 -1.556 -1.37 4.379
 -1.524 -1.367 4.376
 -1.494 -1.364 4.374
 -1.465 -1.362 4.377
 -1.435 -1.359 4.374
 -1.406 -1.358 4.377
 -1.378 -1.357 4.381
 -1.351 -1.356 4.386
 -1.32 -1.353 4.381
 -1.288 -1.347 4.369
 -1.255 -1.341 4.354
 -1.225 -1.337 4.347
 -1.197 -1.335 4.348
 -1.169 -1.333 4.347
 -1.143 -1.334 4.356
 -1.119 -1.338 4.373
 -1.094 -1.34 4.385
 -1.065 -1.336 4.378
 -1.036 -1.333 4.373
 -1.005 -1.328 4.359
 -0.977 -1.326 4.358
 -0.813 -1.133 3.726
 -0.787 -1.129 3.716
 -0.763 -1.126 3.71
 -0.74 -1.126 3.711
 -0.719 -1.127 3.718
 -0.816 -1.32 4.364
 -0.789 -1.319 4.364
 -0.766 -1.324 4.382
 0 0 0
 0 0 0
 0 0 0
 0 0 0
 0 0 0
 0 0 0
 0 0 0
 0 0 0
 0 0 0
 0 0 0
 0 0 0
 0 0 0
 0 0 0
 -0.389 -1.291 4.307
 -0.363 -1.291 4.307
 -0.338 -1.29 4.306
 -0.312 -1.29 4.306
 -0.287 -1.29 4.309
 -0.261 -1.29 4.31
 -0.236 -1.289 4.307
 -0.21 -1.29 4.309
 -0.185 -1.29 4.309
 -0.159 -1.289 4.307
 -0.134 -1.287 4.301
 -0.108 -1.286 4.298
 -0.083 -1.284 4.291
 -0.057 -1.283 4.287
 -0.032 -1.281 4.282
 -0.007 -1.28 4.278
 0.018 -1.28 4.276
 0 0 0
 0 0 0
 0 0 0
 0 0 0
 0 0 0
 0 0 0
 0 0 0
 0 0 0
 0 0 0
 0 0 0
 0 0 0
 0 0 0
 0 0 0
 0 0 0
 0 0 0
 0 0 0
 0 0 0
 0 0 0
 0 0 0
 0 0 0
 0 0 0
 0 0 0
 0 0 0
 0 0 0
 0 0 0
 0 0 0
 0 0 0
 0 0 0
 0 0 0
 0 0 0
 0 0 0
 0 0 0
 0 0 0
 0 0 0
 0 0 0
 0.941 -1.306 4.266
 0.968 -1.308 4.266
 0.996 -1.311 4.272
 1.022 -1.312 4.268
 1.049 -1.314 4.268
 1.077 -1.316 4.269
 1.104 -1.317 4.269
 1.13 -1.317 4.263
 1.156 -1.319 4.261
 1.183 -1.32 4.259
 1.21 -1.321 4.256
 1.238 -1.323 4.256
 1.265 -1.325 4.254
 1.294 -1.327 4.255
 1.322 -1.33 4.254
 1.35 -1.332 4.255
 1.378 -1.334 4.253
 1.407 -1.337 4.255
 1.435 -1.339 4.253
 1.462 -1.339 4.247
 1.49 -1.341 4.243
 1.518 -1.343 4.241
 1.546 -1.345 4.237
 1.574 -1.346 4.232
 1.604 -1.349 4.233
 1.633 -1.351 4.231
 1.661 -1.353 4.227
 1.689 -1.354 4.222
 1.718 -1.356 4.218
 1.749 -1.36 4.219
 1.776 -1.36 4.209
 1.804 -1.361 4.203
 1.833 -1.363 4.198
 1.868 -1.369 4.206
 0 0 0
 0 0 0
 0 0 0
 0 0 0
 0 0 0
 0 0 0
 0 0 0
 0 0 0
 0 0 0
 0 0 0
 0 0 0
 0 0 0
 0 0 0
 0 0 0
 0 0 0
 0 0 0
 0.431 -0.257 0.737
 0.407 -0.241 0.685
 0 0 0
 -0.106 -0.062 0.171
 -0.103 -0.061 0.17
 -0.102 -0.061 0.169
 -0.094 -0.057 0.158
 -0.084 -0.052 0.143
 -0.074 -0.046 0.126
 -0.062 -0.039 0.105
 -0.052 -0.034 0.088
 -0.042 -0.028 0.07
 -0.118 -0.077 0.223
 -0.194 -0.127 0.382
 -0.525 -0.345 1.07
 -0.68 -0.453 1.413
 -0.995 -0.671 2.107
 -1.302 -0.89 2.809
 -1.601 -1.109 3.514
 -1.653 -1.161 3.689
 -1.86 -1.325 4.223
 -1.907 -1.379 4.405
 -1.874 -1.376 4.405
 -1.841 -1.372 4.402
 -1.808 -1.368 4.4
 -1.774 -1.363 4.393
 -1.742 -1.36 4.392
 -1.71 -1.357 4.392
 -1.678 -1.354 4.389
 -1.646 -1.35 4.385
 -1.614 -1.346 4.382
 -1.583 -1.343 4.378
 -1.551 -1.339 4.373
 -1.52 -1.336 4.372
 -1.489 -1.333 4.368
 -1.461 -1.331 4.371
 -1.432 -1.329 4.373
 -1.404 -1.329 4.377
 -1.376 -1.328 4.382
 -1.35 -1.328 4.389
 -1.318 -1.324 4.382
 -1.281 -1.314 4.353
 -1.245 -1.304 4.328
 -1.213 -1.298 4.314
 -1.19 -1.301 4.33
 -1.163 -1.3 4.332
 0 0 0
 0 0 0
 0 0 0
 0 0 0
 0 0 0
 0 0 0
 0 0 0
 0 0 0
 0 0 0
 0 0 0
 0 0 0
 0 0 0
 0 0 0
 0 0 0
 0 0 0
 0 0 0
 0 0 0
 0 0 0
 0 0 0
 0 0 0
 0 0 0
 0 0 0
 0 0 0
 0 0 0
 0 0 0
 0 0 0
 0 0 0
 0 0 0
 -0.389 -1.267 4.317
 -0.363 -1.265 4.312
 -0.337 -1.263 4.307
 -0.312 -1.263 4.306
 -0.286 -1.263 4.309
 -0.261 -1.262 4.307
 -0.235 -1.261 4.305
 -0.21 -1.262 4.308
 -0.184 -1.262 4.307
 -0.159 -1.261 4.306
 -0.133 -1.26 4.302
 -0.108 -1.259 4.299
 -0.082 -1.257 4.292
 -0.057 -1.256 4.29
 -0.032 -1.254 4.282
 -0.007 -1.253 4.278
 0.018 -1.253 4.275
 0 0 0
 0 0 0
 0 0 0
 0 0 0
 0 0 0
 0 0 0
 0 0 0
 0 0 0
 0 0 0
 0 0 0
 0 0 0
 0 0 0
 0 0 0
 0 0 0
 0 0 0
 0 0 0
 0 0 0
 0 0 0
 0 0 0
 0 0 0
 0 0 0
 0 0 0
 0 0 0
 0 0 0
 0 0 0
 0 0 0
 0 0 0
 0 0 0
 0 0 0
 0 0 0
 0 0 0
 0 0 0
 0 0 0
 0 0 0
 0 0 0
 0.941 -1.28 4.272
 0.967 -1.281 4.269
 0.995 -1.284 4.273
 1.021 -1.284 4.269
 1.048 -1.285 4.267
 1.075 -1.287 4.268
 1.102 -1.289 4.268
 1.127 -1.289 4.261
 1.154 -1.29 4.258
 1.181 -1.291 4.255
 1.208 -1.293 4.255
 1.236 -1.295 4.255
 1.264 -1.298 4.257
 1.293 -1.3 4.258
 1.32 -1.302 4.256
 1.348 -1.304 4.255
 1.376 -1.305 4.252
 1.404 -1.308 4.253
 1.433 -1.31 4.253
 1.46 -1.311 4.249
 1.489 -1.314 4.248
 1.518 -1.316 4.246
 1.545 -1.317 4.24
 1.572 -1.318 4.235
 1.601 -1.32 4.233
 1.63 -1.322 4.231
 1.658 -1.324 4.226
 1.687 -1.326 4.223
 1.716 -1.328 4.22
 1.748 -1.332 4.224
 1.775 -1.332 4.214
 1.804 -1.335 4.211
 1.834 -1.337 4.207
 1.869 -1.343 4.216
 0 0 0
 0 0 0
 0 0 0
 0 0 0
 0 0 0
 0 0 0
 0 0 0
 0 0 0
 0 0 0
 0 0 0
 0 0 0
 0 0 0
 0 0 0
 0 0 0
 0 0 0
 0.424 -0.251 0.737
 0.429 -0.251 0.735
 0.452 -0.261 0.763
 0 0 0
 -0.13 -0.074 0.214
 -0.107 -0.062 0.176
 -0.099 -0.058 0.164
 -0.091 -0.054 0.154
 -0.082 -0.05 0.139
 -0.069 -0.043 0.118
 -0.146 -0.089 0.266
 -0.136 -0.084 0.252
 -0.125 -0.079 0.234
 -0.2 -0.127 0.388
 -0.363 -0.231 0.726
 -0.693 -0.446 1.42
 -0.846 -0.552 1.765
 -1.241 -0.82 2.637
 -1.546 -1.035 3.343
 -1.76 -1.195 3.873
 -1.729 -1.19 3.866
 -1.935 -1.351 4.402
 -1.905 -1.35 4.409
 -1.871 -1.346 4.405
 -1.837 -1.341 4.401
 -1.805 -1.339 4.401
 -1.771 -1.334 4.394
 -1.739 -1.33 4.392
 -1.707 -1.327 4.389
 -1.674 -1.323 4.385
