 -2.06 -1.621 3.845
 -2.052 -1.625 3.861
 -2.037 -1.623 3.863
 -2.025 -1.624 3.871
 -2.016 -1.628 3.885
 -2.005 -1.629 3.893
 -1.991 -1.628 3.898
 -1.978 -1.628 3.903
 -1.961 -1.625 3.902
 -1.948 -1.625 3.907
 -1.935 -1.626 3.914
 -1.922 -1.625 3.918
 -1.909 -1.625 3.924
 -1.899 -1.628 3.936
 -1.888 -1.63 3.946
 -1.874 -1.629 3.95
 -1.863 -1.631 3.959
 -1.852 -1.633 3.968
 -1.839 -1.633 3.974
 -1.826 -1.633 3.978
 -1.811 -1.631 3.979
 -1.796 -1.629 3.98
 -1.779 -1.626 3.977
 -1.763 -1.623 3.976
 -1.749 -1.623 3.979
 -1.736 -1.622 3.982
 -1.721 -1.621 3.983
 -1.71 -1.622 3.991
 -1.698 -1.624 4
 -1.687 -1.626 4.01
 -1.675 -1.626 4.015
 -1.661 -1.626 4.019
 -1.644 -1.622 4.014
 -1.633 -1.623 4.022
 -1.616 -1.62 4.018
 -1.601 -1.617 4.017
 -1.589 -1.618 4.023
 -1.579 -1.622 4.036
 -1.563 -1.618 4.031
 -1.553 -1.621 4.043
 -1.543 -1.624 4.054
 -1.528 -1.622 4.054
 -1.511 -1.618 4.048
 -1.499 -1.619 4.055
 -1.483 -1.616 4.05
 -1.468 -1.613 4.048
 -1.456 -1.615 4.055
 -1.443 -1.614 4.057
 -1.429 -1.613 4.058
 -1.416 -1.613 4.062
 -1.405 -1.615 4.071
 -1.392 -1.615 4.075
 -1.383 -1.62 4.09
 -1.37 -1.62 4.095
 -1.358 -1.621 4.1
 -1.344 -1.619 4.1
 -1.331 -1.619 4.104
 -1.317 -1.619 4.106
 -1.302 -1.616 4.103
 -1.289 -1.615 4.104
 -1.275 -1.615 4.106
 -1.263 -1.616 4.111
 -1.251 -1.616 4.116
 -1.239 -1.617 4.123
 -1.226 -1.618 4.126
 -1.213 -1.617 4.128
 -1.199 -1.617 4.13
 -1.187 -1.618 4.135
 -1.175 -1.618 4.141
 -1.162 -1.618 4.143
 -1.15 -1.619 4.149
 -1.135 -1.617 4.145
 -1.119 -1.612 4.137
 -1.104 -1.61 4.132
 -1.091 -1.609 4.134
 -1.077 -1.608 4.134
 -1.064 -1.607 4.134
 -1.051 -1.607 4.136
 -1.039 -1.608 4.143
 -1.026 -1.608 4.146
 -1.013 -1.608 4.148
 -1.001 -1.609 4.152
 -0.99 -1.613 4.164
 -0.976 -1.61 4.159
 -0.964 -1.612 4.167
 -0.953 -1.615 4.178
 -0.942 -1.618 4.187
 -0.928 -1.617 4.186
 -0.917 -1.619 4.194
 -0.903 -1.618 4.194
 -0.888 -1.615 4.188
 -0.872 -1.609 4.175
 -0.858 -1.605 4.168
 -0.845 -1.606 4.171
 -0.831 -1.604 4.168
 -0.818 -1.602 4.166
 -0.807 -1.607 4.181
 -0.795 -1.608 4.184
 -0.781 -1.606 4.18
 -0.768 -1.606 4.184
 -0.756 -1.606 4.186
 -0.742 -1.604 4.182
 -0.73 -1.607 4.191
 -0.718 -1.608 4.195
 -0.705 -1.607 4.194
 -0.693 -1.609 4.203
 -0.679 -1.607 4.199
 -0.666 -1.607 4.199
 -0.653 -1.606 4.198
 -0.641 -1.608 4.204
 -0.627 -1.605 4.198
 -0.615 -1.607 4.206
 -0.602 -1.606 4.203
 -0.589 -1.604 4.201
 -0.575 -1.603 4.199
 -0.563 -1.604 4.202
 -0.55 -1.605 4.206
 -0.538 -1.605 4.209
 -0.526 -1.607 4.214
 -0.513 -1.607 4.215
 -0.5 -1.608 4.218
 -0.487 -1.606 4.215
 -0.474 -1.606 4.217
 -0.462 -1.606 4.218
 -0.448 -1.605 4.216
 -0.436 -1.605 4.215
 -0.423 -1.604 4.216
 -0.41 -1.604 4.217
 -0.398 -1.606 4.221
 -0.385 -1.607 4.224
 -0.372 -1.604 4.219
 -0.359 -1.604 4.219
 -0.346 -1.604 4.221
 -0.333 -1.6 4.211
 -0.319 -1.597 4.203
 -0.306 -1.595 4.199
 -0.293 -1.595 4.198
 -0.28 -1.59 4.186
 -0.268 -1.592 4.192
 -0.255 -1.594 4.199
 -0.243 -1.596 4.203
 -0.23 -1.597 4.205
 -0.218 -1.6 4.215
 -0.206 -1.602 4.221
 -0.193 -1.601 4.219
 -0.18 -1.6 4.216
 -0.167 -1.601 4.219
 -0.155 -1.601 4.22
 -0.142 -1.597 4.208
 -0.129 -1.595 4.204
 -0.116 -1.597 4.208
 -0.104 -1.596 4.208
 -0.091 -1.597 4.208
 -0.078 -1.599 4.213
 -0.066 -1.602 4.222
 -0.053 -1.602 4.222
 -0.04 -1.6 4.218
 -0.028 -1.599 4.215
 -0.015 -1.599 4.214
 -0.002 -1.597 4.209
 0.009 -1.597 4.209
 0.022 -1.598 4.211
 0.035 -1.597 4.207
 0.047 -1.594 4.199
 0.06 -1.596 4.206
 0.073 -1.593 4.198
 0.085 -1.595 4.202
 0.098 -1.597 4.206
 0.111 -1.599 4.21
 0.123 -1.595 4.2
 0.136 -1.597 4.204
 0.148 -1.59 4.185
 0.161 -1.591 4.187
 0.173 -1.592 4.19
 0.186 -1.596 4.199
 0.199 -1.597 4.201
 0.212 -1.6 4.21
 0.225 -1.599 4.206
 0.237 -1.598 4.203
 0.25 -1.595 4.195
 0.263 -1.597 4.198
 0.276 -1.599 4.203
 0.288 -1.6 4.205
 0.301 -1.601 4.207
 0.314 -1.604 4.212
 0.327 -1.604 4.213
 0.34 -1.605 4.213
 0.353 -1.606 4.216
 0.365 -1.604 4.209
 0.378 -1.604 4.208
 0.391 -1.604 4.206
 0.403 -1.602 4.201
 0.415 -1.6 4.194
 0.429 -1.604 4.202
 0.441 -1.602 4.197
 0.454 -1.603 4.198
 0.467 -1.604 4.201
 0.479 -1.603 4.195
 0.491 -1.602 4.19
 0.504 -1.601 4.188
 0.516 -1.599 4.181
 0.528 -1.597 4.175
 0.542 -1.602 4.186
 0.555 -1.603 4.187
 0.569 -1.605 4.19
 0.581 -1.605 4.188
 0.595 -1.607 4.191
 0.606 -1.605 4.184
 0.619 -1.605 4.183
 0.632 -1.605 4.18
 0.645 -1.606 4.182
 0.658 -1.607 4.184
 0.672 -1.609 4.186
 0.685 -1.611 4.189
 0.698 -1.612 4.191
 0.711 -1.612 4.189
 0.724 -1.612 4.187
 0.737 -1.613 4.187
 0.749 -1.611 4.18
 0.763 -1.614 4.186
 0.775 -1.613 4.18
 0.787 -1.612 4.175
 0.798 -1.608 4.163
 0.811 -1.608 4.161
 0.822 -1.605 4.151
 0.836 -1.609 4.157
 0.85 -1.61 4.158
 0.864 -1.612 4.162
 0.876 -1.612 4.158
 0.888 -1.61 4.151
 0.9 -1.609 4.146
 0.914 -1.611 4.149
 0.928 -1.613 4.152
 0.942 -1.616 4.156
 0.956 -1.618 4.16
 0.971 -1.621 4.164
 0.981 -1.617 4.151
 0.994 -1.617 4.149
 1.006 -1.615 4.141
 1.018 -1.615 4.137
 1.03 -1.614 4.133
 1.043 -1.615 4.132
 1.055 -1.613 4.124
 1.068 -1.614 4.123
 1.082 -1.616 4.125
 1.094 -1.615 4.12
 1.108 -1.617 4.12
 1.124 -1.62 4.127
 1.138 -1.623 4.131
 1.15 -1.622 4.124
 1.163 -1.622 4.12
 1.176 -1.623 4.12
 1.187 -1.62 4.109
 1.197 -1.616 4.096
 1.211 -1.618 4.098
 1.224 -1.618 4.094
 1.236 -1.618 4.09
 1.251 -1.62 4.092
 1.266 -1.623 4.097
 1.281 -1.626 4.1
 1.294 -1.627 4.098
 1.308 -1.628 4.098
 1.32 -1.627 4.091
 1.334 -1.628 4.089
 1.346 -1.628 4.085
 1.362 -1.631 4.089
 1.375 -1.631 4.086
 1.388 -1.632 4.084
 1.4 -1.631 4.077
 1.412 -1.629 4.069
 1.421 -1.625 4.054
 1.432 -1.623 4.045
 1.446 -1.625 4.045
 1.458 -1.623 4.038
 1.47 -1.623 4.032
 1.486 -1.626 4.036
 1.501 -1.629 4.039
 1.513 -1.628 4.032
 1.529 -1.631 4.035
 1.541 -1.631 4.03
 1.554 -1.631 4.027
 1.567 -1.631 4.02
 1.58 -1.632 4.018
 1.59 -1.628 4.005
 1.605 -1.631 4.006
 1.616 -1.629 3.997
 1.627 -1.627 3.987
 1.636 -1.624 3.975
 1.652 -1.627 3.977
 1.662 -1.624 3.966
 1.674 -1.623 3.958
 1.686 -1.622 3.952
 1.7 -1.624 3.951
 1.711 -1.622 3.94
 1.722 -1.62 3.931
 1.735 -1.621 3.928
 1.748 -1.621 3.922
 1.762 -1.622 3.921
 1.776 -1.623 3.917
 1.79 -1.625 3.916
 1.803 -1.625 3.912
 1.817 -1.626 3.908
 1.824 -1.621 3.89
 1.837 -1.621 3.885
 1.844 -1.616 3.869
 1.851 -1.611 3.851
 1.856 -1.605 3.829
 1.863 -1.6 3.813
 1.864 -1.59 3.784
 1.867 -1.582 3.759
 1.87 -1.574 3.733
 1.875 -1.568 3.713
 1.874 -1.557 3.681
 1.873 -1.546 3.65
 1.875 -1.538 3.626
 1.881 -1.533 3.608
 1.88 -1.522 3.577
 1.882 -1.515 3.554
 1.889 -1.51 3.537
 1.895 -1.506 3.521
 1.888 -1.491 3.481
 1.891 -1.484 3.459
 0 0 0
 0 0 0
 0 0 0
 0 0 0
 0 0 0
 1.786 -1.353 3.119
 1.804 -1.358 3.125
 1.818 -1.361 3.126
 1.826 -1.359 3.117
 1.832 -1.355 3.102
 1.838 -1.352 3.089
 1.835 -1.342 3.061
 1.83 -1.331 3.03
 1.828 -1.322 3.003
 1.833 -1.318 2.989
 1.874 -1.34 3.034
 -2.259 -1.619 3.791
 -2.281 -1.645 3.858
 -2.244 -1.628 3.824
 -2.234 -1.63 3.836
 -2.221 -1.63 3.843
 -2.207 -1.63 3.848
 -2.19 -1.627 3.848
 -2.174 -1.625 3.849
 -2.156 -1.621 3.846
 -2.14 -1.619 3.847
 -2.122 -1.615 3.844
 -2.112 -1.618 3.857
 -2.099 -1.618 3.863
 -2.087 -1.619 3.871
 -2.074 -1.619 3.877
 -2.069 -1.626 3.899
 -2.054 -1.623 3.9
 -2.042 -1.624 3.908
 -2.034 -1.628 3.923
 -2.022 -1.63 3.932
 -2.007 -1.628 3.934
 -1.992 -1.627 3.936
 -1.974 -1.623 3.933
 -1.959 -1.621 3.934
 -1.945 -1.621 3.939
 -1.931 -1.619 3.941
 -1.919 -1.621 3.95
 -1.911 -1.625 3.966
 -1.899 -1.627 3.974
 -1.884 -1.624 3.974
 -1.872 -1.626 3.983
 -1.861 -1.627 3.991
 -1.846 -1.626 3.994
 -1.832 -1.625 3.998
 -1.819 -1.625 4.002
 -1.805 -1.624 4.005
 -1.79 -1.622 4.005
 -1.777 -1.623 4.011
 -1.761 -1.621 4.011
 -1.749 -1.621 4.017
 -1.733 -1.618 4.015
 -1.72 -1.619 4.02
 -1.707 -1.619 4.026
 -1.697 -1.622 4.038
 -1.685 -1.622 4.044
 -1.674 -1.624 4.054
 -1.657 -1.621 4.049
 -1.644 -1.621 4.055
 -1.627 -1.617 4.048
 -1.612 -1.615 4.048
 -1.599 -1.615 4.052
 -1.588 -1.617 4.063
 -1.572 -1.615 4.06
 -1.562 -1.618 4.072
 -1.551 -1.62 4.081
 -1.537 -1.619 4.084
 -1.522 -1.617 4.082
 -1.509 -1.617 4.087
 -1.492 -1.613 4.079
 -1.479 -1.612 4.082
 -1.466 -1.612 4.086
 -1.451 -1.61 4.084
 -1.437 -1.609 4.085
 -1.424 -1.61 4.091
 -1.412 -1.61 4.097
 -1.398 -1.609 4.096
 -1.387 -1.612 4.109
 -1.376 -1.614 4.117
 -1.365 -1.616 4.125
 -1.35 -1.614 4.124
 -1.338 -1.615 4.131
 -1.326 -1.616 4.136
 -1.311 -1.613 4.134
 -1.297 -1.612 4.134
 -1.283 -1.612 4.136
 -1.272 -1.613 4.144
 -1.258 -1.613 4.146
 -1.247 -1.615 4.154
 -1.234 -1.615 4.157
 -1.22 -1.614 4.158
 -1.205 -1.612 4.155
 -1.193 -1.612 4.159
 -1.179 -1.612 4.161
 -1.165 -1.609 4.158
 -1.153 -1.611 4.165
 -1.14 -1.611 4.169
 -1.126 -1.609 4.167
 -1.111 -1.606 4.161
 -1.099 -1.609 4.17
 -1.085 -1.607 4.17
 -1.071 -1.605 4.168
 -1.058 -1.605 4.168
 -1.046 -1.607 4.176
 -1.033 -1.606 4.177
 -1.02 -1.607 4.182
 -1.007 -1.606 4.183
 -0.995 -1.608 4.189
 -0.981 -1.605 4.185
 -0.969 -1.608 4.195
 -0.957 -1.61 4.202
 -0.947 -1.614 4.215
 -0.933 -1.613 4.214
 -0.922 -1.616 4.224
 -0.908 -1.613 4.221
 -0.894 -1.611 4.217
 -0.877 -1.604 4.201
 -0.863 -1.602 4.197
 -0.851 -1.604 4.203
 -0.837 -1.601 4.199
 -0.823 -1.6 4.197
 -0.813 -1.605 4.213
 -0.8 -1.606 4.218
 -0.786 -1.602 4.209
 -0.773 -1.603 4.213
 -0.76 -1.602 4.213
 -0.746 -1.601 4.212
 -0.734 -1.602 4.215
 -0.721 -1.602 4.218
 -0.708 -1.602 4.22
 -0.697 -1.605 4.229
 -0.683 -1.602 4.224
 -0.67 -1.602 4.226
 -0.657 -1.601 4.224
 -0.644 -1.602 4.228
 -0.63 -1.599 4.221
 -0.618 -1.601 4.228
 -0.605 -1.601 4.23
 -0.592 -1.602 4.232
 -0.579 -1.6 4.229
 -0.566 -1.601 4.233
 -0.553 -1.6 4.231
 -0.54 -1.6 4.232
 -0.528 -1.601 4.237
 -0.515 -1.601 4.239
 -0.502 -1.6 4.237
 -0.489 -1.6 4.237
 -0.476 -1.599 4.236
 -0.463 -1.599 4.236
 -0.449 -1.596 4.23
 -0.436 -1.595 4.227
 -0.423 -1.594 4.227
 -0.411 -1.594 4.228
 -0.398 -1.595 4.231
 -0.385 -1.596 4.235
 -0.373 -1.596 4.234
 -0.36 -1.595 4.234
 -0.347 -1.595 4.234
 -0.333 -1.591 4.225
 -0.32 -1.589 4.219
 -0.307 -1.589 4.219
 -0.294 -1.588 4.217
 -0.281 -1.585 4.209
 -0.269 -1.586 4.214
 -0.256 -1.589 4.222
 -0.244 -1.59 4.225
 -0.231 -1.591 4.229
 -0.219 -1.594 4.237
 -0.206 -1.596 4.242
 -0.193 -1.594 4.237
 -0.18 -1.592 4.233
 -0.168 -1.592 4.231
 -0.155 -1.591 4.231
 -0.142 -1.588 4.222
 -0.129 -1.587 4.219
 -0.117 -1.589 4.225
 -0.104 -1.59 4.228
 -0.091 -1.59 4.229
 -0.079 -1.594 4.238
 -0.066 -1.597 4.246
 -0.053 -1.597 4.247
 -0.04 -1.594 4.239
 -0.028 -1.593 4.235
 -0.015 -1.591 4.23
 -0.002 -1.588 4.223
 0.01 -1.588 4.222
 0.022 -1.59 4.226
 0.035 -1.589 4.225
 0.048 -1.587 4.218
 0.06 -1.588 4.222
 0.073 -1.585 4.213
 0.086 -1.586 4.216
 0.098 -1.587 4.218
 0.111 -1.589 4.222
 0.124 -1.587 4.217
 0.137 -1.59 4.223
 0.149 -1.582 4.203
 0.161 -1.583 4.205
 0.174 -1.584 4.207
 0.187 -1.587 4.214
 0.2 -1.588 4.215
 0.213 -1.592 4.225
 0.225 -1.59 4.219
 0.238 -1.588 4.214
 0.25 -1.586 4.209
 0.263 -1.588 4.212
 0.276 -1.591 4.219
 0.289 -1.592 4.22
 0.302 -1.593 4.224
 0.315 -1.594 4.226
 0.328 -1.594 4.223
 0.34 -1.592 4.218
 0.353 -1.595 4.224
 0.366 -1.593 4.217
 0.378 -1.592 4.215
 0.391 -1.593 4.217
 0.404 -1.594 4.217
 0.416 -1.59 4.206
 0.43 -1.594 4.215
 0.442 -1.594 4.213
 0.455 -1.593 4.21
 0.468 -1.595 4.213
 0.48 -1.594 4.21
 0.493 -1.593 4.205
 0.505 -1.592 4.202
 0.518 -1.591 4.198
 0.53 -1.59 4.193
 0.544 -1.594 4.201
 0.557 -1.594 4.202
 0.57 -1.596 4.204
 0.582 -1.595 4.2
 0.596 -1.598 4.206
 0.609 -1.597 4.202
 0.621 -1.597 4.201
 0.634 -1.597 4.197
 0.647 -1.598 4.199
 0.66 -1.598 4.196
 0.673 -1.599 4.199
 0.687 -1.602 4.203
 0.701 -1.604 4.207
 0.714 -1.606 4.21
 0.727 -1.606 4.208
 0.74 -1.606 4.208
 0.752 -1.604 4.2
 0.766 -1.607 4.204
 0.777 -1.605 4.197
 0.79 -1.605 4.196
 0.801 -1.601 4.183
 0.814 -1.601 4.18
 0.825 -1.599 4.171
 0.839 -1.601 4.176
 0.853 -1.603 4.177
 0.867 -1.606 4.183
 0.88 -1.606 4.181
 0.892 -1.604 4.175
 0.905 -1.605 4.173
 0.919 -1.606 4.174
 0.932 -1.608 4.175
 0.947 -1.611 4.182
 0.961 -1.613 4.184
 0.975 -1.615 4.186
 0.985 -1.611 4.172
 0.998 -1.61 4.168
 1.009 -1.608 4.159
 1.022 -1.608 4.158
 1.034 -1.607 4.151
 1.049 -1.61 4.157
 1.061 -1.61 4.153
 1.075 -1.611 4.152
 1.088 -1.612 4.152
 1.102 -1.613 4.151
 1.115 -1.613 4.149
 1.129 -1.616 4.153
 1.145 -1.619 4.158
 1.157 -1.619 4.154
 1.169 -1.618 4.148
 1.183 -1.618 4.146
 1.194 -1.617 4.139
 1.207 -1.617 4.136
 1.22 -1.617 4.132
 1.233 -1.617 4.13
 1.246 -1.618 4.127
 1.259 -1.618 4.123
 1.272 -1.618 4.12
 1.288 -1.621 4.125
 1.301 -1.622 4.122
 1.314 -1.622 4.119
 1.327 -1.622 4.116
 1.34 -1.623 4.115
 1.354 -1.624 4.114
 1.37 -1.627 4.118
 1.384 -1.628 4.116
 1.396 -1.628 4.112
 1.409 -1.628 4.107
 1.419 -1.624 4.094
 1.429 -1.621 4.082
 1.44 -1.62 4.073
 1.454 -1.621 4.073
 1.465 -1.618 4.062
 1.478 -1.619 4.06
 1.494 -1.623 4.064
 1.509 -1.625 4.066
 1.521 -1.624 4.058
 1.537 -1.627 4.062
 1.551 -1.628 4.059
 1.563 -1.627 4.054
 1.576 -1.627 4.048
 1.59 -1.628 4.046
 1.601 -1.626 4.037
 1.615 -1.627 4.035
 1.626 -1.626 4.026
 1.636 -1.623 4.015
 1.647 -1.621 4.006
 1.662 -1.623 4.005
 1.672 -1.621 3.994
 1.684 -1.62 3.988
 1.699 -1.622 3.986
 1.713 -1.623 3.984
 1.723 -1.62 3.972
 1.734 -1.619 3.965
 1.747 -1.619 3.96
 1.759 -1.618 3.952
 1.771 -1.618 3.946
 1.786 -1.619 3.944
 1.801 -1.622 3.945
 1.813 -1.62 3.936
 1.823 -1.618 3.926
 1.833 -1.616 3.913
 1.843 -1.613 3.902
 1.847 -1.605 3.878
 1.855 -1.602 3.864
 1.86 -1.595 3.841
 1.864 -1.588 3.819
 1.866 -1.579 3.791
 1.868 -1.57 3.764
 1.871 -1.563 3.741
 1.878 -1.558 3.723
 1.878 -1.548 3.694
 1.878 -1.538 3.665
 1.882 -1.531 3.643
 1.886 -1.525 3.622
 1.885 -1.515 3.592
 1.889 -1.508 3.57
 1.894 -1.502 3.551
 1.905 -1.502 3.544
 1.893 -1.483 3.495
 0 0 0
 0 0 0
 0 0 0
 0 0 0
 0 0 0
 0 0 0
 1.787 -1.342 3.124
 1.805 -1.348 3.131
 1.817 -1.349 3.129
 1.823 -1.346 3.116
 1.828 -1.342 3.1
 1.834 -1.338 3.087
 1.833 -1.33 3.062
 1.827 -1.318 3.028
 1.825 -1.309 3.003
 1.816 -1.296 2.966
 1.797 -1.275 2.912
 -2.245 -1.596 3.772
 -2.256 -1.614 3.82
 -2.26 -1.626 3.856
 -2.251 -1.629 3.87
 -2.236 -1.629 3.874
 -2.223 -1.629 3.881
 -2.208 -1.627 3.884
 -2.192 -1.625 3.885
 -2.172 -1.62 3.88
 -2.156 -1.618 3.881
 -2.139 -1.615 3.88
 -2.129 -1.617 3.892
 -2.114 -1.617 3.896
 -2.102 -1.617 3.903
 -2.089 -1.617 3.91
 -2.083 -1.623 3.93
 -2.067 -1.621 3.93
 -2.055 -1.622 3.939
 -2.05 -1.628 3.959
 -2.039 -1.63 3.97
 -2.023 -1.628 3.971
 -2.008 -1.627 3.974
 -1.992 -1.624 3.973
 -1.976 -1.622 3.973
 -1.962 -1.621 3.977
 -1.947 -1.62 3.98
 -1.934 -1.621 3.986
 -1.924 -1.623 3.998
 -1.91 -1.623 4.002
 -1.896 -1.622 4.005
 -1.885 -1.624 4.015
 -1.873 -1.625 4.023
 -1.859 -1.624 4.028
 -1.844 -1.623 4.028
 -1.831 -1.623 4.035
 -1.817 -1.622 4.038
 -1.803 -1.622 4.041
 -1.791 -1.623 4.049
 -1.778 -1.623 4.054
 -1.763 -1.622 4.055
 -1.747 -1.619 4.053
 -1.737 -1.621 4.064
 -1.721 -1.619 4.064
 -1.71 -1.621 4.074
 -1.697 -1.621 4.077
 -1.687 -1.624 4.09
 -1.668 -1.619 4.082
 -1.655 -1.619 4.086
 -1.638 -1.615 4.081
 -1.624 -1.614 4.083
 -1.609 -1.613 4.083
 -1.598 -1.615 4.094
 -1.583 -1.613 4.094
 -1.573 -1.616 4.105
 -1.562 -1.618 4.115
 -1.547 -1.617 4.115
 -1.532 -1.614 4.112
 -1.518 -1.614 4.116
 -1.502 -1.61 4.11
 -1.488 -1.609 4.113
 -1.475 -1.61 4.118
 -1.462 -1.609 4.121
 -1.449 -1.61 4.125
 -1.436 -1.609 4.129
 -1.424 -1.611 4.137
 -1.41 -1.61 4.137
 -1.398 -1.612 4.146
 -1.386 -1.613 4.153
 -1.376 -1.616 4.164
 -1.36 -1.613 4.159
 -1.347 -1.613 4.163
 -1.334 -1.613 4.167
 -1.319 -1.61 4.164
 -1.304 -1.608 4.162
 -1.293 -1.611 4.172
 -1.281 -1.613 4.179
 -1.267 -1.611 4.179
 -1.254 -1.611 4.183
 -1.242 -1.613 4.189
 -1.227 -1.61 4.187
 -1.214 -1.61 4.189
 -1.201 -1.61 4.192
 -1.189 -1.612 4.2
 -1.173 -1.608 4.194
 -1.159 -1.607 4.194
 -1.145 -1.606 4.193
 -1.132 -1.605 4.194
 -1.115 -1.6 4.184
 -1.104 -1.602 4.192
 -1.091 -1.603 4.196
 -1.077 -1.601 4.195
 -1.063 -1.6 4.194
 -1.051 -1.602 4.202
 -1.038 -1.601 4.201
 -1.025 -1.601 4.204
 -1.011 -1.6 4.204
 -0.999 -1.601 4.211
 -0.985 -1.599 4.208
 -0.974 -1.602 4.218
 -0.961 -1.603 4.221
 -0.95 -1.606 4.234
 -0.937 -1.606 4.236
 -0.925 -1.607 4.241
 -0.91 -1.605 4.238
 -0.896 -1.603 4.235
 -0.881 -1.598 4.224
 -0.866 -1.596 4.219
 -0.854 -1.597 4.224
 -0.84 -1.595 4.221
 -0.827 -1.594 4.221
 -0.816 -1.599 4.235
 -0.804 -1.6 4.24
 -0.789 -1.597 4.233
 -0.777 -1.597 4.237
 -0.763 -1.596 4.236
 -0.749 -1.594 4.231
 -0.736 -1.593 4.23
 -0.723 -1.594 4.234
 -0.71 -1.594 4.236
 -0.698 -1.596 4.244
 -0.685 -1.595 4.242
 -0.672 -1.594 4.242
 -0.658 -1.592 4.237
 -0.645 -1.592 4.238
 -0.631 -1.588 4.231
 -0.618 -1.589 4.235
 -0.606 -1.59 4.239
 -0.593 -1.591 4.242
 -0.58 -1.589 4.239
 -0.567 -1.59 4.242
 -0.554 -1.589 4.241
 -0.541 -1.589 4.243
 -0.529 -1.591 4.247
 -0.516 -1.591 4.249
 -0.503 -1.591 4.25
 -0.49 -1.591 4.252
 -0.477 -1.591 4.253
 -0.464 -1.59 4.252
 -0.451 -1.588 4.247
 -0.437 -1.586 4.242
 -0.424 -1.585 4.241
 -0.411 -1.585 4.242
 -0.399 -1.586 4.245
 -0.386 -1.587 4.247
 -0.373 -1.586 4.247
 -0.36 -1.585 4.245
 -0.347 -1.584 4.243
 -0.334 -1.58 4.233
 -0.321 -1.579 4.231
 -0.308 -1.579 4.231
 -0.295 -1.579 4.232
 -0.282 -1.576 4.225
 -0.269 -1.578 4.23
 -0.257 -1.58 4.236
 -0.244 -1.582 4.242
 -0.232 -1.582 4.242
 -0.219 -1.584 4.249
 -0.207 -1.586 4.254
 -0.194 -1.583 4.246
 -0.181 -1.581 4.24
 -0.168 -1.58 4.238
 -0.155 -1.579 4.235
 -0.142 -1.576 4.228
 -0.129 -1.577 4.231
 -0.117 -1.579 4.236
 -0.104 -1.58 4.239
 -0.091 -1.582 4.246
 -0.079 -1.584 4.251
 -0.066 -1.586 4.256
 -0.053 -1.586 4.255
 -0.04 -1.583 4.249
 -0.028 -1.581 4.241
 -0.015 -1.579 4.237
 -0.002 -1.577 4.232
 0.01 -1.578 4.234
 0.022 -1.578 4.233
 0.035 -1.578 4.232
 0.048 -1.575 4.226
 0.06 -1.576 4.229
 0.073 -1.573 4.218
 0.086 -1.575 4.223
 0.098 -1.576 4.226
 0.111 -1.578 4.232
 0.124 -1.576 4.226
 0.137 -1.58 4.236
 0.149 -1.575 4.222
 0.162 -1.576 4.223
 0.175 -1.576 4.224
 0.188 -1.578 4.229
 0.2 -1.579 4.229
 0.213 -1.581 4.234
 0.226 -1.579 4.229
 0.238 -1.576 4.219
 0.251 -1.575 4.216
 0.263 -1.576 4.218
 0.276 -1.578 4.223
 0.289 -1.577 4.22
 0.302 -1.579 4.224
 0.315 -1.58 4.225
 0.327 -1.579 4.222
 0.34 -1.577 4.217
 0.353 -1.58 4.223
 0.366 -1.581 4.223
 0.378 -1.58 4.22
 0.391 -1.581 4.221
 0.405 -1.583 4.226
 0.417 -1.582 4.221
 0.43 -1.583 4.224
 0.443 -1.584 4.226
 0.456 -1.584 4.223
 0.468 -1.584 4.221
 0.481 -1.583 4.219
 0.493 -1.582 4.215
 0.506 -1.581 4.211
 0.518 -1.581 4.208
 0.531 -1.58 4.204
 0.544 -1.582 4.208
 0.558 -1.584 4.213
 0.571 -1.585 4.213
 0.583 -1.585 4.21
 0.597 -1.586 4.213
 0.61 -1.587 4.213
 0.622 -1.585 4.206
 0.634 -1.585 4.204
 0.647 -1.586 4.205
 0.66 -1.587 4.205
 0.673 -1.587 4.205
 0.688 -1.591 4.212
 0.701 -1.593 4.215
 0.715 -1.595 4.219
 0.728 -1.595 4.216
 0.741 -1.596 4.217
 0.752 -1.593 4.207
 0.766 -1.595 4.21
 0.778 -1.593 4.203
 0.791 -1.593 4.203
 0.802 -1.59 4.191
 0.815 -1.591 4.192
 0.827 -1.59 4.186
 0.841 -1.592 4.19
 0.855 -1.593 4.19
 0.87 -1.597 4.198
 0.883 -1.597 4.197
 0.894 -1.595 4.188
 0.908 -1.596 4.188
 0.921 -1.597 4.188
 0.934 -1.598 4.189
 0.949 -1.601 4.193
 0.963 -1.603 4.196
 0.977 -1.605 4.198
 0.988 -1.602 4.187
 1 -1.601 4.183
 1.012 -1.6 4.176
 1.026 -1.601 4.177
 1.038 -1.6 4.172
 1.052 -1.603 4.175
 1.066 -1.604 4.176
 1.08 -1.606 4.177
 1.093 -1.606 4.175
 1.106 -1.607 4.173
 1.12 -1.608 4.173
 1.134 -1.609 4.173
 1.148 -1.611 4.176
 1.162 -1.613 4.176
 1.174 -1.611 4.169
 1.188 -1.613 4.169
 1.2 -1.611 4.162
 1.213 -1.612 4.159
 1.226 -1.612 4.156
 1.24 -1.614 4.158
 1.253 -1.613 4.153
 1.265 -1.613 4.148
 1.278 -1.613 4.144
 1.293 -1.615 4.146
 1.306 -1.615 4.144
 1.32 -1.616 4.142
 1.335 -1.618 4.144
 1.348 -1.619 4.142
 1.362 -1.621 4.142
 1.377 -1.623 4.143
 1.39 -1.623 4.14
 1.404 -1.624 4.139
 1.417 -1.624 4.134
 1.428 -1.622 4.125
 1.439 -1.619 4.114
 1.451 -1.618 4.107
 1.464 -1.619 4.105
 1.476 -1.617 4.097
 1.488 -1.617 4.092
 1.503 -1.618 4.091
 1.517 -1.62 4.092
 1.53 -1.62 4.085
 1.545 -1.622 4.087
 1.559 -1.623 4.086
 1.574 -1.626 4.086
 1.587 -1.626 4.083
 1.6 -1.626 4.077
 1.613 -1.625 4.071
 1.625 -1.625 4.066
 1.637 -1.624 4.059
 1.649 -1.622 4.05
 1.66 -1.621 4.042
 1.674 -1.622 4.04
 1.686 -1.621 4.031
 1.698 -1.62 4.024
 1.711 -1.62 4.019
 1.724 -1.62 4.014
 1.734 -1.617 4.002
 1.745 -1.616 3.993
 1.758 -1.616 3.99
 1.772 -1.617 3.985
 1.784 -1.616 3.978
 1.797 -1.616 3.973
 1.811 -1.617 3.97
 1.819 -1.613 3.955
 1.829 -1.61 3.943
 1.839 -1.608 3.931
 1.848 -1.605 3.918
 1.852 -1.597 3.894
 1.862 -1.595 3.882
 1.866 -1.588 3.86
 1.87 -1.58 3.835
 1.872 -1.571 3.808
 1.873 -1.561 3.779
 1.875 -1.553 3.753
 1.88 -1.548 3.733
 1.879 -1.536 3.7
 1.879 -1.527 3.671
 1.884 -1.521 3.652
 1.887 -1.513 3.628
 1.885 -1.502 3.596
 1.895 -1.5 3.585
 1.904 -1.498 3.575
 1.92 -1.501 3.576
 0 0 0
 0 0 0
 0 0 0
 0 0 0
 0 0 0
 0 0 0
 0 0 0
 1.787 -1.332 3.129
 1.805 -1.337 3.136
 1.818 -1.339 3.134
 1.826 -1.337 3.124
 1.831 -1.333 3.109
 1.836 -1.329 3.094
 1.837 -1.322 3.071
 1.83 -1.31 3.038
 1.826 -1.3 3.008
 1.815 -1.284 2.967
 1.814 -1.277 2.944
 -2.253 -1.59 3.792
 -2.253 -1.599 3.82
 -2.279 -1.626 3.893
 -2.271 -1.63 3.909
 -2.256 -1.629 3.913
 -2.24 -1.628 3.916
 -2.224 -1.626 3.918
 -2.208 -1.624 3.919
 -2.187 -1.618 3.912
 -2.173 -1.618 3.917
 -2.16 -1.618 3.923
 -2.149 -1.62 3.935
 -2.134 -1.618 3.937
 -2.12 -1.617 3.941
 -2.107 -1.618 3.949
 -2.096 -1.62 3.959
 -2.079 -1.617 3.959
 -2.066 -1.618 3.965
 -2.061 -1.624 3.987
 -2.05 -1.626 3.997
 -2.037 -1.626 4.004
 -2.021 -1.624 4.004
 -2.006 -1.623 4.007
 -1.993 -1.623 4.012
 -1.978 -1.621 4.014
 -1.962 -1.62 4.016
 -1.952 -1.622 4.027
 -1.941 -1.624 4.037
 -1.925 -1.622 4.038
 -1.911 -1.621 4.042
 -1.9 -1.623 4.052
 -1.884 -1.621 4.052
 -1.869 -1.62 4.054
 -1.853 -1.617 4.053
 -1.838 -1.616 4.055
 -1.826 -1.616 4.061
 -1.814 -1.618 4.07
 -1.805 -1.622 4.084
 -1.796 -1.626 4.1
 -1.782 -1.626 4.104
 -1.766 -1.623 4.102
 -1.753 -1.623 4.107
 -1.734 -1.618 4.099
 -1.721 -1.618 4.104
 -1.708 -1.618 4.109
 -1.696 -1.619 4.117
 -1.68 -1.617 4.116
 -1.667 -1.618 4.122
 -1.649 -1.613 4.114
 -1.636 -1.613 4.117
 -1.622 -1.612 4.12
 -1.609 -1.612 4.125
 -1.594 -1.611 4.127
 -1.583 -1.613 4.137
 -1.571 -1.614 4.143
 -1.557 -1.613 4.145
 -1.542 -1.611 4.145
 -1.528 -1.611 4.148
 -1.512 -1.608 4.144
 -1.497 -1.606 4.142
 -1.483 -1.605 4.143
 -1.47 -1.605 4.147
 -1.456 -1.605 4.151
 -1.443 -1.604 4.153
 -1.432 -1.607 4.163
 -1.417 -1.605 4.164
 -1.406 -1.608 4.174
 -1.394 -1.609 4.181
 -1.383 -1.611 4.191
 -1.367 -1.608 4.185
 -1.355 -1.609 4.192
 -1.341 -1.608 4.193
 -1.325 -1.605 4.189
 -1.312 -1.605 4.192
 -1.301 -1.608 4.204
 -1.288 -1.608 4.207
 -1.273 -1.606 4.205
 -1.26 -1.607 4.209
 -1.248 -1.607 4.214
 -1.234 -1.606 4.214
 -1.221 -1.607 4.22
 -1.208 -1.607 4.224
 -1.197 -1.609 4.232
 -1.18 -1.605 4.223
 -1.165 -1.602 4.219
 -1.15 -1.6 4.215
 -1.137 -1.6 4.218
 -1.122 -1.596 4.213
 -1.11 -1.599 4.221
 -1.097 -1.599 4.224
 -1.083 -1.597 4.223
 -1.069 -1.596 4.222
 -1.056 -1.596 4.224
 -1.042 -1.595 4.224
 -1.029 -1.595 4.227
 -1.016 -1.594 4.227
 -1.003 -1.595 4.231
 -0.988 -1.592 4.227
 -0.976 -1.594 4.234
 -0.964 -1.595 4.239
 -0.952 -1.597 4.247
 -0.939 -1.597 4.25
 -0.927 -1.599 4.258
 -0.913 -1.598 4.256
 -0.898 -1.594 4.248
 -0.884 -1.591 4.242
 -0.87 -1.589 4.24
 -0.857 -1.589 4.242
 -0.843 -1.587 4.239
 -0.83 -1.588 4.244
 -0.818 -1.59 4.252
 -0.805 -1.591 4.254
 -0.791 -1.589 4.25
 -0.779 -1.589 4.253
 -0.765 -1.588 4.251
 -0.751 -1.586 4.249
 -0.737 -1.584 4.245
 -0.724 -1.584 4.247
 -0.711 -1.584 4.248
 -0.7 -1.586 4.256
 -0.686 -1.585 4.254
 -0.673 -1.584 4.253
 -0.659 -1.582 4.249
 -0.646 -1.582 4.25
 -0.632 -1.579 4.244
 -0.619 -1.579 4.245
 -0.607 -1.581 4.253
 -0.594 -1.581 4.254
 -0.581 -1.579 4.251
 -0.568 -1.579 4.252
 -0.554 -1.578 4.251
 -0.542 -1.578 4.252
 -0.529 -1.579 4.256
 -0.516 -1.579 4.255
 -0.503 -1.579 4.258
 -0.49 -1.579 4.258
 -0.477 -1.579 4.259
 -0.465 -1.579 4.26
 -0.451 -1.578 4.258
 -0.438 -1.577 4.256
 -0.425 -1.576 4.255
 -0.412 -1.574 4.251
 -0.399 -1.574 4.252
 -0.386 -1.574 4.252
 -0.373 -1.573 4.251
 -0.36 -1.573 4.252
 -0.347 -1.572 4.25
 -0.334 -1.569 4.243
 -0.321 -1.568 4.24
 -0.308 -1.566 4.236
 -0.295 -1.566 4.235
 -0.282 -1.564 4.23
 -0.269 -1.564 4.232
 -0.257 -1.566 4.236
 -0.244 -1.567 4.24
 -0.231 -1.568 4.242
 -0.219 -1.571 4.25
 -0.207 -1.572 4.256
 -0.194 -1.572 4.254
 -0.181 -1.57 4.251
 -0.168 -1.57 4.251
 -0.155 -1.568 4.246
 -0.142 -1.566 4.24
 -0.129 -1.566 4.239
 -0.117 -1.567 4.243
 -0.104 -1.568 4.245
 -0.091 -1.57 4.251
 -0.079 -1.572 4.258
 -0.066 -1.575 4.264
 -0.053 -1.574 4.261
 -0.04 -1.571 4.255
 -0.027 -1.569 4.249
 -0.015 -1.567 4.244
 -0.002 -1.565 4.238
 0.01 -1.567 4.243
 0.022 -1.567 4.243
 0.035 -1.568 4.244
 0.048 -1.567 4.241
 0.061 -1.568 4.245
 0.073 -1.565 4.235
 0.086 -1.566 4.239
 0.099 -1.567 4.241
 0.112 -1.569 4.244
 0.124 -1.567 4.238
 0.137 -1.57 4.247
 0.15 -1.566 4.236
 0.162 -1.567 4.237
 0.175 -1.568 4.239
 0.188 -1.569 4.241
 0.201 -1.567 4.237
 0.214 -1.57 4.244
 0.226 -1.568 4.239
 0.239 -1.566 4.23
 0.251 -1.565 4.227
 0.264 -1.566 4.23
 0.277 -1.567 4.232
 0.29 -1.567 4.231
 0.302 -1.567 4.23
 0.315 -1.569 4.233
 0.328 -1.568 4.23
 0.34 -1.566 4.223
 0.353 -1.568 4.228
 0.367 -1.571 4.235
 0.379 -1.57 4.232
 0.392 -1.572 4.235
 0.406 -1.574 4.239
 0.418 -1.572 4.233
 0.431 -1.572 4.232
 0.444 -1.573 4.233
 0.456 -1.572 4.229
 0.469 -1.572 4.228
 0.481 -1.571 4.224
 0.494 -1.57 4.221
 0.506 -1.569 4.216
 0.519 -1.569 4.215
 0.531 -1.568 4.211
 0.544 -1.57 4.214
 0.558 -1.573 4.22
 0.571 -1.574 4.221
 0.584 -1.574 4.219
 0.597 -1.574 4.219
 0.61 -1.575 4.221
 0.622 -1.573 4.212
 0.634 -1.572 4.208
 0.647 -1.573 4.208
 0.66 -1.573 4.207
 0.673 -1.574 4.207
 0.687 -1.577 4.213
 0.701 -1.579 4.217
 0.714 -1.58 4.217
 0.728 -1.582 4.22
 0.741 -1.584 4.224
 0.753 -1.581 4.214
 0.766 -1.582 4.215
 0.779 -1.583 4.214
 0.792 -1.583 4.213
 0.803 -1.578 4.197
 0.816 -1.58 4.201
 0.829 -1.58 4.199
 0.843 -1.581 4.199
 0.856 -1.582 4.199
 0.871 -1.586 4.207
 0.885 -1.588 4.21
 0.897 -1.586 4.203
 0.91 -1.588 4.204
 0.923 -1.588 4.203
 0.936 -1.589 4.202
 0.95 -1.59 4.202
 0.964 -1.591 4.203
 0.978 -1.594 4.207
 0.99 -1.592 4.2
 1.003 -1.592 4.198
 1.015 -1.592 4.193
 1.029 -1.592 4.192
 1.041 -1.592 4.189
 1.055 -1.594 4.191
 1.07 -1.596 4.193
 1.084 -1.599 4.197
 1.098 -1.6 4.197
 1.111 -1.6 4.194
 1.124 -1.601 4.192
 1.138 -1.602 4.192
 1.151 -1.603 4.191
 1.164 -1.602 4.187
 1.176 -1.6 4.179
 1.19 -1.603 4.182
 1.203 -1.602 4.176
 1.216 -1.603 4.174
 1.231 -1.605 4.177
 1.247 -1.609 4.183
 1.259 -1.608 4.177
 1.272 -1.608 4.175
 1.285 -1.608 4.171
 1.299 -1.61 4.171
 1.312 -1.609 4.165
 1.325 -1.61 4.164
 1.34 -1.612 4.165
 1.353 -1.612 4.163
 1.367 -1.613 4.161
 1.382 -1.616 4.164
 1.395 -1.615 4.159
 1.408 -1.615 4.154
 1.421 -1.615 4.15
 1.434 -1.616 4.148
 1.445 -1.613 4.137
 1.457 -1.612 4.129
 1.473 -1.615 4.133
 1.484 -1.614 4.125
 1.497 -1.613 4.119
 1.511 -1.614 4.117
 1.527 -1.617 4.122
 1.538 -1.615 4.112
 1.553 -1.618 4.113
 1.567 -1.619 4.111
 1.584 -1.622 4.115
 1.596 -1.622 4.11
 1.61 -1.622 4.106
 1.622 -1.622 4.1
 1.635 -1.622 4.095
 1.647 -1.62 4.087
 1.66 -1.621 4.083
 1.672 -1.62 4.076
 1.686 -1.621 4.074
 1.698 -1.619 4.065
 1.709 -1.617 4.055
 1.721 -1.617 4.048
 1.734 -1.616 4.042
 1.744 -1.614 4.03
 1.756 -1.613 4.024
 1.768 -1.612 4.016
 1.782 -1.613 4.013
 1.793 -1.611 4.004
 1.804 -1.61 3.994
 1.818 -1.61 3.99
 1.827 -1.607 3.976
 1.833 -1.601 3.956
 1.843 -1.598 3.944
 1.851 -1.594 3.928
 1.855 -1.587 3.904
 1.864 -1.584 3.892
 1.872 -1.58 3.875
 1.876 -1.572 3.852
 1.879 -1.565 3.828
 1.879 -1.554 3.795
 1.882 -1.546 3.771
 1.885 -1.539 3.747
 1.882 -1.527 3.711
 1.883 -1.517 3.684
 1.891 -1.514 3.669
 1.889 -1.502 3.635
 1.884 -1.489 3.598
 1.897 -1.49 3.594
 1.91 -1.491 3.59
 0 0 0
 0 0 0
 0 0 0
 0 0 0
 0 0 0
 0 0 0
 0 0 0
 0 0 0
 0 0 0
 1.804 -1.326 3.138
 1.818 -1.328 3.137
 1.824 -1.325 3.124
 1.83 -1.321 3.111
 1.837 -1.319 3.1
 1.838 -1.312 3.078
 1.832 -1.3 3.044
 1.826 -1.289 3.012
 1.778 -1.248 2.91
 1.78 -1.242 2.892
 -2.339 -1.636 3.941
 -2.327 -1.638 3.951
 -2.289 -1.62 3.915
 -2.279 -1.623 3.928
 -2.265 -1.623 3.935
 -2.251 -1.622 3.94
 -2.239 -1.623 3.949
 -2.224 -1.622 3.953
 -2.203 -1.616 3.945
 -2.189 -1.616 3.95
 -2.174 -1.615 3.954
 -2.161 -1.616 3.962
 -2.144 -1.613 3.961
 -2.132 -1.614 3.969
 -2.118 -1.613 3.974
 -2.108 -1.616 3.986
 -2.091 -1.613 3.986
 -2.079 -1.614 3.995
 -2.073 -1.62 4.014
 -2.064 -1.623 4.029
 -2.051 -1.624 4.037
 -2.036 -1.622 4.038
 -2.022 -1.622 4.043
 -2.007 -1.621 4.047
 -1.992 -1.619 4.048
 -1.976 -1.617 4.049
 -1.964 -1.619 4.057
 -1.95 -1.619 4.063
 -1.936 -1.618 4.067
 -1.924 -1.619 4.074
 -1.911 -1.619 4.08
 -1.895 -1.617 4.08
 -1.883 -1.618 4.088
 -1.867 -1.616 4.088
 -1.851 -1.614 4.087
 -1.839 -1.616 4.097
 -1.829 -1.618 4.108
 -1.818 -1.621 4.12
 -1.808 -1.623 4.131
 -1.795 -1.624 4.138
 -1.777 -1.62 4.133
 -1.765 -1.621 4.14
 -1.747 -1.616 4.134
 -1.732 -1.615 4.135
 -1.717 -1.614 4.136
 -1.705 -1.615 4.143
 -1.69 -1.613 4.144
 -1.676 -1.613 4.147
 -1.659 -1.61 4.144
 -1.646 -1.609 4.148
 -1.632 -1.609 4.151
 -1.617 -1.608 4.153
 -1.604 -1.608 4.157
 -1.591 -1.608 4.161
 -1.578 -1.608 4.166
 -1.564 -1.608 4.17
 -1.55 -1.607 4.173
 -1.537 -1.607 4.177
 -1.522 -1.605 4.176
 -1.507 -1.603 4.175
 -1.493 -1.603 4.177
 -1.48 -1.603 4.183
 -1.466 -1.603 4.184
 -1.453 -1.602 4.188
 -1.441 -1.604 4.196
 -1.426 -1.602 4.195
 -1.414 -1.603 4.201
 -1.402 -1.604 4.208
 -1.39 -1.606 4.216
 -1.374 -1.603 4.212
 -1.361 -1.603 4.216
 -1.348 -1.603 4.22
 -1.332 -1.6 4.215
 -1.32 -1.602 4.222
 -1.309 -1.605 4.234
 -1.295 -1.604 4.235
 -1.279 -1.601 4.229
 -1.266 -1.601 4.234
 -1.252 -1.6 4.234
 -1.238 -1.598 4.233
 -1.225 -1.599 4.239
 -1.212 -1.599 4.242
 -1.2 -1.6 4.247
 -1.184 -1.597 4.243
 -1.169 -1.594 4.238
 -1.155 -1.593 4.236
 -1.142 -1.593 4.241
 -1.127 -1.591 4.238
 -1.114 -1.591 4.241
 -1.101 -1.591 4.243
 -1.087 -1.591 4.245
 -1.073 -1.589 4.244
 -1.06 -1.588 4.244
 -1.046 -1.587 4.244
 -1.034 -1.59 4.253
 -1.02 -1.588 4.252
 -1.007 -1.588 4.254
 -0.993 -1.587 4.252
 -0.981 -1.588 4.257
 -0.967 -1.587 4.259
 -0.954 -1.587 4.26
 -0.941 -1.586 4.261
 -0.928 -1.587 4.265
 -0.914 -1.586 4.264
 -0.898 -1.581 4.253
 -0.886 -1.582 4.258
 -0.872 -1.581 4.258
 -0.859 -1.581 4.259
 -0.845 -1.579 4.255
 -0.832 -1.579 4.259
 -0.819 -1.579 4.259
 -0.806 -1.579 4.263
 -0.793 -1.578 4.261
 -0.78 -1.579 4.264
 -0.767 -1.578 4.265
 -0.753 -1.577 4.264
 -0.74 -1.576 4.262
 -0.726 -1.575 4.262
 -0.713 -1.575 4.262
 -0.701 -1.575 4.266
 -0.687 -1.574 4.263
 -0.673 -1.572 4.26
 -0.66 -1.572 4.261
 -0.647 -1.571 4.26
 -0.633 -1.569 4.256
 -0.62 -1.569 4.257
 -0.607 -1.569 4.26
 -0.594 -1.568 4.257
 -0.581 -1.567 4.257
 -0.568 -1.567 4.259
 -0.555 -1.566 4.257
 -0.541 -1.565 4.255
 -0.529 -1.566 4.26
 -0.516 -1.565 4.258
 -0.503 -1.565 4.258
 -0.49 -1.566 4.261
 -0.477 -1.566 4.264
 -0.464 -1.566 4.264
 -0.451 -1.565 4.262
 -0.438 -1.565 4.263
 -0.425 -1.563 4.259
 -0.412 -1.563 4.258
 -0.399 -1.563 4.26
 -0.386 -1.562 4.258
 -0.373 -1.56 4.254
 -0.36 -1.56 4.255
 -0.347 -1.559 4.251
 -0.334 -1.557 4.248
 -0.321 -1.558 4.252
 -0.308 -1.557 4.249
 -0.295 -1.556 4.248
 -0.283 -1.556 4.247
 -0.27 -1.555 4.245
 -0.257 -1.555 4.245
 -0.244 -1.556 4.249
 -0.232 -1.556 4.249
 -0.219 -1.557 4.253
 -0.206 -1.557 4.254
 -0.193 -1.557 4.254
 -0.181 -1.556 4.252
 -0.168 -1.556 4.251
 -0.155 -1.555 4.249
 -0.142 -1.555 4.247
 -0.129 -1.553 4.242
 -0.116 -1.553 4.245
 -0.104 -1.555 4.249
 -0.091 -1.557 4.253
 -0.078 -1.557 4.256
 -0.066 -1.56 4.264
 -0.053 -1.559 4.261
 -0.04 -1.558 4.256
 -0.027 -1.556 4.251
 -0.015 -1.555 4.248
 -0.002 -1.553 4.243
 0.01 -1.554 4.246
 0.023 -1.554 4.245
 0.035 -1.554 4.244
 0.048 -1.553 4.243
 0.061 -1.555 4.247
 0.073 -1.552 4.238
 0.086 -1.553 4.241
 0.099 -1.554 4.244
 0.112 -1.555 4.246
 0.124 -1.555 4.244
 0.137 -1.557 4.252
 0.15 -1.556 4.248
 0.163 -1.556 4.248
 0.176 -1.558 4.25
 0.188 -1.558 4.25
 0.201 -1.557 4.248
 0.214 -1.558 4.25
 0.226 -1.556 4.244
 0.239 -1.554 4.236
 0.251 -1.553 4.233
 0.264 -1.553 4.233
 0.277 -1.553 4.233
 0.289 -1.552 4.229
 0.302 -1.552 4.226
 0.315 -1.552 4.227
 0.327 -1.552 4.224
 0.34 -1.55 4.22
 0.353 -1.553 4.227
 0.366 -1.556 4.234
 0.379 -1.555 4.23
 0.392 -1.557 4.233
 0.405 -1.559 4.237
 0.418 -1.558 4.233
 0.43 -1.558 4.232
 0.443 -1.559 4.233
 0.456 -1.558 4.229
 0.468 -1.556 4.225
 0.48 -1.555 4.221
 0.493 -1.556 4.22
 0.506 -1.555 4.218
 0.519 -1.557 4.22
 0.532 -1.557 4.219
 0.545 -1.558 4.221
 0.559 -1.561 4.226
 0.572 -1.562 4.228
 0.584 -1.562 4.226
 0.598 -1.563 4.227
 0.611 -1.563 4.227
 0.622 -1.561 4.218
 0.635 -1.56 4.214
 0.647 -1.56 4.212
 0.66 -1.56 4.209
 0.673 -1.56 4.21
 0.687 -1.563 4.216
 0.701 -1.566 4.221
 0.714 -1.567 4.222
 0.728 -1.57 4.226
 0.742 -1.571 4.229
 0.754 -1.57 4.224
 0.767 -1.57 4.221
 0.78 -1.571 4.222
 0.793 -1.571 4.22
 0.804 -1.568 4.208
 0.817 -1.567 4.205
 0.83 -1.568 4.204
 0.842 -1.568 4.202
 0.856 -1.569 4.203
 0.87 -1.571 4.207
 0.884 -1.574 4.212
 0.897 -1.574 4.208
 0.91 -1.575 4.208
 0.923 -1.575 4.207
 0.936 -1.576 4.205
 0.95 -1.576 4.205
 0.964 -1.578 4.207
 0.978 -1.58 4.209
 0.99 -1.58 4.206
 1.004 -1.581 4.206
 1.017 -1.581 4.204
 1.031 -1.583 4.205
 1.044 -1.583 4.204
 1.058 -1.584 4.204
 1.072 -1.587 4.206
 1.086 -1.589 4.21
 1.1 -1.589 4.208
 1.113 -1.59 4.205
 1.126 -1.59 4.204
 1.14 -1.591 4.203
 1.153 -1.592 4.202
 1.166 -1.591 4.197
 1.179 -1.591 4.193
 1.193 -1.593 4.195
 1.206 -1.593 4.192
 1.219 -1.593 4.189
 1.233 -1.595 4.19
 1.249 -1.598 4.194
 1.261 -1.597 4.187
 1.274 -1.597 4.185
 1.288 -1.599 4.184
 1.302 -1.6 4.186
 1.316 -1.601 4.183
 1.33 -1.603 4.184
 1.344 -1.604 4.183
 1.358 -1.604 4.18
 1.372 -1.605 4.179
 1.386 -1.606 4.178
 1.398 -1.606 4.173
 1.412 -1.607 4.171
 1.426 -1.608 4.17
 1.44 -1.609 4.168
 1.451 -1.606 4.158
 1.463 -1.606 4.151
 1.479 -1.608 4.155
 1.491 -1.608 4.148
 1.504 -1.607 4.142
 1.519 -1.609 4.144
 1.536 -1.613 4.149
 1.547 -1.612 4.14
 1.561 -1.612 4.138
 1.575 -1.613 4.135
 1.591 -1.617 4.14
 1.602 -1.614 4.129
 1.616 -1.615 4.127
 1.631 -1.617 4.126
 1.643 -1.616 4.12
 1.654 -1.614 4.109
 1.669 -1.616 4.108
 1.68 -1.614 4.1
 1.693 -1.614 4.093
 1.706 -1.613 4.088
 1.717 -1.611 4.078
 1.729 -1.611 4.071
 1.743 -1.612 4.068
 1.755 -1.611 4.06
 1.767 -1.61 4.054
 1.781 -1.61 4.05
 1.794 -1.611 4.045
 1.806 -1.609 4.036
 1.816 -1.607 4.025
 1.83 -1.608 4.021
 1.839 -1.604 4.007
 1.845 -1.599 3.987
 1.854 -1.595 3.972
 1.862 -1.591 3.957
 1.866 -1.583 3.933
 1.873 -1.578 3.913
 1.877 -1.571 3.89
 1.881 -1.564 3.867
 1.881 -1.553 3.835
 1.881 -1.543 3.804
 1.886 -1.537 3.784
 1.891 -1.531 3.764
 1.887 -1.518 3.725
 1.891 -1.511 3.703
 1.897 -1.507 3.686
 1.893 -1.493 3.647
 1.885 -1.478 3.604
 1.901 -1.481 3.606
 0 0 0
 0 0 0
 0 0 0
 0 0 0
 0 0 0
 0 0 0
 0 0 0
 0 0 0
 0 0 0
 0 0 0
 1.812 -1.32 3.154
 1.819 -1.318 3.143
 1.822 -1.312 3.124
 1.829 -1.31 3.113
 1.836 -1.307 3.101
 1.838 -1.301 3.081
 1.832 -1.29 3.048
 1.829 -1.28 3.02
 1.825 -1.271 2.992
 1.831 -1.267 2.978
 -2.367 -1.643 3.995
 -2.339 -1.633 3.977
 -2.312 -1.623 3.96
 -2.299 -1.623 3.967
 -2.287 -1.625 3.978
 -2.271 -1.623 3.98
 -2.262 -1.626 3.994
 -2.246 -1.625 3.997
 -2.224 -1.618 3.987
 -2.208 -1.617 3.991
 -2.195 -1.617 3.997
 -2.182 -1.618 4.005
 -2.163 -1.613 4.001
 -2.152 -1.615 4.011
 -2.136 -1.614 4.014
 -2.125 -1.615 4.023
 -2.105 -1.611 4.018
 -2.095 -1.613 4.03
 -2.087 -1.618 4.047
 -2.077 -1.62 4.06
 -2.064 -1.62 4.066
 -2.046 -1.618 4.065
 -2.034 -1.619 4.073
 -2.019 -1.617 4.075
 -2.005 -1.616 4.079
 -1.987 -1.613 4.076
 -1.975 -1.614 4.085
 -1.96 -1.613 4.088
 -1.948 -1.614 4.095
 -1.935 -1.615 4.103
 -1.922 -1.616 4.11
 -1.91 -1.616 4.117
 -1.897 -1.617 4.125
 -1.882 -1.616 4.127
 -1.866 -1.614 4.126
 -1.854 -1.615 4.133
 -1.841 -1.615 4.14
 -1.829 -1.617 4.149
 -1.815 -1.616 4.153
 -1.802 -1.617 4.159
 -1.788 -1.616 4.163
 -1.776 -1.617 4.171
 -1.759 -1.614 4.168
 -1.744 -1.613 4.169
 -1.73 -1.612 4.172
 -1.715 -1.611 4.173
 -1.7 -1.61 4.175
 -1.684 -1.607 4.171
 -1.67 -1.607 4.176
 -1.655 -1.605 4.175
 -1.642 -1.606 4.182
 -1.627 -1.604 4.183
 -1.616 -1.606 4.193
 -1.602 -1.605 4.194
 -1.588 -1.605 4.198
 -1.573 -1.603 4.197
 -1.558 -1.602 4.199
 -1.544 -1.601 4.199
 -1.528 -1.599 4.198
 -1.514 -1.598 4.2
 -1.501 -1.599 4.205
 -1.489 -1.6 4.212
 -1.476 -1.6 4.218
 -1.463 -1.6 4.221
 -1.45 -1.601 4.228
 -1.435 -1.599 4.225
 -1.423 -1.6 4.233
 -1.41 -1.6 4.237
 -1.398 -1.602 4.246
 -1.381 -1.599 4.239
 -1.37 -1.601 4.249
 -1.356 -1.6 4.251
 -1.341 -1.598 4.249
 -1.328 -1.598 4.253
 -1.317 -1.601 4.264
 -1.3 -1.597 4.257
 -1.284 -1.593 4.249
 -1.27 -1.592 4.25
 -1.256 -1.592 4.251
 -1.242 -1.591 4.252
 -1.23 -1.592 4.258
 -1.216 -1.591 4.26
 -1.203 -1.592 4.265
 -1.188 -1.589 4.26
 -1.172 -1.585 4.252
 -1.158 -1.584 4.252
 -1.145 -1.585 4.258
 -1.13 -1.583 4.255
 -1.117 -1.582 4.257
 -1.104 -1.582 4.259
 -1.09 -1.582 4.261
 -1.076 -1.581 4.26
 -1.062 -1.579 4.259
 -1.048 -1.578 4.259
 -1.037 -1.58 4.266
 -1.022 -1.579 4.265
 -1.009 -1.577 4.264
 -0.994 -1.576 4.262
 -0.981 -1.575 4.264
 -0.968 -1.575 4.266
 -0.955 -1.576 4.27
 -0.941 -1.574 4.268
 -0.929 -1.575 4.273
 -0.915 -1.575 4.273
 -0.9 -1.57 4.263
 -0.886 -1.57 4.265
 -0.874 -1.571 4.269
 -0.86 -1.569 4.266
 -0.846 -1.568 4.265
 -0.834 -1.569 4.271
 -0.82 -1.568 4.269
 -0.807 -1.568 4.272
 -0.795 -1.569 4.277
 -0.781 -1.568 4.275
 -0.768 -1.567 4.274
 -0.754 -1.567 4.275
 -0.74 -1.564 4.27
 -0.726 -1.562 4.265
 -0.713 -1.562 4.268
 -0.701 -1.563 4.272
 -0.687 -1.562 4.272
 -0.674 -1.562 4.272
 -0.661 -1.562 4.274
 -0.647 -1.56 4.269
 -0.634 -1.558 4.267
 -0.621 -1.557 4.265
 -0.607 -1.557 4.265
 -0.594 -1.555 4.261
 -0.58 -1.553 4.258
 -0.567 -1.553 4.26
 -0.554 -1.552 4.257
 -0.541 -1.551 4.255
 -0.528 -1.552 4.26
 -0.515 -1.552 4.26
 -0.502 -1.55 4.257
 -0.49 -1.551 4.261
 -0.477 -1.551 4.262
 -0.464 -1.55 4.26
 -0.451 -1.55 4.26
 -0.438 -1.549 4.26
 -0.424 -1.548 4.257
 -0.412 -1.548 4.257
 -0.399 -1.548 4.259
 -0.386 -1.546 4.255
 -0.373 -1.546 4.255
 -0.36 -1.546 4.257
 -0.347 -1.546 4.256
 -0.334 -1.546 4.256
 -0.322 -1.548 4.262
 -0.309 -1.547 4.26
 -0.296 -1.546 4.259
 -0.283 -1.546 4.26
 -0.27 -1.545 4.258
 -0.257 -1.546 4.259
 -0.245 -1.545 4.258
 -0.232 -1.546 4.26
 -0.219 -1.545 4.258
 -0.206 -1.544 4.256
 -0.193 -1.543 4.255
 -0.18 -1.544 4.256
 -0.167 -1.542 4.251
 -0.155 -1.542 4.251
 -0.142 -1.543 4.256
 -0.129 -1.542 4.251
 -0.117 -1.542 4.253
 -0.104 -1.545 4.259
 -0.091 -1.546 4.263
 -0.078 -1.545 4.26
 -0.066 -1.546 4.263
 -0.053 -1.545 4.26
 -0.04 -1.542 4.254
 -0.027 -1.541 4.249
 -0.015 -1.541 4.249
 -0.002 -1.539 4.244
 0.01 -1.54 4.248
 0.023 -1.54 4.247
 0.035 -1.542 4.251
 0.048 -1.542 4.251
 0.061 -1.545 4.259
 0.074 -1.544 4.255
 0.086 -1.544 4.255
 0.099 -1.544 4.254
 0.112 -1.544 4.255
 0.125 -1.544 4.254
 0.137 -1.544 4.254
 0.15 -1.545 4.256
 0.163 -1.545 4.256
 0.176 -1.544 4.252
 0.188 -1.544 4.252
 0.201 -1.544 4.252
 0.214 -1.544 4.25
 0.226 -1.543 4.245
 0.239 -1.543 4.247
 0.252 -1.542 4.244
 0.264 -1.542 4.242
 0.277 -1.543 4.244
 0.29 -1.542 4.239
 0.302 -1.539 4.231
 0.315 -1.539 4.23
 0.327 -1.538 4.227
 0.34 -1.537 4.222
 0.353 -1.54 4.23
 0.366 -1.543 4.236
 0.379 -1.542 4.234
 0.392 -1.544 4.236
 0.405 -1.545 4.239
 0.418 -1.545 4.238
 0.43 -1.545 4.236
 0.443 -1.546 4.237
 0.456 -1.545 4.233
 0.468 -1.544 4.229
 0.481 -1.544 4.228
 0.494 -1.544 4.226
 0.506 -1.543 4.224
 0.52 -1.546 4.229
 0.533 -1.546 4.229
 0.545 -1.546 4.227
 0.559 -1.549 4.234
 0.572 -1.55 4.234
 0.585 -1.549 4.231
 0.598 -1.55 4.23
 0.61 -1.55 4.229
 0.622 -1.547 4.22
 0.635 -1.547 4.218
 0.648 -1.548 4.219
 0.661 -1.548 4.217
 0.674 -1.549 4.217
 0.687 -1.551 4.221
 0.701 -1.553 4.225
 0.713 -1.552 4.221
 0.727 -1.554 4.222
 0.74 -1.555 4.224
 0.753 -1.554 4.22
 0.765 -1.554 4.216
 0.779 -1.555 4.218
 0.791 -1.555 4.214
 0.803 -1.553 4.207
 0.816 -1.554 4.207
 0.83 -1.556 4.213
 0.843 -1.556 4.21
 0.857 -1.559 4.215
 0.872 -1.562 4.219
 0.885 -1.563 4.221
 0.897 -1.562 4.214
 0.911 -1.563 4.217
 0.924 -1.564 4.215
 0.938 -1.565 4.215
 0.951 -1.566 4.215
 0.965 -1.567 4.215
 0.978 -1.567 4.214
 0.991 -1.567 4.211
 1.003 -1.567 4.208
 1.017 -1.569 4.209
 1.031 -1.57 4.209
 1.044 -1.571 4.209
 1.058 -1.572 4.209
 1.073 -1.574 4.213
 1.086 -1.576 4.213
 1.1 -1.577 4.213
 1.113 -1.577 4.211
 1.127 -1.579 4.212
 1.141 -1.579 4.211
 1.155 -1.58 4.21
 1.168 -1.581 4.207
 1.181 -1.581 4.205
 1.195 -1.583 4.206
 1.208 -1.583 4.204
 1.222 -1.584 4.202
 1.236 -1.585 4.201
 1.25 -1.587 4.204
 1.262 -1.586 4.197
 1.276 -1.586 4.195
 1.289 -1.587 4.193
 1.304 -1.589 4.194
 1.317 -1.59 4.192
 1.331 -1.59 4.19
 1.346 -1.593 4.193
 1.36 -1.594 4.191
 1.374 -1.595 4.191
 1.388 -1.596 4.19
 1.402 -1.597 4.188
 1.414 -1.596 4.182
 1.428 -1.596 4.178
 1.443 -1.598 4.18
 1.454 -1.597 4.171
 1.467 -1.597 4.167
 1.483 -1.6 4.171
 1.496 -1.6 4.167
 1.509 -1.6 4.162
 1.524 -1.602 4.162
 1.541 -1.606 4.169
 1.551 -1.602 4.156
 1.565 -1.603 4.153
 1.579 -1.605 4.152
 1.595 -1.607 4.153
 1.606 -1.605 4.144
 1.622 -1.608 4.146
 1.637 -1.61 4.146
 1.649 -1.608 4.138
 1.66 -1.607 4.13
 1.676 -1.609 4.13
 1.688 -1.608 4.122
 1.7 -1.607 4.115
 1.714 -1.608 4.113
 1.728 -1.609 4.109
 1.739 -1.607 4.1
 1.754 -1.609 4.099
 1.766 -1.607 4.091
 1.778 -1.606 4.082
 1.79 -1.606 4.076
 1.804 -1.607 4.072
 1.813 -1.603 4.057
 1.823 -1.6 4.045
 1.834 -1.598 4.034
 1.841 -1.593 4.016
 1.847 -1.587 3.996
 1.853 -1.581 3.974
 1.861 -1.577 3.96
 1.866 -1.57 3.937
 1.873 -1.566 3.92
 1.879 -1.56 3.899
 1.889 -1.557 3.887
 1.886 -1.545 3.85
 1.886 -1.535 3.82
 1.89 -1.528 3.797
 1.895 -1.521 3.775
 1.89 -1.508 3.735
 1.9 -1.506 3.725
 1.908 -1.503 3.711
 1.906 -1.491 3.677
 0 0 0
 0 0 0
 0 0 0
 0 0 0
 0 0 0
 0 0 0
 0 0 0
 0 0 0
 0 0 0
 0 0 0
 0 0 0
 0 0 0
 1.818 -1.314 3.169
 1.821 -1.309 3.151
 1.824 -1.303 3.132
 1.831 -1.301 3.12
 1.837 -1.298 3.107
 1.845 -1.296 3.097
 1.842 -1.287 3.069
 1.838 -1.276 3.039
 1.821 -1.257 2.988
 1.814 -1.246 2.955
 -2.356 -1.621 3.981
 -2.32 -1.606 3.949
 -2.331 -1.623 3.997
 -2.313 -1.62 3.997
 -2.301 -1.621 4.006
 -2.283 -1.618 4.006
 -2.273 -1.621 4.019
 -2.261 -1.622 4.028
 -2.243 -1.619 4.027
 -2.229 -1.618 4.033
 -2.214 -1.618 4.038
 -2.201 -1.618 4.044
 -2.18 -1.613 4.037
 -2.167 -1.613 4.044
 -2.152 -1.612 4.049
 -2.138 -1.612 4.053
 -2.121 -1.609 4.053
 -2.111 -1.612 4.066
 -2.102 -1.615 4.08
 -2.089 -1.616 4.087
 -2.077 -1.617 4.097
 -2.06 -1.614 4.096
 -2.048 -1.616 4.106
 -2.034 -1.616 4.11
 -2.019 -1.615 4.114
 -2.002 -1.612 4.113
 -1.989 -1.612 4.118
 -1.973 -1.611 4.12
 -1.961 -1.612 4.128
 -1.949 -1.613 4.137
 -1.937 -1.614 4.145
 -1.923 -1.614 4.151
 -1.909 -1.614 4.156
 -1.892 -1.611 4.153
 -1.877 -1.609 4.155
 -1.862 -1.609 4.157
 -1.85 -1.61 4.166
 -1.838 -1.611 4.175
 -1.826 -1.612 4.183
 -1.813 -1.613 4.188
 -1.8 -1.614 4.196
 -1.789 -1.616 4.207
 -1.773 -1.614 4.206
 -1.755 -1.61 4.2
 -1.742 -1.61 4.205
 -1.725 -1.607 4.203
 -1.709 -1.605 4.202
 -1.691 -1.6 4.194
 -1.68 -1.603 4.205
 -1.664 -1.601 4.205
 -1.653 -1.603 4.216
 -1.639 -1.603 4.219
 -1.629 -1.606 4.231
 -1.615 -1.605 4.234
 -1.6 -1.603 4.234
 -1.583 -1.6 4.229
 -1.566 -1.597 4.224
 -1.552 -1.596 4.227
 -1.536 -1.594 4.224
 -1.522 -1.592 4.225
 -1.509 -1.593 4.23
 -1.497 -1.595 4.239
 -1.483 -1.594 4.24
 -1.468 -1.593 4.242
 -1.455 -1.593 4.247
 -1.441 -1.592 4.248
 -1.429 -1.593 4.255
 -1.416 -1.594 4.26
 -1.403 -1.595 4.266
 -1.387 -1.592 4.262
 -1.375 -1.593 4.268
 -1.36 -1.591 4.267
 -1.345 -1.589 4.265
 -1.331 -1.588 4.266
 -1.319 -1.591 4.276
 -1.302 -1.586 4.267
 -1.287 -1.583 4.263
 -1.272 -1.582 4.262
 -1.259 -1.583 4.267
 -1.245 -1.581 4.266
 -1.232 -1.582 4.272
 -1.218 -1.58 4.271
 -1.206 -1.582 4.278
 -1.191 -1.58 4.275
 -1.175 -1.577 4.269
 -1.161 -1.575 4.269
 -1.149 -1.577 4.276
 -1.134 -1.575 4.273
 -1.119 -1.572 4.269
 -1.106 -1.573 4.273
 -1.092 -1.571 4.273
 -1.078 -1.57 4.271
 -1.064 -1.568 4.269
 -1.051 -1.569 4.273
 -1.038 -1.569 4.276
 -1.024 -1.568 4.276
 -1.011 -1.568 4.277
 -0.997 -1.566 4.277
 -0.982 -1.564 4.274
 -0.969 -1.564 4.276
 -0.956 -1.564 4.276
 -0.941 -1.561 4.271
 -0.927 -1.56 4.271
 -0.914 -1.56 4.274
 -0.899 -1.556 4.265
 -0.886 -1.557 4.269
 -0.874 -1.557 4.273
 -0.86 -1.557 4.272
 -0.846 -1.555 4.271
 -0.834 -1.557 4.276
 -0.82 -1.555 4.275
 -0.807 -1.554 4.274
 -0.794 -1.556 4.28
 -0.781 -1.555 4.28
 -0.767 -1.554 4.277
 -0.754 -1.552 4.275
 -0.74 -1.552 4.276
 -0.726 -1.549 4.27
 -0.713 -1.549 4.27
 -0.7 -1.549 4.274
 -0.688 -1.551 4.28
 -0.674 -1.549 4.277
 -0.661 -1.549 4.279
 -0.648 -1.547 4.274
 -0.634 -1.546 4.272
 -0.62 -1.544 4.267
 -0.607 -1.542 4.265
 -0.593 -1.54 4.26
 -0.58 -1.539 4.259
 -0.567 -1.539 4.261
 -0.554 -1.538 4.259
 -0.54 -1.537 4.256
 -0.528 -1.538 4.261
 -0.515 -1.537 4.26
 -0.502 -1.537 4.259
 -0.489 -1.537 4.262
 -0.477 -1.539 4.267
 -0.464 -1.538 4.265
 -0.451 -1.538 4.268
 -0.438 -1.538 4.268
 -0.425 -1.536 4.263
 -0.412 -1.536 4.263
 -0.399 -1.536 4.266
 -0.386 -1.534 4.261
 -0.373 -1.534 4.261
 -0.36 -1.535 4.263
 -0.347 -1.534 4.262
 -0.334 -1.532 4.257
 -0.322 -1.534 4.264
 -0.309 -1.534 4.263
 -0.296 -1.533 4.261
 -0.283 -1.533 4.261
 -0.27 -1.533 4.264
 -0.257 -1.531 4.259
 -0.244 -1.532 4.261
 -0.232 -1.532 4.262
 -0.219 -1.532 4.263
 -0.206 -1.531 4.259
 -0.193 -1.53 4.258
 -0.18 -1.53 4.258
 -0.167 -1.529 4.255
 -0.155 -1.528 4.253
 -0.142 -1.529 4.257
 -0.129 -1.528 4.254
 -0.116 -1.529 4.254
 -0.104 -1.53 4.258
 -0.091 -1.531 4.261
 -0.078 -1.53 4.259
 -0.066 -1.531 4.262
 -0.053 -1.53 4.258
 -0.04 -1.529 4.255
 -0.027 -1.529 4.255
 -0.014 -1.529 4.255
 -0.002 -1.528 4.252
 0.01 -1.529 4.254
 0.023 -1.528 4.252
 0.035 -1.529 4.254
 0.048 -1.529 4.255
 0.061 -1.531 4.261
 0.074 -1.531 4.26
 0.086 -1.531 4.258
 0.099 -1.53 4.257
 0.112 -1.531 4.258
 0.125 -1.53 4.254
 0.137 -1.529 4.251
 0.15 -1.531 4.258
 0.163 -1.531 4.256
 0.176 -1.53 4.254
 0.188 -1.531 4.254
 0.201 -1.531 4.254
 0.214 -1.529 4.249
 0.226 -1.529 4.247
 0.239 -1.531 4.251
 0.252 -1.53 4.25
 0.265 -1.532 4.253
 0.278 -1.532 4.253
 0.29 -1.531 4.248
 0.302 -1.527 4.236
 0.315 -1.527 4.234
 0.327 -1.526 4.231
 0.34 -1.526 4.23
 0.353 -1.528 4.235
 0.367 -1.531 4.242
 0.379 -1.53 4.239
 0.392 -1.53 4.238
 0.405 -1.531 4.241
 0.418 -1.532 4.242
 0.43 -1.532 4.239
 0.444 -1.533 4.242
 0.456 -1.533 4.241
 0.469 -1.532 4.236
 0.481 -1.531 4.23
 0.493 -1.53 4.228
 0.506 -1.53 4.227
 0.519 -1.532 4.23
 0.533 -1.533 4.232
 0.546 -1.536 4.237
 0.56 -1.538 4.242
 0.572 -1.538 4.24
 0.585 -1.537 4.236
 0.598 -1.537 4.235
 0.61 -1.536 4.229
 0.621 -1.533 4.22
 0.635 -1.534 4.22
 0.648 -1.535 4.222
 0.661 -1.535 4.22
 0.674 -1.537 4.223
 0.688 -1.54 4.23
 0.702 -1.541 4.232
 0.714 -1.541 4.228
 0.727 -1.542 4.23
 0.74 -1.542 4.227
 0.753 -1.542 4.225
 0.765 -1.541 4.221
 0.779 -1.542 4.222
 0.79 -1.54 4.214
 0.802 -1.538 4.206
 0.815 -1.539 4.205
 0.829 -1.542 4.211
 0.843 -1.543 4.212
 0.857 -1.546 4.218
 0.872 -1.549 4.223
 0.885 -1.549 4.223
 0.898 -1.549 4.219
 0.911 -1.55 4.22
 0.924 -1.55 4.217
 0.938 -1.552 4.219
 0.951 -1.552 4.218
 0.963 -1.552 4.214
 0.977 -1.553 4.214
 0.991 -1.555 4.217
 1.004 -1.556 4.216
 1.019 -1.558 4.218
 1.032 -1.559 4.218
 1.046 -1.561 4.221
 1.059 -1.56 4.215
 1.073 -1.562 4.218
 1.087 -1.564 4.221
 1.102 -1.566 4.224
 1.114 -1.565 4.218
 1.128 -1.566 4.217
 1.141 -1.566 4.215
 1.153 -1.566 4.21
 1.166 -1.565 4.204
 1.18 -1.567 4.205
 1.195 -1.57 4.211
 1.209 -1.57 4.208
 1.222 -1.571 4.207
 1.237 -1.573 4.21
 1.251 -1.575 4.212
 1.263 -1.573 4.202
 1.277 -1.574 4.202
 1.291 -1.575 4.201
 1.305 -1.577 4.201
 1.319 -1.578 4.2
 1.333 -1.58 4.202
 1.348 -1.582 4.203
 1.361 -1.582 4.2
 1.374 -1.582 4.195
 1.388 -1.582 4.192
 1.401 -1.583 4.19
 1.414 -1.582 4.184
 1.428 -1.584 4.184
 1.445 -1.588 4.191
 1.457 -1.587 4.185
 1.47 -1.586 4.179
 1.486 -1.59 4.183
 1.5 -1.591 4.182
 1.512 -1.59 4.175
 1.526 -1.59 4.171
 1.544 -1.595 4.18
 1.555 -1.593 4.169
 1.568 -1.593 4.167
 1.582 -1.594 4.164
 1.599 -1.598 4.169
 1.611 -1.597 4.161
 1.626 -1.598 4.161
 1.64 -1.6 4.159
 1.653 -1.599 4.153
 1.665 -1.598 4.145
 1.681 -1.601 4.147
 1.695 -1.601 4.143
 1.708 -1.601 4.139
 1.723 -1.603 4.138
 1.737 -1.604 4.136
 1.747 -1.601 4.123
 1.761 -1.601 4.119
 1.773 -1.6 4.11
 1.783 -1.598 4.099
 1.794 -1.596 4.088
 1.809 -1.597 4.087
 1.819 -1.594 4.075
 1.828 -1.591 4.061
