 1.794 -1.613 3.966
 1.807 -1.614 3.961
 1.824 -1.617 3.965
 1.832 -1.613 3.95
 1.842 -1.611 3.939
 1.853 -1.609 3.927
 1.862 -1.606 3.915
 1.865 -1.598 3.89
 1.872 -1.593 3.872
 1.874 -1.584 3.844
 1.877 -1.575 3.818
 1.877 -1.565 3.788
 1.874 -1.552 3.751
 1.88 -1.547 3.733
 1.876 -1.534 3.694
 1.875 -1.523 3.663
 1.876 -1.514 3.636
 1.884 -1.511 3.622
 1.878 -1.497 3.582
 1.888 -1.495 3.572
 1.89 -1.488 3.549
 1.899 -1.485 3.537
 0 0 0
 0 0 0
 0 0 0
 0 0 0
 0 0 0
 0 0 0
 0 0 0
 1.787 -1.332 3.128
 1.801 -1.334 3.129
 1.813 -1.335 3.125
 1.824 -1.336 3.121
 1.83 -1.332 3.106
 1.837 -1.329 3.095
 1.837 -1.322 3.071
 1.835 -1.313 3.046
 1.833 -1.304 3.02
 1.804 -1.277 2.949
 1.806 -1.271 2.93
 0 0 0
 -2.294 -1.627 3.889
 -2.272 -1.622 3.882
 -2.252 -1.617 3.877
 -2.241 -1.619 3.887
 -2.225 -1.617 3.89
 -2.213 -1.618 3.898
 -2.199 -1.617 3.902
 -2.186 -1.617 3.91
 -2.174 -1.618 3.918
 -2.165 -1.621 3.932
 -2.151 -1.621 3.937
 -2.138 -1.621 3.944
 -2.13 -1.626 3.961
 -2.116 -1.625 3.965
 -2.103 -1.626 3.973
 -2.085 -1.622 3.969
 -2.074 -1.624 3.981
 -2.058 -1.621 3.98
 -2.047 -1.624 3.992
 -2.031 -1.621 3.991
 -2.02 -1.624 4.003
 -2.004 -1.621 4.002
 -1.99 -1.621 4.008
 -1.972 -1.617 4.003
 -1.959 -1.617 4.009
 -1.95 -1.621 4.024
 -1.939 -1.622 4.034
 -1.926 -1.622 4.039
 -1.912 -1.622 4.044
 -1.896 -1.62 4.043
 -1.877 -1.615 4.036
 -1.866 -1.617 4.047
 -1.854 -1.618 4.054
 -1.844 -1.621 4.067
 -1.834 -1.624 4.079
 -1.822 -1.625 4.088
 -1.807 -1.624 4.089
 -1.796 -1.625 4.098
 -1.779 -1.623 4.097
 -1.762 -1.619 4.093
 -1.749 -1.619 4.097
 -1.737 -1.621 4.106
 -1.724 -1.621 4.112
 -1.712 -1.623 4.12
 -1.701 -1.625 4.131
 -1.686 -1.623 4.13
 -1.67 -1.62 4.127
 -1.652 -1.616 4.121
 -1.636 -1.613 4.118
 -1.621 -1.611 4.117
 -1.609 -1.613 4.127
 -1.595 -1.612 4.128
 -1.582 -1.612 4.134
 -1.57 -1.614 4.142
 -1.556 -1.613 4.144
 -1.542 -1.612 4.145
 -1.532 -1.615 4.157
 -1.519 -1.615 4.162
 -1.505 -1.614 4.164
 -1.493 -1.616 4.173
 -1.479 -1.615 4.174
 -1.463 -1.612 4.171
 -1.449 -1.611 4.172
 -1.434 -1.609 4.169
 -1.42 -1.608 4.171
 -1.406 -1.607 4.173
 -1.394 -1.609 4.181
 -1.379 -1.606 4.177
 -1.366 -1.607 4.184
 -1.351 -1.605 4.181
 -1.339 -1.606 4.188
 -1.325 -1.605 4.187
 -1.311 -1.604 4.188
 -1.297 -1.603 4.191
 -1.283 -1.602 4.19
 -1.269 -1.6 4.189
 -1.254 -1.598 4.188
 -1.241 -1.599 4.192
 -1.229 -1.599 4.197
 -1.216 -1.6 4.203
 -1.202 -1.599 4.203
 -1.189 -1.599 4.206
 -1.178 -1.602 4.216
 -1.165 -1.602 4.218
 -1.153 -1.604 4.226
 -1.139 -1.603 4.226
 -1.127 -1.605 4.234
 -1.114 -1.604 4.236
 -1.101 -1.605 4.241
 -1.087 -1.602 4.237
 -1.074 -1.604 4.243
 -1.06 -1.601 4.239
 -1.046 -1.6 4.238
 -1.03 -1.595 4.229
 -1.016 -1.594 4.228
 -1.001 -1.592 4.224
 -0.987 -1.59 4.222
 -0.974 -1.589 4.222
 -0.962 -1.592 4.232
 -0.95 -1.593 4.236
 -0.937 -1.593 4.239
 -0.923 -1.592 4.239
 -0.91 -1.591 4.239
 -0.896 -1.59 4.237
 -0.882 -1.588 4.236
 -0.871 -1.591 4.246
 -0.858 -1.592 4.25
 -0.846 -1.593 4.253
 -0.832 -1.592 4.253
 -0.818 -1.59 4.251
 -0.803 -1.587 4.243
 -0.791 -1.588 4.25
 -0.778 -1.587 4.248
 -0.764 -1.585 4.244
 -0.75 -1.584 4.243
 -0.738 -1.586 4.25
 -0.724 -1.583 4.244
 -0.711 -1.584 4.248
 -0.699 -1.586 4.256
 -0.686 -1.585 4.254
 -0.672 -1.583 4.251
 -0.659 -1.583 4.251
 -0.646 -1.582 4.251
 -0.633 -1.58 4.248
 -0.62 -1.582 4.254
 -0.607 -1.581 4.252
 -0.595 -1.583 4.259
 -0.581 -1.579 4.251
 -0.568 -1.579 4.251
 -0.555 -1.579 4.252
 -0.542 -1.58 4.255
 -0.529 -1.578 4.253
 -0.516 -1.579 4.256
 -0.504 -1.58 4.261
 -0.49 -1.579 4.259
 -0.477 -1.578 4.256
 -0.464 -1.576 4.252
 -0.451 -1.576 4.253
 -0.437 -1.574 4.248
 -0.425 -1.573 4.248
 -0.411 -1.572 4.245
 -0.398 -1.571 4.244
 -0.385 -1.571 4.245
 -0.373 -1.571 4.244
 -0.359 -1.568 4.239
 -0.347 -1.571 4.246
 -0.334 -1.569 4.241
 -0.321 -1.568 4.241
 -0.308 -1.57 4.246
 -0.296 -1.57 4.247
 -0.283 -1.569 4.245
 -0.27 -1.571 4.251
 -0.258 -1.572 4.252
 -0.245 -1.571 4.251
 -0.232 -1.572 4.254
 -0.219 -1.572 4.254
 -0.206 -1.569 4.246
 -0.193 -1.567 4.243
 -0.18 -1.565 4.237
 -0.167 -1.565 4.237
 -0.155 -1.565 4.237
 -0.142 -1.568 4.244
 -0.129 -1.569 4.247
 -0.117 -1.569 4.249
 -0.104 -1.567 4.242
 -0.091 -1.565 4.239
 -0.078 -1.566 4.241
 -0.066 -1.567 4.242
 -0.053 -1.566 4.24
 -0.04 -1.565 4.237
 -0.027 -1.565 4.238
 -0.015 -1.566 4.239
 -0.002 -1.566 4.241
 0.01 -1.568 4.246
 0.023 -1.571 4.253
 0.035 -1.57 4.251
 0.048 -1.567 4.243
 0.061 -1.566 4.239
 0.073 -1.566 4.237
 0.086 -1.566 4.239
 0.099 -1.567 4.241
 0.112 -1.568 4.243
 0.124 -1.568 4.242
 0.137 -1.567 4.239
 0.15 -1.567 4.238
 0.163 -1.568 4.242
 0.175 -1.569 4.244
 0.188 -1.569 4.243
 0.201 -1.57 4.245
 0.214 -1.569 4.241
 0.226 -1.567 4.236
 0.238 -1.566 4.23
 0.251 -1.567 4.233
 0.264 -1.567 4.232
 0.277 -1.569 4.236
 0.289 -1.566 4.228
 0.302 -1.568 4.232
 0.315 -1.567 4.229
 0.327 -1.566 4.225
 0.34 -1.566 4.225
 0.354 -1.569 4.232
 0.367 -1.571 4.236
 0.379 -1.57 4.232
 0.392 -1.571 4.232
 0.405 -1.571 4.233
 0.418 -1.573 4.235
 0.431 -1.573 4.235
 0.444 -1.573 4.234
 0.456 -1.572 4.229
 0.469 -1.571 4.227
 0.481 -1.57 4.222
 0.493 -1.569 4.218
 0.507 -1.571 4.223
 0.521 -1.574 4.229
 0.534 -1.576 4.231
 0.547 -1.577 4.232
 0.56 -1.578 4.233
 0.572 -1.576 4.227
 0.585 -1.576 4.225
 0.597 -1.575 4.221
 0.61 -1.575 4.218
 0.623 -1.575 4.217
 0.636 -1.577 4.222
 0.65 -1.579 4.225
 0.663 -1.579 4.224
 0.676 -1.58 4.225
 0.689 -1.58 4.221
 0.7 -1.576 4.21
 0.713 -1.577 4.21
 0.725 -1.575 4.203
 0.737 -1.575 4.201
 0.751 -1.576 4.201
 0.765 -1.58 4.209
 0.778 -1.58 4.207
 0.792 -1.583 4.213
 0.806 -1.584 4.215
 0.82 -1.586 4.218
 0.833 -1.587 4.217
 0.845 -1.586 4.212
 0.858 -1.586 4.211
 0.87 -1.585 4.206
 0.883 -1.585 4.202
 0.896 -1.585 4.2
 0.91 -1.587 4.202
 0.924 -1.589 4.205
 0.937 -1.591 4.207
 0.951 -1.591 4.206
 0.965 -1.593 4.208
 0.976 -1.591 4.201
 0.989 -1.591 4.198
 1.003 -1.592 4.196
 1.017 -1.594 4.2
 1.03 -1.594 4.197
 1.046 -1.599 4.206
 1.057 -1.596 4.196
 1.07 -1.597 4.195
 1.082 -1.595 4.188
 1.095 -1.595 4.185
 1.107 -1.595 4.18
 1.123 -1.6 4.19
 1.136 -1.599 4.184
 1.149 -1.599 4.181
 1.164 -1.602 4.185
 1.175 -1.6 4.177
 1.188 -1.6 4.173
 1.201 -1.6 4.171
 1.215 -1.601 4.171
 1.226 -1.599 4.161
 1.241 -1.601 4.163
 1.252 -1.6 4.156
 1.268 -1.603 4.16
 1.282 -1.604 4.161
 1.296 -1.606 4.161
 1.31 -1.607 4.16
 1.325 -1.61 4.164
 1.338 -1.609 4.158
 1.351 -1.609 4.154
 1.365 -1.61 4.153
 1.378 -1.61 4.149
 1.391 -1.611 4.147
 1.405 -1.612 4.146
 1.418 -1.612 4.143
 1.432 -1.613 4.14
 1.445 -1.613 4.136
 1.458 -1.613 4.131
 1.468 -1.61 4.12
 1.482 -1.611 4.117
 1.494 -1.61 4.113
 1.507 -1.61 4.107
 1.519 -1.609 4.101
 1.536 -1.614 4.108
 1.55 -1.614 4.104
 1.565 -1.616 4.106
 1.58 -1.619 4.107
 1.595 -1.62 4.106
 1.608 -1.62 4.101
 1.62 -1.619 4.094
 1.633 -1.619 4.089
 1.646 -1.619 4.085
 1.658 -1.618 4.076
 1.67 -1.618 4.071
 1.686 -1.62 4.072
 1.696 -1.617 4.06
 1.707 -1.615 4.05
 1.72 -1.616 4.046
 1.732 -1.615 4.039
 1.745 -1.614 4.032
 1.757 -1.614 4.025
 1.769 -1.613 4.019
 1.782 -1.613 4.012
 1.795 -1.613 4.007
 1.805 -1.61 3.995
 1.815 -1.608 3.985
 1.831 -1.611 3.986
 1.839 -1.606 3.969
 1.847 -1.602 3.953
 1.856 -1.599 3.939
 1.866 -1.596 3.928
 1.865 -1.585 3.893
 1.874 -1.581 3.879
 1.873 -1.57 3.846
 1.874 -1.56 3.816
 1.874 -1.55 3.785
 1.873 -1.539 3.752
 1.877 -1.532 3.731
 1.877 -1.523 3.702
 1.88 -1.515 3.677
 1.884 -1.508 3.655
 1.894 -1.507 3.646
 1.886 -1.49 3.601
 1.895 -1.489 3.591
 1.899 -1.483 3.57
 0 0 0
 0 0 0
 0 0 0
 0 0 0
 0 0 0
 0 0 0
 0 0 0
 0 0 0
 1.778 -1.314 3.115
 1.801 -1.324 3.133
 1.811 -1.323 3.126
 1.823 -1.324 3.122
 1.829 -1.32 3.108
 1.838 -1.319 3.1
 1.839 -1.313 3.08
 1.841 -1.307 3.059
 1.839 -1.298 3.033
 1.877 -1.317 3.073
 1.857 -1.296 3.017
 -2.367 -1.656 3.988
 0 0 0
 -2.293 -1.623 3.923
 -2.274 -1.619 3.92
 -2.257 -1.617 3.92
 -2.242 -1.616 3.924
 -2.228 -1.616 3.93
 -2.212 -1.614 3.932
 -2.201 -1.615 3.943
 -2.19 -1.617 3.953
 -2.18 -1.619 3.965
 -2.166 -1.619 3.971
 -2.153 -1.619 3.976
 -2.141 -1.62 3.985
 -2.127 -1.62 3.992
 -2.116 -1.622 4.002
 -2.098 -1.619 4
 -2.088 -1.621 4.012
 -2.071 -1.619 4.011
 -2.06 -1.62 4.022
 -2.044 -1.618 4.022
 -2.033 -1.62 4.033
 -2.017 -1.618 4.033
 -2.006 -1.62 4.044
 -1.989 -1.617 4.042
 -1.973 -1.615 4.043
 -1.963 -1.618 4.056
 -1.952 -1.62 4.067
 -1.938 -1.619 4.07
 -1.922 -1.617 4.069
 -1.907 -1.616 4.073
 -1.89 -1.613 4.069
 -1.878 -1.614 4.078
 -1.866 -1.616 4.087
 -1.856 -1.618 4.099
 -1.844 -1.619 4.107
 -1.832 -1.621 4.115
 -1.816 -1.619 4.115
 -1.806 -1.621 4.127
 -1.791 -1.621 4.13
 -1.775 -1.618 4.127
 -1.758 -1.615 4.125
 -1.745 -1.615 4.13
 -1.731 -1.614 4.133
 -1.718 -1.615 4.139
 -1.708 -1.617 4.151
 -1.695 -1.619 4.158
 -1.681 -1.618 4.161
 -1.664 -1.614 4.156
 -1.649 -1.612 4.155
 -1.631 -1.608 4.15
 -1.617 -1.608 4.152
 -1.602 -1.605 4.151
 -1.589 -1.606 4.156
 -1.576 -1.606 4.162
 -1.563 -1.606 4.166
 -1.549 -1.606 4.168
 -1.538 -1.608 4.178
 -1.524 -1.607 4.181
 -1.509 -1.606 4.182
 -1.499 -1.609 4.193
 -1.486 -1.609 4.198
 -1.471 -1.608 4.199
 -1.458 -1.608 4.202
 -1.444 -1.607 4.203
 -1.429 -1.605 4.202
 -1.414 -1.604 4.203
 -1.399 -1.601 4.2
 -1.383 -1.598 4.196
 -1.371 -1.6 4.203
 -1.357 -1.599 4.204
 -1.345 -1.6 4.21
 -1.333 -1.601 4.218
 -1.32 -1.602 4.224
 -1.306 -1.601 4.223
 -1.291 -1.599 4.221
 -1.276 -1.597 4.219
 -1.26 -1.593 4.213
 -1.246 -1.592 4.214
 -1.235 -1.594 4.223
 -1.222 -1.595 4.228
 -1.209 -1.595 4.229
 -1.196 -1.595 4.234
 -1.184 -1.597 4.242
 -1.17 -1.595 4.24
 -1.157 -1.597 4.247
 -1.143 -1.595 4.245
 -1.13 -1.595 4.247
 -1.116 -1.594 4.248
 -1.103 -1.594 4.252
 -1.089 -1.593 4.25
 -1.077 -1.595 4.259
 -1.064 -1.594 4.26
 -1.05 -1.593 4.26
 -1.034 -1.589 4.25
 -1.019 -1.586 4.246
 -1.004 -1.583 4.239
 -0.989 -1.581 4.236
 -0.975 -1.579 4.234
 -0.964 -1.581 4.242
 -0.951 -1.582 4.247
 -0.939 -1.583 4.251
 -0.925 -1.583 4.253
 -0.912 -1.582 4.254
 -0.899 -1.582 4.255
 -0.885 -1.58 4.253
 -0.872 -1.581 4.258
 -0.859 -1.581 4.26
 -0.847 -1.582 4.263
 -0.833 -1.58 4.262
 -0.819 -1.579 4.26
 -0.805 -1.577 4.257
 -0.793 -1.578 4.261
 -0.779 -1.576 4.258
 -0.765 -1.575 4.257
 -0.752 -1.574 4.256
 -0.739 -1.575 4.259
 -0.725 -1.573 4.255
 -0.712 -1.573 4.258
 -0.7 -1.574 4.262
 -0.687 -1.574 4.264
 -0.673 -1.572 4.26
 -0.66 -1.571 4.259
 -0.646 -1.569 4.256
 -0.633 -1.57 4.258
 -0.62 -1.57 4.26
 -0.608 -1.57 4.262
 -0.595 -1.571 4.267
 -0.581 -1.569 4.261
 -0.568 -1.566 4.255
 -0.555 -1.566 4.257
 -0.541 -1.565 4.255
 -0.528 -1.564 4.253
 -0.515 -1.565 4.256
 -0.503 -1.566 4.261
 -0.49 -1.564 4.257
 -0.476 -1.563 4.255
 -0.464 -1.563 4.257
 -0.451 -1.562 4.255
 -0.437 -1.561 4.251
 -0.425 -1.562 4.256
 -0.412 -1.562 4.258
 -0.399 -1.56 4.253
 -0.386 -1.56 4.254
 -0.373 -1.56 4.254
 -0.36 -1.557 4.247
 -0.347 -1.558 4.25
 -0.334 -1.557 4.248
 -0.321 -1.557 4.25
 -0.309 -1.558 4.253
 -0.296 -1.558 4.253
 -0.283 -1.558 4.252
 -0.271 -1.56 4.258
 -0.258 -1.559 4.257
 -0.245 -1.559 4.256
 -0.232 -1.56 4.26
 -0.219 -1.561 4.263
 -0.206 -1.558 4.255
 -0.193 -1.557 4.253
 -0.18 -1.556 4.25
 -0.168 -1.554 4.247
 -0.155 -1.553 4.244
 -0.142 -1.555 4.247
 -0.129 -1.555 4.249
 -0.117 -1.555 4.249
 -0.104 -1.554 4.247
 -0.091 -1.553 4.243
 -0.078 -1.553 4.244
 -0.066 -1.555 4.248
 -0.053 -1.554 4.246
 -0.04 -1.554 4.246
 -0.027 -1.554 4.245
 -0.015 -1.554 4.246
 -0.002 -1.554 4.246
 0.01 -1.557 4.253
 0.023 -1.556 4.252
 0.035 -1.556 4.252
 0.048 -1.554 4.245
 0.061 -1.553 4.242
 0.073 -1.551 4.237
 0.086 -1.553 4.241
 0.099 -1.553 4.242
 0.112 -1.555 4.245
 0.124 -1.555 4.246
 0.137 -1.555 4.246
 0.15 -1.555 4.244
 0.163 -1.556 4.246
 0.176 -1.557 4.248
 0.188 -1.556 4.245
 0.201 -1.557 4.246
 0.213 -1.555 4.241
 0.226 -1.555 4.24
 0.239 -1.553 4.234
 0.251 -1.554 4.237
 0.264 -1.554 4.236
 0.277 -1.556 4.24
 0.29 -1.555 4.236
 0.303 -1.557 4.241
 0.315 -1.556 4.239
 0.328 -1.555 4.234
 0.341 -1.556 4.235
 0.354 -1.556 4.236
 0.366 -1.556 4.234
 0.379 -1.556 4.233
 0.392 -1.557 4.233
 0.405 -1.556 4.231
 0.418 -1.558 4.234
 0.431 -1.559 4.235
 0.443 -1.558 4.232
 0.456 -1.559 4.232
 0.469 -1.558 4.23
 0.481 -1.558 4.228
 0.494 -1.558 4.225
 0.508 -1.561 4.233
 0.521 -1.563 4.238
 0.535 -1.566 4.243
 0.548 -1.567 4.246
 0.561 -1.569 4.248
 0.573 -1.566 4.239
 0.585 -1.564 4.232
 0.598 -1.563 4.226
 0.61 -1.562 4.223
 0.623 -1.562 4.22
 0.636 -1.564 4.224
 0.65 -1.566 4.228
 0.663 -1.566 4.227
 0.676 -1.566 4.226
 0.688 -1.565 4.221
 0.7 -1.563 4.212
 0.713 -1.564 4.213
 0.725 -1.563 4.208
 0.738 -1.564 4.21
 0.751 -1.565 4.209
 0.766 -1.568 4.215
 0.778 -1.567 4.212
 0.792 -1.569 4.215
 0.806 -1.571 4.217
 0.82 -1.574 4.222
 0.833 -1.574 4.221
 0.846 -1.574 4.219
 0.86 -1.576 4.221
 0.872 -1.575 4.217
 0.885 -1.575 4.215
 0.898 -1.575 4.212
 0.911 -1.576 4.212
 0.924 -1.577 4.211
 0.938 -1.578 4.213
 0.951 -1.578 4.21
 0.966 -1.582 4.216
 0.978 -1.58 4.21
 0.991 -1.581 4.209
 1.004 -1.581 4.207
 1.018 -1.583 4.21
 1.031 -1.583 4.205
 1.047 -1.587 4.214
 1.058 -1.585 4.204
 1.071 -1.585 4.203
 1.083 -1.584 4.196
 1.096 -1.583 4.192
 1.108 -1.582 4.186
 1.123 -1.585 4.191
 1.135 -1.584 4.185
 1.148 -1.585 4.184
 1.164 -1.589 4.189
 1.177 -1.589 4.187
 1.192 -1.591 4.19
 1.205 -1.592 4.19
 1.219 -1.593 4.189
 1.231 -1.592 4.181
 1.245 -1.593 4.18
 1.255 -1.59 4.17
 1.271 -1.594 4.175
 1.286 -1.596 4.179
 1.3 -1.598 4.178
 1.314 -1.599 4.178
 1.331 -1.603 4.185
 1.343 -1.602 4.177
 1.356 -1.602 4.174
 1.369 -1.603 4.172
 1.382 -1.602 4.167
 1.394 -1.601 4.159
 1.408 -1.603 4.16
 1.422 -1.603 4.158
 1.435 -1.604 4.155
 1.449 -1.605 4.154
 1.464 -1.606 4.152
 1.475 -1.604 4.143
 1.489 -1.605 4.141
 1.501 -1.604 4.135
 1.514 -1.604 4.131
 1.527 -1.604 4.125
 1.542 -1.607 4.128
 1.556 -1.607 4.124
 1.572 -1.611 4.129
 1.588 -1.613 4.131
 1.602 -1.614 4.128
 1.615 -1.614 4.123
 1.628 -1.614 4.119
 1.641 -1.614 4.113
 1.653 -1.613 4.107
 1.667 -1.614 4.105
 1.681 -1.615 4.101
 1.696 -1.617 4.101
 1.708 -1.615 4.093
 1.719 -1.614 4.084
 1.732 -1.614 4.078
 1.744 -1.613 4.071
 1.756 -1.612 4.064
 1.768 -1.611 4.056
 1.78 -1.61 4.048
 1.791 -1.608 4.039
 1.802 -1.606 4.028
 1.813 -1.604 4.017
 1.822 -1.6 4.003
 1.836 -1.601 3.999
 1.843 -1.596 3.982
 1.852 -1.594 3.969
 1.857 -1.587 3.947
 1.865 -1.583 3.931
 1.865 -1.572 3.898
 1.872 -1.567 3.881
 1.874 -1.558 3.852
 1.878 -1.551 3.83
 1.881 -1.543 3.805
 1.881 -1.533 3.774
 1.886 -1.527 3.753
 1.885 -1.517 3.722
 1.885 -1.507 3.691
 1.889 -1.5 3.671
 1.899 -1.498 3.659
 1.893 -1.484 3.619
 1.906 -1.485 3.615
 0 0 0
 0 0 0
 0 0 0
 0 0 0
 0 0 0
 0 0 0
 0 0 0
 0 0 0
 0 0 0
 0 0 0
 1.807 -1.317 3.146
 1.812 -1.313 3.131
 1.822 -1.312 3.124
 1.828 -1.309 3.111
 1.838 -1.309 3.104
 1.841 -1.303 3.086
 1.845 -1.299 3.069
 1.843 -1.29 3.044
 1.825 -1.271 2.992
 1.862 -1.289 3.03
 -2.309 -1.602 3.895
 -2.329 -1.625 3.959
 -2.315 -1.625 3.965
 -2.295 -1.621 3.962
 -2.279 -1.619 3.963
 -2.261 -1.616 3.963
 -2.247 -1.616 3.968
 -2.228 -1.612 3.965
 -2.212 -1.61 3.967
 -2.201 -1.611 3.977
 -2.191 -1.614 3.99
 -2.175 -1.612 3.991
 -2.163 -1.614 4.001
 -2.15 -1.614 4.008
 -2.138 -1.615 4.016
 -2.126 -1.616 4.026
 -2.113 -1.617 4.033
 -2.102 -1.618 4.043
 -2.087 -1.617 4.046
 -2.075 -1.618 4.055
 -2.059 -1.617 4.058
 -2.047 -1.618 4.065
 -2.029 -1.614 4.062
 -2.018 -1.617 4.074
 -2.002 -1.614 4.073
 -1.986 -1.612 4.074
 -1.976 -1.616 4.088
 -1.966 -1.619 4.101
 -1.951 -1.617 4.102
 -1.936 -1.615 4.104
 -1.922 -1.616 4.11
 -1.905 -1.612 4.106
 -1.892 -1.613 4.113
 -1.881 -1.615 4.124
 -1.868 -1.615 4.13
 -1.852 -1.613 4.129
 -1.84 -1.614 4.137
 -1.824 -1.613 4.138
 -1.813 -1.614 4.148
 -1.801 -1.616 4.157
 -1.786 -1.614 4.157
 -1.77 -1.612 4.157
 -1.756 -1.611 4.16
 -1.742 -1.611 4.164
 -1.727 -1.61 4.166
 -1.717 -1.613 4.179
 -1.704 -1.614 4.184
 -1.691 -1.614 4.19
 -1.674 -1.611 4.187
 -1.659 -1.609 4.186
 -1.641 -1.605 4.18
 -1.627 -1.604 4.182
 -1.611 -1.601 4.179
 -1.597 -1.601 4.182
 -1.584 -1.601 4.188
 -1.572 -1.602 4.194
 -1.558 -1.602 4.199
 -1.547 -1.605 4.21
 -1.534 -1.605 4.213
 -1.52 -1.604 4.216
 -1.509 -1.607 4.227
 -1.494 -1.605 4.227
 -1.482 -1.606 4.234
 -1.467 -1.604 4.232
 -1.452 -1.603 4.233
 -1.437 -1.601 4.231
 -1.423 -1.601 4.234
 -1.407 -1.597 4.227
 -1.391 -1.595 4.226
 -1.378 -1.595 4.23
 -1.364 -1.594 4.23
 -1.351 -1.594 4.235
 -1.339 -1.596 4.244
 -1.327 -1.597 4.248
 -1.313 -1.596 4.25
 -1.297 -1.593 4.246
 -1.282 -1.59 4.242
 -1.266 -1.588 4.239
 -1.253 -1.587 4.24
 -1.24 -1.588 4.246
 -1.227 -1.588 4.248
 -1.214 -1.588 4.252
 -1.2 -1.587 4.252
 -1.186 -1.587 4.254
 -1.17 -1.583 4.248
 -1.159 -1.585 4.256
 -1.144 -1.583 4.254
 -1.131 -1.583 4.257
 -1.118 -1.584 4.261
 -1.107 -1.586 4.27
 -1.092 -1.584 4.268
 -1.08 -1.587 4.276
 -1.067 -1.587 4.279
 -1.053 -1.585 4.278
 -1.037 -1.581 4.268
 -1.022 -1.578 4.262
 -1.006 -1.574 4.254
 -0.991 -1.571 4.249
 -0.977 -1.568 4.245
 -0.964 -1.568 4.247
 -0.952 -1.571 4.255
 -0.939 -1.571 4.259
 -0.924 -1.568 4.253
 -0.912 -1.569 4.259
 -0.898 -1.568 4.256
 -0.883 -1.565 4.251
 -0.871 -1.566 4.255
 -0.859 -1.567 4.262
 -0.845 -1.566 4.261
 -0.833 -1.567 4.266
 -0.819 -1.566 4.265
 -0.805 -1.563 4.258
 -0.792 -1.564 4.263
 -0.779 -1.563 4.263
 -0.765 -1.562 4.261
 -0.751 -1.561 4.258
 -0.739 -1.562 4.263
 -0.725 -1.559 4.256
 -0.712 -1.559 4.259
 -0.699 -1.56 4.263
 -0.687 -1.56 4.266
 -0.673 -1.559 4.264
 -0.66 -1.559 4.266
 -0.647 -1.558 4.265
 -0.634 -1.558 4.265
 -0.621 -1.559 4.27
 -0.608 -1.559 4.272
 -0.596 -1.56 4.274
 -0.582 -1.559 4.274
 -0.568 -1.555 4.265
 -0.555 -1.554 4.264
 -0.542 -1.554 4.264
 -0.529 -1.553 4.262
 -0.515 -1.552 4.26
 -0.503 -1.554 4.268
 -0.49 -1.552 4.264
 -0.477 -1.551 4.261
 -0.464 -1.552 4.264
 -0.451 -1.551 4.264
 -0.438 -1.549 4.26
 -0.425 -1.551 4.264
 -0.412 -1.551 4.267
 -0.399 -1.549 4.262
 -0.386 -1.547 4.257
 -0.373 -1.546 4.255
 -0.359 -1.543 4.247
 -0.346 -1.543 4.249
 -0.333 -1.542 4.246
 -0.321 -1.544 4.252
 -0.309 -1.546 4.258
 -0.296 -1.546 4.259
 -0.283 -1.546 4.258
 -0.27 -1.547 4.262
 -0.257 -1.546 4.26
 -0.245 -1.545 4.258
 -0.232 -1.546 4.262
 -0.219 -1.547 4.263
 -0.206 -1.543 4.254
 -0.193 -1.543 4.253
 -0.18 -1.543 4.254
 -0.168 -1.542 4.252
 -0.155 -1.542 4.252
 -0.142 -1.545 4.261
 -0.13 -1.546 4.264
 -0.117 -1.546 4.263
 -0.104 -1.545 4.261
 -0.091 -1.543 4.255
 -0.078 -1.543 4.254
 -0.066 -1.543 4.254
 -0.053 -1.542 4.253
 -0.04 -1.542 4.253
 -0.027 -1.542 4.253
 -0.015 -1.543 4.254
 -0.002 -1.544 4.259
 0.01 -1.546 4.263
 0.023 -1.546 4.263
 0.035 -1.545 4.261
 0.048 -1.543 4.253
 0.061 -1.541 4.247
 0.073 -1.54 4.244
 0.086 -1.539 4.241
 0.099 -1.539 4.242
 0.112 -1.541 4.246
 0.124 -1.54 4.245
 0.137 -1.54 4.243
 0.15 -1.541 4.246
 0.163 -1.543 4.25
 0.176 -1.544 4.252
 0.188 -1.544 4.252
 0.201 -1.545 4.253
 0.214 -1.544 4.25
 0.227 -1.544 4.249
 0.239 -1.541 4.242
 0.252 -1.541 4.241
 0.264 -1.542 4.243
 0.277 -1.543 4.245
 0.29 -1.542 4.24
 0.303 -1.543 4.243
 0.316 -1.544 4.244
 0.328 -1.542 4.237
 0.341 -1.543 4.238
 0.354 -1.543 4.239
 0.366 -1.543 4.237
 0.379 -1.542 4.233
 0.392 -1.542 4.233
 0.404 -1.542 4.232
 0.417 -1.543 4.232
 0.43 -1.545 4.236
 0.443 -1.545 4.236
 0.456 -1.546 4.236
 0.469 -1.545 4.233
 0.482 -1.546 4.233
 0.494 -1.545 4.23
 0.508 -1.547 4.235
 0.521 -1.549 4.239
 0.534 -1.551 4.242
 0.547 -1.552 4.244
 0.561 -1.553 4.245
 0.573 -1.552 4.239
 0.585 -1.55 4.234
 0.598 -1.55 4.23
 0.61 -1.55 4.228
 0.623 -1.55 4.229
 0.636 -1.551 4.229
 0.65 -1.553 4.233
 0.663 -1.554 4.233
 0.675 -1.553 4.227
 0.687 -1.551 4.22
 0.7 -1.55 4.217
 0.713 -1.551 4.217
 0.726 -1.551 4.215
 0.74 -1.554 4.222
 0.753 -1.556 4.224
 0.767 -1.558 4.227
 0.779 -1.557 4.222
 0.793 -1.558 4.223
 0.806 -1.558 4.221
 0.819 -1.56 4.223
 0.833 -1.561 4.225
 0.846 -1.562 4.226
 0.86 -1.564 4.228
 0.873 -1.564 4.225
 0.886 -1.565 4.226
 0.899 -1.564 4.221
 0.911 -1.564 4.218
 0.925 -1.564 4.216
 0.938 -1.566 4.217
 0.951 -1.565 4.213
 0.965 -1.568 4.219
 0.978 -1.568 4.215
 0.991 -1.568 4.214
 1.005 -1.569 4.213
 1.019 -1.571 4.216
 1.031 -1.571 4.211
 1.047 -1.574 4.219
 1.06 -1.574 4.215
 1.072 -1.574 4.211
 1.085 -1.573 4.206
 1.097 -1.573 4.203
 1.11 -1.573 4.2
 1.124 -1.574 4.199
 1.137 -1.574 4.197
 1.15 -1.574 4.194
 1.166 -1.579 4.203
 1.179 -1.579 4.199
 1.194 -1.581 4.202
 1.208 -1.582 4.201
 1.221 -1.583 4.2
 1.232 -1.58 4.19
 1.247 -1.582 4.191
 1.257 -1.58 4.18
 1.272 -1.581 4.182
 1.287 -1.584 4.185
 1.302 -1.587 4.189
 1.316 -1.588 4.187
 1.333 -1.592 4.196
 1.347 -1.593 4.194
 1.361 -1.595 4.194
 1.374 -1.594 4.19
 1.388 -1.595 4.188
 1.4 -1.594 4.181
 1.413 -1.595 4.178
 1.425 -1.594 4.172
 1.438 -1.594 4.168
 1.451 -1.594 4.164
 1.466 -1.596 4.164
 1.479 -1.595 4.159
 1.494 -1.597 4.16
 1.507 -1.597 4.155
 1.52 -1.597 4.15
 1.533 -1.597 4.146
 1.547 -1.598 4.145
 1.56 -1.598 4.14
 1.577 -1.602 4.145
 1.593 -1.605 4.149
 1.607 -1.606 4.146
 1.621 -1.607 4.144
 1.635 -1.607 4.14
 1.647 -1.606 4.133
 1.659 -1.605 4.126
 1.673 -1.606 4.123
 1.688 -1.608 4.122
 1.703 -1.61 4.123
 1.716 -1.61 4.118
 1.728 -1.609 4.11
 1.742 -1.61 4.107
 1.753 -1.608 4.097
 1.766 -1.607 4.09
 1.777 -1.606 4.081
 1.789 -1.605 4.073
 1.8 -1.603 4.062
 1.812 -1.602 4.054
 1.822 -1.599 4.043
 1.832 -1.597 4.031
 1.845 -1.596 4.024
 1.85 -1.589 4.002
 1.857 -1.584 3.984
 1.86 -1.576 3.957
 1.868 -1.572 3.94
 1.866 -1.559 3.903
 1.873 -1.554 3.886
 1.875 -1.546 3.858
 1.879 -1.539 3.836
 1.879 -1.529 3.804
 1.88 -1.52 3.776
 1.886 -1.515 3.758
 1.888 -1.506 3.731
 1.888 -1.497 3.702
 1.896 -1.493 3.688
 1.908 -1.493 3.682
 1.9 -1.477 3.637
 0 0 0
 0 0 0
 0 0 0
 0 0 0
 0 0 0
 0 0 0
 0 0 0
 0 0 0
 0 0 0
 0 0 0
 0 0 0
 1.812 -1.31 3.158
 1.815 -1.305 3.141
 1.825 -1.304 3.134
 1.833 -1.302 3.123
 1.843 -1.302 3.117
 1.844 -1.295 3.095
 1.848 -1.291 3.079
 1.848 -1.283 3.055
 1.854 -1.28 3.042
 1.846 -1.267 3.007
 -2.353 -1.619 3.976
 -2.339 -1.619 3.981
 -2.33 -1.622 3.996
 -2.317 -1.622 4.004
 -2.297 -1.619 4.001
 -2.283 -1.618 4.006
 -2.268 -1.617 4.01
 -2.249 -1.613 4.007
 -2.23 -1.609 4.004
 -2.219 -1.611 4.014
 -2.206 -1.612 4.023
 -2.19 -1.61 4.024
 -2.179 -1.612 4.036
 -2.166 -1.612 4.043
 -2.154 -1.614 4.053
 -2.142 -1.615 4.062
 -2.129 -1.616 4.069
 -2.116 -1.616 4.076
 -2.102 -1.616 4.081
 -2.088 -1.615 4.086
 -2.073 -1.614 4.09
 -2.062 -1.616 4.101
 -2.045 -1.613 4.099
 -2.034 -1.616 4.111
 -2.019 -1.615 4.113
 -2.001 -1.611 4.111
 -1.989 -1.613 4.119
 -1.977 -1.614 4.128
 -1.961 -1.612 4.129
 -1.947 -1.611 4.132
 -1.934 -1.612 4.139
 -1.917 -1.609 4.138
 -1.907 -1.612 4.152
 -1.895 -1.613 4.16
 -1.88 -1.612 4.161
 -1.865 -1.611 4.163
 -1.852 -1.611 4.17
 -1.836 -1.61 4.17
 -1.825 -1.612 4.182
 -1.815 -1.615 4.193
 -1.801 -1.614 4.197
 -1.784 -1.612 4.195
 -1.769 -1.61 4.197
 -1.753 -1.608 4.195
 -1.739 -1.608 4.2
 -1.727 -1.609 4.208
 -1.714 -1.61 4.214
 -1.703 -1.612 4.224
 -1.688 -1.611 4.226
 -1.671 -1.607 4.222
 -1.655 -1.605 4.219
 -1.64 -1.604 4.221
 -1.621 -1.598 4.211
 -1.608 -1.598 4.215
 -1.596 -1.6 4.224
 -1.581 -1.599 4.225
 -1.568 -1.598 4.229
 -1.556 -1.6 4.237
 -1.54 -1.598 4.235
 -1.526 -1.597 4.236
 -1.514 -1.598 4.244
 -1.499 -1.597 4.245
 -1.487 -1.598 4.253
 -1.472 -1.597 4.254
 -1.458 -1.596 4.253
 -1.444 -1.595 4.256
 -1.43 -1.594 4.257
 -1.413 -1.591 4.253
 -1.398 -1.589 4.249
 -1.384 -1.588 4.252
 -1.369 -1.587 4.251
 -1.356 -1.587 4.256
 -1.342 -1.586 4.257
 -1.331 -1.589 4.267
 -1.317 -1.588 4.269
 -1.303 -1.587 4.268
 -1.287 -1.584 4.263
 -1.273 -1.583 4.266
 -1.259 -1.582 4.264
 -1.245 -1.581 4.267
 -1.231 -1.58 4.267
 -1.217 -1.579 4.267
 -1.202 -1.577 4.264
 -1.188 -1.576 4.265
 -1.173 -1.573 4.26
 -1.16 -1.574 4.266
 -1.146 -1.573 4.266
 -1.134 -1.574 4.271
 -1.12 -1.574 4.273
 -1.108 -1.575 4.278
 -1.093 -1.573 4.276
 -1.081 -1.575 4.284
 -1.067 -1.574 4.284
 -1.054 -1.573 4.284
 -1.038 -1.569 4.277
 -1.023 -1.566 4.272
 -1.007 -1.562 4.262
 -0.993 -1.56 4.259
 -0.978 -1.557 4.254
 -0.965 -1.557 4.256
 -0.953 -1.56 4.265
 -0.94 -1.56 4.268
 -0.926 -1.557 4.263
 -0.913 -1.558 4.267
 -0.898 -1.555 4.262
 -0.883 -1.552 4.254
 -0.871 -1.553 4.259
 -0.859 -1.554 4.266
 -0.845 -1.553 4.264
 -0.833 -1.555 4.271
 -0.819 -1.554 4.27
 -0.804 -1.55 4.261
 -0.792 -1.55 4.264
 -0.778 -1.549 4.264
 -0.764 -1.547 4.26
 -0.751 -1.547 4.26
 -0.739 -1.548 4.266
 -0.725 -1.546 4.263
 -0.711 -1.545 4.261
 -0.699 -1.546 4.265
 -0.686 -1.547 4.268
 -0.673 -1.545 4.266
 -0.659 -1.544 4.265
 -0.646 -1.544 4.264
 -0.633 -1.544 4.266
 -0.62 -1.544 4.269
 -0.607 -1.544 4.27
 -0.595 -1.545 4.275
 -0.582 -1.545 4.276
 -0.569 -1.543 4.272
 -0.555 -1.542 4.27
 -0.542 -1.542 4.271
 -0.529 -1.541 4.269
 -0.516 -1.541 4.27
 -0.504 -1.543 4.276
 -0.491 -1.543 4.276
 -0.477 -1.541 4.273
 -0.465 -1.541 4.274
 -0.452 -1.541 4.274
 -0.438 -1.538 4.267
 -0.425 -1.537 4.265
 -0.412 -1.538 4.269
 -0.399 -1.536 4.265
 -0.386 -1.534 4.261
 -0.373 -1.534 4.26
 -0.359 -1.532 4.255
 -0.347 -1.531 4.255
 -0.334 -1.531 4.254
 -0.321 -1.533 4.26
 -0.309 -1.536 4.269
 -0.296 -1.536 4.27
 -0.283 -1.534 4.266
 -0.27 -1.535 4.268
 -0.257 -1.533 4.263
 -0.244 -1.531 4.258
 -0.232 -1.532 4.26
 -0.219 -1.534 4.267
 -0.206 -1.531 4.26
 -0.193 -1.531 4.26
 -0.18 -1.531 4.259
 -0.168 -1.53 4.258
 -0.155 -1.53 4.257
 -0.142 -1.532 4.264
 -0.13 -1.533 4.267
 -0.117 -1.534 4.268
 -0.104 -1.533 4.267
 -0.091 -1.531 4.261
 -0.078 -1.53 4.259
 -0.066 -1.53 4.259
 -0.053 -1.529 4.257
 -0.04 -1.531 4.261
 -0.027 -1.531 4.261
 -0.015 -1.532 4.265
 -0.002 -1.533 4.266
 0.01 -1.534 4.268
 0.023 -1.532 4.264
 0.035 -1.531 4.259
 0.048 -1.526 4.247
 0.061 -1.525 4.242
 0.073 -1.525 4.243
 0.086 -1.525 4.242
 0.099 -1.527 4.248
 0.112 -1.53 4.254
 0.125 -1.53 4.254
 0.137 -1.528 4.249
 0.15 -1.529 4.251
 0.163 -1.529 4.251
 0.176 -1.53 4.252
 0.188 -1.529 4.251
 0.201 -1.53 4.252
 0.214 -1.529 4.249
 0.226 -1.53 4.251
 0.239 -1.529 4.247
 0.252 -1.53 4.248
 0.265 -1.531 4.25
 0.278 -1.531 4.25
 0.29 -1.53 4.245
 0.303 -1.53 4.246
 0.316 -1.531 4.246
 0.328 -1.529 4.24
 0.341 -1.53 4.243
 0.354 -1.53 4.242
 0.366 -1.53 4.24
 0.379 -1.529 4.237
 0.392 -1.53 4.239
 0.405 -1.53 4.237
 0.417 -1.531 4.237
 0.43 -1.532 4.239
 0.443 -1.532 4.237
 0.456 -1.532 4.238
 0.468 -1.532 4.235
 0.481 -1.532 4.234
 0.494 -1.533 4.235
 0.508 -1.534 4.238
 0.521 -1.536 4.241
 0.534 -1.538 4.244
 0.548 -1.539 4.248
 0.56 -1.54 4.247
 0.573 -1.538 4.241
 0.585 -1.537 4.235
 0.597 -1.535 4.23
 0.61 -1.535 4.228
 0.623 -1.537 4.23
 0.637 -1.539 4.234
 0.65 -1.54 4.237
 0.663 -1.542 4.239
 0.676 -1.54 4.233
 0.687 -1.538 4.225
 0.7 -1.538 4.222
 0.713 -1.538 4.221
 0.725 -1.537 4.217
 0.739 -1.54 4.223
 0.753 -1.542 4.226
 0.767 -1.544 4.227
 0.779 -1.543 4.223
 0.792 -1.544 4.224
 0.805 -1.544 4.222
 0.819 -1.545 4.224
 0.831 -1.545 4.221
 0.845 -1.547 4.224
 0.859 -1.549 4.227
 0.872 -1.55 4.226
 0.886 -1.552 4.229
 0.9 -1.553 4.23
 0.912 -1.552 4.224
 0.925 -1.552 4.222
 0.938 -1.552 4.221
 0.951 -1.552 4.218
 0.965 -1.555 4.222
 0.979 -1.556 4.224
 0.993 -1.558 4.224
 1.007 -1.559 4.226
 1.02 -1.559 4.223
 1.032 -1.559 4.219
 1.047 -1.561 4.222
 1.059 -1.56 4.218
 1.072 -1.561 4.216
 1.086 -1.562 4.216
 1.099 -1.562 4.212
 1.111 -1.561 4.208
 1.125 -1.563 4.208
 1.138 -1.562 4.204
 1.151 -1.562 4.201
 1.167 -1.567 4.209
 1.18 -1.567 4.206
 1.195 -1.569 4.21
 1.209 -1.571 4.211
 1.223 -1.572 4.209
 1.234 -1.569 4.198
 1.248 -1.571 4.2
 1.26 -1.569 4.192
 1.274 -1.571 4.192
 1.289 -1.574 4.196
 1.305 -1.577 4.201
 1.319 -1.578 4.201
 1.335 -1.582 4.206
 1.348 -1.582 4.203
 1.362 -1.582 4.201
 1.375 -1.582 4.197
 1.388 -1.583 4.195
 1.401 -1.582 4.189
 1.416 -1.585 4.191
 1.43 -1.585 4.189
 1.444 -1.586 4.187
 1.457 -1.586 4.183
 1.472 -1.589 4.185
 1.484 -1.587 4.177
 1.498 -1.588 4.176
 1.511 -1.588 4.17
 1.525 -1.59 4.17
 1.538 -1.59 4.166
 1.552 -1.59 4.163
 1.565 -1.59 4.158
 1.58 -1.592 4.159
 1.596 -1.594 4.16
 1.61 -1.596 4.159
 1.626 -1.598 4.161
 1.64 -1.599 4.158
 1.653 -1.599 4.152
 1.667 -1.599 4.149
 1.681 -1.6 4.146
 1.695 -1.601 4.144
 1.709 -1.602 4.141
 1.723 -1.603 4.139
 1.734 -1.601 4.128
 1.748 -1.601 4.124
 1.76 -1.6 4.116
 1.773 -1.601 4.112
 1.785 -1.599 4.102
 1.799 -1.6 4.101
 1.81 -1.598 4.089
 1.82 -1.595 4.077
 1.828 -1.591 4.06
 1.836 -1.587 4.043
 1.847 -1.584 4.032
 1.852 -1.578 4.012
 1.86 -1.574 3.995
 1.866 -1.568 3.973
 1.873 -1.563 3.956
 1.871 -1.551 3.919
 1.876 -1.544 3.897
 1.876 -1.534 3.866
 1.881 -1.528 3.845
 1.881 -1.518 3.813
 1.882 -1.509 3.784
 1.889 -1.504 3.768
 1.895 -1.499 3.748
 1.891 -1.487 3.712
 1.902 -1.485 3.703
 1.916 -1.487 3.702
 0 0 0
 0 0 0
 0 0 0
 0 0 0
 0 0 0
 0 0 0
 0 0 0
 0 0 0
 0 0 0
 0 0 0
 0 0 0
 0 0 0
 1.806 -1.295 3.152
 1.805 -1.286 3.126
 1.818 -1.289 3.126
 1.827 -1.287 3.118
 1.838 -1.287 3.112
 1.84 -1.282 3.093
 1.847 -1.279 3.08
 1.845 -1.271 3.055
 1.852 -1.268 3.042
 1.803 -1.228 2.94
 -2.441 -1.666 4.13
 0 0 0
 -2.343 -1.618 4.024
 -2.333 -1.62 4.038
 -2.317 -1.618 4.039
 -2.299 -1.616 4.039
 -2.286 -1.616 4.047
 -2.266 -1.612 4.043
 -2.248 -1.609 4.041
 -2.235 -1.609 4.049
 -2.222 -1.61 4.056
 -2.204 -1.606 4.055
 -2.194 -1.609 4.068
 -2.179 -1.609 4.072
 -2.169 -1.611 4.086
 -2.159 -1.614 4.098
 -2.147 -1.615 4.108
 -2.132 -1.614 4.111
 -2.116 -1.613 4.114
 -2.103 -1.613 4.12
 -2.088 -1.612 4.124
 -2.076 -1.614 4.133
 -2.06 -1.612 4.135
 -2.051 -1.615 4.149
 -2.035 -1.614 4.151
 -2.018 -1.611 4.15
 -2.005 -1.612 4.158
 -1.993 -1.613 4.166
 -1.976 -1.61 4.165
 -1.962 -1.61 4.17
 -1.948 -1.61 4.175
 -1.933 -1.609 4.177
 -1.92 -1.61 4.185
 -1.908 -1.611 4.193
 -1.892 -1.609 4.192
 -1.876 -1.607 4.193
 -1.86 -1.605 4.193
 -1.846 -1.604 4.197
 -1.834 -1.606 4.206
 -1.822 -1.608 4.216
 -1.809 -1.608 4.221
 -1.792 -1.605 4.219
 -1.778 -1.604 4.222
 -1.762 -1.603 4.222
 -1.748 -1.602 4.225
 -1.737 -1.605 4.236
 -1.724 -1.605 4.243
 -1.713 -1.607 4.253
 -1.699 -1.607 4.258
 -1.682 -1.604 4.253
 -1.664 -1.6 4.248
 -1.651 -1.601 4.253
 -1.63 -1.593 4.238
 -1.615 -1.592 4.239
 -1.603 -1.594 4.248
 -1.588 -1.592 4.247
 -1.573 -1.591 4.249
 -1.562 -1.593 4.259
 -1.546 -1.59 4.256
 -1.53 -1.588 4.254
 -1.518 -1.589 4.261
 -1.503 -1.587 4.26
 -1.49 -1.588 4.265
 -1.476 -1.588 4.268
 -1.461 -1.586 4.269
 -1.446 -1.584 4.268
 -1.433 -1.585 4.273
 -1.418 -1.583 4.27
 -1.402 -1.58 4.267
 -1.389 -1.58 4.271
 -1.375 -1.58 4.275
 -1.361 -1.58 4.276
 -1.345 -1.577 4.272
 -1.333 -1.578 4.279
 -1.319 -1.578 4.281
 -1.306 -1.577 4.283
 -1.29 -1.574 4.277
 -1.277 -1.575 4.283
 -1.262 -1.573 4.282
 -1.248 -1.572 4.282
 -1.234 -1.571 4.282
 -1.22 -1.57 4.282
 -1.204 -1.567 4.277
 -1.192 -1.568 4.282
 -1.177 -1.565 4.279
 -1.163 -1.565 4.28
 -1.149 -1.564 4.281
 -1.136 -1.565 4.286
 -1.121 -1.561 4.28
 -1.108 -1.562 4.285
 -1.093 -1.56 4.281
 -1.081 -1.562 4.289
 -1.068 -1.561 4.29
 -1.054 -1.561 4.291
 -1.038 -1.557 4.283
 -1.024 -1.555 4.282
 -1.009 -1.551 4.273
 -0.994 -1.55 4.271
 -0.979 -1.546 4.264
 -0.966 -1.546 4.265
 -0.954 -1.547 4.271
 -0.94 -1.547 4.273
 -0.926 -1.544 4.267
 -0.914 -1.546 4.275
 -0.899 -1.544 4.271
 -0.885 -1.542 4.267
 -0.872 -1.542 4.271
 -0.86 -1.544 4.278
 -0.846 -1.542 4.275
 -0.834 -1.544 4.281
 -0.82 -1.543 4.28
 -0.806 -1.54 4.273
 -0.792 -1.539 4.272
 -0.779 -1.538 4.272
 -0.765 -1.536 4.268
 -0.751 -1.534 4.265
 -0.739 -1.536 4.272
 -0.725 -1.535 4.27
 -0.712 -1.533 4.266
 -0.699 -1.534 4.272
 -0.687 -1.535 4.276
 -0.673 -1.533 4.271
 -0.659 -1.532 4.27
 -0.646 -1.532 4.271
 -0.633 -1.531 4.271
 -0.621 -1.532 4.275
 -0.608 -1.532 4.277
 -0.595 -1.533 4.28
 -0.582 -1.533 4.282
 -0.569 -1.531 4.277
 -0.555 -1.529 4.274
 -0.542 -1.528 4.27
 -0.528 -1.526 4.266
 -0.515 -1.526 4.267
 -0.503 -1.527 4.271
 -0.49 -1.527 4.273
 -0.477 -1.528 4.277
 -0.465 -1.53 4.282
 -0.452 -1.529 4.283
 -0.439 -1.527 4.278
 -0.425 -1.526 4.276
 -0.413 -1.526 4.277
 -0.399 -1.523 4.269
 -0.386 -1.522 4.267
 -0.373 -1.522 4.267
 -0.36 -1.52 4.263
 -0.347 -1.52 4.263
 -0.334 -1.52 4.263
 -0.321 -1.521 4.266
 -0.309 -1.522 4.27
 -0.296 -1.521 4.268
 -0.283 -1.52 4.266
 -0.27 -1.522 4.271
 -0.257 -1.52 4.268
 -0.244 -1.519 4.264
 -0.232 -1.519 4.266
 -0.219 -1.52 4.267
 -0.206 -1.517 4.26
 -0.193 -1.518 4.262
 -0.18 -1.518 4.263
 -0.168 -1.518 4.264
 -0.155 -1.518 4.264
 -0.142 -1.519 4.267
 -0.129 -1.52 4.269
 -0.117 -1.519 4.268
 -0.104 -1.519 4.268
 -0.091 -1.518 4.265
 -0.078 -1.518 4.264
 -0.065 -1.518 4.265
 -0.053 -1.517 4.262
 -0.04 -1.517 4.263
 -0.027 -1.518 4.263
 -0.014 -1.519 4.268
 -0.002 -1.519 4.266
 0.01 -1.519 4.268
 0.023 -1.518 4.265
 0.036 -1.517 4.261
 0.048 -1.513 4.248
 0.061 -1.511 4.243
 0.073 -1.512 4.245
 0.086 -1.511 4.244
 0.099 -1.512 4.245
 0.112 -1.515 4.253
 0.125 -1.515 4.253
 0.137 -1.515 4.253
 0.15 -1.517 4.258
 0.163 -1.518 4.259
 0.176 -1.519 4.262
 0.189 -1.519 4.261
 0.201 -1.519 4.259
 0.214 -1.516 4.252
 0.227 -1.518 4.256
 0.239 -1.516 4.25
 0.252 -1.517 4.251
 0.265 -1.517 4.251
 0.278 -1.518 4.253
 0.29 -1.516 4.247
 0.303 -1.517 4.25
 0.316 -1.518 4.249
 0.328 -1.517 4.245
 0.341 -1.517 4.245
 0.353 -1.516 4.241
 0.366 -1.515 4.238
 0.378 -1.515 4.236
 0.391 -1.516 4.237
 0.404 -1.516 4.236
 0.417 -1.516 4.236
 0.43 -1.518 4.24
 0.443 -1.517 4.236
 0.456 -1.519 4.24
 0.468 -1.518 4.237
 0.482 -1.52 4.24
 0.495 -1.52 4.24
 0.508 -1.523 4.247
 0.521 -1.524 4.247
 0.534 -1.525 4.249
 0.548 -1.526 4.251
 0.56 -1.526 4.248
 0.573 -1.525 4.244
 0.585 -1.524 4.239
 0.597 -1.523 4.236
 0.61 -1.523 4.232
 0.623 -1.525 4.236
 0.637 -1.526 4.237
 0.65 -1.527 4.239
 0.664 -1.529 4.242
 0.676 -1.529 4.24
 0.688 -1.526 4.231
 0.701 -1.526 4.229
 0.714 -1.526 4.228
 0.726 -1.526 4.225
 0.739 -1.527 4.227
 0.753 -1.528 4.227
 0.766 -1.53 4.23
 0.779 -1.529 4.224
 0.791 -1.529 4.221
 0.804 -1.529 4.221
 0.818 -1.531 4.223
 0.83 -1.529 4.216
 0.844 -1.532 4.221
 0.858 -1.535 4.227
 0.871 -1.535 4.225
 0.886 -1.538 4.231
 0.9 -1.54 4.233
 0.912 -1.539 4.229
 0.925 -1.539 4.226
 0.938 -1.54 4.225
 0.951 -1.54 4.224
 0.966 -1.542 4.227
 0.979 -1.544 4.228
 0.993 -1.545 4.229
 1.007 -1.546 4.23
 1.019 -1.546 4.225
 1.032 -1.545 4.222
 1.046 -1.547 4.225
 1.059 -1.547 4.22
 1.072 -1.547 4.218
 1.086 -1.549 4.219
 1.1 -1.55 4.22
 1.113 -1.55 4.216
 1.126 -1.551 4.215
 1.138 -1.549 4.208
 1.151 -1.549 4.205
 1.166 -1.552 4.21
 1.18 -1.553 4.209
 1.195 -1.557 4.215
 1.21 -1.559 4.219
 1.224 -1.56 4.218
 1.236 -1.558 4.209
 1.25 -1.56 4.209
 1.262 -1.559 4.203
 1.276 -1.56 4.203
 1.291 -1.563 4.207
 1.306 -1.565 4.21
 1.32 -1.566 4.208
 1.334 -1.568 4.209
 1.348 -1.568 4.206
 1.362 -1.569 4.205
 1.375 -1.57 4.202
 1.389 -1.571 4.202
 1.403 -1.572 4.2
 1.418 -1.573 4.201
 1.431 -1.573 4.196
 1.444 -1.573 4.192
 1.457 -1.573 4.188
 1.472 -1.575 4.188
 1.485 -1.575 4.185
 1.5 -1.577 4.185
 1.514 -1.578 4.182
 1.529 -1.58 4.184
 1.543 -1.58 4.181
 1.554 -1.579 4.173
 1.569 -1.58 4.171
 1.583 -1.582 4.171
 1.598 -1.584 4.172
 1.612 -1.584 4.168
 1.63 -1.588 4.174
 1.644 -1.589 4.172
 1.657 -1.59 4.168
 1.671 -1.59 4.164
 1.685 -1.591 4.162
 1.699 -1.591 4.157
 1.713 -1.592 4.155
 1.726 -1.592 4.15
 1.738 -1.591 4.142
 1.752 -1.592 4.139
 1.765 -1.591 4.132
 1.777 -1.591 4.125
 1.789 -1.59 4.118
 1.803 -1.591 4.114
 1.813 -1.588 4.101
 1.824 -1.585 4.09
 1.833 -1.582 4.075
 1.841 -1.577 4.058
 1.85 -1.574 4.045
 1.856 -1.568 4.023
 1.863 -1.563 4.004
 1.866 -1.555 3.978
 1.871 -1.549 3.957
 1.871 -1.538 3.923
 1.873 -1.529 3.896
 1.874 -1.519 3.865
 1.88 -1.515 3.847
 1.88 -1.504 3.815
 1.88 -1.495 3.785
 1.89 -1.493 3.774
 1.899 -1.49 3.762
 1.899 -1.48 3.731
 1.92 -1.487 3.742
 0 0 0
 0 0 0
 0 0 0
 0 0 0
 0 0 0
 0 0 0
 0 0 0
 0 0 0
 0 0 0
 0 0 0
 0 0 0
 0 0 0
 0 0 0
 1.832 -1.303 3.202
 1.825 -1.29 3.164
 1.83 -1.286 3.15
 1.838 -1.284 3.139
 1.846 -1.282 3.129
 1.844 -1.274 3.103
 1.849 -1.27 3.088
 1.848 -1.262 3.063
 1.84 -1.249 3.027
 1.834 -1.239 2.995
 0 0 0
 -2.363 -1.608 4.032
 -2.365 -1.619 4.066
 -2.351 -1.619 4.073
 -2.334 -1.617 4.075
 -2.315 -1.613 4.072
 -2.3 -1.612 4.076
 -2.28 -1.608 4.072
 -2.263 -1.606 4.074
 -2.25 -1.606 4.081
 -2.236 -1.606 4.086
 -2.218 -1.603 4.085
 -2.209 -1.606 4.1
 -2.193 -1.605 4.103
 -2.185 -1.609 4.12
 -2.176 -1.613 4.136
 -2.163 -1.614 4.144
 -2.145 -1.61 4.141
 -2.129 -1.609 4.143
 -2.113 -1.607 4.145
 -2.097 -1.605 4.146
 -2.084 -1.606 4.153
 -2.071 -1.607 4.161
 -2.06 -1.609 4.174
 -2.046 -1.608 4.178
 -2.028 -1.606 4.176
 -2.017 -1.607 4.187
 -2.006 -1.61 4.198
 -1.991 -1.609 4.201
 -1.976 -1.608 4.204
 -1.962 -1.608 4.209
 -1.948 -1.608 4.215
 -1.933 -1.607 4.218
 -1.918 -1.606 4.22
 -1.903 -1.605 4.222
 -1.886 -1.602 4.221
 -1.869 -1.599 4.219
 -1.857 -1.601 4.228
 -1.845 -1.602 4.236
 -1.831 -1.602 4.24
 -1.819 -1.603 4.249
 -1.802 -1.6 4.246
 -1.786 -1.598 4.245
 -1.77 -1.596 4.245
 -1.756 -1.596 4.25
 -1.742 -1.596 4.253
 -1.729 -1.596 4.26
 -1.717 -1.598 4.268
 -1.704 -1.599 4.277
 -1.688 -1.596 4.273
 -1.672 -1.594 4.272
 -1.657 -1.593 4.273
 -1.637 -1.587 4.261
 -1.621 -1.584 4.259
 -1.61 -1.586 4.269
 -1.595 -1.585 4.27
 -1.581 -1.585 4.274
 -1.568 -1.586 4.28
 -1.552 -1.583 4.277
 -1.534 -1.579 4.269
 -1.522 -1.58 4.277
 -1.507 -1.579 4.277
 -1.494 -1.579 4.282
 -1.481 -1.58 4.287
 -1.468 -1.58 4.292
 -1.451 -1.577 4.287
 -1.437 -1.576 4.288
 -1.421 -1.573 4.284
 -1.405 -1.57 4.281
 -1.39 -1.569 4.28
 -1.376 -1.568 4.282
 -1.362 -1.567 4.284
 -1.348 -1.566 4.284
 -1.336 -1.568 4.293
 -1.322 -1.568 4.295
 -1.309 -1.567 4.298
 -1.293 -1.565 4.294
 -1.28 -1.565 4.296
 -1.263 -1.561 4.29
 -1.249 -1.56 4.289
 -1.234 -1.558 4.288
 -1.22 -1.557 4.287
 -1.205 -1.555 4.284
 -1.192 -1.554 4.287
 -1.177 -1.553 4.285
 -1.163 -1.552 4.286
 -1.15 -1.552 4.289
 -1.137 -1.552 4.292
 -1.122 -1.55 4.288
 -1.109 -1.551 4.294
 -1.094 -1.548 4.289
 -1.081 -1.548 4.293
 -1.067 -1.547 4.293
 -1.054 -1.547 4.294
 -1.038 -1.543 4.287
 -1.024 -1.542 4.286
 -1.009 -1.539 4.28
 -0.995 -1.538 4.279
 -0.981 -1.536 4.277
 -0.967 -1.535 4.275
 -0.954 -1.536 4.28
 -0.941 -1.535 4.279
 -0.926 -1.533 4.275
 -0.913 -1.532 4.277
 -0.899 -1.53 4.272
 -0.885 -1.529 4.271
 -0.872 -1.529 4.274
 -0.859 -1.53 4.278
 -0.845 -1.528 4.274
 -0.833 -1.53 4.282
 -0.819 -1.528 4.279
 -0.805 -1.526 4.274
 -0.792 -1.525 4.275
 -0.778 -1.524 4.274
 -0.765 -1.524 4.276
 -0.751 -1.522 4.272
 -0.739 -1.522 4.274
 -0.725 -1.521 4.272
 -0.712 -1.52 4.271
 -0.699 -1.52 4.273
 -0.686 -1.52 4.275
 -0.672 -1.519 4.273
 -0.659 -1.518 4.271
 -0.646 -1.517 4.271
 -0.632 -1.516 4.268
 -0.62 -1.517 4.272
 -0.607 -1.516 4.272
 -0.594 -1.517 4.275
 -0.581 -1.518 4.278
 -0.568 -1.517 4.277
 -0.554 -1.515 4.273
 -0.541 -1.514 4.273
 -0.528 -1.513 4.27
 -0.515 -1.512 4.269
 -0.502 -1.512 4.27
 -0.489 -1.513 4.272
 -0.477 -1.514 4.277
 -0.464 -1.515 4.283
 -0.451 -1.515 4.281
 -0.438 -1.513 4.279
 -0.425 -1.513 4.277
 -0.412 -1.513 4.279
 -0.399 -1.511 4.275
 -0.386 -1.511 4.274
 -0.373 -1.511 4.277
 -0.36 -1.51 4.273
 -0.347 -1.509 4.271
 -0.334 -1.507 4.266
 -0.321 -1.508 4.271
 -0.308 -1.507 4.269
 -0.296 -1.507 4.269
 -0.282 -1.505 4.264
 -0.27 -1.507 4.269
 -0.257 -1.505 4.264
 -0.244 -1.505 4.264
 -0.231 -1.506 4.268
 -0.219 -1.507 4.271
 -0.206 -1.505 4.267
 -0.193 -1.506 4.268
 -0.18 -1.506 4.27
 -0.167 -1.505 4.266
 -0.155 -1.505 4.267
 -0.142 -1.506 4.27
 -0.129 -1.507 4.272
 -0.116 -1.506 4.27
 -0.104 -1.505 4.268
 -0.091 -1.504 4.266
 -0.078 -1.502 4.26
 -0.065 -1.502 4.26
 -0.052 -1.501 4.256
 -0.04 -1.502 4.26
 -0.027 -1.502 4.259
 -0.014 -1.505 4.267
 -0.002 -1.504 4.265
 0.01 -1.505 4.268
 0.023 -1.505 4.266
 0.036 -1.504 4.263
 0.048 -1.501 4.255
 0.061 -1.499 4.249
 0.074 -1.501 4.253
 0.086 -1.5 4.252
 0.099 -1.5 4.25
 0.112 -1.501 4.253
 0.125 -1.502 4.257
 0.137 -1.502 4.254
 0.15 -1.502 4.256
 0.163 -1.505 4.263
 0.176 -1.506 4.264
 0.189 -1.505 4.262
 0.201 -1.505 4.262
 0.214 -1.504 4.258
 0.227 -1.504 4.257
 0.239 -1.503 4.252
 0.252 -1.503 4.253
 0.264 -1.503 4.25
 0.277 -1.503 4.249
 0.29 -1.502 4.247
 0.303 -1.504 4.25
 0.315 -1.503 4.247
 0.328 -1.503 4.247
 0.341 -1.504 4.249
 0.353 -1.502 4.243
 0.366 -1.501 4.238
 0.378 -1.501 4.236
 0.391 -1.502 4.237
 0.404 -1.502 4.237
 0.417 -1.503 4.238
 0.43 -1.505 4.243
 0.443 -1.505 4.241
 0.456 -1.506 4.245
 0.469 -1.506 4.243
 0.482 -1.508 4.245
 0.495 -1.509 4.247
 0.509 -1.511 4.253
 0.521 -1.512 4.253
 0.534 -1.512 4.253
 0.547 -1.513 4.253
 0.56 -1.512 4.249
 0.573 -1.512 4.247
 0.585 -1.511 4.242
 0.598 -1.511 4.242
 0.611 -1.511 4.241
 0.624 -1.514 4.245
 0.637 -1.514 4.243
 0.65 -1.515 4.245
 0.664 -1.517 4.25
 0.677 -1.517 4.248
 0.689 -1.515 4.24
 0.702 -1.517 4.243
 0.715 -1.516 4.24
 0.727 -1.516 4.236
 0.74 -1.516 4.234
 0.754 -1.517 4.235
 0.766 -1.517 4.233
 0.779 -1.516 4.23
 0.791 -1.516 4.227
 0.805 -1.517 4.228
 0.819 -1.519 4.23
 0.831 -1.518 4.226
 0.845 -1.52 4.228
 0.858 -1.522 4.231
 0.871 -1.522 4.229
 0.885 -1.524 4.231
 0.899 -1.526 4.235
 0.912 -1.525 4.231
 0.925 -1.526 4.231
 0.939 -1.528 4.232
 0.952 -1.528 4.232
 0.965 -1.529 4.229
 0.98 -1.531 4.233
 0.993 -1.532 4.233
 1.007 -1.533 4.233
 1.019 -1.532 4.229
 1.033 -1.533 4.228
 1.046 -1.534 4.228
 1.059 -1.534 4.224
 1.072 -1.535 4.223
 1.086 -1.536 4.224
 1.1 -1.537 4.223
 1.113 -1.537 4.221
 1.125 -1.536 4.215
 1.138 -1.536 4.211
 1.15 -1.536 4.207
 1.166 -1.539 4.212
 1.18 -1.54 4.213
 1.195 -1.544 4.219
 1.21 -1.546 4.221
 1.223 -1.546 4.218
 1.236 -1.545 4.213
 1.249 -1.546 4.212
 1.263 -1.547 4.211
 1.276 -1.547 4.208
 1.292 -1.551 4.214
 1.306 -1.552 4.215
 1.32 -1.553 4.212
 1.332 -1.552 4.206
 1.347 -1.553 4.206
 1.361 -1.555 4.206
 1.374 -1.555 4.203
 1.388 -1.556 4.201
 1.404 -1.559 4.207
 1.419 -1.561 4.208
 1.431 -1.56 4.2
 1.445 -1.561 4.198
 1.459 -1.563 4.199
 1.474 -1.564 4.198
 1.488 -1.565 4.197
 1.504 -1.568 4.202
 1.517 -1.568 4.197
 1.532 -1.569 4.196
 1.544 -1.569 4.189
 1.556 -1.567 4.18
 1.569 -1.567 4.176
 1.584 -1.569 4.176
 1.6 -1.572 4.179
 1.614 -1.573 4.177
 1.631 -1.577 4.183
 1.645 -1.577 4.18
 1.657 -1.576 4.172
 1.671 -1.577 4.169
 1.687 -1.579 4.17
 1.701 -1.58 4.167
 1.716 -1.582 4.167
 1.732 -1.584 4.169
 1.744 -1.583 4.161
 1.757 -1.583 4.155
 1.769 -1.582 4.147
 1.782 -1.581 4.14
 1.793 -1.58 4.131
 1.806 -1.579 4.124
 1.816 -1.577 4.112
 1.826 -1.574 4.099
 1.835 -1.57 4.084
 1.843 -1.566 4.067
 1.851 -1.562 4.052
 1.857 -1.556 4.03
 1.865 -1.552 4.015
 1.87 -1.545 3.991
 1.876 -1.539 3.97
 1.877 -1.53 3.94
 1.88 -1.522 3.915
 1.883 -1.514 3.888
 1.89 -1.51 3.872
 1.893 -1.502 3.845
 1.896 -1.494 3.82
 1.904 -1.491 3.806
 1.913 -1.488 3.793
 1.905 -1.472 3.747
 0 0 0
 0 0 0
 0 0 0
 0 0 0
 0 0 0
 0 0 0
 0 0 0
 0 0 0
 0 0 0
 0 0 0
 0 0 0
 0 0 0
 0 0 0
 0 0 0
 0 0 0
 1.821 -1.277 3.163
 1.825 -1.272 3.145
 1.837 -1.272 3.141
 1.846 -1.271 3.133
 1.848 -1.265 3.112
 1.851 -1.26 3.094
 1.849 -1.252 3.068
 1.853 -1.247 3.051
 1.845 -1.236 3.017
 0 0 0
 0 0 0
 -2.385 -1.619 4.107
 -2.366 -1.615 4.104
 -2.352 -1.615 4.11
 -2.333 -1.612 4.11
 -2.318 -1.611 4.114
 -2.299 -1.608 4.112
 -2.283 -1.606 4.113
 -2.265 -1.603 4.113
 -2.252 -1.604 4.121
 -2.231 -1.599 4.116
 -2.222 -1.602 4.131
 -2.207 -1.601 4.134
 -2.196 -1.603 4.146
 -2.185 -1.606 4.158
 -2.174 -1.608 4.169
 -2.157 -1.605 4.169
 -2.143 -1.606 4.176
 -2.128 -1.605 4.18
 -2.113 -1.604 4.183
 -2.099 -1.604 4.189
 -2.086 -1.605 4.197
 -2.072 -1.605 4.203
 -2.059 -1.605 4.21
 -2.042 -1.603 4.209
 -2.03 -1.604 4.218
 -2.016 -1.604 4.225
 -2.003 -1.604 4.231
 -1.99 -1.605 4.239
 -1.975 -1.604 4.242
 -1.963 -1.607 4.253
 -1.949 -1.606 4.257
 -1.932 -1.604 4.257
 -1.914 -1.6 4.252
 -1.899 -1.599 4.254
 -1.878 -1.593 4.243
 -1.865 -1.594 4.251
 -1.852 -1.595 4.258
 -1.838 -1.594 4.261
 -1.825 -1.595 4.269
 -1.812 -1.596 4.276
 -1.797 -1.594 4.276
 -1.78 -1.592 4.275
 -1.767 -1.592 4.281
 -1.751 -1.59 4.281
 -1.733 -1.587 4.275
 -1.718 -1.585 4.277
 -1.706 -1.587 4.284
 -1.689 -1.584 4.282
 -1.674 -1.583 4.283
 -1.661 -1.583 4.289
 -1.643 -1.579 4.282
 -1.627 -1.577 4.28
 -1.616 -1.58 4.292
 -1.601 -1.577 4.291
 -1.588 -1.579 4.298
 -1.575 -1.579 4.304
 -1.559 -1.576 4.3
 -1.54 -1.572 4.292
 -1.528 -1.573 4.3
 -1.512 -1.57 4.295
 -1.498 -1.57 4.298
 -1.483 -1.569 4.299
 -1.469 -1.568 4.301
 -1.452 -1.564 4.295
 -1.438 -1.563 4.296
 -1.424 -1.563 4.298
 -1.409 -1.561 4.298
 -1.394 -1.56 4.296
 -1.379 -1.558 4.296
 -1.365 -1.557 4.296
 -1.348 -1.553 4.287
 -1.335 -1.553 4.293
 -1.322 -1.554 4.299
 -1.309 -1.555 4.303
 -1.293 -1.552 4.298
 -1.28 -1.552 4.301
 -1.264 -1.549 4.297
 -1.248 -1.546 4.292
 -1.234 -1.544 4.291
 -1.219 -1.543 4.289
 -1.205 -1.541 4.287
 -1.192 -1.541 4.291
 -1.178 -1.54 4.292
 -1.164 -1.539 4.292
 -1.15 -1.54 4.295
 -1.138 -1.54 4.299
 -1.122 -1.537 4.295
 -1.11 -1.538 4.3
 -1.095 -1.536 4.297
 -1.082 -1.536 4.301
 -1.068 -1.535 4.299
 -1.054 -1.534 4.299
 -1.038 -1.53 4.289
 -1.024 -1.528 4.288
 -1.009 -1.526 4.283
 -0.995 -1.525 4.284
 -0.982 -1.525 4.285
 -0.969 -1.525 4.288
 -0.957 -1.526 4.295
 -0.943 -1.525 4.292
 -0.928 -1.522 4.287
 -0.915 -1.522 4.288
 -0.899 -1.518 4.279
 -0.885 -1.517 4.278
 -0.873 -1.518 4.283
 -0.86 -1.517 4.284
 -0.846 -1.515 4.28
 -0.833 -1.517 4.286
 -0.819 -1.515 4.283
 -0.804 -1.512 4.275
 -0.791 -1.511 4.277
 -0.778 -1.51 4.276
 -0.765 -1.511 4.28
 -0.751 -1.509 4.275
 -0.739 -1.511 4.282
 -0.725 -1.509 4.279
 -0.712 -1.508 4.278
 -0.699 -1.507 4.276
 -0.686 -1.507 4.278
 -0.672 -1.505 4.274
 -0.658 -1.504 4.273
 -0.645 -1.504 4.273
 -0.632 -1.502 4.269
 -0.619 -1.502 4.27
 -0.606 -1.501 4.269
 -0.593 -1.503 4.276
 -0.581 -1.504 4.279
 -0.568 -1.503 4.279
 -0.555 -1.503 4.279
 -0.542 -1.503 4.282
 -0.528 -1.501 4.277
 -0.515 -1.5 4.275
 -0.502 -1.5 4.277
 -0.49 -1.501 4.28
 -0.477 -1.502 4.283
 -0.464 -1.502 4.285
 -0.451 -1.501 4.284
 -0.438 -1.501 4.283
 -0.425 -1.498 4.277
 -0.412 -1.498 4.276
 -0.399 -1.497 4.275
 -0.386 -1.497 4.276
 -0.373 -1.497 4.277
 -0.36 -1.496 4.273
 -0.347 -1.496 4.274
 -0.334 -1.494 4.27
 -0.321 -1.495 4.273
 -0.308 -1.494 4.272
 -0.296 -1.495 4.276
 -0.282 -1.493 4.27
 -0.27 -1.493 4.27
 -0.257 -1.492 4.268
 -0.244 -1.492 4.268
 -0.231 -1.493 4.27
 -0.218 -1.493 4.271
 -0.206 -1.492 4.269
 -0.193 -1.492 4.27
 -0.18 -1.492 4.27
 -0.167 -1.492 4.269
 -0.155 -1.492 4.271
 -0.142 -1.493 4.274
 -0.129 -1.493 4.273
 -0.116 -1.493 4.273
 -0.103 -1.491 4.269
 -0.091 -1.491 4.267
 -0.078 -1.489 4.261
 -0.065 -1.489 4.262
 -0.052 -1.488 4.258
 -0.04 -1.489 4.262
 -0.027 -1.49 4.265
 -0.014 -1.492 4.271
 -0.002 -1.491 4.269
 0.01 -1.492 4.269
 0.023 -1.491 4.266
 0.036 -1.49 4.263
 0.048 -1.487 4.257
 0.061 -1.486 4.251
 0.074 -1.487 4.256
 0.086 -1.488 4.257
 0.099 -1.488 4.256
 0.112 -1.489 4.26
 0.125 -1.49 4.261
 0.137 -1.488 4.256
 0.15 -1.488 4.255
 0.163 -1.491 4.263
 0.176 -1.492 4.264
 0.189 -1.493 4.267
 0.202 -1.494 4.269
 0.214 -1.493 4.267
 0.227 -1.493 4.265
 0.239 -1.491 4.26
 0.252 -1.492 4.262
 0.265 -1.491 4.258
 0.277 -1.491 4.256
 0.29 -1.491 4.254
 0.303 -1.492 4.257
 0.315 -1.49 4.252
 0.328 -1.491 4.252
 0.341 -1.492 4.255
 0.354 -1.491 4.249
 0.366 -1.489 4.245
 0.378 -1.488 4.239
 0.391 -1.487 4.235
 0.403 -1.486 4.231
 0.416 -1.486 4.229
 0.429 -1.488 4.236
 0.442 -1.49 4.238
 0.456 -1.493 4.248
 0.469 -1.494 4.249
 0.482 -1.496 4.252
 0.495 -1.496 4.25
 0.508 -1.497 4.254
 0.521 -1.497 4.252
 0.534 -1.497 4.249
 0.546 -1.497 4.248
 0.559 -1.496 4.243
 0.572 -1.497 4.244
 0.584 -1.497 4.243
 0.597 -1.497 4.242
 0.61 -1.498 4.243
 0.624 -1.5 4.248
 0.637 -1.5 4.245
 0.65 -1.5 4.245
 0.664 -1.504 4.252
 0.677 -1.504 4.25
 0.689 -1.503 4.246
 0.703 -1.506 4.252
 0.716 -1.505 4.248
 0.728 -1.504 4.244
 0.741 -1.504 4.241
 0.754 -1.504 4.24
 0.766 -1.503 4.235
 0.779 -1.504 4.234
 0.792 -1.504 4.233
 0.805 -1.505 4.233
 0.819 -1.507 4.236
 0.832 -1.507 4.233
 0.845 -1.507 4.232
 0.858 -1.508 4.231
 0.871 -1.509 4.233
 0.885 -1.51 4.233
 0.899 -1.512 4.237
 0.913 -1.513 4.238
 0.926 -1.514 4.238
 0.939 -1.515 4.237
 0.953 -1.516 4.236
 0.965 -1.516 4.233
 0.979 -1.517 4.236
 0.992 -1.518 4.233
 1.006 -1.518 4.232
 1.019 -1.519 4.231
 1.032 -1.519 4.23
 1.045 -1.52 4.227
 1.059 -1.52 4.226
 1.072 -1.521 4.226
 1.086 -1.522 4.225
 1.099 -1.523 4.224
 1.114 -1.525 4.227
 1.126 -1.524 4.222
 1.14 -1.525 4.221
 1.153 -1.525 4.218
 1.168 -1.528 4.223
 1.18 -1.528 4.219
 1.196 -1.53 4.223
 1.21 -1.532 4.224
 1.223 -1.532 4.221
 1.236 -1.532 4.218
 1.25 -1.534 4.22
 1.265 -1.536 4.222
 1.278 -1.536 4.219
 1.294 -1.539 4.223
 1.308 -1.541 4.223
 1.32 -1.54 4.216
 1.332 -1.538 4.209
 1.346 -1.54 4.209
 1.361 -1.542 4.211
