 0.658 -1.59 4.234
 0.684 -1.59 4.231
 0.709 -1.59 4.225
 0.736 -1.592 4.228
 0.762 -1.593 4.225
 0.788 -1.593 4.222
 0.814 -1.594 4.221
 0.841 -1.597 4.223
 0.868 -1.599 4.223
 0.894 -1.6 4.221
 0.919 -1.599 4.215
 0.946 -1.601 4.213
 0.972 -1.602 4.21
 0.999 -1.603 4.208
 1.026 -1.605 4.207
 1.054 -1.608 4.209
 1.079 -1.608 4.203
 1.105 -1.608 4.197
 1.13 -1.607 4.188
 1.156 -1.607 4.181
 1.183 -1.608 4.178
 1.211 -1.61 4.177
 1.237 -1.612 4.173
 1.265 -1.614 4.173
 1.293 -1.616 4.171
 1.319 -1.616 4.163
 1.345 -1.616 4.156
 1.372 -1.618 4.153
 1.4 -1.62 4.15
 1.427 -1.622 4.145
 1.453 -1.622 4.138
 1.482 -1.624 4.136
 1.507 -1.624 4.126
 1.533 -1.623 4.115
 1.558 -1.623 4.105
 1.586 -1.625 4.102
 1.612 -1.624 4.09
 1.638 -1.625 4.082
 1.665 -1.625 4.074
 1.691 -1.625 4.064
 1.717 -1.625 4.053
 1.741 -1.623 4.039
 1.765 -1.622 4.024
 1.784 -1.615 3.998
 1.803 -1.609 3.971
 1.814 -1.597 3.93
 1.827 -1.586 3.892
 1.834 -1.57 3.842
 1.844 -1.557 3.799
 1.846 -1.538 3.743
 1.852 -1.523 3.693
 1.853 -1.504 3.638
 1.858 -1.489 3.588
 1.854 -1.467 3.524
 0 0 0
 1.748 -1.349 3.219
 1.754 -1.338 3.181
 1.765 -1.33 3.152
 1.775 -1.322 3.122
 1.785 -1.313 3.091
 1.786 -1.299 3.046
 1.779 -1.279 2.988
 1.775 -1.262 2.936
 1.762 -1.238 2.871
 -2.325 -1.624 3.935
 -2.297 -1.624 3.947
 -2.258 -1.615 3.939
 -2.232 -1.616 3.953
 -2.204 -1.616 3.965
 -2.176 -1.615 3.976
 -2.153 -1.618 3.995
 -2.122 -1.614 3.999
 -2.094 -1.614 4.009
 -2.067 -1.614 4.021
 -2.04 -1.613 4.032
 -2.011 -1.612 4.041
 -1.987 -1.614 4.056
 -1.961 -1.615 4.07
 -1.934 -1.615 4.08
 -1.908 -1.616 4.093
 -1.878 -1.613 4.098
 -1.85 -1.612 4.105
 -1.822 -1.611 4.113
 -1.795 -1.611 4.123
 -1.767 -1.61 4.13
 -1.739 -1.608 4.135
 -1.712 -1.609 4.146
 -1.684 -1.608 4.152
 -1.656 -1.606 4.157
 -1.628 -1.605 4.162
 -1.602 -1.606 4.173
 -1.574 -1.604 4.178
 -1.547 -1.604 4.185
 -1.52 -1.604 4.193
 -1.493 -1.604 4.201
 -1.465 -1.602 4.204
 -1.438 -1.601 4.211
 -1.411 -1.6 4.215
 -1.383 -1.599 4.22
 -1.357 -1.6 4.228
 -1.331 -1.601 4.238
 -1.304 -1.6 4.242
 -1.276 -1.598 4.243
 -1.247 -1.595 4.243
 -1.218 -1.592 4.24
 -1.189 -1.589 4.238
 -1.162 -1.587 4.24
 -1.136 -1.587 4.246
 -1.11 -1.588 4.252
 -1.083 -1.588 4.258
 -1.057 -1.588 4.263
 -1.03 -1.586 4.265
 -1.002 -1.584 4.265
 -0.975 -1.583 4.267
 -0.948 -1.582 4.268
 -0.922 -1.581 4.271
 -0.895 -1.581 4.274
 -0.869 -1.581 4.279
 -0.843 -1.58 4.28
 -0.816 -1.579 4.282
 -0.789 -1.578 4.283
 -0.763 -1.577 4.284
 -0.736 -1.576 4.282
 -0.709 -1.574 4.282
 -0.683 -1.574 4.285
 -0.657 -1.572 4.283
 -0.63 -1.571 4.283
 -0.604 -1.572 4.287
 -0.578 -1.572 4.291
 -0.552 -1.571 4.29
 -0.526 -1.57 4.291
 -0.5 -1.571 4.294
 -0.474 -1.569 4.291
 -0.447 -1.567 4.288
 -0.421 -1.566 4.287
 -0.395 -1.566 4.289
 -0.369 -1.564 4.285
 -0.343 -1.564 4.285
 -0.317 -1.563 4.285
 -0.291 -1.562 4.282
 -0.265 -1.56 4.28
 -0.24 -1.56 4.281
 -0.214 -1.559 4.278
 -0.188 -1.559 4.278
 -0.162 -1.561 4.283
 -0.137 -1.561 4.285
 -0.111 -1.561 4.284
 -0.085 -1.561 4.285
 -0.06 -1.561 4.286
 -0.034 -1.559 4.281
 -0.008 -1.559 4.28
 0.016 -1.56 4.282
 0.042 -1.56 4.281
 0.068 -1.56 4.282
 0.093 -1.56 4.281
 0.119 -1.561 4.281
 0.145 -1.56 4.278
 0.17 -1.56 4.277
 0.196 -1.559 4.273
 0.221 -1.559 4.271
 0.247 -1.557 4.264
 0.272 -1.557 4.264
 0.298 -1.557 4.26
 0.323 -1.557 4.259
 0.349 -1.559 4.262
 0.375 -1.561 4.266
 0.401 -1.561 4.264
 0.427 -1.561 4.263
 0.452 -1.562 4.261
 0.478 -1.562 4.259
 0.504 -1.563 4.258
 0.53 -1.563 4.255
 0.556 -1.565 4.257
 0.582 -1.566 4.258
 0.608 -1.566 4.253
 0.633 -1.566 4.251
 0.66 -1.568 4.253
 0.686 -1.569 4.252
 0.711 -1.568 4.246
 0.738 -1.571 4.248
 0.764 -1.572 4.247
 0.791 -1.573 4.245
 0.817 -1.574 4.243
 0.844 -1.577 4.247
 0.871 -1.579 4.248
 0.898 -1.58 4.247
 0.924 -1.58 4.241
 0.95 -1.581 4.239
 0.977 -1.583 4.239
 1.003 -1.583 4.234
 1.03 -1.585 4.232
 1.058 -1.589 4.236
 1.085 -1.589 4.231
 1.111 -1.59 4.227
 1.137 -1.59 4.222
 1.164 -1.592 4.219
 1.191 -1.593 4.215
 1.219 -1.595 4.215
 1.246 -1.596 4.209
 1.274 -1.598 4.209
 1.301 -1.6 4.205
 1.327 -1.6 4.198
 1.354 -1.601 4.192
 1.382 -1.603 4.191
 1.409 -1.604 4.187
 1.437 -1.606 4.182
 1.464 -1.607 4.176
 1.493 -1.61 4.175
 1.519 -1.61 4.167
 1.545 -1.61 4.158
 1.572 -1.611 4.151
 1.6 -1.612 4.145
 1.625 -1.611 4.133
 1.653 -1.613 4.127
 1.681 -1.614 4.121
 1.708 -1.615 4.113
 1.734 -1.614 4.102
 1.759 -1.614 4.091
 1.782 -1.611 4.072
 1.799 -1.602 4.04
 1.815 -1.594 4.007
 1.826 -1.581 3.964
 1.836 -1.568 3.921
 1.844 -1.553 3.871
 1.856 -1.542 3.834
 1.862 -1.526 3.783
 1.871 -1.513 3.74
 1.875 -1.497 3.688
 1.881 -1.483 3.642
 0 0 0
 0 0 0
 1.74 -1.322 3.213
 1.762 -1.322 3.204
 1.773 -1.314 3.173
 1.78 -1.303 3.137
 1.789 -1.295 3.106
 1.788 -1.279 3.057
 1.782 -1.26 3
 1.782 -1.246 2.955
 1.769 -1.223 2.891
 -2.327 -1.599 3.949
 -2.306 -1.603 3.972
 -2.284 -1.607 3.995
 -2.261 -1.61 4.015
 -2.233 -1.61 4.028
 -2.206 -1.61 4.04
 -2.182 -1.613 4.06
 -2.154 -1.612 4.071
 -2.126 -1.611 4.081
 -2.097 -1.61 4.09
 -2.07 -1.61 4.101
 -2.041 -1.609 4.111
 -2.014 -1.609 4.123
 -1.987 -1.61 4.135
 -1.961 -1.61 4.147
 -1.933 -1.61 4.158
 -1.904 -1.608 4.164
 -1.875 -1.607 4.171
 -1.848 -1.608 4.182
 -1.821 -1.607 4.191
 -1.792 -1.605 4.197
 -1.762 -1.603 4.201
 -1.734 -1.602 4.208
 -1.705 -1.601 4.213
 -1.676 -1.599 4.216
 -1.649 -1.598 4.225
 -1.622 -1.599 4.235
 -1.593 -1.597 4.238
 -1.565 -1.595 4.243
 -1.537 -1.595 4.25
 -1.508 -1.593 4.251
 -1.478 -1.59 4.251
 -1.452 -1.59 4.26
 -1.423 -1.588 4.263
 -1.395 -1.586 4.265
 -1.369 -1.587 4.274
 -1.342 -1.587 4.282
 -1.314 -1.586 4.285
 -1.286 -1.584 4.286
 -1.257 -1.582 4.286
 -1.228 -1.579 4.285
 -1.2 -1.577 4.285
 -1.172 -1.575 4.287
 -1.145 -1.574 4.29
 -1.118 -1.574 4.295
 -1.09 -1.572 4.295
 -1.063 -1.57 4.296
 -1.035 -1.569 4.297
 -1.008 -1.567 4.298
 -0.981 -1.566 4.298
 -0.953 -1.564 4.297
 -0.926 -1.562 4.299
 -0.898 -1.56 4.297
 -0.872 -1.559 4.298
 -0.845 -1.558 4.298
 -0.818 -1.557 4.301
 -0.791 -1.556 4.302
 -0.765 -1.556 4.304
 -0.738 -1.553 4.301
 -0.711 -1.552 4.301
 -0.685 -1.552 4.304
 -0.658 -1.55 4.301
 -0.631 -1.548 4.299
 -0.605 -1.549 4.303
 -0.579 -1.548 4.304
 -0.553 -1.547 4.303
 -0.526 -1.546 4.303
 -0.501 -1.547 4.308
 -0.474 -1.546 4.307
 -0.448 -1.545 4.306
 -0.422 -1.543 4.304
 -0.396 -1.543 4.306
 -0.37 -1.541 4.301
 -0.344 -1.54 4.3
 -0.318 -1.54 4.301
 -0.292 -1.539 4.298
 -0.266 -1.537 4.295
 -0.24 -1.538 4.298
 -0.214 -1.536 4.293
 -0.188 -1.536 4.294
 -0.163 -1.537 4.297
 -0.137 -1.538 4.299
 -0.111 -1.537 4.297
 -0.085 -1.537 4.298
 -0.06 -1.536 4.297
 -0.034 -1.535 4.291
 -0.008 -1.533 4.288
 0.017 -1.533 4.287
 0.042 -1.534 4.288
 0.068 -1.534 4.289
 0.094 -1.535 4.291
 0.119 -1.537 4.293
 0.145 -1.537 4.292
 0.171 -1.537 4.292
 0.196 -1.535 4.286
 0.222 -1.534 4.283
 0.247 -1.532 4.276
 0.273 -1.533 4.275
 0.298 -1.533 4.272
 0.324 -1.534 4.274
 0.35 -1.535 4.275
 0.376 -1.537 4.279
 0.402 -1.538 4.279
 0.427 -1.537 4.274
 0.453 -1.538 4.275
 0.479 -1.539 4.273
 0.505 -1.54 4.274
 0.531 -1.54 4.271
 0.557 -1.542 4.275
 0.583 -1.542 4.272
 0.609 -1.542 4.269
 0.635 -1.543 4.265
 0.661 -1.544 4.266
 0.687 -1.544 4.263
 0.712 -1.544 4.258
 0.739 -1.546 4.26
 0.765 -1.547 4.258
 0.791 -1.548 4.257
 0.818 -1.55 4.256
 0.845 -1.552 4.259
 0.872 -1.554 4.258
 0.899 -1.556 4.26
 0.925 -1.556 4.254
 0.952 -1.557 4.253
 0.979 -1.56 4.254
 1.006 -1.561 4.252
 1.032 -1.562 4.248
 1.061 -1.566 4.254
 1.087 -1.566 4.248
 1.114 -1.567 4.245
 1.141 -1.569 4.243
 1.169 -1.571 4.243
 1.196 -1.572 4.239
 1.225 -1.576 4.244
 1.252 -1.577 4.238
 1.279 -1.578 4.234
 1.306 -1.579 4.228
 1.333 -1.58 4.224
 1.359 -1.58 4.218
 1.388 -1.584 4.218
 1.417 -1.586 4.217
 1.446 -1.589 4.217
 1.472 -1.589 4.208
 1.501 -1.592 4.206
 1.528 -1.593 4.201
 1.555 -1.594 4.193
 1.582 -1.594 4.186
 1.61 -1.596 4.181
 1.637 -1.596 4.172
 1.664 -1.597 4.164
 1.692 -1.598 4.157
 1.719 -1.598 4.148
 1.746 -1.6 4.141
 1.771 -1.598 4.128
 1.793 -1.594 4.107
 1.809 -1.585 4.072
 1.824 -1.575 4.037
 1.834 -1.561 3.989
 1.845 -1.549 3.947
 1.854 -1.535 3.901
 1.868 -1.527 3.868
 1.877 -1.513 3.823
 1.892 -1.505 3.79
 1.902 -1.493 3.749
 0 0 0
 0 0 0
 0 0 0
 1.74 -1.3 3.22
 1.76 -1.298 3.207
 1.77 -1.291 3.176
 1.778 -1.281 3.141
 1.788 -1.273 3.11
 1.789 -1.259 3.066
 1.784 -1.241 3.01
 1.775 -1.221 2.951
 1.783 -1.212 2.92
 -2.368 -1.6 4.027
 -2.347 -1.604 4.053
 -1.925 -1.332 3.373
 -2.011 -1.408 3.579
 -2.079 -1.473 3.758
 -2.052 -1.473 3.767
 -1.94 -1.409 3.616
 -1.917 -1.411 3.631
 -1.804 -1.345 3.47
 -1.779 -1.343 3.476
 -1.841 -1.408 3.655
 -1.901 -1.473 3.836
 -1.957 -1.538 4.015
 -2.013 -1.603 4.197
 -1.985 -1.603 4.208
 -1.877 -1.537 4.046
 -1.848 -1.535 4.051
 -1.82 -1.533 4.056
 -1.794 -1.534 4.067
 -1.766 -1.533 4.074
 -1.813 -1.597 4.256
 -1.782 -1.594 4.257
 -1.752 -1.592 4.263
 -1.722 -1.59 4.265
 -1.693 -1.588 4.269
 -1.664 -1.587 4.275
 -1.637 -1.586 4.283
 -1.607 -1.584 4.285
 -1.578 -1.582 4.289
 -1.549 -1.581 4.293
 -1.52 -1.578 4.295
 -1.49 -1.576 4.296
 -1.463 -1.576 4.303
 -1.435 -1.574 4.306
 -1.406 -1.572 4.307
 -1.377 -1.57 4.309
 -1.349 -1.569 4.314
 -1.321 -1.567 4.315
 -1.292 -1.565 4.315
 -1.263 -1.562 4.314
 -1.235 -1.56 4.316
 -1.206 -1.558 4.317
 -1.178 -1.556 4.317
 -1.151 -1.555 4.32
 -1.123 -1.555 4.324
 -1.095 -1.552 4.321
 -1.067 -1.55 4.32
 -1.039 -1.548 4.321
 -1.011 -1.546 4.321
 -0.983 -1.544 4.319
 -0.956 -1.542 4.318
 -0.928 -1.54 4.317
 -0.9 -1.537 4.315
 -0.873 -1.535 4.313
 -0.846 -1.534 4.313
 -0.819 -1.533 4.316
 -0.793 -1.533 4.318
 -0.766 -1.531 4.316
 -0.739 -1.529 4.315
 -0.712 -1.528 4.315
 -0.685 -1.527 4.314
 -0.658 -1.524 4.309
 -0.631 -1.522 4.307
 -0.605 -1.521 4.308
 -0.578 -1.52 4.306
 -0.552 -1.519 4.307
 -0.526 -1.52 4.31
 -0.5 -1.52 4.314
 -0.474 -1.519 4.314
 -0.448 -1.519 4.313
 -0.422 -1.517 4.312
 -0.395 -1.516 4.31
 -0.369 -1.514 4.305
 -0.343 -1.513 4.304
 -0.317 -1.512 4.302
 -0.291 -1.511 4.301
 -0.265 -1.51 4.3
 -0.24 -1.512 4.306
 -0.214 -1.511 4.302
 -0.188 -1.512 4.306
 -0.163 -1.513 4.309
 -0.137 -1.513 4.311
 -0.111 -1.511 4.305
 -0.085 -1.511 4.306
 -0.059 -1.511 4.306
 -0.034 -1.51 4.301
 -0.008 -1.509 4.298
 0.017 -1.509 4.3
 0.042 -1.509 4.298
 0.068 -1.509 4.298
 0.094 -1.51 4.3
 0.119 -1.51 4.3
 0.145 -1.509 4.296
 0.171 -1.51 4.298
 0.196 -1.509 4.292
 0.222 -1.508 4.288
 0.247 -1.507 4.285
 0.273 -1.508 4.286
 0.299 -1.508 4.282
 0.324 -1.509 4.283
 0.35 -1.509 4.283
 0.376 -1.51 4.284
 0.402 -1.511 4.284
 0.427 -1.511 4.281
 0.453 -1.512 4.282
 0.479 -1.513 4.282
 0.505 -1.514 4.282
 0.531 -1.514 4.28
 0.557 -1.516 4.28
 0.583 -1.516 4.277
 0.609 -1.516 4.274
 0.634 -1.515 4.269
 0.66 -1.516 4.267
 0.686 -1.517 4.266
 0.712 -1.517 4.262
 0.738 -1.519 4.263
 0.765 -1.52 4.264
 0.792 -1.523 4.266
 0.818 -1.524 4.265
 0.845 -1.526 4.265
 0.871 -1.526 4.263
 0.898 -1.529 4.264
 0.924 -1.529 4.259
 0.951 -1.53 4.259
 0.979 -1.533 4.26
 1.006 -1.535 4.261
 1.032 -1.536 4.257
 1.061 -1.539 4.261
 1.087 -1.54 4.256
 1.114 -1.541 4.252
 1.141 -1.543 4.251
 1.169 -1.545 4.252
 1.196 -1.546 4.248
 1.226 -1.551 4.254
 1.253 -1.552 4.251
 1.28 -1.553 4.247
 1.307 -1.554 4.242
 1.336 -1.557 4.242
 1.363 -1.558 4.238
 1.392 -1.561 4.238
 1.421 -1.564 4.237
 1.45 -1.567 4.236
 1.476 -1.567 4.228
 1.504 -1.569 4.225
 1.533 -1.57 4.221
 1.56 -1.572 4.216
 1.588 -1.573 4.209
 1.616 -1.574 4.204
 1.643 -1.575 4.196
 1.671 -1.576 4.189
 1.699 -1.578 4.184
 1.727 -1.579 4.177
 1.755 -1.58 4.17
 1.779 -1.578 4.153
 1.8 -1.573 4.13
 1.816 -1.564 4.095
 1.828 -1.552 4.053
 1.838 -1.539 4.007
 1.85 -1.527 3.966
 1.86 -1.515 3.923
 1.875 -1.506 3.889
 1.891 -1.499 3.86
 1.908 -1.492 3.831
 0 0 0
 0 0 0
 0 0 0
 0 0 0
 0 0 0
 1.757 -1.274 3.208
 1.768 -1.267 3.179
 1.778 -1.259 3.148
 1.788 -1.251 3.118
 1.79 -1.238 3.074
 1.786 -1.222 3.022
 1.78 -1.204 2.967
 1.78 -1.19 2.923
 0 0 0
 -2.36 -1.585 4.085
 -1.463 -0.995 2.567
 -1.576 -1.085 2.808
 -1.649 -1.149 2.984
 -1.627 -1.148 2.99
 -1.519 -1.085 2.835
 -1.501 -1.086 2.845
 -1.392 -1.02 2.679
 -1.372 -1.018 2.683
 -1.438 -1.081 2.859
 -1.504 -1.146 3.039
 -1.564 -1.208 3.214
 -1.707 -1.336 3.566
 -1.764 -1.4 3.748
 -1.739 -1.4 3.756
 -1.79 -1.461 3.932
 -1.84 -1.524 4.111
 -1.811 -1.522 4.116
 -1.781 -1.519 4.118
 -1.827 -1.582 4.299
 -1.795 -1.578 4.298
 -1.765 -1.576 4.302
 -1.735 -1.574 4.306
 -1.705 -1.572 4.31
 -1.677 -1.571 4.317
 -1.65 -1.571 4.326
 -1.619 -1.568 4.326
 -1.589 -1.566 4.329
 -1.56 -1.564 4.332
 -1.53 -1.562 4.332
 -1.499 -1.558 4.331
 -1.472 -1.558 4.338
 -1.442 -1.556 4.339
 -1.412 -1.552 4.337
 -1.382 -1.549 4.336
 -1.354 -1.548 4.339
 -1.326 -1.546 4.341
 -1.296 -1.543 4.338
 -1.267 -1.54 4.338
 -1.239 -1.539 4.339
 -1.209 -1.535 4.336
 -1.18 -1.533 4.334
 -1.153 -1.532 4.337
 -1.125 -1.531 4.34
 -1.096 -1.527 4.335
 -1.069 -1.526 4.337
 -1.041 -1.524 4.337
 -1.013 -1.522 4.336
 -0.985 -1.52 4.335
 -0.957 -1.518 4.333
 -0.929 -1.515 4.329
 -0.9 -1.512 4.324
 -0.873 -1.509 4.322
 -0.845 -1.507 4.319
 -0.819 -1.506 4.321
 -0.792 -1.505 4.321
 -0.765 -1.503 4.32
 -0.737 -1.501 4.317
 -0.711 -1.5 4.318
 -0.684 -1.499 4.316
 -0.657 -1.496 4.312
 -0.63 -1.495 4.311
 -0.605 -1.495 4.315
 -0.578 -1.494 4.314
 -0.552 -1.493 4.313
 -0.526 -1.494 4.319
 -0.5 -1.495 4.323
 -0.474 -1.493 4.322
 -0.448 -1.493 4.323
 -0.422 -1.493 4.324
 -0.395 -1.491 4.319
 -0.369 -1.489 4.314
 -0.343 -1.487 4.31
 -0.317 -1.485 4.307
 -0.291 -1.484 4.306
 -0.265 -1.484 4.306
 -0.239 -1.486 4.311
 -0.214 -1.485 4.311
 -0.188 -1.485 4.311
 -0.162 -1.485 4.312
 -0.136 -1.485 4.312
 -0.111 -1.484 4.308
 -0.085 -1.483 4.305
 -0.059 -1.484 4.308
 -0.033 -1.481 4.301
 -0.008 -1.481 4.3
 0.017 -1.481 4.3
 0.042 -1.481 4.298
 0.068 -1.48 4.297
 0.094 -1.482 4.301
 0.119 -1.482 4.3
 0.145 -1.481 4.297
 0.171 -1.482 4.299
 0.196 -1.482 4.296
 0.222 -1.481 4.292
 0.247 -1.481 4.29
 0.273 -1.481 4.29
 0.299 -1.482 4.289
 0.324 -1.483 4.29
 0.35 -1.483 4.289
 0.376 -1.484 4.29
 0.402 -1.485 4.29
 0.428 -1.485 4.288
 0.453 -1.486 4.287
 0.479 -1.486 4.285
 0.505 -1.486 4.284
 0.531 -1.487 4.284
 0.557 -1.488 4.284
 0.583 -1.489 4.281
 0.608 -1.489 4.279
 0.634 -1.488 4.274
 0.659 -1.488 4.269
 0.685 -1.489 4.267
 0.711 -1.49 4.266
 0.737 -1.491 4.264
 0.764 -1.492 4.266
 0.791 -1.495 4.269
 0.818 -1.497 4.27
 0.845 -1.499 4.271
 0.872 -1.501 4.272
 0.898 -1.502 4.27
 0.925 -1.503 4.268
 0.951 -1.504 4.266
 0.978 -1.506 4.266
 1.006 -1.509 4.268
 1.033 -1.51 4.267
 1.061 -1.513 4.269
 1.087 -1.514 4.264
 1.114 -1.514 4.259
 1.141 -1.516 4.257
 1.169 -1.518 4.257
 1.195 -1.518 4.252
 1.224 -1.522 4.255
 1.251 -1.524 4.253
 1.278 -1.524 4.247
 1.305 -1.525 4.243
 1.334 -1.528 4.245
 1.362 -1.53 4.243
 1.391 -1.533 4.242
 1.42 -1.537 4.243
 1.45 -1.54 4.244
 1.477 -1.541 4.239
 1.506 -1.544 4.238
 1.535 -1.546 4.235
 1.563 -1.548 4.231
 1.591 -1.549 4.225
 1.619 -1.55 4.22
 1.646 -1.551 4.212
 1.674 -1.552 4.207
 1.702 -1.554 4.2
 1.731 -1.556 4.195
 1.758 -1.556 4.186
 1.783 -1.554 4.171
 1.803 -1.549 4.146
 1.82 -1.541 4.114
 1.834 -1.53 4.074
 1.846 -1.519 4.034
 1.858 -1.508 3.992
 1.87 -1.497 3.953
 1.883 -1.487 3.914
 1.899 -1.479 3.884
 0 0 0
 0 0 0
 0 0 0
 0 0 0
 0 0 0
 0 0 0
 1.531 -1.092 2.802
 1.628 -1.147 2.933
 1.678 -1.168 2.977
 1.787 -1.23 3.124
 1.791 -1.218 3.084
 1.79 -1.203 3.035
 1.802 -1.198 3.01
 1.764 -1.159 2.902
 -0.054 -0.037 0.081
 -0.056 -0.038 0.085
 -1.007 -0.673 1.767
 -1.141 -0.772 2.035
 -1.22 -0.835 2.21
 -1.202 -0.834 2.212
 -1.095 -0.769 2.045
 -1.08 -0.768 2.05
 -0.976 -0.703 1.879
 -0.96 -0.7 1.878
 -1.031 -0.762 2.051
 -1.101 -0.825 2.227
 -1.167 -0.886 2.399
 -1.396 -1.074 2.92
 -1.456 -1.136 3.097
 -1.514 -1.197 3.275
 -1.647 -1.321 3.624
 -1.776 -1.445 3.975
 -1.747 -1.443 3.979
 -1.794 -1.504 4.158
 -1.84 -1.565 4.338
 -1.808 -1.562 4.339
 -1.777 -1.559 4.342
 -1.746 -1.556 4.343
 -1.714 -1.552 4.341
 -1.685 -1.552 4.347
 -1.656 -1.55 4.351
 -1.625 -1.547 4.351
 -1.595 -1.545 4.354
 -1.566 -1.543 4.359
 -1.535 -1.54 4.357
 -1.504 -1.536 4.353
 -1.475 -1.534 4.357
 -1.445 -1.532 4.357
 -1.415 -1.528 4.354
 -1.385 -1.525 4.352
 -1.356 -1.524 4.355
 -1.327 -1.521 4.355
 -1.297 -1.517 4.35
 -1.268 -1.515 4.349
 -1.238 -1.512 4.347
 -1.209 -1.508 4.343
 -1.181 -1.506 4.344
 -1.153 -1.505 4.345
 -1.125 -1.504 4.347
 -1.096 -1.5 4.343
 -1.068 -1.498 4.343
 -1.04 -1.496 4.341
 -1.012 -1.494 4.341
 -0.984 -1.492 4.339
 -0.956 -1.49 4.338
 -0.928 -1.488 4.335
 -0.9 -1.484 4.329
 -0.872 -1.482 4.327
 -0.845 -1.481 4.327
 -0.818 -1.479 4.327
 -0.791 -1.478 4.327
 -0.764 -1.477 4.326
 -0.737 -1.475 4.324
 -0.71 -1.473 4.322
 -0.683 -1.472 4.321
 -0.657 -1.47 4.318
 -0.63 -1.468 4.317
 -0.604 -1.469 4.321
 -0.577 -1.467 4.318
 -0.551 -1.466 4.317
 -0.525 -1.466 4.32
 -0.499 -1.466 4.324
 -0.473 -1.465 4.321
 -0.447 -1.465 4.322
 -0.421 -1.465 4.324
 -0.395 -1.462 4.318
 -0.368 -1.46 4.314
 -0.342 -1.459 4.311
 -0.316 -1.457 4.308
 -0.29 -1.457 4.308
 -0.265 -1.457 4.311
 -0.239 -1.458 4.314
 -0.213 -1.458 4.315
 -0.188 -1.458 4.314
 -0.162 -1.458 4.314
 -0.136 -1.457 4.313
 -0.11 -1.456 4.31
 -0.085 -1.455 4.307
 -0.059 -1.456 4.309
 -0.033 -1.454 4.304
 -0.008 -1.454 4.304
 0.017 -1.454 4.304
 0.043 -1.453 4.301
 0.068 -1.453 4.3
 0.094 -1.454 4.301
 0.119 -1.453 4.298
 0.145 -1.452 4.295
 0.17 -1.454 4.297
 0.196 -1.454 4.296
 0.222 -1.454 4.295
 0.247 -1.454 4.294
 0.273 -1.455 4.294
 0.299 -1.455 4.295
 0.324 -1.456 4.295
 0.35 -1.456 4.293
 0.376 -1.457 4.294
 0.402 -1.458 4.293
 0.427 -1.457 4.29
 0.453 -1.458 4.288
 0.479 -1.458 4.288
 0.504 -1.458 4.285
 0.531 -1.461 4.288
 0.557 -1.461 4.288
 0.582 -1.461 4.284
 0.608 -1.462 4.282
 0.634 -1.462 4.278
 0.659 -1.461 4.274
 0.685 -1.463 4.274
 0.711 -1.464 4.273
 0.737 -1.464 4.271
 0.764 -1.466 4.271
 0.791 -1.468 4.273
 0.817 -1.469 4.273
 0.844 -1.472 4.275
 0.871 -1.474 4.276
 0.898 -1.475 4.275
 0.924 -1.476 4.272
 0.951 -1.477 4.27
 0.978 -1.479 4.27
 1.005 -1.481 4.27
 1.032 -1.482 4.27
 1.06 -1.485 4.272
 1.086 -1.486 4.268
 1.113 -1.486 4.263
 1.14 -1.488 4.263
 1.168 -1.491 4.263
 1.194 -1.491 4.257
 1.223 -1.494 4.259
 1.251 -1.496 4.258
 1.278 -1.497 4.253
 1.305 -1.499 4.251
 1.334 -1.502 4.253
 1.363 -1.505 4.252
 1.391 -1.507 4.251
 1.42 -1.509 4.249
 1.448 -1.511 4.248
 1.476 -1.513 4.243
 1.505 -1.515 4.241
 1.534 -1.518 4.24
 1.562 -1.52 4.237
 1.59 -1.521 4.232
 1.618 -1.523 4.226
 1.646 -1.524 4.219
 1.674 -1.525 4.214
 1.702 -1.526 4.208
 1.73 -1.528 4.201
 1.758 -1.529 4.194
 1.783 -1.528 4.181
 1.805 -1.523 4.158
 1.823 -1.517 4.13
 1.838 -1.507 4.092
 1.852 -1.497 4.054
 1.864 -1.486 4.014
 1.876 -1.475 3.973
 1.888 -1.465 3.933
 0 0 0
 0 0 0
 0 0 0
 0 0 0
 0 0 0
 0 0 0
 0 0 0
 1.336 -0.937 2.449
 1.617 -1.12 2.92
 1.673 -1.145 2.976
 1.786 -1.207 3.128
 1.788 -1.195 3.085
 1.786 -1.18 3.036
 1.765 -1.153 2.955
 1.78 -1.15 2.936
 -0.015 -0.011 0.013
 -0.06 -0.04 0.092
 -0.549 -0.361 0.959
 -0.704 -0.469 1.254
 -0.785 -0.529 1.421
 -0.772 -0.527 1.42
 -0.666 -0.46 1.241
 -0.654 -0.457 1.238
 -0.553 -0.392 1.062
 -0.541 -0.389 1.056
 -0.617 -0.449 1.225
 -0.692 -0.51 1.398
 -0.762 -0.569 1.566
 -0.995 -0.752 2.082
 -1.061 -0.813 2.258
 -1.203 -0.935 2.605
 -1.418 -1.118 3.126
 -1.628 -1.302 3.653
 -1.678 -1.362 3.83
 -1.801 -1.483 4.183
 -1.845 -1.542 4.36
 -1.813 -1.539 4.361
 -1.781 -1.535 4.36
 -1.749 -1.532 4.36
 -1.717 -1.528 4.358
 -1.688 -1.526 4.363
 -1.658 -1.524 4.365
 -1.626 -1.52 4.362
 -1.596 -1.518 4.366
 -1.567 -1.516 4.368
 -1.536 -1.513 4.367
 -1.504 -1.509 4.362
 -1.476 -1.508 4.367
 -1.446 -1.505 4.366
 -1.415 -1.501 4.363
 -1.385 -1.498 4.361
 -1.356 -1.496 4.361
 -1.326 -1.493 4.36
 -1.296 -1.489 4.355
 -1.266 -1.486 4.353
 -1.237 -1.484 4.351
 -1.208 -1.481 4.35
 -1.18 -1.479 4.35
 -1.152 -1.477 4.35
 -1.123 -1.475 4.349
 -1.094 -1.471 4.344
 -1.065 -1.468 4.34
 -1.037 -1.466 4.339
 -1.01 -1.465 4.34
 -0.982 -1.463 4.34
 -0.955 -1.462 4.341
 -0.928 -1.461 4.341
 -0.899 -1.457 4.335
 -0.871 -1.454 4.328
 -0.844 -1.453 4.33
 -0.817 -1.451 4.328
 -0.79 -1.45 4.328
 -0.763 -1.449 4.33
 -0.737 -1.448 4.33
 -0.71 -1.446 4.327
 -0.683 -1.445 4.326
 -0.656 -1.444 4.325
 -0.629 -1.441 4.321
 -0.604 -1.442 4.325
 -0.577 -1.44 4.321
 -0.55 -1.438 4.319
 -0.524 -1.436 4.316
 -0.498 -1.437 4.321
 -0.472 -1.436 4.32
 -0.446 -1.436 4.322
 -0.421 -1.437 4.326
 -0.394 -1.436 4.325
 -0.368 -1.434 4.32
 -0.342 -1.432 4.316
 -0.316 -1.431 4.313
 -0.29 -1.43 4.311
 -0.264 -1.43 4.312
 -0.239 -1.431 4.316
 -0.213 -1.432 4.319
 -0.187 -1.432 4.32
 -0.162 -1.431 4.319
 -0.136 -1.43 4.317
 -0.11 -1.429 4.312
 -0.084 -1.427 4.308
 -0.059 -1.427 4.308
 -0.033 -1.426 4.303
 -0.008 -1.426 4.305
 0.017 -1.427 4.306
 0.043 -1.427 4.305
 0.068 -1.426 4.302
 0.094 -1.425 4.299
 0.119 -1.424 4.296
 0.145 -1.424 4.293
 0.17 -1.425 4.294
 0.196 -1.425 4.293
 0.222 -1.426 4.296
 0.247 -1.426 4.295
 0.273 -1.427 4.295
 0.298 -1.427 4.293
 0.324 -1.428 4.294
 0.35 -1.428 4.293
 0.375 -1.429 4.294
 0.401 -1.429 4.29
 0.426 -1.429 4.289
 0.452 -1.43 4.29
 0.478 -1.43 4.287
 0.504 -1.43 4.285
 0.53 -1.433 4.29
 0.556 -1.433 4.288
 0.581 -1.433 4.283
 0.607 -1.434 4.283
 0.633 -1.433 4.279
 0.658 -1.433 4.274
 0.684 -1.434 4.273
 0.71 -1.435 4.273
 0.736 -1.436 4.271
 0.763 -1.439 4.275
 0.79 -1.441 4.277
 0.817 -1.442 4.276
 0.844 -1.444 4.279
 0.87 -1.446 4.277
 0.897 -1.447 4.276
 0.923 -1.448 4.274
 0.95 -1.449 4.272
 0.976 -1.45 4.271
 1.004 -1.453 4.273
 1.031 -1.454 4.272
 1.058 -1.457 4.273
 1.085 -1.458 4.27
 1.111 -1.458 4.266
 1.139 -1.46 4.266
 1.166 -1.462 4.264
 1.193 -1.463 4.26
 1.222 -1.466 4.262
 1.249 -1.468 4.26
 1.276 -1.468 4.255
 1.304 -1.47 4.253
 1.332 -1.473 4.253
 1.361 -1.476 4.253
 1.389 -1.478 4.252
 1.418 -1.481 4.252
 1.447 -1.483 4.251
 1.475 -1.485 4.249
 1.504 -1.488 4.247
 1.534 -1.491 4.248
 1.563 -1.493 4.246
 1.591 -1.495 4.241
 1.619 -1.496 4.236
 1.646 -1.497 4.228
 1.673 -1.497 4.22
 1.7 -1.498 4.212
 1.729 -1.5 4.207
 1.759 -1.502 4.204
 1.784 -1.502 4.191
 1.808 -1.499 4.173
 1.829 -1.495 4.15
 1.843 -1.485 4.113
 1.857 -1.475 4.074
 1.871 -1.465 4.036
 1.883 -1.455 3.996
 0 0 0
 0 0 0
 0 0 0
 0 0 0
 0 0 0
 0 0 0
 0.072 -0.054 0.13
 0 0 0
 1.111 -0.766 2.039
 1.597 -1.086 2.889
 1.664 -1.118 2.965
 1.783 -1.185 3.131
 1.791 -1.176 3.097
 1.789 -1.161 3.047
 1.782 -1.144 2.99
 1.784 -1.132 2.949
 -0.097 -0.062 0.154
 -0.079 -0.051 0.125
 -0.173 -0.113 0.295
 -0.261 -0.171 0.457
 -0.345 -0.229 0.618
 -0.337 -0.226 0.613
 -0.234 -0.159 0.428
 -0.223 -0.154 0.415
 -0.127 -0.09 0.235
 -0.119 -0.085 0.222
 -0.199 -0.143 0.386
 -0.278 -0.202 0.554
 -0.352 -0.259 0.717
 -0.671 -0.499 1.403
 -0.822 -0.619 1.75
 -1.047 -0.799 2.271
 -1.344 -1.04 2.968
 -1.633 -1.282 3.672
 -1.683 -1.341 3.85
 -1.805 -1.459 4.2
 -1.848 -1.516 4.375
 -1.814 -1.512 4.373
 -1.782 -1.508 4.372
 -1.749 -1.504 4.369
 -1.718 -1.501 4.368
 -1.687 -1.498 4.369
 -1.656 -1.496 4.371
 -1.625 -1.492 4.368
 -1.595 -1.489 4.37
 -1.565 -1.487 4.372
 -1.535 -1.485 4.374
 -1.504 -1.481 4.371
 -1.475 -1.48 4.373
 -1.445 -1.477 4.371
 -1.414 -1.473 4.368
 -1.383 -1.469 4.364
 -1.354 -1.468 4.366
 -1.325 -1.465 4.364
 -1.295 -1.462 4.361
 -1.266 -1.459 4.36
 -1.237 -1.456 4.357
 -1.207 -1.453 4.353
 -1.178 -1.451 4.352
 -1.15 -1.448 4.351
 -1.121 -1.445 4.348
 -1.092 -1.442 4.344
 -1.063 -1.439 4.34
 -1.036 -1.438 4.341
 -1.008 -1.437 4.341
 -0.981 -1.436 4.343
 -0.954 -1.434 4.343
 -0.927 -1.433 4.346
 -0.898 -1.43 4.338
 -0.87 -1.426 4.331
 -0.844 -1.426 4.336
 -0.816 -1.423 4.331
 -0.788 -1.421 4.328
 -0.762 -1.421 4.332
 -0.736 -1.421 4.336
 -0.708 -1.418 4.328
 -0.682 -1.418 4.331
 -0.656 -1.417 4.331
 -0.629 -1.415 4.328
 -0.603 -1.415 4.331
 -0.577 -1.414 4.329
 -0.55 -1.412 4.327
 -0.524 -1.411 4.325
 -0.498 -1.411 4.327
 -0.471 -1.409 4.324
 -0.446 -1.409 4.325
 -0.42 -1.409 4.328
 -0.394 -1.408 4.325
 -0.367 -1.406 4.321
 -0.341 -1.404 4.317
 -0.315 -1.404 4.316
 -0.289 -1.402 4.313
 -0.264 -1.403 4.315
 -0.238 -1.403 4.317
 -0.213 -1.404 4.32
 -0.187 -1.403 4.317
 -0.161 -1.403 4.317
 -0.135 -1.401 4.313
 -0.11 -1.399 4.308
 -0.084 -1.4 4.309
 -0.058 -1.4 4.31
 -0.033 -1.399 4.306
 -0.007 -1.401 4.312
 0.017 -1.401 4.314
 0.043 -1.4 4.309
 0.068 -1.399 4.305
 0.094 -1.398 4.3
 0.119 -1.396 4.295
 0.145 -1.396 4.294
 0.17 -1.397 4.294
 0.196 -1.397 4.294
 0.221 -1.399 4.297
 0.247 -1.399 4.298
 0.273 -1.399 4.296
 0.298 -1.399 4.295
 0.324 -1.4 4.296
 0.349 -1.401 4.297
 0.375 -1.402 4.296
 0.401 -1.401 4.292
 0.426 -1.402 4.293
 0.452 -1.404 4.294
 0.478 -1.403 4.291
 0.503 -1.403 4.288
 0.53 -1.405 4.291
 0.555 -1.406 4.29
 0.581 -1.406 4.286
 0.607 -1.407 4.287
 0.633 -1.407 4.284
 0.658 -1.407 4.28
 0.684 -1.408 4.28
 0.71 -1.409 4.279
 0.736 -1.41 4.277
 0.763 -1.412 4.281
 0.79 -1.415 4.283
 0.816 -1.415 4.279
 0.843 -1.417 4.281
 0.87 -1.419 4.282
 0.896 -1.42 4.281
 0.924 -1.423 4.286
 0.951 -1.425 4.285
 0.977 -1.426 4.283
 1.004 -1.427 4.28
 1.03 -1.428 4.277
 1.056 -1.428 4.272
 1.083 -1.428 4.267
 1.109 -1.429 4.263
 1.137 -1.431 4.265
 1.164 -1.433 4.263
 1.191 -1.434 4.258
 1.219 -1.437 4.261
 1.247 -1.438 4.258
 1.273 -1.439 4.253
 1.301 -1.441 4.252
 1.329 -1.443 4.252
 1.358 -1.446 4.251
 1.386 -1.448 4.25
 1.414 -1.45 4.248
 1.443 -1.452 4.247
 1.471 -1.455 4.246
 1.501 -1.458 4.246
 1.531 -1.461 4.247
 1.56 -1.463 4.245
 1.588 -1.465 4.241
 1.617 -1.467 4.238
 1.644 -1.468 4.231
 1.672 -1.469 4.224
 1.7 -1.47 4.218
 1.729 -1.473 4.215
 1.758 -1.475 4.21
 1.785 -1.475 4.2
 1.809 -1.473 4.184
 1.832 -1.47 4.166
 1.848 -1.462 4.131
 1.862 -1.453 4.094
 1.873 -1.441 4.05
 0 0 0
 0 0 0
 0 0 0
 0 0 0
 0 0 0
 0 0 0
 0 0 0
 0.072 -0.053 0.131
 0 0 0
 1.023 -0.693 1.882
 1.582 -1.057 2.868
 1.655 -1.092 2.956
 1.781 -1.161 3.133
 1.788 -1.153 3.098
 1.787 -1.139 3.051
 1.747 -1.101 2.937
 1.76 -1.097 2.916
 -0.142 -0.089 0.232
 -0.11 -0.07 0.18
 -0.093 -0.06 0.153
 -0.089 -0.059 0.148
 -0.082 -0.054 0.137
 -0.077 -0.052 0.131
 -0.066 -0.045 0.112
 -0.056 -0.039 0.095
 -0.048 -0.034 0.08
 -0.04 -0.029 0.065
 -0.033 -0.024 0.053
 -0.027 -0.021 0.043
 -0.103 -0.076 0.202
 -0.426 -0.311 0.888
 -0.661 -0.489 1.409
 -1.047 -0.785 2.276
 -1.424 -1.082 3.152
 -1.712 -1.319 3.857
 -1.761 -1.377 4.036
 -1.881 -1.492 4.386
 -1.848 -1.489 4.385
 -1.815 -1.484 4.382
 -1.782 -1.481 4.38
 -1.748 -1.476 4.375
 -1.716 -1.472 4.374
 -1.686 -1.47 4.375
 -1.654 -1.466 4.374
 -1.623 -1.463 4.372
 -1.593 -1.46 4.373
 -1.563 -1.458 4.375
 -1.533 -1.456 4.375
 -1.502 -1.452 4.372
 -1.472 -1.45 4.374
 -1.442 -1.447 4.371
 -1.411 -1.443 4.368
 -1.382 -1.441 4.369
 -1.353 -1.439 4.369
 -1.324 -1.437 4.37
 -1.296 -1.436 4.374
 -1.266 -1.433 4.368
 -1.236 -1.429 4.365
 -1.209 -1.428 4.367
 -1.179 -1.425 4.364
 -1.15 -1.422 4.359
 -1.122 -1.42 4.36
 -1.093 -1.417 4.355
 -1.063 -1.412 4.346
 -1.035 -1.411 4.345
 -1.007 -1.409 4.346
 -0.98 -1.408 4.348
 -0.953 -1.406 4.346
 -0.926 -1.406 4.35
 -0.897 -1.402 4.342
 -0.869 -1.399 4.335
 -0.843 -1.4 4.342
 -0.815 -1.397 4.336
 -0.788 -1.394 4.331
 -0.762 -1.395 4.338
 -0.736 -1.394 4.34
 -0.707 -1.39 4.33
 -0.682 -1.391 4.336
 -0.656 -1.391 4.339
 -0.629 -1.389 4.334
 -0.603 -1.39 4.341
 -0.577 -1.388 4.338
 -0.55 -1.387 4.336
 -0.523 -1.384 4.33
 -0.498 -1.385 4.333
 -0.471 -1.382 4.328
 -0.445 -1.382 4.328
 -0.419 -1.383 4.332
 -0.393 -1.381 4.327
 -0.367 -1.378 4.322
 -0.341 -1.376 4.317
 -0.315 -1.376 4.316
 -0.289 -1.375 4.313
 -0.263 -1.375 4.317
 -0.238 -1.375 4.317
 -0.212 -1.376 4.321
 -0.186 -1.375 4.317
 -0.161 -1.374 4.317
 -0.135 -1.372 4.309
 -0.109 -1.371 4.307
 -0.084 -1.371 4.306
 -0.058 -1.371 4.307
 -0.033 -1.371 4.304
 -0.007 -1.373 4.313
 0.017 -1.373 4.313
 0.043 -1.373 4.311
 0.068 -1.372 4.308
 0.094 -1.37 4.3
 0.119 -1.369 4.297
 0.145 -1.37 4.299
 0.17 -1.37 4.298
 0.196 -1.371 4.298
 0.222 -1.373 4.304
 0.247 -1.373 4.301
 0.272 -1.372 4.299
 0.298 -1.372 4.295
 0.323 -1.373 4.297
 0.349 -1.374 4.3
 0.375 -1.375 4.3
 0.4 -1.375 4.295
 0.426 -1.376 4.298
 0.452 -1.377 4.298
 0.477 -1.376 4.293
 0.503 -1.376 4.29
 0.529 -1.379 4.295
 0.555 -1.379 4.295
 0.581 -1.379 4.291
 0.607 -1.381 4.293
 0.632 -1.381 4.289
 0.658 -1.381 4.285
 0.684 -1.382 4.285
 0.71 -1.383 4.285
 0.736 -1.384 4.282
 0.763 -1.387 4.288
 0.79 -1.388 4.289
 0.816 -1.388 4.284
 0.843 -1.39 4.286
 0.87 -1.392 4.288
 0.896 -1.393 4.285
 0.924 -1.397 4.293
 0.951 -1.398 4.292
 0.977 -1.399 4.288
 1.003 -1.399 4.282
 1.03 -1.4 4.28
 1.055 -1.399 4.272
 1.081 -1.4 4.268
 1.108 -1.401 4.265
 1.135 -1.403 4.266
 1.162 -1.404 4.263
 1.19 -1.406 4.261
 1.218 -1.409 4.264
 1.245 -1.41 4.261
 1.272 -1.411 4.256
 1.3 -1.413 4.255
 1.328 -1.415 4.253
 1.355 -1.417 4.25
 1.384 -1.419 4.25
 1.413 -1.422 4.251
 1.441 -1.424 4.25
 1.47 -1.427 4.248
 1.499 -1.43 4.249
 1.529 -1.433 4.25
 1.557 -1.435 4.246
 1.586 -1.436 4.243
 1.614 -1.438 4.24
 1.643 -1.44 4.235
 1.67 -1.44 4.227
 1.698 -1.442 4.222
 1.727 -1.444 4.218
 1.756 -1.446 4.213
 1.783 -1.446 4.204
 1.809 -1.446 4.193
 1.835 -1.446 4.181
 1.859 -1.444 4.164
 1.88 -1.439 4.141
 0 0 0
 0 0 0
 0 0 0
 0 0 0
 0 0 0
 0 0 0
 0 0 0
 0 0 0
 0.072 -0.053 0.131
 0 0 0
 0.902 -0.6 1.662
 1.56 -1.023 2.835
 1.643 -1.065 2.94
 1.778 -1.139 3.135
 1.786 -1.13 3.101
 1.787 -1.118 3.057
 1.796 -1.111 3.026
 1.755 -1.074 2.913
 -0.103 -0.064 0.166
 -0.113 -0.071 0.186
 -0.107 -0.068 0.179
 -0.1 -0.064 0.167
 -0.09 -0.058 0.152
 -0.083 -0.055 0.142
 -0.069 -0.046 0.118
 -0.058 -0.04 0.099
 -0.049 -0.034 0.084
 -0.041 -0.029 0.068
 -0.033 -0.024 0.053
 -0.028 -0.021 0.045
 -0.187 -0.133 0.377
 -0.508 -0.364 1.064
 -0.742 -0.538 1.585
 -1.127 -0.828 2.454
 -1.503 -1.12 3.334
 -1.712 -1.294 3.864
 -1.761 -1.351 4.043
 -1.88 -1.464 4.394
 -1.847 -1.46 4.391
 -1.813 -1.455 4.387
 -1.78 -1.451 4.385
 -1.747 -1.447 4.381
 -1.715 -1.444 4.38
 -1.684 -1.441 4.379
 -1.652 -1.437 4.377
 -1.621 -1.434 4.375
 -1.59 -1.431 4.375
 -1.56 -1.428 4.375
 -1.53 -1.426 4.377
 -1.5 -1.424 4.377
 -1.471 -1.422 4.378
 -1.441 -1.419 4.376
 -1.411 -1.416 4.375
 -1.382 -1.414 4.376
 -1.352 -1.411 4.375
 -1.324 -1.41 4.376
 -1.296 -1.409 4.38
 -1.265 -1.405 4.374
 -1.236 -1.402 4.372
 -1.209 -1.402 4.376
 -1.18 -1.4 4.375
 -1.15 -1.395 4.367
 -1.122 -1.394 4.368
 -1.092 -1.39 4.362
 -1.061 -1.384 4.348
 -1.033 -1.382 4.345
 -1.006 -1.381 4.349
 -0.979 -1.381 4.352
 -0.952 -1.379 4.35
 -0.926 -1.38 4.357
 -0.897 -1.376 4.349
 -0.869 -1.372 4.341
 -0.844 -1.374 4.352
 -0.815 -1.371 4.344
 -0.787 -1.368 4.338
 -0.762 -1.369 4.345
 -0.736 -1.369 4.349
 -0.707 -1.364 4.336
 -0.682 -1.366 4.346
 -0.656 -1.367 4.35
 -0.629 -1.363 4.343
 -0.603 -1.363 4.345
 -0.576 -1.36 4.338
 -0.549 -1.359 4.335
 -0.522 -1.354 4.323
 -0.496 -1.355 4.329
 -0.47 -1.354 4.326
 -0.444 -1.354 4.327
 -0.419 -1.354 4.33
 -0.392 -1.352 4.324
 -0.366 -1.349 4.318
 -0.34 -1.348 4.314
 -0.314 -1.348 4.315
 -0.288 -1.347 4.314
 -0.263 -1.348 4.317
 -0.237 -1.348 4.318
 -0.212 -1.348 4.319
 -0.186 -1.347 4.317
 -0.16 -1.347 4.317
 -0.135 -1.344 4.309
 -0.109 -1.343 4.306
 -0.083 -1.344 4.308
 -0.058 -1.344 4.307
 -0.032 -1.344 4.307
 -0.007 -1.347 4.318
 0.018 -1.349 4.322
 0.043 -1.349 4.324
 0.069 -1.348 4.32
 0.094 -1.344 4.304
 0.119 -1.343 4.302
 0.145 -1.344 4.304
 0.17 -1.344 4.303
 0.196 -1.344 4.3
 0.222 -1.348 4.312
 0.247 -1.347 4.306
 0.272 -1.346 4.303
 0.297 -1.343 4.292
 0.323 -1.345 4.296
 0.349 -1.346 4.297
 0.374 -1.346 4.295
 0.399 -1.345 4.289
 0.425 -1.347 4.294
 0.452 -1.35 4.3
 0.477 -1.349 4.295
 0.503 -1.35 4.296
 0.53 -1.353 4.303
 0.555 -1.354 4.302
 0.58 -1.352 4.293
 0.607 -1.355 4.298
 0.633 -1.355 4.295
 0.658 -1.355 4.291
 0.684 -1.356 4.293
 0.711 -1.358 4.293
 0.737 -1.359 4.292
 0.764 -1.362 4.299
 0.791 -1.364 4.3
 0.816 -1.363 4.293
 0.843 -1.364 4.293
 0.869 -1.365 4.289
 0.895 -1.365 4.287
 0.924 -1.37 4.297
 0.95 -1.37 4.292
 0.976 -1.371 4.29
 1.002 -1.371 4.284
 1.029 -1.372 4.282
 1.054 -1.372 4.275
 1.08 -1.373 4.271
 1.107 -1.374 4.268
 1.135 -1.376 4.27
 1.161 -1.376 4.264
 1.188 -1.377 4.261
 1.217 -1.381 4.265
 1.243 -1.381 4.259
 1.27 -1.382 4.255
 1.298 -1.384 4.254
 1.325 -1.386 4.253
 1.353 -1.388 4.252
 1.382 -1.391 4.253
 1.411 -1.393 4.252
 1.439 -1.396 4.251
 1.468 -1.398 4.249
 1.496 -1.4 4.248
 1.526 -1.403 4.249
 1.555 -1.405 4.246
 1.584 -1.408 4.244
 1.612 -1.41 4.241
 1.64 -1.411 4.236
 1.667 -1.412 4.228
 1.696 -1.413 4.224
 1.725 -1.415 4.22
 1.754 -1.417 4.216
 1.781 -1.418 4.206
 1.809 -1.419 4.2
 1.836 -1.42 4.191
 1.862 -1.419 4.178
 0 0 0
 0 0 0
 0 0 0
 0 0 0
 0 0 0
 0 0 0
 0 0 0
 0.12 -0.085 0.229
 0 0 0
 0 0 0
 0 0 0
 0.918 -0.599 1.694
 1.753 -1.128 3.193
 1.766 -1.123 3.168
 1.776 -1.116 3.137
 1.783 -1.108 3.103
 1.786 -1.097 3.061
 1.794 -1.089 3.029
 1.778 -1.067 2.957
 -0.114 -0.069 0.186
 -0.129 -0.079 0.215
 -0.11 -0.068 0.183
 -0.101 -0.064 0.17
 -0.089 -0.057 0.152
 -0.081 -0.052 0.138
 -0.068 -0.045 0.117
 -0.057 -0.038 0.097
 -0.048 -0.033 0.081
 -0.04 -0.028 0.067
 -0.032 -0.023 0.051
 -0.11 -0.077 0.214
 -0.351 -0.244 0.72
 -0.671 -0.471 1.412
 -0.984 -0.7 2.11
 -1.365 -0.984 2.982
 -1.659 -1.213 3.689
 -1.788 -1.326 4.044
 -1.835 -1.381 4.223
 -1.878 -1.434 4.396
 -1.844 -1.43 4.393
 -1.81 -1.425 4.388
 -1.777 -1.421 4.384
 -1.743 -1.416 4.38
 -1.712 -1.414 4.38
 -1.681 -1.411 4.381
 -1.65 -1.408 4.38
 -1.619 -1.405 4.379
 -1.588 -1.401 4.376
 -1.557 -1.398 4.374
 -1.526 -1.395 4.374
 -1.496 -1.392 4.372
 -1.467 -1.391 4.374
 -1.437 -1.388 4.373
 -1.408 -1.386 4.375
 -1.379 -1.385 4.376
 -1.35 -1.382 4.375
 -1.322 -1.381 4.378
 -1.295 -1.382 4.387
 -1.265 -1.378 4.38
 -1.236 -1.376 4.381
 -1.211 -1.377 4.391
 -1.181 -1.374 4.385
 -1.15 -1.369 4.375
 -1.122 -1.368 4.378
 -1.092 -1.363 4.367
 -1.059 -1.355 4.348
 -1.032 -1.354 4.348
 -1.005 -1.353 4.351
 -0.979 -1.354 4.357
 -0.952 -1.353 4.357
 -0.926 -1.354 4.365
 -0.897 -1.349 4.355
 -0.868 -1.345 4.345
 -0.843 -1.347 4.356
 -0.814 -1.342 4.343
 -0.785 -1.338 4.334
 -0.761 -1.341 4.347
 -0.735 -1.342 4.351
 -0.706 -1.335 4.334
 -0.682 -1.34 4.354
 -0.658 -1.344 4.368
 -0.629 -1.338 4.352
 -0.603 -1.337 4.352
 -0.576 -1.335 4.348
 -0.549 -1.332 4.34
 -0.52 -1.325 4.319
 -0.495 -1.327 4.327
 -0.47 -1.328 4.331
 -0.443 -1.326 4.329
 -0.418 -1.328 4.335
 -0.392 -1.326 4.33
 -0.366 -1.324 4.324
 -0.339 -1.321 4.317
 -0.314 -1.321 4.318
 -0.288 -1.32 4.315
 -0.262 -1.319 4.314
 -0.237 -1.319 4.315
 -0.211 -1.319 4.316
 -0.185 -1.319 4.315
 -0.16 -1.318 4.314
 -0.134 -1.316 4.307
 -0.109 -1.315 4.304
 -0.083 -1.315 4.304
 -0.058 -1.315 4.304
 -0.032 -1.316 4.306
 -0.007 -1.319 4.315
 0.018 -1.32 4.318
 0.043 -1.324 4.332
 0.069 -1.321 4.322
 0.094 -1.314 4.298
 0.119 -1.317 4.305
 0.145 -1.319 4.31
 0.17 -1.318 4.307
 0.195 -1.315 4.297
 0.222 -1.322 4.316
 0.247 -1.318 4.304
 0.272 -1.318 4.301
 0.296 -1.312 4.281
 0.322 -1.316 4.29
 0.348 -1.318 4.295
 0.373 -1.316 4.287
 0.398 -1.313 4.276
 0.424 -1.318 4.289
 0.452 -1.323 4.304
 0.476 -1.321 4.295
 0.503 -1.324 4.302
 0.53 -1.327 4.309
 0.556 -1.329 4.312
 0.58 -1.326 4.297
 0.607 -1.33 4.307
 0.632 -1.328 4.3
 0.657 -1.328 4.293
 0.682 -1.326 4.286
 0.708 -1.328 4.285
 0.735 -1.329 4.286
 0.764 -1.335 4.301
 0.789 -1.335 4.297
 0.815 -1.335 4.292
 0.842 -1.337 4.293
 0.865 -1.333 4.278
 0.891 -1.333 4.272
 0.923 -1.344 4.301
 0.949 -1.343 4.295
 0.975 -1.343 4.289
 1.001 -1.343 4.285
 1.027 -1.345 4.284
 1.052 -1.344 4.275
 1.078 -1.344 4.27
 1.106 -1.346 4.269
 1.133 -1.348 4.271
 1.159 -1.348 4.265
 1.186 -1.35 4.263
 1.215 -1.353 4.266
 1.241 -1.353 4.261
 1.268 -1.354 4.257
 1.296 -1.356 4.255
 1.323 -1.357 4.252
 1.351 -1.359 4.251
 1.38 -1.362 4.251
 1.408 -1.364 4.251
 1.437 -1.367 4.251
 1.465 -1.369 4.25
 1.495 -1.372 4.25
 1.524 -1.375 4.25
 1.552 -1.377 4.247
 1.582 -1.379 4.246
 1.61 -1.381 4.243
 1.638 -1.382 4.238
 1.665 -1.383 4.23
 1.694 -1.385 4.226
 1.723 -1.387 4.222
 1.752 -1.389 4.218
 1.779 -1.389 4.209
 1.807 -1.391 4.204
 1.835 -1.392 4.196
 1.86 -1.391 4.182
 0 0 0
 0 0 0
 0 0 0
 0 0 0
 0 0 0
 0 0 0
 0 0 0
 0 0 0
 0 0 0
 0 0 0
 0 0 0
 0 0 0
 1.749 -1.104 3.191
 1.765 -1.101 3.172
 1.777 -1.096 3.146
 1.786 -1.088 3.114
 1.791 -1.079 3.075
 1.778 -1.059 3.009
 1.785 -1.051 2.975
 -0.111 -0.066 0.18
 -0.136 -0.082 0.227
 -0.105 -0.064 0.176
 -0.096 -0.06 0.162
 -0.085 -0.053 0.143
 -0.075 -0.048 0.128
 -0.063 -0.041 0.107
 -0.052 -0.035 0.088
 -0.043 -0.029 0.072
 -0.036 -0.025 0.058
 -0.027 -0.02 0.043
 -0.107 -0.073 0.208
 -0.432 -0.294 0.89
 -0.833 -0.573 1.76
 -1.224 -0.854 2.635
 -1.603 -1.133 3.512
 -1.894 -1.357 4.221
 -1.941 -1.411 4.4
 -1.909 -1.409 4.403
 -1.875 -1.405 4.399
 -1.841 -1.4 4.394
 -1.807 -1.395 4.389
 -1.775 -1.392 4.387
 -1.741 -1.387 4.381
 -1.709 -1.384 4.38
 -1.679 -1.382 4.382
 -1.647 -1.378 4.381
 -1.616 -1.375 4.379
 -1.585 -1.372 4.377
 -1.555 -1.369 4.377
 -1.524 -1.366 4.374
 -1.493 -1.363 4.373
 -1.464 -1.361 4.374
 -1.434 -1.358 4.371
 -1.405 -1.356 4.372
 -1.377 -1.355 4.375
 -1.348 -1.354 4.377
 -1.321 -1.353 4.382
 -1.297 -1.357 4.4
 -1.265 -1.351 4.389
 -1.238 -1.351 4.393
 -1.213 -1.353 4.405
 -1.181 -1.348 4.396
 -1.151 -1.343 4.385
 -1.126 -1.345 4.398
 -1.094 -1.34 4.384
 -1.06 -1.33 4.357
 -1.032 -1.329 4.358
 -1.005 -1.328 4.36
 -0.98 -1.329 4.367
 -0.951 -1.325 4.36
 -0.924 -1.325 4.364
 -0.894 -1.32 4.351
 -0.866 -1.317 4.344
 -0.842 -1.32 4.36
 -0.812 -1.314 4.343
 -0.783 -1.309 4.331
 -0.759 -1.312 4.343
 0 0 0
 0 0 0
 0 0 0
 0 0 0
 0 0 0
 0 0 0
 0 0 0
 0 0 0
 0 0 0
 0 0 0
 0 0 0
 0 0 0
 0 0 0
 -0.389 -1.292 4.311
 -0.364 -1.292 4.31
 -0.338 -1.291 4.309
 -0.313 -1.292 4.312
 -0.287 -1.292 4.313
 -0.262 -1.292 4.315
 -0.236 -1.292 4.316
 -0.211 -1.292 4.316
 -0.185 -1.291 4.315
 -0.159 -1.29 4.312
 -0.134 -1.288 4.306
 -0.108 -1.288 4.305
 -0.083 -1.288 4.306
 -0.057 -1.288 4.303
 -0.032 -1.288 4.303
 -0.007 -1.289 4.309
 0.018 -1.289 4.308
 0 0 0
 0 0 0
 0 0 0
 0 0 0
 0 0 0
 0 0 0
 0 0 0
 0 0 0
 0 0 0
 0 0 0
 0 0 0
 0 0 0
 0 0 0
 0 0 0
 0 0 0
 0 0 0
 0 0 0
 0 0 0
 0 0 0
 0 0 0
 0 0 0
 0 0 0
 0 0 0
 0 0 0
 0 0 0
 0 0 0
 0 0 0
 0 0 0
 0 0 0
 0 0 0
 0 0 0
 0 0 0
 0 0 0
 0 0 0
 0 0 0
 0.951 -1.32 4.312
 0.975 -1.317 4.296
 1 -1.317 4.289
 1.026 -1.317 4.286
 1.051 -1.316 4.275
 1.077 -1.316 4.27
 1.104 -1.317 4.269
 1.131 -1.319 4.268
 1.157 -1.32 4.264
 1.185 -1.321 4.263
 1.213 -1.324 4.266
 1.24 -1.326 4.264
 1.267 -1.326 4.258
 1.294 -1.328 4.256
 1.321 -1.329 4.254
 1.348 -1.33 4.25
 1.376 -1.332 4.248
 1.405 -1.335 4.247
 1.434 -1.337 4.248
 1.462 -1.339 4.247
 1.49 -1.341 4.245
 1.52 -1.344 4.245
 1.548 -1.346 4.243
 1.578 -1.349 4.242
 1.606 -1.351 4.24
 1.635 -1.353 4.237
 1.663 -1.354 4.232
 1.692 -1.357 4.229
 1.72 -1.358 4.222
 1.748 -1.359 4.217
 1.775 -1.36 4.208
 1.803 -1.361 4.201
 1.83 -1.361 4.192
 1.856 -1.361 4.181
 0 0 0
 0 0 0
 0 0 0
 0 0 0
 0 0 0
 0 0 0
 0 0 0
 0 0 0
 0 0 0
 0 0 0
 0 0 0
 0 0 0
 1.749 -1.083 3.198
 1.764 -1.079 3.176
 1.775 -1.073 3.148
 1.782 -1.065 3.113
 1.79 -1.058 3.08
 1.772 -1.035 3.004
 1.771 -1.023 2.958
 -0.117 -0.068 0.191
 -0.09 -0.054 0.147
 -0.104 -0.062 0.173
 -0.094 -0.057 0.158
 -0.081 -0.05 0.137
 -0.071 -0.045 0.12
 -0.058 -0.037 0.097
 -0.048 -0.031 0.08
 -0.038 -0.026 0.063
 -0.031 -0.021 0.05
 -0.108 -0.072 0.207
 -0.272 -0.179 0.548
 -0.679 -0.452 1.41
 -1.077 -0.726 2.284
 -1.464 -1.001 3.16
 -1.761 -1.22 3.866
 -1.97 -1.384 4.4
 -1.938 -1.381 4.402
 -1.906 -1.379 4.404
 -1.872 -1.374 4.4
 -1.837 -1.369 4.393
 -1.804 -1.365 4.391
 -1.772 -1.362 4.388
 -1.738 -1.357 4.383
 -1.706 -1.354 4.381
 -1.676 -1.352 4.384
 -1.644 -1.348 4.38
 -1.614 -1.346 4.381
 -1.583 -1.343 4.379
 -1.553 -1.341 4.38
 -1.522 -1.337 4.376
 -1.491 -1.334 4.373
 -1.461 -1.331 4.372
 -1.431 -1.328 4.369
 -1.402 -1.327 4.372
 -1.374 -1.326 4.375
 -1.346 -1.325 4.378
 -1.319 -1.325 4.385
 -1.3 -1.333 4.418
 -1.265 -1.325 4.397
 -1.238 -1.325 4.403
 -1.218 -1.332 4.433
 -1.189 -1.329 4.43
 0 0 0
 0 0 0
 0 0 0
 0 0 0
 0 0 0
 0 0 0
 0 0 0
 0 0 0
 0 0 0
 0 0 0
 0 0 0
 0 0 0
 0 0 0
 0 0 0
 0 0 0
 0 0 0
 0 0 0
 0 0 0
 0 0 0
 0 0 0
 0 0 0
 0 0 0
 0 0 0
 0 0 0
 0 0 0
 0 0 0
 0 0 0
 0 0 0
 -0.389 -1.265 4.31
 -0.363 -1.265 4.311
 -0.337 -1.263 4.307
 -0.312 -1.263 4.309
 -0.286 -1.264 4.311
 -0.261 -1.264 4.314
 -0.236 -1.264 4.315
 -0.21 -1.264 4.316
 -0.185 -1.265 4.318
 -0.159 -1.264 4.314
 -0.134 -1.262 4.31
 -0.108 -1.262 4.307
 -0.083 -1.261 4.305
 -0.057 -1.26 4.3
 -0.032 -1.26 4.301
 -0.007 -1.259 4.297
 0.018 -1.257 4.29
 0 0 0
 0 0 0
 0 0 0
 0 0 0
 0 0 0
 0 0 0
 0 0 0
 0 0 0
 0 0 0
 0 0 0
 0 0 0
 0 0 0
 0 0 0
 0 0 0
 0 0 0
 0 0 0
 0 0 0
 0 0 0
 0 0 0
 0 0 0
 0 0 0
 0 0 0
 0 0 0
 0 0 0
 0 0 0
 0 0 0
 0 0 0
 0 0 0
 0 0 0
 0 0 0
 0 0 0
 0 0 0
 0 0 0
 0 0 0
 0 0 0
 0.942 -1.282 4.276
 0.97 -1.284 4.28
 0.997 -1.286 4.28
 1.024 -1.287 4.28
 1.05 -1.288 4.275
 1.076 -1.289 4.274
 1.103 -1.29 4.272
 1.13 -1.291 4.27
 1.156 -1.292 4.264
 1.183 -1.294 4.264
 1.212 -1.297 4.268
 1.239 -1.298 4.266
 1.266 -1.299 4.263
 1.294 -1.301 4.261
 1.321 -1.302 4.257
 1.347 -1.303 4.253
 1.375 -1.305 4.251
 1.403 -1.307 4.25
 1.432 -1.309 4.25
 1.461 -1.312 4.25
 1.489 -1.314 4.248
 1.517 -1.315 4.245
 1.545 -1.317 4.241
 1.575 -1.32 4.242
 1.603 -1.321 4.238
 1.632 -1.324 4.236
 1.66 -1.325 4.23
 1.69 -1.328 4.23
 1.717 -1.328 4.222
 1.746 -1.33 4.218
 1.773 -1.331 4.209
 1.802 -1.333 4.205
 1.829 -1.333 4.196
 1.856 -1.334 4.188
 0 0 0
 0 0 0
 0 0 0
 0 0 0
 0 0 0
 0 0 0
 0 0 0
 0 0 0
 0 0 0
 0 0 0
 0 0 0
 0 0 0
 1.745 -1.059 3.197
 1.766 -1.059 3.187
 1.778 -1.054 3.159
 1.783 -1.045 3.121
 1.791 -1.037 3.088
 1.793 -1.027 3.046
 1.763 -0.998 2.949
 -0.125 -0.072 0.206
 -0.111 -0.064 0.183
 -0.101 -0.059 0.169
 -0.092 -0.055 0.155
 -0.079 -0.048 0.133
 -0.069 -0.042 0.116
 -0.056 -0.035 0.095
 -0.045 -0.029 0.075
 -0.035 -0.023 0.056
 -0.115 -0.073 0.216
 -0.276 -0.176 0.549
 -0.438 -0.283 0.893
 -0.844 -0.551 1.761
 -1.242 -0.82 2.638
 -1.545 -1.034 3.341
 -1.76 -1.194 3.872
 -1.969 -1.355 4.405
 -1.937 -1.353 4.407
 -1.906 -1.35 4.41
 -1.87 -1.345 4.403
 -1.834 -1.339 4.395
 -1.801 -1.335 4.39
 -1.769 -1.332 4.388
 -1.736 -1.328 4.384
 -1.704 -1.325 4.383
 -1.674 -1.323 4.384
 -1.642 -1.319 4.381
 -1.611 -1.316 4.38
 -1.579 -1.313 4.376
 -1.549 -1.311 4.377
 -1.518 -1.307 4.374
 -1.488 -1.305 4.373
 -1.459 -1.303 4.373
 -1.429 -1.3 4.37
 -1.4 -1.299 4.374
 -1.372 -1.297 4.376
 -1.343 -1.295 4.376
 -1.313 -1.292 4.372
 0 0 0
 0 0 0
 0 0 0
 0 0 0
 0 0 0
 0 0 0
 0 0 0
 0 0 0
 0 0 0
 0 0 0
 0 0 0
 0 0 0
 0 0 0
 0 0 0
 0 0 0
 0 0 0
 0 0 0
 0 0 0
 0 0 0
 0 0 0
 0 0 0
 0 0 0
 0 0 0
 0 0 0
 0 0 0
 0 0 0
 0 0 0
 0 0 0
 0 0 0
 0 0 0
 0 0 0
 0 0 0
 0 0 0
 -0.388 -1.237 4.31
 -0.362 -1.237 4.31
 -0.337 -1.236 4.307
 -0.311 -1.237 4.311
 -0.286 -1.237 4.313
 -0.261 -1.237 4.315
 -0.235 -1.237 4.316
 -0.21 -1.237 4.316
 -0.184 -1.238 4.318
 -0.159 -1.236 4.313
 -0.133 -1.236 4.313
 -0.108 -1.235 4.309
 -0.082 -1.234 4.305
 -0.057 -1.232 4.298
 -0.032 -1.232 4.299
 -0.006 -1.23 4.291
 0.018 -1.228 4.283
 0 0 0
 0 0 0
 0 0 0
 0 0 0
 0 0 0
 0 0 0
 0 0 0
 0 0 0
 0 0 0
 0 0 0
 0 0 0
 0 0 0
 0 0 0
 0 0 0
 0 0 0
 0 0 0
 0 0 0
 0 0 0
 0 0 0
 0 0 0
 0 0 0
 0 0 0
 0 0 0
 0 0 0
 0 0 0
 0 0 0
 0 0 0
 0 0 0
 0 0 0
 0 0 0
 0 0 0
 0 0 0
 0 0 0
 0 0 0
 0 0 0
 0.942 -1.255 4.281
 0.969 -1.257 4.281
 0.995 -1.258 4.28
 1.022 -1.259 4.278
 1.048 -1.259 4.273
 1.074 -1.26 4.271
 1.101 -1.262 4.269
 1.127 -1.263 4.266
 1.154 -1.263 4.263
 1.181 -1.265 4.263
 1.209 -1.268 4.264
 1.236 -1.268 4.26
 1.263 -1.27 4.258
 1.29 -1.271 4.256
 1.317 -1.273 4.253
 1.344 -1.274 4.249
 1.373 -1.276 4.249
 1.4 -1.278 4.247
 1.429 -1.28 4.247
 1.457 -1.282 4.246
 1.486 -1.285 4.246
 1.514 -1.286 4.242
 1.542 -1.288 4.24
 1.572 -1.291 4.24
 1.6 -1.293 4.237
 1.628 -1.294 4.231
 1.656 -1.296 4.228
 1.686 -1.298 4.228
 1.713 -1.299 4.22
 1.743 -1.302 4.219
 1.772 -1.303 4.214
 1.801 -1.305 4.21
 1.828 -1.306 4.202
 1.859 -1.309 4.201
 0 0 0
 0 0 0
 0 0 0
 0 0 0
 0 0 0
 0 0 0
 0 0 0
 0 0 0
 0 0 0
 0 0 0
 0 0 0
 0 0 0
 1.743 -1.037 3.199
 1.764 -1.037 3.188
 1.778 -1.032 3.164
 1.784 -1.024 3.128
 1.79 -1.016 3.093
 1.77 -0.993 3.013
 1.798 -0.998 3.015
 -0.106 -0.06 0.173
 -0.11 -0.063 0.183
 -0.097 -0.056 0.162
 -0.086 -0.05 0.145
 -0.073 -0.043 0.122
 -0.063 -0.038 0.105
 -0.051 -0.031 0.084
 -0.041 -0.026 0.067
 -0.031 -0.02 0.049
 -0.198 -0.123 0.384
 -0.359 -0.224 0.72
 -0.604 -0.381 1.238
 -1.008 -0.643 2.109
 -1.403 -0.907 2.989
 -1.623 -1.063 3.516
 -1.837 -1.221 4.049
 -1.966 -1.325 4.408
 -1.933 -1.322 4.407
 -1.903 -1.321 4.413
 -1.869 -1.317 4.408
 -1.833 -1.311 4.398
 -1.8 -1.307 4.396
 -1.769 -1.305 4.397
 -1.734 -1.299 4.388
 -1.702 -1.296 4.385
 -1.671 -1.293 4.385
 -1.639 -1.289 4.381
 -1.607 -1.286 4.376
 -1.575 -1.283 4.373
 -1.546 -1.28 4.374
 -1.515 -1.277 4.371
 -1.485 -1.275 4.369
 -1.456 -1.273 4.371
 -1.425 -1.27 4.366
 -1.396 -1.268 4.367
 -1.367 -1.265 4.366
 -1.338 -1.264 4.367
 -1.305 -1.258 4.352
 0 0 0
 0 0 0
 0 0 0
 0 0 0
 0 0 0
 0 0 0
 0 0 0
 0 0 0
 0 0 0
 0 0 0
 0 0 0
 0 0 0
 0 0 0
 0 0 0
 0 0 0
 0 0 0
 0 0 0
 0 0 0
 0 0 0
 0 0 0
 0 0 0
 0 0 0
 0 0 0
 0 0 0
 -0.183 -0.359 1.261
 -0.177 -0.362 1.27
 -0.169 -0.362 1.271
 -0.162 -0.363 1.277
 -0.154 -0.361 1.27
 0 0 0
 0 0 0
 0 0 0
 0 0 0
 -0.386 -1.207 4.297
 -0.361 -1.208 4.302
 -0.336 -1.208 4.304
 -0.311 -1.209 4.309
 -0.285 -1.209 4.311
 -0.26 -1.21 4.315
 -0.235 -1.21 4.317
 -0.209 -1.21 4.317
 -0.184 -1.211 4.319
 -0.158 -1.209 4.313
 -0.133 -1.209 4.313
 -0.108 -1.208 4.309
 -0.082 -1.206 4.301
 -0.057 -1.204 4.294
 -0.031 -1.204 4.296
 -0.006 -1.201 4.286
 0.018 -1.198 4.271
 0 0 0
 0 0 0
 0 0 0
 0 0 0
 0 0 0
 0 0 0
 0 0 0
 0 0 0
 0 0 0
 0 0 0
 0 0 0
 0 0 0
 0 0 0
 0 0 0
 0 0 0
 0 0 0
 0 0 0
 0 0 0
 0 0 0
 0 0 0
 0 0 0
 0 0 0
 0 0 0
 0 0 0
 0 0 0
 0 0 0
 0 0 0
 0 0 0
 0 0 0
 0 0 0
 0 0 0
 0 0 0
 0 0 0
 0 0 0
 0 0 0
 0.942 -1.229 4.285
 0.967 -1.229 4.279
 0.993 -1.229 4.276
 1.019 -1.23 4.273
 1.045 -1.231 4.269
 1.071 -1.231 4.266
 1.099 -1.233 4.266
 1.125 -1.234 4.264
 1.152 -1.235 4.261
 1.179 -1.237 4.263
 1.207 -1.24 4.264
 1.234 -1.241 4.262
 1.262 -1.242 4.26
 1.289 -1.244 4.259
 1.316 -1.245 4.256
 1.343 -1.246 4.251
 1.37 -1.248 4.248
 1.398 -1.249 4.246
 1.426 -1.251 4.243
 1.453 -1.252 4.241
 1.482 -1.255 4.241
 1.51 -1.256 4.238
 1.538 -1.258 4.235
 1.567 -1.261 4.235
 1.596 -1.263 4.234
 1.624 -1.264 4.228
 1.653 -1.266 4.226
 1.683 -1.269 4.226
 1.71 -1.27 4.22
 1.74 -1.273 4.218
 1.768 -1.274 4.213
 1.797 -1.276 4.208
 1.826 -1.277 4.203
 1.856 -1.28 4.201
 0 0 0
 0 0 0
 0 0 0
 0 0 0
 0 0 0
 0 0 0
 0 0 0
 0 0 0
 0 0 0
 0 0 0
 0 0 0
 0 0 0
 1.735 -1.011 3.189
 1.756 -1.011 3.179
 1.772 -1.008 3.16
 1.781 -1.002 3.129
 1.788 -0.994 3.094
 1.778 -0.977 3.032
 1.778 -0.966 2.987
 -0.096 -0.053 0.156
 -0.134 -0.074 0.226
 -0.094 -0.053 0.156
 -0.083 -0.048 0.139
 -0.069 -0.04 0.115
 -0.059 -0.035 0.098
 -0.047 -0.029 0.078
 -0.126 -0.075 0.233
 -0.204 -0.122 0.39
 -0.368 -0.222 0.727
 -0.614 -0.374 1.241
 -0.856 -0.528 1.764
 -1.174 -0.733 2.463
 -1.483 -0.938 3.165
 -1.701 -1.091 3.693
 -1.834 -1.193 4.049
 -1.963 -1.295 4.408
 -1.93 -1.292 4.407
 -1.899 -1.29 4.41
 -1.864 -1.285 4.403
 -1.826 -1.279 4.391
 -1.795 -1.276 4.39
 -1.765 -1.274 4.395
 -1.732 -1.27 4.39
 -1.7 -1.267 4.388
 -1.669 -1.264 4.386
 -1.636 -1.26 4.381
 -1.604 -1.257 4.377
 -1.573 -1.254 4.374
 -1.544 -1.252 4.375
 -1.514 -1.249 4.375
 -1.484 -1.247 4.374
 -1.454 -1.245 4.373
 -1.424 -1.242 4.37
 -1.395 -1.24 4.37
 -1.365 -1.237 4.368
 -1.336 -1.236 4.368
 -1.304 -1.231 4.357
 0 0 0
 0 0 0
 0 0 0
 0 0 0
 0 0 0
 0 0 0
 0 0 0
 0 0 0
 0 0 0
 0 0 0
 0 0 0
 0 0 0
 0 0 0
 0 0 0
 0 0 0
 0 0 0
 0 0 0
 0 0 0
 0 0 0
 0 0 0
 0 0 0
 0 0 0
 0 0 0
 -0.191 -0.353 1.266
 -0.183 -0.352 1.264
 -0.177 -0.354 1.273
 -0.169 -0.355 1.275
 -0.161 -0.354 1.273
 -0.153 -0.352 1.265
 -0.146 -0.352 1.268
 0 0 0
 0 0 0
 0 0 0
 -0.384 -1.174 4.276
 -0.359 -1.178 4.29
 -0.335 -1.18 4.3
 -0.31 -1.181 4.306
 -0.285 -1.182 4.311
 -0.26 -1.184 4.317
 -0.234 -1.184 4.318
 -0.209 -1.183 4.316
 -0.183 -1.183 4.315
 -0.158 -1.181 4.309
 -0.133 -1.182 4.312
 -0.107 -1.181 4.309
 -0.082 -1.178 4.3
 -0.056 -1.177 4.294
 -0.031 -1.177 4.294
 -0.006 -1.173 4.279
 0.018 -1.167 4.259
 0 0 0
 0 0 0
 0 0 0
 0 0 0
 0 0 0
 0 0 0
 0 0 0
 0 0 0
 0 0 0
 0 0 0
 0 0 0
 0 0 0
 0 0 0
 0 0 0
 0 0 0
 0 0 0
 0 0 0
 0 0 0
 0 0 0
 0 0 0
 0 0 0
 0 0 0
 0 0 0
 0 0 0
 0 0 0
 0 0 0
 0 0 0
 0 0 0
 0 0 0
 0 0 0
 0 0 0
 0 0 0
 0 0 0
 0 0 0
 0 0 0
 0.939 -1.199 4.276
