 0.155 0.222 1.579
 0.164 0.221 1.572
 0.172 0.219 1.56
 0.179 0.218 1.549
 0.187 0.217 1.539
 0.195 0.215 1.527
 0.202 0.213 1.512
 0.209 0.211 1.498
 0.214 0.208 1.475
 0.219 0.204 1.448
 0.223 0.2 1.418
 0.225 0.195 1.383
 0.227 0.19 1.344
 0.229 0.185 1.312
 0.233 0.182 1.286
 0.232 0.175 1.241
 0.232 0.17 1.205
 0.229 0.163 1.152
 0.219 0.151 1.067
 0.219 0.147 1.04
 0.224 0.146 1.03
 0.228 0.144 1.02
 0.209 0.129 0.909
 0.174 0.104 0.739
 0.123 0.071 0.506
 0.122 0.069 0.492
 0.124 0.068 0.485
 0.121 0.065 0.462
 0.118 0.062 0.44
 0.117 0.06 0.428
 0.115 0.058 0.41
 0.114 0.056 0.397
 0.112 0.054 0.382
 0.111 0.052 0.37
 0.108 0.05 0.352
 0.107 0.048 0.341
 0.104 0.046 0.325
 0.105 0.045 0.321
 0.108 0.046 0.324
 0.113 0.047 0.332
 0.117 0.048 0.337
 0.123 0.049 0.347
 0.128 0.05 0.354
 0.131 0.051 0.356
 0.134 0.051 0.358
 0.137 0.052 0.36
 0.139 0.051 0.357
 0.139 0.05 0.35
 0.142 0.051 0.352
 0.144 0.051 0.352
 0 0 0
 0 0 0
 0 0 0
 0.181 0.06 0.414
 0.185 0.061 0.415
 0.187 0.061 0.414
 0.188 0.06 0.41
 0.195 0.062 0.418
 0 0 0
 0.212 0.065 0.44
 0.226 0.069 0.461
 0.237 0.071 0.477
 0.25 0.074 0.495
 0.255 0.075 0.497
 0.27 0.078 0.519
 0.285 0.082 0.54
 0.316 0.09 0.59
 0.339 0.095 0.625
 0.356 0.099 0.646
 0.379 0.104 0.678
 0.398 0.108 0.702
 0.415 0.112 0.722
 0.409 0.109 0.701
 -0.347 0.102 0.615
 -0.351 0.105 0.631
 -0.355 0.107 0.65
 -0.359 0.11 0.667
 -0.363 0.112 0.684
 -0.366 0.115 0.7
 -0.368 0.117 0.715
 -0.369 0.119 0.73
 -0.369 0.12 0.741
 -0.368 0.121 0.75
 -0.366 0.122 0.758
 -0.363 0.123 0.765
 -0.36 0.123 0.77
 -0.357 0.124 0.776
 -0.354 0.125 0.783
 -0.352 0.126 0.792
 -0.351 0.127 0.803
 -0.352 0.129 0.818
 -0.352 0.132 0.833
 -0.355 0.135 0.855
 -0.361 0.139 0.884
 -0.368 0.144 0.919
 -0.376 0.15 0.956
 -0.386 0.156 0.998
 -0.395 0.163 1.042
 -0.403 0.169 1.082
 -0.409 0.174 1.119
 -0.414 0.179 1.154
 -0.416 0.184 1.184
 -0.416 0.187 1.205
 -0.414 0.189 1.222
 -0.41 0.191 1.236
 -0.405 0.192 1.247
 -0.401 0.193 1.257
 -0.396 0.194 1.268
 -0.391 0.196 1.279
 -0.385 0.197 1.288
 -0.38 0.198 1.298
 -0.374 0.199 1.306
 -0.368 0.2 1.314
 -0.361 0.2 1.319
 -0.354 0.201 1.325
 -0.347 0.201 1.329
 -0.339 0.201 1.331
 -0.331 0.201 1.333
 -0.322 0.201 1.331
 -0.313 0.2 1.326
 -0.303 0.198 1.319
 -0.294 0.197 1.312
 -0.283 0.195 1.302
 -0.274 0.194 1.296
 -0.265 0.193 1.291
 -0.257 0.193 1.288
 -0.249 0.192 1.285
 -0.241 0.192 1.287
 -0.233 0.192 1.286
 -0.226 0.192 1.288
 -0.219 0.192 1.291
 -0.212 0.193 1.295
 -0.204 0.193 1.297
 -0.197 0.193 1.301
 -0.19 0.194 1.307
 -0.184 0.195 1.315
 -0.177 0.196 1.325
 -0.171 0.198 1.338
 -0.165 0.2 1.355
 -0.159 0.203 1.375
 -0.153 0.206 1.394
 -0.147 0.209 1.413
 -0.141 0.211 1.43
 -0.133 0.212 1.44
 -0.125 0.213 1.444
 -0.117 0.212 1.442
 -0.108 0.211 1.435
 -0.098 0.209 1.424
 -0.089 0.207 1.41
 -0.08 0.205 1.395
 -0.072 0.203 1.382
 -0.063 0.201 1.371
 -0.055 0.2 1.365
 -0.047 0.2 1.364
 -0.039 0.2 1.366
 -0.031 0.201 1.371
 -0.023 0.202 1.38
 -0.016 0.204 1.389
 -0.008 0.205 1.397
 0 0.206 1.407
 0.008 0.207 1.416
 0.016 0.208 1.422
 0.024 0.209 1.426
 0.033 0.209 1.429
 0.041 0.209 1.43
 0.049 0.21 1.432
 0.058 0.211 1.44
 0.067 0.213 1.453
 0.076 0.215 1.47
 0.086 0.218 1.492
 0.096 0.222 1.514
 0.106 0.225 1.536
 0.117 0.228 1.553
 0.127 0.23 1.569
 0.137 0.231 1.577
 0.146 0.231 1.577
 0.155 0.23 1.572
 0.163 0.229 1.565
 0.171 0.228 1.553
 0.179 0.226 1.542
 0.187 0.225 1.532
 0.194 0.223 1.521
 0.201 0.221 1.508
 0.208 0.219 1.492
 0.213 0.216 1.468
 0.218 0.212 1.442
 0.222 0.207 1.411
 0.224 0.202 1.375
 0.226 0.196 1.335
 0.228 0.192 1.303
 0.23 0.187 1.269
 0.229 0.18 1.223
 0.229 0.175 1.188
 0.228 0.169 1.146
 0.222 0.159 1.081
 0.221 0.154 1.045
 0.222 0.151 1.021
 0.225 0.149 1.008
 0.195 0.125 0.85
 0.157 0.098 0.665
 0.129 0.078 0.532
 0.127 0.075 0.512
 0.127 0.073 0.5
 0.125 0.07 0.477
 0.122 0.067 0.455
 0.12 0.064 0.439
 0.119 0.062 0.423
 0.118 0.06 0.41
 0.114 0.057 0.389
 0.112 0.055 0.373
 0.108 0.052 0.353
 0.106 0.05 0.339
 0.104 0.047 0.323
 0.105 0.047 0.322
 0.109 0.048 0.326
 0.115 0.05 0.337
 0.119 0.051 0.342
 0.125 0.052 0.353
 0.132 0.054 0.365
 0.136 0.055 0.371
 0.139 0.056 0.372
 0.143 0.056 0.374
 0.146 0.056 0.376
 0.146 0.055 0.368
 0.148 0.055 0.367
 0.15 0.055 0.365
 0.153 0.055 0.367
 0.159 0.057 0.375
 0.167 0.059 0.388
 0.177 0.062 0.405
 0.182 0.063 0.41
 0.186 0.063 0.411
 0.186 0.062 0.405
 0.192 0.063 0.41
 0.199 0.065 0.42
 0.202 0.065 0.419
 0.22 0.07 0.448
 0.231 0.072 0.465
 0.243 0.075 0.481
 0.253 0.077 0.493
 0.268 0.081 0.514
 0.281 0.084 0.532
 0.309 0.092 0.578
 0.334 0.098 0.614
 0.351 0.102 0.636
 0.376 0.108 0.672
 0.394 0.112 0.694
 0.413 0.116 0.717
 0.414 0.115 0.709
 -0.346 0.106 0.612
 -0.352 0.109 0.633
 -0.353 0.111 0.644
 -0.357 0.113 0.661
 -0.36 0.116 0.678
 -0.363 0.118 0.694
 -0.365 0.12 0.709
 -0.366 0.122 0.723
 -0.366 0.124 0.735
 -0.366 0.125 0.745
 -0.364 0.126 0.753
 -0.361 0.127 0.76
 -0.358 0.128 0.766
 -0.355 0.128 0.772
 -0.353 0.129 0.779
 -0.351 0.13 0.788
 -0.349 0.132 0.798
 -0.35 0.134 0.813
 -0.351 0.136 0.829
 -0.354 0.14 0.852
 -0.361 0.145 0.883
 -0.369 0.15 0.919
 -0.377 0.156 0.957
 -0.387 0.163 1
 -0.396 0.17 1.044
 -0.404 0.176 1.085
 -0.411 0.182 1.122
 -0.415 0.187 1.158
 -0.418 0.192 1.188
 -0.418 0.195 1.21
 -0.416 0.197 1.228
 -0.412 0.199 1.241
 -0.407 0.201 1.252
 -0.402 0.202 1.262
 -0.397 0.203 1.272
 -0.393 0.205 1.284
 -0.387 0.206 1.293
 -0.382 0.207 1.304
 -0.376 0.208 1.311
 -0.369 0.209 1.319
 -0.362 0.209 1.324
 -0.356 0.21 1.33
 -0.348 0.21 1.333
 -0.34 0.21 1.335
 -0.333 0.21 1.338
 -0.324 0.21 1.336
 -0.314 0.209 1.33
 -0.305 0.207 1.325
 -0.295 0.206 1.318
 -0.285 0.204 1.309
 -0.276 0.203 1.304
 -0.267 0.202 1.3
 -0.259 0.202 1.295
 -0.25 0.201 1.294
 -0.243 0.201 1.297
 -0.235 0.201 1.296
 -0.228 0.201 1.298
 -0.221 0.202 1.302
 -0.214 0.202 1.307
 -0.206 0.202 1.307
 -0.199 0.203 1.312
 -0.192 0.203 1.317
 -0.185 0.204 1.324
 -0.178 0.205 1.333
 -0.172 0.207 1.347
 -0.166 0.21 1.363
 -0.16 0.212 1.382
 -0.154 0.215 1.401
 -0.148 0.218 1.418
 -0.141 0.22 1.434
 -0.134 0.221 1.444
 -0.126 0.222 1.449
 -0.117 0.222 1.447
 -0.108 0.221 1.441
 -0.099 0.219 1.431
 -0.09 0.217 1.417
 -0.081 0.215 1.404
 -0.072 0.213 1.393
 -0.064 0.211 1.385
 -0.055 0.211 1.38
 -0.047 0.21 1.379
 -0.039 0.211 1.381
 -0.032 0.211 1.385
 -0.024 0.212 1.393
 -0.016 0.214 1.401
 -0.008 0.215 1.411
 0 0.216 1.421
 0.008 0.218 1.43
 0.016 0.219 1.436
 0.025 0.219 1.441
 0.033 0.22 1.443
 0.041 0.22 1.444
 0.05 0.22 1.446
 0.059 0.221 1.453
 0.067 0.223 1.465
 0.077 0.225 1.48
 0.086 0.228 1.499
 0.097 0.231 1.519
 0.107 0.234 1.538
 0.117 0.237 1.552
 0.127 0.239 1.566
 0.136 0.24 1.572
 0.146 0.24 1.571
 0.154 0.239 1.566
 0.163 0.238 1.558
 0.17 0.236 1.545
 0.178 0.234 1.533
 0.186 0.233 1.523
 0.193 0.231 1.511
 0.2 0.229 1.499
 0.207 0.227 1.483
 0.212 0.223 1.458
 0.217 0.219 1.431
 0.22 0.214 1.4
 0.223 0.209 1.364
 0.224 0.203 1.324
 0.228 0.199 1.299
 0.228 0.193 1.261
 0.226 0.185 1.208
 0.226 0.18 1.172
 0.224 0.173 1.126
 0.219 0.164 1.069
 0.222 0.161 1.05
 0.221 0.156 1.015
 0.223 0.153 0.995
 0.181 0.121 0.788
 0.151 0.098 0.639
 0.137 0.086 0.563
 0.135 0.083 0.543
 0.134 0.08 0.525
 0.129 0.075 0.493
 0.126 0.072 0.469
 0.125 0.07 0.454
 0.123 0.067 0.436
 0.121 0.065 0.421
 0.117 0.061 0.399
 0.115 0.058 0.381
 0.111 0.055 0.359
 0.108 0.053 0.344
 0.106 0.051 0.33
 0.108 0.051 0.33
 0.111 0.051 0.332
 0.117 0.053 0.342
 0.122 0.054 0.35
 0.128 0.056 0.361
 0.135 0.058 0.375
 0.139 0.059 0.379
 0.143 0.059 0.381
 0.146 0.06 0.382
 0.149 0.06 0.383
 0.148 0.059 0.375
 0.155 0.06 0.385
 0.161 0.062 0.393
 0.166 0.063 0.399
 0.173 0.065 0.409
 0.179 0.066 0.414
 0.181 0.066 0.413
 0.182 0.065 0.408
 0.184 0.065 0.406
 0.187 0.065 0.407
 0.191 0.065 0.408
 0.198 0.067 0.417
 0.202 0.068 0.419
 0.217 0.072 0.443
 0.227 0.074 0.455
 0.24 0.077 0.475
 0.251 0.08 0.488
 0.267 0.084 0.512
 0.279 0.087 0.528
 0.305 0.094 0.569
 0.33 0.101 0.606
 0.348 0.105 0.631
 0.371 0.111 0.663
 0.388 0.114 0.683
 0.409 0.119 0.709
 0.403 0.116 0.688
 -0.344 0.109 0.608
 -0.345 0.111 0.62
 -0.35 0.114 0.639
 -0.354 0.117 0.656
 -0.357 0.119 0.672
 -0.36 0.122 0.688
 -0.362 0.124 0.703
 -0.363 0.126 0.717
 -0.364 0.128 0.729
 -0.363 0.129 0.739
 -0.361 0.13 0.747
 -0.359 0.131 0.754
 -0.356 0.132 0.76
 -0.353 0.132 0.766
 -0.351 0.133 0.774
 -0.348 0.134 0.782
 -0.347 0.136 0.792
 -0.348 0.138 0.807
 -0.349 0.141 0.825
 -0.353 0.145 0.849
 -0.36 0.15 0.881
 -0.369 0.156 0.919
 -0.377 0.162 0.957
 -0.387 0.169 1
 -0.396 0.176 1.043
 -0.404 0.183 1.084
 -0.411 0.189 1.123
 -0.416 0.195 1.159
 -0.419 0.199 1.19
 -0.419 0.203 1.213
 -0.417 0.205 1.231
 -0.413 0.207 1.245
 -0.408 0.209 1.255
 -0.404 0.21 1.265
 -0.399 0.211 1.275
 -0.393 0.213 1.286
 -0.388 0.214 1.295
 -0.383 0.215 1.306
 -0.376 0.216 1.313
 -0.37 0.217 1.32
 -0.363 0.218 1.326
 -0.357 0.219 1.333
 -0.349 0.219 1.335
 -0.341 0.219 1.337
 -0.333 0.219 1.34
 -0.325 0.218 1.338
 -0.315 0.217 1.333
 -0.306 0.216 1.329
 -0.296 0.215 1.322
 -0.287 0.213 1.315
 -0.278 0.212 1.31
 -0.269 0.211 1.307
 -0.26 0.211 1.302
 -0.252 0.21 1.302
 -0.245 0.211 1.306
 -0.237 0.21 1.305
 -0.23 0.21 1.307
 -0.222 0.211 1.312
 -0.215 0.211 1.316
 -0.207 0.211 1.315
 -0.2 0.212 1.32
 -0.193 0.212 1.325
 -0.186 0.213 1.332
 -0.179 0.215 1.341
 -0.173 0.217 1.356
 -0.167 0.219 1.371
 -0.161 0.222 1.389
 -0.155 0.225 1.407
 -0.148 0.227 1.423
 -0.141 0.229 1.437
 -0.134 0.23 1.446
 -0.126 0.231 1.452
 -0.117 0.231 1.45
 -0.108 0.23 1.445
 -0.099 0.228 1.436
 -0.09 0.226 1.424
 -0.081 0.224 1.412
 -0.073 0.223 1.402
 -0.064 0.221 1.395
 -0.056 0.22 1.39
 -0.048 0.22 1.389
 -0.04 0.22 1.39
 -0.032 0.221 1.394
 -0.024 0.222 1.402
 -0.016 0.223 1.411
 -0.008 0.225 1.42
 0 0.226 1.43
 0.008 0.228 1.439
 0.016 0.229 1.444
 0.025 0.229 1.449
 0.033 0.23 1.452
 0.042 0.23 1.453
 0.05 0.23 1.456
 0.059 0.231 1.463
 0.068 0.233 1.473
 0.077 0.235 1.486
 0.087 0.238 1.503
 0.097 0.241 1.52
 0.107 0.243 1.536
 0.117 0.245 1.549
 0.127 0.247 1.56
 0.136 0.248 1.565
 0.145 0.248 1.564
 0.154 0.247 1.558
 0.162 0.245 1.549
 0.169 0.244 1.537
 0.177 0.242 1.525
 0.185 0.24 1.514
 0.192 0.238 1.5
 0.199 0.236 1.487
 0.205 0.233 1.47
 0.21 0.229 1.444
 0.215 0.225 1.418
 0.218 0.22 1.387
 0.221 0.215 1.35
 0.222 0.208 1.308
 0.224 0.203 1.279
 0.224 0.196 1.233
 0.222 0.189 1.187
 0.222 0.183 1.15
 0.221 0.177 1.108
 0.219 0.17 1.066
 0.221 0.166 1.043
 0.213 0.156 0.978
 0.216 0.154 0.966
 0.178 0.123 0.774
 0.153 0.103 0.648
 0.142 0.093 0.586
 0.139 0.089 0.557
 0.138 0.086 0.538
 0.133 0.081 0.506
 0.129 0.077 0.482
 0.128 0.074 0.465
 0.124 0.07 0.441
 0.123 0.068 0.426
 0.119 0.065 0.405
 0.116 0.062 0.387
 0.113 0.059 0.367
 0.111 0.056 0.353
 0.109 0.054 0.34
 0.112 0.054 0.34
 0.114 0.054 0.339
 0.119 0.056 0.349
 0.125 0.058 0.358
 0.131 0.059 0.369
 0.137 0.061 0.378
 0.141 0.062 0.383
 0.143 0.062 0.382
 0.146 0.062 0.383
 0.149 0.062 0.382
 0.151 0.062 0.38
 0.155 0.063 0.385
 0.162 0.065 0.396
 0.162 0.064 0.389
 0.166 0.065 0.392
 0.169 0.065 0.392
 0.175 0.066 0.398
 0.178 0.066 0.398
 0.186 0.068 0.409
 0.19 0.069 0.413
 0.193 0.069 0.412
 0.201 0.071 0.422
 0.204 0.071 0.422
 0.215 0.074 0.439
 0.227 0.077 0.455
 0.237 0.079 0.468
 0.247 0.082 0.481
 0.264 0.086 0.505
 0.277 0.09 0.523
 0.3 0.096 0.559
 0.325 0.103 0.597
 0.345 0.108 0.624
 0.367 0.114 0.654
 0.383 0.118 0.674
 0.403 0.122 0.698
 0.398 0.119 0.68
 -0.339 0.112 0.6
 -0.346 0.115 0.622
 -0.348 0.117 0.634
 -0.351 0.12 0.65
 -0.354 0.123 0.666
 -0.357 0.125 0.681
 -0.359 0.127 0.696
 -0.36 0.129 0.709
 -0.361 0.131 0.722
 -0.36 0.133 0.732
 -0.358 0.134 0.74
 -0.356 0.135 0.747
 -0.353 0.136 0.754
 -0.35 0.136 0.76
 -0.348 0.137 0.767
 -0.345 0.138 0.774
 -0.344 0.14 0.784
 -0.344 0.142 0.799
 -0.346 0.145 0.816
 -0.35 0.149 0.841
 -0.358 0.154 0.874
 -0.367 0.161 0.913
 -0.376 0.167 0.953
 -0.386 0.175 0.996
 -0.395 0.182 1.039
 -0.404 0.189 1.081
 -0.41 0.195 1.12
 -0.415 0.201 1.156
 -0.418 0.206 1.186
 -0.419 0.21 1.211
 -0.417 0.213 1.23
 -0.414 0.215 1.245
 -0.409 0.217 1.256
 -0.405 0.218 1.267
 -0.4 0.22 1.278
 -0.394 0.221 1.288
 -0.389 0.222 1.297
 -0.384 0.224 1.308
 -0.377 0.225 1.314
 -0.37 0.225 1.321
 -0.363 0.226 1.326
 -0.357 0.227 1.333
 -0.349 0.227 1.335
 -0.341 0.227 1.338
 -0.334 0.227 1.34
 -0.325 0.227 1.34
 -0.316 0.225 1.335
 -0.307 0.225 1.332
 -0.297 0.223 1.326
 -0.288 0.222 1.319
 -0.279 0.221 1.315
 -0.27 0.22 1.312
 -0.261 0.219 1.308
 -0.253 0.219 1.308
 -0.246 0.219 1.312
 -0.238 0.219 1.311
 -0.231 0.219 1.312
 -0.223 0.22 1.317
 -0.216 0.22 1.321
 -0.208 0.22 1.32
 -0.201 0.221 1.327
 -0.194 0.221 1.331
 -0.187 0.222 1.338
 -0.18 0.223 1.346
 -0.174 0.226 1.361
 -0.168 0.228 1.374
 -0.162 0.231 1.392
 -0.155 0.233 1.409
 -0.149 0.236 1.425
 -0.141 0.238 1.437
 -0.134 0.239 1.447
 -0.126 0.24 1.452
 -0.117 0.24 1.452
 -0.109 0.239 1.448
 -0.1 0.238 1.441
 -0.091 0.236 1.431
 -0.082 0.234 1.42
 -0.073 0.232 1.411
 -0.065 0.231 1.404
 -0.056 0.23 1.4
 -0.048 0.23 1.397
 -0.04 0.23 1.398
 -0.032 0.23 1.4
 -0.024 0.231 1.408
 -0.016 0.233 1.416
 -0.008 0.234 1.427
 0 0.236 1.436
 0.008 0.237 1.446
 0.017 0.238 1.452
 0.025 0.239 1.456
 0.034 0.239 1.458
 0.042 0.24 1.46
 0.051 0.24 1.462
 0.059 0.241 1.466
 0.068 0.242 1.475
 0.077 0.244 1.487
 0.087 0.246 1.5
 0.096 0.249 1.515
 0.106 0.251 1.53
 0.116 0.253 1.541
 0.126 0.255 1.551
 0.135 0.256 1.555
 0.144 0.256 1.555
 0.153 0.254 1.548
 0.161 0.253 1.54
 0.169 0.251 1.527
 0.176 0.249 1.515
 0.183 0.247 1.502
 0.19 0.245 1.487
 0.197 0.242 1.472
 0.203 0.239 1.454
 0.208 0.236 1.43
 0.213 0.231 1.403
 0.216 0.226 1.372
 0.218 0.22 1.333
 0.219 0.213 1.291
 0.221 0.208 1.258
 0.219 0.199 1.208
 0.219 0.193 1.168
 0.22 0.188 1.137
 0.22 0.182 1.102
 0.221 0.178 1.074
 0.219 0.171 1.035
 0.21 0.159 0.962
 0.205 0.152 0.915
 0.179 0.128 0.775
 0.164 0.115 0.695
 0.151 0.103 0.622
 0.147 0.098 0.591
 0.143 0.093 0.56
 0.138 0.087 0.525
 0.133 0.082 0.496
 0.131 0.079 0.475
 0.126 0.074 0.449
 0.125 0.072 0.434
 0.121 0.068 0.411
 0.119 0.065 0.394
 0.115 0.062 0.373
 0.113 0.06 0.359
 0.112 0.058 0.349
 0.114 0.058 0.347
 0.117 0.058 0.348
 0.122 0.06 0.358
 0.128 0.062 0.368
 0.134 0.063 0.377
 0.139 0.065 0.385
 0.142 0.065 0.386
 0.144 0.065 0.382
 0.146 0.064 0.381
 0.15 0.065 0.385
 0.152 0.065 0.384
 0.158 0.067 0.392
 0.167 0.069 0.407
 0.168 0.069 0.403
 0.171 0.069 0.402
 0.174 0.069 0.403
 0.177 0.069 0.404
 0.18 0.07 0.404
 0.189 0.072 0.416
 0.191 0.072 0.414
 0.194 0.072 0.413
 0.201 0.073 0.422
 0.204 0.073 0.421
 0.214 0.076 0.435
 0.224 0.079 0.449
 0.234 0.081 0.461
 0.244 0.084 0.473
 0.261 0.088 0.499
 0.274 0.092 0.518
 0.297 0.099 0.553
 0.32 0.105 0.587
 0.34 0.111 0.615
 0.36 0.116 0.641
 0.376 0.119 0.659
 0.385 0.121 0.666
 0.37 0.115 0.63
 -0.336 0.115 0.593
 -0.343 0.119 0.616
 -0.345 0.121 0.628
 -0.349 0.123 0.645
 -0.352 0.126 0.661
 -0.354 0.128 0.675
 -0.356 0.131 0.69
 -0.357 0.133 0.703
 -0.357 0.135 0.714
 -0.357 0.136 0.725
 -0.355 0.137 0.734
 -0.353 0.138 0.74
 -0.35 0.139 0.747
 -0.348 0.14 0.753
 -0.345 0.141 0.76
 -0.342 0.142 0.766
 -0.34 0.143 0.775
 -0.341 0.145 0.79
 -0.343 0.148 0.808
 -0.347 0.153 0.833
 -0.355 0.158 0.866
 -0.364 0.165 0.905
 -0.374 0.172 0.946
 -0.384 0.18 0.99
 -0.393 0.187 1.033
 -0.402 0.195 1.075
 -0.408 0.201 1.114
 -0.414 0.207 1.15
 -0.417 0.213 1.181
 -0.417 0.217 1.206
 -0.416 0.22 1.226
 -0.413 0.222 1.242
 -0.409 0.224 1.254
 -0.404 0.226 1.266
 -0.4 0.227 1.277
 -0.394 0.229 1.288
 -0.389 0.23 1.297
 -0.384 0.232 1.308
 -0.377 0.233 1.314
 -0.37 0.233 1.32
 -0.364 0.234 1.325
 -0.357 0.235 1.332
 -0.349 0.235 1.335
 -0.342 0.235 1.338
 -0.334 0.235 1.34
 -0.326 0.235 1.34
 -0.316 0.234 1.336
 -0.307 0.233 1.333
 -0.298 0.232 1.328
 -0.288 0.23 1.321
 -0.279 0.229 1.317
 -0.27 0.228 1.312
 -0.262 0.227 1.309
 -0.254 0.227 1.31
 -0.247 0.228 1.313
 -0.239 0.228 1.314
 -0.231 0.228 1.317
 -0.224 0.228 1.32
 -0.217 0.229 1.324
 -0.209 0.228 1.324
 -0.202 0.229 1.329
 -0.195 0.23 1.334
 -0.188 0.231 1.341
 -0.181 0.232 1.348
 -0.175 0.234 1.364
 -0.168 0.236 1.377
 -0.162 0.239 1.393
 -0.155 0.242 1.41
 -0.149 0.244 1.425
 -0.141 0.246 1.434
 -0.134 0.247 1.445
 -0.126 0.248 1.45
 -0.117 0.248 1.451
 -0.109 0.247 1.446
 -0.1 0.246 1.441
 -0.091 0.244 1.431
 -0.082 0.243 1.422
 -0.073 0.241 1.414
 -0.065 0.24 1.409
 -0.056 0.239 1.405
 -0.048 0.239 1.402
 -0.04 0.239 1.403
 -0.032 0.239 1.405
 -0.024 0.24 1.411
 -0.016 0.241 1.418
 -0.008 0.243 1.428
 0 0.245 1.438
 0.008 0.246 1.448
 0.017 0.247 1.454
 0.025 0.248 1.459
 0.034 0.249 1.461
 0.042 0.249 1.463
 0.051 0.249 1.464
 0.059 0.25 1.468
 0.068 0.251 1.475
 0.077 0.253 1.485
 0.087 0.255 1.497
 0.096 0.257 1.51
 0.106 0.259 1.522
 0.116 0.261 1.533
 0.125 0.262 1.54
 0.134 0.263 1.543
 0.143 0.263 1.543
 0.152 0.262 1.536
 0.16 0.26 1.527
 0.167 0.258 1.515
 0.175 0.256 1.504
 0.182 0.254 1.49
 0.189 0.251 1.473
 0.195 0.249 1.458
 0.201 0.246 1.439
 0.206 0.241 1.414
 0.21 0.236 1.383
 0.213 0.231 1.352
 0.214 0.224 1.31
 0.215 0.217 1.268
 0.216 0.21 1.228
 0.214 0.202 1.18
 0.216 0.197 1.151
 0.218 0.193 1.125
 0.217 0.186 1.086
 0.217 0.181 1.055
 0.211 0.171 0.996
 0.195 0.153 0.894
 0.187 0.143 0.833
 0.178 0.132 0.771
 0.167 0.121 0.706
 0.157 0.111 0.645
 0.151 0.104 0.604
 0.145 0.098 0.568
 0.139 0.091 0.529
 0.134 0.086 0.499
 0.132 0.082 0.479
 0.128 0.078 0.455
 0.127 0.076 0.441
 0.123 0.072 0.418
 0.12 0.069 0.399
 0.117 0.065 0.379
 0.115 0.063 0.365
 0.115 0.061 0.356
 0.116 0.061 0.354
 0.12 0.062 0.358
 0.126 0.064 0.369
 0.132 0.066 0.378
 0.138 0.068 0.388
 0.143 0.069 0.395
 0.146 0.069 0.395
 0.147 0.069 0.392
 0.15 0.069 0.392
 0.153 0.069 0.391
 0.156 0.069 0.392
 0.161 0.07 0.399
 0.166 0.072 0.405
 0.167 0.071 0.4
 0.17 0.071 0.398
 0.173 0.071 0.4
 0.176 0.071 0.399
 0.179 0.071 0.4
 0.186 0.073 0.41
 0.19 0.074 0.411
 0.19 0.073 0.405
 0.193 0.073 0.404
 0.198 0.074 0.409
 0.206 0.076 0.419
 0.216 0.079 0.431
 0.228 0.082 0.448
 0.242 0.086 0.47
 0.258 0.091 0.494
 0.274 0.095 0.516
 0.293 0.101 0.544
 0.314 0.107 0.575
 0.333 0.112 0.601
 0.35 0.117 0.622
 0.365 0.12 0.639
 0.387 0.126 0.668
 0.396 0.127 0.674
 -0.335 0.118 0.59
 -0.339 0.121 0.608
 -0.342 0.124 0.622
 -0.346 0.126 0.638
 -0.349 0.129 0.654
 -0.351 0.132 0.669
 -0.353 0.134 0.683
 -0.354 0.136 0.696
 -0.354 0.138 0.708
 -0.354 0.14 0.718
 -0.353 0.141 0.727
 -0.35 0.142 0.734
 -0.348 0.143 0.74
 -0.345 0.144 0.746
 -0.342 0.144 0.752
 -0.339 0.145 0.758
 -0.337 0.146 0.766
 -0.337 0.148 0.779
 -0.339 0.152 0.797
 -0.343 0.156 0.822
 -0.351 0.162 0.856
 -0.36 0.169 0.895
 -0.37 0.177 0.936
 -0.381 0.184 0.98
 -0.39 0.192 1.024
 -0.399 0.2 1.066
 -0.405 0.207 1.105
 -0.411 0.213 1.14
 -0.414 0.218 1.172
 -0.415 0.223 1.197
 -0.414 0.226 1.219
 -0.412 0.229 1.236
 -0.408 0.231 1.25
 -0.404 0.233 1.262
 -0.399 0.235 1.275
 -0.394 0.237 1.285
 -0.389 0.238 1.296
 -0.383 0.24 1.306
 -0.377 0.24 1.312
 -0.371 0.241 1.319
 -0.364 0.242 1.326
 -0.357 0.243 1.332
 -0.349 0.243 1.335
 -0.342 0.243 1.338
 -0.334 0.243 1.339
 -0.325 0.243 1.338
 -0.316 0.242 1.335
 -0.307 0.241 1.333
 -0.298 0.24 1.328
 -0.289 0.238 1.322
 -0.28 0.237 1.317
 -0.271 0.236 1.313
 -0.262 0.235 1.309
 -0.254 0.235 1.31
 -0.247 0.236 1.315
 -0.239 0.236 1.315
 -0.232 0.236 1.318
 -0.224 0.236 1.321
 -0.217 0.237 1.325
 -0.209 0.237 1.326
 -0.202 0.238 1.331
 -0.195 0.238 1.336
 -0.188 0.239 1.343
 -0.181 0.24 1.349
 -0.174 0.242 1.362
 -0.168 0.244 1.374
 -0.161 0.247 1.389
 -0.155 0.249 1.405
 -0.148 0.252 1.42
 -0.141 0.253 1.429
 -0.133 0.255 1.44
 -0.125 0.256 1.446
 -0.117 0.256 1.447
 -0.108 0.255 1.442
 -0.1 0.254 1.438
 -0.091 0.253 1.43
 -0.082 0.251 1.422
 -0.073 0.25 1.415
 -0.065 0.249 1.411
 -0.056 0.248 1.406
 -0.048 0.248 1.403
 -0.04 0.248 1.404
 -0.032 0.248 1.405
 -0.024 0.249 1.411
 -0.016 0.25 1.419
 -0.008 0.252 1.429
 0 0.254 1.44
 0.008 0.255 1.45
 0.017 0.256 1.455
 0.025 0.257 1.46
 0.034 0.257 1.461
 0.042 0.257 1.462
 0.051 0.257 1.462
 0.059 0.258 1.465
 0.068 0.259 1.472
 0.077 0.261 1.481
 0.086 0.263 1.492
 0.096 0.265 1.504
 0.106 0.267 1.515
 0.115 0.268 1.524
 0.124 0.27 1.53
 0.134 0.27 1.532
 0.143 0.27 1.532
 0.151 0.269 1.525
 0.159 0.267 1.515
 0.166 0.265 1.504
 0.174 0.263 1.493
 0.181 0.261 1.478
 0.187 0.258 1.459
 0.193 0.255 1.441
 0.199 0.251 1.421
 0.203 0.246 1.393
 0.207 0.24 1.36
 0.209 0.235 1.326
 0.21 0.227 1.28
 0.21 0.219 1.235
 0.21 0.211 1.193
 0.209 0.204 1.151
 0.21 0.198 1.117
 0.21 0.192 1.084
 0.206 0.182 1.028
 0.202 0.174 0.982
 0.198 0.166 0.933
 0.188 0.153 0.861
 0.182 0.144 0.809
 0.177 0.136 0.767
 0.168 0.126 0.707
 0.157 0.115 0.644
 0.15 0.107 0.602
 0.144 0.1 0.561
 0.137 0.093 0.521
 0.134 0.088 0.497
 0.133 0.086 0.484
 0.13 0.082 0.462
 0.13 0.08 0.45
 0.127 0.077 0.431
 0.124 0.073 0.41
 0.121 0.07 0.392
 0.119 0.068 0.378
 0.119 0.066 0.371
 0.121 0.066 0.369
 0.125 0.067 0.374
 0.131 0.069 0.382
 0.136 0.071 0.391
 0.142 0.072 0.398
 0.145 0.073 0.401
 0.147 0.072 0.399
 0.149 0.072 0.395
 0.15 0.071 0.391
 0.152 0.071 0.39
 0.156 0.072 0.392
 0.16 0.073 0.397
 0.166 0.074 0.403
 0.169 0.074 0.403
 0.171 0.074 0.401
 0.174 0.074 0.401
 0.176 0.074 0.399
 0.179 0.074 0.399
 0.185 0.076 0.407
 0.19 0.076 0.41
 0.189 0.075 0.403
 0.193 0.076 0.404
 0.197 0.076 0.406
 0.202 0.077 0.409
 0.212 0.08 0.423
 0.225 0.084 0.442
 0.238 0.088 0.461
 0.256 0.093 0.489
 0.273 0.098 0.514
 0.291 0.104 0.54
 0.311 0.11 0.569
 0.33 0.115 0.594
 0.344 0.119 0.611
 0.359 0.122 0.628
 0.382 0.129 0.66
 0.391 0.13 0.665
 -0.332 0.121 0.584
 -0.333 0.123 0.595
 -0.339 0.126 0.615
 -0.342 0.129 0.631
 -0.345 0.132 0.647
 -0.347 0.135 0.661
 -0.349 0.137 0.675
 -0.35 0.139 0.688
 -0.351 0.141 0.699
 -0.35 0.143 0.709
 -0.349 0.144 0.719
 -0.347 0.145 0.726
 -0.344 0.146 0.732
 -0.341 0.147 0.738
 -0.338 0.147 0.743
 -0.335 0.148 0.748
 -0.333 0.149 0.756
 -0.333 0.151 0.769
 -0.335 0.155 0.787
 -0.339 0.159 0.811
 -0.347 0.165 0.844
 -0.356 0.172 0.882
 -0.366 0.18 0.925
 -0.377 0.189 0.969
 -0.387 0.197 1.014
 -0.395 0.204 1.055
 -0.402 0.212 1.094
 -0.407 0.218 1.129
 -0.41 0.224 1.16
 -0.411 0.228 1.186
 -0.411 0.232 1.209
 -0.409 0.235 1.228
 -0.406 0.238 1.244
 -0.402 0.24 1.257
 -0.398 0.242 1.271
 -0.393 0.244 1.28
 -0.388 0.245 1.291
 -0.382 0.247 1.301
 -0.376 0.248 1.309
 -0.37 0.249 1.316
 -0.364 0.25 1.323
 -0.356 0.25 1.328
 -0.349 0.251 1.332
 -0.341 0.251 1.335
 -0.334 0.251 1.337
 -0.325 0.251 1.337
 -0.316 0.25 1.334
 -0.308 0.249 1.333
 -0.298 0.248 1.328
 -0.289 0.247 1.322
 -0.28 0.245 1.316
 -0.27 0.244 1.311
 -0.262 0.243 1.307
 -0.254 0.243 1.307
 -0.246 0.243 1.31
 -0.239 0.243 1.311
 -0.231 0.243 1.315
 -0.224 0.244 1.318
 -0.217 0.244 1.322
 -0.209 0.245 1.325
 -0.202 0.245 1.33
 -0.195 0.246 1.334
 -0.188 0.247 1.34
 -0.18 0.248 1.346
 -0.174 0.25 1.357
 -0.167 0.251 1.368
 -0.161 0.254 1.381
 -0.154 0.256 1.397
 -0.147 0.259 1.412
 -0.14 0.261 1.422
 -0.133 0.263 1.433
 -0.125 0.264 1.44
 -0.117 0.264 1.441
 -0.108 0.263 1.437
 -0.099 0.262 1.432
 -0.09 0.261 1.426
 -0.082 0.259 1.418
 -0.073 0.258 1.412
 -0.065 0.257 1.408
 -0.056 0.256 1.404
 -0.048 0.256 1.402
 -0.04 0.256 1.402
 -0.032 0.256 1.403
 -0.024 0.257 1.409
 -0.016 0.258 1.417
 -0.007 0.26 1.426
 0 0.262 1.436
 0.008 0.263 1.446
 0.017 0.264 1.452
 0.025 0.265 1.457
 0.034 0.266 1.459
 0.042 0.265 1.458
 0.051 0.265 1.458
 0.059 0.266 1.459
 0.068 0.266 1.464
 0.077 0.268 1.472
 0.086 0.27 1.483
 0.095 0.272 1.493
 0.105 0.274 1.504
 0.114 0.275 1.512
 0.123 0.276 1.517
 0.132 0.276 1.515
 0.141 0.276 1.515
 0.149 0.275 1.506
 0.157 0.273 1.497
 0.165 0.271 1.486
 0.172 0.27 1.478
 0.179 0.267 1.464
 0.186 0.264 1.446
 0.192 0.261 1.427
 0.197 0.256 1.404
 0.2 0.25 1.37
 0.203 0.244 1.334
 0.205 0.237 1.296
 0.204 0.228 1.244
 0.203 0.219 1.194
 0.203 0.211 1.152
 0.202 0.204 1.112
 0.202 0.197 1.076
 0.202 0.191 1.04
 0.198 0.181 0.989
 0.192 0.171 0.933
 0.188 0.163 0.885
 0.182 0.153 0.833
 0.178 0.145 0.79
 0.173 0.137 0.747
 0.164 0.127 0.691
 0.154 0.116 0.633
 0.147 0.108 0.589
 0.14 0.1 0.545
 0.134 0.094 0.511
 0.132 0.09 0.488
 0.132 0.088 0.478
 0.13 0.085 0.459
 0.13 0.083 0.45
 0.128 0.08 0.434
 0.126 0.077 0.416
 0.123 0.074 0.398
 0.122 0.072 0.387
 0.122 0.071 0.38
 0.124 0.07 0.378
 0.13 0.072 0.387
 0.135 0.074 0.394
 0.139 0.074 0.397
 0.142 0.075 0.399
 0.146 0.075 0.401
 0.147 0.075 0.399
 0.148 0.074 0.393
 0.151 0.074 0.394
 0.155 0.075 0.396
 0.158 0.075 0.397
 0.16 0.075 0.395
 0.164 0.076 0.399
 0.167 0.076 0.397
 0.168 0.075 0.395
 0.17 0.075 0.393
 0.173 0.075 0.391
 0.178 0.076 0.396
 0.184 0.078 0.404
 0.187 0.078 0.404
 0.188 0.077 0.4
 0.193 0.078 0.404
 0.196 0.078 0.403
 0.201 0.079 0.406
 0.212 0.083 0.422
 0.223 0.086 0.437
 0.235 0.089 0.454
 0.251 0.095 0.479
 0.268 0.1 0.504
 0.285 0.105 0.528
 0.305 0.111 0.556
 0.323 0.116 0.581
 0.339 0.121 0.6
 0.352 0.124 0.616
 0.341 0.119 0.587
 0.381 0.131 0.647
 -0.325 0.122 0.571
 -0.329 0.125 0.588
 -0.335 0.129 0.608
 -0.339 0.132 0.624
 -0.342 0.135 0.64
 -0.344 0.138 0.654
 -0.346 0.14 0.668
 -0.347 0.142 0.68
 -0.347 0.144 0.692
 -0.347 0.146 0.702
 -0.346 0.147 0.711
 -0.344 0.148 0.718
 -0.341 0.149 0.724
 -0.338 0.15 0.729
 -0.335 0.151 0.734
 -0.331 0.151 0.739
 -0.329 0.152 0.747
 -0.329 0.155 0.76
 -0.331 0.158 0.776
 -0.335 0.162 0.8
 -0.342 0.168 0.832
 -0.351 0.175 0.869
 -0.362 0.184 0.912
 -0.373 0.192 0.958
 -0.383 0.201 1.004
 -0.391 0.209 1.044
 -0.399 0.216 1.084
 -0.403 0.223 1.117
 -0.407 0.229 1.149
 -0.408 0.233 1.175
 -0.408 0.238 1.2
 -0.407 0.241 1.22
 -0.404 0.244 1.237
 -0.401 0.247 1.251
 -0.397 0.249 1.266
 -0.392 0.251 1.277
 -0.388 0.253 1.289
 -0.382 0.254 1.299
 -0.376 0.256 1.308
 -0.37 0.257 1.315
 -0.363 0.258 1.321
 -0.356 0.258 1.326
 -0.349 0.259 1.33
 -0.341 0.259 1.333
 -0.333 0.259 1.334
 -0.325 0.258 1.333
 -0.316 0.257 1.331
 -0.307 0.257 1.329
 -0.298 0.256 1.325
 -0.288 0.254 1.318
 -0.279 0.253 1.313
 -0.27 0.251 1.307
 -0.261 0.25 1.302
 -0.253 0.25 1.303
 -0.246 0.25 1.305
 -0.238 0.25 1.306
 -0.231 0.251 1.311
 -0.224 0.251 1.314
 -0.216 0.252 1.319
 -0.209 0.252 1.322
 -0.202 0.253 1.327
 -0.195 0.253 1.332
 -0.187 0.254 1.336
 -0.18 0.254 1.338
 -0.173 0.256 1.347
 -0.166 0.257 1.356
 -0.159 0.26 1.369
 -0.153 0.262 1.385
 -0.147 0.266 1.402
 -0.139 0.267 1.413
 -0.132 0.269 1.424
 -0.124 0.27 1.429
 -0.116 0.27 1.428
 -0.107 0.269 1.425
 -0.098 0.268 1.421
 -0.09 0.267 1.416
 -0.081 0.266 1.409
 -0.073 0.265 1.406
 -0.065 0.264 1.403
 -0.056 0.264 1.399
 -0.048 0.263 1.398
 -0.04 0.264 1.399
 -0.032 0.264 1.401
 -0.024 0.265 1.406
 -0.016 0.266 1.413
 -0.007 0.267 1.421
 0 0.269 1.431
 0.008 0.271 1.44
 0.017 0.272 1.446
 0.025 0.273 1.452
 0.034 0.273 1.454
 0.042 0.273 1.453
 0.051 0.273 1.452
 0.059 0.273 1.453
 0.068 0.274 1.457
 0.076 0.275 1.463
 0.086 0.277 1.473
 0.095 0.279 1.481
 0.104 0.28 1.49
 0.113 0.282 1.498
 0.122 0.283 1.502
 0.131 0.282 1.5
 0.14 0.282 1.498
 0.148 0.28 1.489
 0.155 0.279 1.48
 0.163 0.277 1.468
 0.171 0.276 1.462
 0.178 0.273 1.449
 0.184 0.27 1.432
 0.19 0.266 1.411
 0.195 0.262 1.387
 0.197 0.254 1.348
 0.199 0.247 1.306
 0.2 0.239 1.265
 0.199 0.229 1.212
 0.197 0.219 1.16
 0.197 0.211 1.116
 0.196 0.203 1.075
 0.195 0.196 1.036
 0.193 0.188 0.995
 0.189 0.178 0.942
 0.184 0.168 0.889
 0.181 0.161 0.85
 0.175 0.152 0.799
 0.172 0.145 0.765
 0.168 0.138 0.727
 0.161 0.129 0.678
 0.152 0.119 0.625
 0.147 0.111 0.585
 0.139 0.103 0.541
 0.133 0.097 0.507
 0.13 0.092 0.484
 0.13 0.09 0.472
 0.129 0.087 0.457
 0.129 0.086 0.448
 0.129 0.084 0.437
 0.127 0.081 0.421
 0.124 0.077 0.402
 0.123 0.075 0.39
 0.123 0.073 0.382
 0.125 0.073 0.379
 0.13 0.075 0.388
 0.135 0.076 0.395
 0.139 0.077 0.398
 0.142 0.077 0.4
 0.145 0.078 0.4
 0.147 0.077 0.397
 0.148 0.076 0.392
 0.15 0.076 0.392
 0.155 0.077 0.397
 0.158 0.078 0.398
 0.161 0.078 0.398
 0.166 0.079 0.402
 0.17 0.08 0.405
 0.172 0.079 0.402
 0.174 0.079 0.4
 0.175 0.078 0.396
 0.179 0.079 0.398
 0.181 0.079 0.397
 0.184 0.079 0.396
 0.186 0.079 0.394
 0.19 0.08 0.397
 0.195 0.08 0.4
 0.201 0.082 0.407
 0.211 0.085 0.42
 0.222 0.088 0.436
 0.235 0.092 0.453
 0.25 0.097 0.476
 0.266 0.102 0.5
 0.284 0.108 0.526
 0.302 0.114 0.551
 0.32 0.119 0.575
 0.333 0.123 0.59
 0.346 0.126 0.604
 0.362 0.13 0.622
 0.366 0.13 0.62
 -0.321 0.124 0.564
 -0.33 0.13 0.589
 -0.332 0.132 0.601
 -0.335 0.135 0.616
 -0.339 0.138 0.633
 -0.341 0.141 0.648
 -0.343 0.143 0.661
 -0.344 0.145 0.674
 -0.344 0.147 0.685
 -0.343 0.149 0.694
 -0.342 0.151 0.703
 -0.34 0.151 0.71
 -0.337 0.152 0.715
 -0.334 0.153 0.72
 -0.331 0.153 0.725
 -0.328 0.154 0.731
 -0.326 0.156 0.74
 -0.326 0.158 0.753
 -0.328 0.161 0.769
 -0.332 0.166 0.792
 -0.339 0.172 0.823
 -0.347 0.179 0.858
 -0.357 0.187 0.9
 -0.368 0.196 0.945
 -0.379 0.205 0.991
 -0.387 0.213 1.032
 -0.395 0.221 1.074
 -0.4 0.228 1.108
 -0.404 0.234 1.141
 -0.406 0.239 1.168
 -0.406 0.244 1.193
 -0.405 0.247 1.212
 -0.402 0.251 1.23
 -0.399 0.253 1.244
 -0.395 0.255 1.258
 -0.391 0.258 1.27
 -0.386 0.26 1.283
 -0.381 0.261 1.294
 -0.375 0.263 1.303
 -0.369 0.264 1.311
 -0.363 0.265 1.318
 -0.355 0.266 1.322
 -0.348 0.266 1.327
 -0.34 0.266 1.328
 -0.332 0.266 1.33
 -0.324 0.265 1.329
 -0.315 0.265 1.328
 -0.306 0.264 1.325
 -0.297 0.263 1.322
 -0.288 0.261 1.315
 -0.278 0.26 1.309
 -0.269 0.258 1.303
 -0.26 0.257 1.298
 -0.253 0.257 1.299
 -0.245 0.257 1.301
 -0.238 0.257 1.304
 -0.23 0.258 1.307
 -0.223 0.258 1.311
 -0.216 0.259 1.314
 -0.209 0.259 1.318
 -0.201 0.26 1.322
 -0.194 0.26 1.326
 -0.187 0.261 1.33
 -0.179 0.261 1.331
 -0.172 0.262 1.337
 -0.164 0.263 1.344
 -0.158 0.265 1.356
 -0.151 0.268 1.37
 -0.145 0.271 1.387
 -0.138 0.273 1.399
 -0.131 0.275 1.41
 -0.123 0.276 1.416
 -0.115 0.276 1.415
 -0.106 0.275 1.413
 -0.098 0.275 1.41
 -0.089 0.274 1.407
 -0.081 0.273 1.401
 -0.072 0.272 1.397
 -0.064 0.271 1.395
 -0.056 0.271 1.392
 -0.048 0.27 1.392
 -0.04 0.271 1.394
 -0.032 0.272 1.398
 -0.024 0.272 1.402
 -0.016 0.273 1.408
 -0.007 0.275 1.416
 0 0.276 1.424
 0.008 0.278 1.432
 0.017 0.279 1.438
 0.025 0.28 1.443
 0.034 0.281 1.447
 0.042 0.281 1.446
 0.05 0.281 1.446
 0.059 0.281 1.448
 0.067 0.281 1.451
 0.076 0.282 1.456
 0.085 0.284 1.464
 0.094 0.286 1.472
 0.103 0.287 1.478
 0.112 0.288 1.485
 0.121 0.289 1.489
 0.13 0.288 1.484
 0.138 0.288 1.48
 0.146 0.286 1.47
 0.153 0.284 1.459
 0.161 0.281 1.447
 0.168 0.28 1.442
 0.176 0.278 1.43
 0.182 0.275 1.415
 0.188 0.272 1.396
 0.192 0.267 1.37
 0.195 0.259 1.328
 0.196 0.25 1.283
 0.196 0.241 1.238
 0.194 0.231 1.182
 0.192 0.22 1.129
 0.191 0.211 1.083
 0.19 0.203 1.042
 0.188 0.195 0.996
 0.185 0.186 0.949
 0.18 0.175 0.896
 0.176 0.166 0.85
 0.173 0.159 0.812
 0.17 0.152 0.774
 0.166 0.145 0.739
 0.162 0.137 0.699
 0.155 0.127 0.649
 0.148 0.119 0.605
 0.141 0.111 0.563
 0.135 0.103 0.526
 0.13 0.097 0.495
 0.129 0.094 0.476
 0.129 0.092 0.467
 0.129 0.09 0.455
 0.129 0.088 0.446
 0.129 0.086 0.435
 0.127 0.083 0.421
 0.125 0.08 0.402
 0.123 0.077 0.39
 0.123 0.076 0.382
 0.125 0.075 0.38
 0.13 0.077 0.385
 0.134 0.078 0.391
 0.137 0.078 0.392
 0.141 0.079 0.395
 0.144 0.079 0.396
 0.146 0.079 0.394
 0.147 0.078 0.389
 0.15 0.079 0.391
 0.154 0.079 0.393
 0.158 0.08 0.395
 0.16 0.08 0.394
 0.165 0.081 0.399
 0.168 0.082 0.401
 0.17 0.081 0.398
 0.171 0.081 0.394
 0.173 0.08 0.391
 0.177 0.081 0.393
 0.179 0.08 0.391
 0.182 0.081 0.391
 0.183 0.08 0.387
 0.188 0.081 0.391
 0.192 0.082 0.395
 0.199 0.084 0.401
 0.21 0.087 0.417
 0.222 0.091 0.435
 0.235 0.095 0.453
 0.249 0.1 0.474
 0.266 0.106 0.499
 0.282 0.111 0.521
 0.3 0.116 0.546
 0.317 0.122 0.569
 0.329 0.125 0.582
 0.342 0.128 0.596
 0.353 0.131 0.607
 0.355 0.13 0.601
 -0.323 0.129 0.566
 -0.323 0.13 0.574
 -0.328 0.134 0.593
 -0.331 0.137 0.609
 -0.335 0.14 0.624
 -0.337 0.143 0.639
 -0.339 0.146 0.652
 -0.34 0.148 0.665
 -0.341 0.15 0.677
 -0.34 0.152 0.686
 -0.339 0.153 0.695
 -0.336 0.154 0.701
 -0.334 0.155 0.707
 -0.331 0.156 0.712
 -0.328 0.157 0.717
 -0.325 0.157 0.723
 -0.323 0.159 0.732
 -0.323 0.161 0.744
 -0.325 0.164 0.76
 -0.328 0.169 0.782
 -0.334 0.175 0.811
 -0.342 0.182 0.846
 -0.352 0.19 0.886
 -0.363 0.199 0.931
 -0.374 0.209 0.978
 -0.383 0.217 1.02
 -0.391 0.226 1.062
 -0.397 0.233 1.097
 -0.401 0.239 1.131
 -0.403 0.245 1.159
 -0.404 0.25 1.184
 -0.402 0.253 1.204
 -0.4 0.257 1.222
 -0.397 0.259 1.236
 -0.393 0.262 1.25
 -0.389 0.264 1.263
 -0.384 0.266 1.275
 -0.379 0.268 1.287
 -0.374 0.27 1.297
 -0.368 0.271 1.306
 -0.362 0.272 1.313
 -0.355 0.273 1.319
 -0.347 0.274 1.323
 -0.339 0.273 1.324
 -0.331 0.273 1.324
 -0.323 0.272 1.323
 -0.314 0.272 1.321
 -0.305 0.271 1.318
 -0.296 0.27 1.315
 -0.287 0.268 1.309
 -0.278 0.267 1.304
 -0.268 0.265 1.298
 -0.26 0.264 1.294
 -0.252 0.264 1.294
 -0.244 0.264 1.297
 -0.237 0.264 1.298
 -0.23 0.265 1.301
 -0.222 0.265 1.304
 -0.214 0.265 1.305
 -0.207 0.266 1.31
 -0.2 0.266 1.312
 -0.192 0.266 1.315
 -0.185 0.267 1.318
 -0.177 0.267 1.32
 -0.17 0.267 1.324
 -0.163 0.268 1.33
 -0.156 0.271 1.341
 -0.15 0.273 1.356
 -0.144 0.277 1.373
 -0.137 0.279 1.384
 -0.13 0.281 1.395
 -0.122 0.282 1.402
 -0.114 0.282 1.4
 -0.105 0.281 1.4
 -0.097 0.281 1.4
 -0.089 0.281 1.399
 -0.08 0.28 1.394
 -0.072 0.279 1.392
 -0.064 0.279 1.389
 -0.056 0.278 1.387
 -0.048 0.278 1.386
 -0.04 0.278 1.389
 -0.032 0.279 1.393
 -0.024 0.28 1.398
 -0.015 0.281 1.404
 -0.007 0.282 1.411
 0 0.284 1.419
 0.008 0.285 1.426
 0.017 0.286 1.432
 0.025 0.287 1.437
 0.033 0.288 1.44
 0.042 0.288 1.441
 0.05 0.288 1.441
 0.059 0.289 1.443
 0.067 0.289 1.446
 0.076 0.29 1.45
 0.085 0.291 1.457
 0.094 0.293 1.463
 0.103 0.294 1.469
 0.112 0.295 1.474
 0.121 0.296 1.479
 0.129 0.295 1.474
 0.137 0.294 1.468
 0.145 0.292 1.457
 0.152 0.29 1.445
 0.159 0.287 1.43
 0.166 0.285 1.423
 0.173 0.283 1.41
 0.18 0.28 1.396
 0.185 0.276 1.377
 0.189 0.27 1.347
 0.191 0.261 1.301
 0.192 0.252 1.255
 0.191 0.242 1.205
 0.189 0.231 1.147
 0.187 0.22 1.094
 0.185 0.211 1.049
 0.184 0.202 1.005
 0.181 0.193 0.96
 0.178 0.184 0.911
 0.174 0.175 0.867
 0.17 0.166 0.821
 0.167 0.158 0.784
 0.163 0.15 0.744
 0.159 0.143 0.706
 0.154 0.134 0.662
 0.148 0.126 0.62
 0.142 0.118 0.583
 0.137 0.111 0.547
 0.132 0.104 0.514
 0.129 0.099 0.489
 0.128 0.096 0.473
 0.129 0.095 0.467
 0.129 0.092 0.454
 0.129 0.091 0.445
 0.129 0.089 0.435
 0.128 0.086 0.423
 0.126 0.083 0.406
 0.125 0.081 0.394
 0.125 0.079 0.385
 0.126 0.078 0.382
 0.129 0.079 0.385
 0.133 0.08 0.388
 0.137 0.08 0.39
 0.139 0.081 0.391
 0.143 0.081 0.392
 0.145 0.081 0.391
 0.146 0.08 0.385
 0.147 0.08 0.382
 0.152 0.081 0.387
 0.155 0.081 0.389
 0.157 0.081 0.387
 0.163 0.083 0.395
 0.168 0.084 0.399
 0.171 0.084 0.399
 0.172 0.083 0.394
 0.173 0.082 0.39
 0.178 0.084 0.395
 0.179 0.083 0.391
 0.182 0.083 0.392
 0.186 0.084 0.393
 0.193 0.086 0.402
 0.194 0.085 0.398
 0.201 0.087 0.406
 0.21 0.09 0.417
 0.221 0.093 0.431
 0.231 0.097 0.445
 0.247 0.102 0.468
 0.262 0.107 0.489
 0.278 0.113 0.513
 0.298 0.119 0.541
 0.315 0.125 0.564
 0.328 0.128 0.578
 0.34 0.131 0.591
 0.338 0.129 0.58
 0.359 0.136 0.607
 -0.319 0.131 0.558
 -0.317 0.132 0.564
 -0.325 0.137 0.587
 -0.328 0.14 0.602
 -0.331 0.143 0.617
 -0.334 0.146 0.632
 -0.336 0.148 0.645
 -0.336 0.151 0.657
 -0.337 0.153 0.668
 -0.336 0.154 0.677
 -0.334 0.156 0.685
 -0.332 0.157 0.692
 -0.33 0.158 0.697
 -0.326 0.158 0.702
 -0.324 0.159 0.707
 -0.321 0.16 0.714
 -0.32 0.162 0.723
 -0.32 0.164 0.736
 -0.321 0.167 0.751
 -0.325 0.172 0.774
 -0.331 0.178 0.802
 -0.339 0.185 0.835
 -0.348 0.193 0.874
 -0.359 0.202 0.919
 -0.369 0.212 0.963
 -0.378 0.22 1.005
 -0.387 0.229 1.048
 -0.393 0.237 1.085
 -0.398 0.244 1.12
 -0.4 0.25 1.149
 -0.401 0.255 1.175
 -0.4 0.259 1.196
 -0.398 0.263 1.213
 -0.394 0.265 1.227
 -0.391 0.268 1.242
 -0.387 0.27 1.255
 -0.382 0.272 1.267
 -0.378 0.275 1.28
 -0.373 0.277 1.291
 -0.367 0.278 1.3
 -0.36 0.279 1.307
 -0.353 0.28 1.312
 -0.346 0.28 1.315
 -0.338 0.28 1.316
 -0.329 0.28 1.316
 -0.321 0.279 1.315
 -0.312 0.278 1.312
 -0.303 0.277 1.309
 -0.295 0.276 1.307
 -0.285 0.275 1.301
 -0.277 0.274 1.297
 -0.268 0.272 1.293
 -0.259 0.271 1.291
 -0.251 0.271 1.291
 -0.244 0.271 1.293
 -0.236 0.271 1.294
 -0.229 0.271 1.296
 -0.221 0.271 1.297
 -0.213 0.271 1.296
 -0.206 0.271 1.299
 -0.198 0.272 1.301
 -0.191 0.272 1.304
 -0.184 0.273 1.308
 -0.176 0.273 1.31
 -0.169 0.273 1.314
 -0.162 0.274 1.32
 -0.155 0.277 1.331
 -0.149 0.279 1.346
 -0.143 0.283 1.363
 -0.136 0.285 1.375
 -0.129 0.287 1.384
 -0.121 0.288 1.39
 -0.113 0.288 1.388
 -0.105 0.288 1.389
 -0.096 0.288 1.39
 -0.088 0.288 1.39
 -0.08 0.287 1.387
 -0.072 0.287 1.387
 -0.064 0.286 1.384
 -0.056 0.285 1.381
 -0.047 0.285 1.381
 -0.039 0.286 1.384
 -0.031 0.286 1.388
 -0.023 0.287 1.393
 -0.015 0.289 1.399
 -0.007 0.29 1.406
 0 0.291 1.413
 0.008 0.293 1.419
 0.017 0.294 1.425
 0.025 0.295 1.431
 0.033 0.296 1.435
 0.042 0.296 1.436
 0.05 0.296 1.437
 0.059 0.297 1.44
 0.067 0.297 1.441
 0.076 0.298 1.445
 0.085 0.299 1.45
 0.093 0.3 1.455
 0.102 0.301 1.459
 0.111 0.302 1.464
 0.12 0.302 1.467
 0.128 0.302 1.463
 0.136 0.3 1.455
 0.143 0.298 1.443
 0.15 0.295 1.429
 0.157 0.292 1.415
 0.165 0.29 1.405
 0.171 0.288 1.392
 0.178 0.285 1.379
 0.183 0.281 1.36
 0.187 0.274 1.326
 0.188 0.265 1.28
 0.188 0.255 1.231
 0.186 0.243 1.175
 0.184 0.232 1.118
 0.182 0.222 1.069
 0.181 0.212 1.022
 0.179 0.203 0.977
 0.177 0.194 0.936
 0.173 0.184 0.885
 0.17 0.175 0.844
 0.167 0.167 0.804
 0.163 0.159 0.763
 0.159 0.151 0.725
 0.156 0.144 0.689
 0.149 0.134 0.642
 0.144 0.126 0.602
 0.138 0.118 0.566
 0.134 0.112 0.535
 0.131 0.106 0.508
 0.129 0.102 0.49
 0.128 0.099 0.474
 0.128 0.097 0.464
 0.128 0.094 0.45
 0.128 0.093 0.442
 0.128 0.091 0.431
 0.128 0.089 0.421
 0.126 0.085 0.405
 0.124 0.083 0.393
 0.124 0.081 0.383
 0.125 0.08 0.379
 0.128 0.081 0.381
 0.131 0.081 0.38
 0.133 0.081 0.38
 0.136 0.081 0.38
 0.139 0.081 0.382
 0.14 0.081 0.378
 0.141 0.08 0.373
 0.144 0.08 0.375
 0.148 0.081 0.377
 0.151 0.082 0.379
 0.155 0.082 0.381
 0.161 0.084 0.389
 0.165 0.085 0.392
 0.169 0.086 0.394
 0.169 0.084 0.388
 0.17 0.084 0.383
 0.174 0.085 0.387
 0.176 0.084 0.385
 0.18 0.085 0.386
 0.185 0.086 0.39
 0.192 0.088 0.398
 0.194 0.088 0.397
 0.201 0.09 0.405
 0.208 0.092 0.412
 0.216 0.094 0.423
 0.225 0.097 0.433
 0.239 0.102 0.453
 0.253 0.107 0.473
 0.271 0.113 0.498
 0.29 0.119 0.526
 0.308 0.125 0.55
 0.322 0.13 0.567
 0.333 0.133 0.578
 0.338 0.133 0.578
 0.344 0.134 0.579
 -0.314 0.132 0.548
 -0.321 0.137 0.569
 -0.322 0.139 0.58
 -0.325 0.142 0.594
 -0.328 0.145 0.61
 -0.33 0.148 0.624
 -0.332 0.151 0.637
 -0.332 0.153 0.648
 -0.333 0.155 0.659
 -0.331 0.156 0.666
 -0.33 0.158 0.674
 -0.328 0.159 0.681
 -0.325 0.16 0.687
 -0.322 0.161 0.692
 -0.32 0.162 0.698
 -0.317 0.163 0.705
 -0.316 0.164 0.713
 -0.316 0.167 0.725
 -0.318 0.17 0.742
 -0.322 0.175 0.765
 -0.327 0.181 0.792
 -0.335 0.188 0.825
 -0.344 0.196 0.862
 -0.354 0.205 0.905
 -0.364 0.215 0.948
 -0.373 0.224 0.992
 -0.382 0.233 1.035
 -0.389 0.242 1.074
 -0.394 0.249 1.109
 -0.397 0.255 1.14
 -0.398 0.26 1.165
 -0.397 0.265 1.186
 -0.395 0.268 1.203
 -0.392 0.271 1.218
 -0.388 0.274 1.233
 -0.385 0.276 1.247
 -0.38 0.279 1.26
 -0.376 0.281 1.274
 -0.371 0.283 1.284
 -0.365 0.285 1.293
 -0.359 0.286 1.3
 -0.352 0.287 1.306
 -0.344 0.287 1.308
 -0.336 0.287 1.31
 -0.328 0.286 1.309
 -0.319 0.285 1.307
 -0.31 0.284 1.304
 -0.302 0.283 1.3
 -0.293 0.282 1.298
 -0.284 0.281 1.294
 -0.275 0.28 1.291
 -0.267 0.279 1.287
 -0.258 0.278 1.285
 -0.251 0.278 1.285
 -0.243 0.278 1.288
 -0.236 0.278 1.289
 -0.228 0.278 1.29
 -0.22 0.278 1.29
 -0.212 0.277 1.289
 -0.205 0.277 1.29
 -0.197 0.278 1.292
 -0.19 0.278 1.294
 -0.183 0.279 1.299
 -0.175 0.279 1.301
 -0.168 0.28 1.305
 -0.161 0.281 1.312
 -0.154 0.283 1.323
 -0.148 0.286 1.336
 -0.142 0.289 1.353
 -0.135 0.291 1.364
 -0.128 0.293 1.372
 -0.12 0.294 1.378
 -0.112 0.294 1.378
 -0.104 0.294 1.38
 -0.096 0.294 1.382
 -0.088 0.295 1.384
 -0.08 0.294 1.382
 -0.072 0.294 1.382
 -0.063 0.293 1.379
 -0.055 0.292 1.376
 -0.047 0.292 1.376
 -0.039 0.293 1.379
 -0.031 0.294 1.383
 -0.023 0.295 1.388
 -0.015 0.296 1.394
 -0.007 0.297 1.401
 0 0.299 1.407
 0.008 0.3 1.413
 0.017 0.301 1.418
 0.025 0.301 1.421
 0.033 0.302 1.422
 0.042 0.302 1.423
 0.05 0.302 1.425
 0.058 0.303 1.429
 0.067 0.304 1.433
 0.076 0.305 1.438
 0.084 0.306 1.443
 0.093 0.307 1.448
 0.102 0.308 1.45
 0.111 0.309 1.454
 0.119 0.309 1.456
 0.128 0.309 1.453
 0.135 0.307 1.445
 0.143 0.305 1.434
 0.15 0.302 1.419
 0.156 0.299 1.404
 0.163 0.295 1.389
 0.169 0.292 1.375
 0.176 0.289 1.36
 0.181 0.285 1.34
 0.184 0.277 1.303
 0.185 0.268 1.26
 0.185 0.258 1.211
 0.183 0.245 1.15
 0.181 0.234 1.095
 0.179 0.224 1.049
 0.177 0.214 1.002
 0.175 0.204 0.956
 0.173 0.196 0.916
 0.168 0.184 0.862
 0.165 0.175 0.818
 0.162 0.167 0.78
 0.159 0.159 0.742
 0.156 0.152 0.708
 0.152 0.144 0.673
 0.147 0.136 0.634
 0.142 0.128 0.596
 0.138 0.121 0.564
 0.134 0.115 0.533
 0.132 0.11 0.513
 0.13 0.106 0.493
 0.128 0.102 0.474
 0.128 0.099 0.46
 0.127 0.097 0.447
 0.127 0.095 0.438
 0.127 0.092 0.427
 0.127 0.091 0.419
 0.125 0.088 0.403
 0.123 0.084 0.389
 0.123 0.083 0.379
 0.124 0.082 0.376
 0.126 0.081 0.373
 0.128 0.081 0.372
 0.132 0.082 0.375
 0.135 0.083 0.377
 0.137 0.083 0.376
 0.14 0.083 0.375
 0.14 0.082 0.37
 0.143 0.082 0.371
 0.147 0.083 0.373
 0.15 0.083 0.376
 0.154 0.084 0.379
 0.16 0.086 0.385
 0.162 0.086 0.383
 0.164 0.086 0.383
 0.164 0.084 0.376
 0.165 0.083 0.371
 0.169 0.084 0.374
 0.172 0.085 0.375
 0.176 0.085 0.377
 0.181 0.087 0.383
 0.188 0.089 0.39
 0.191 0.089 0.39
 0.198 0.091 0.398
 0.204 0.093 0.403
 0.212 0.095 0.413
 0.221 0.098 0.424
 0.234 0.102 0.442
 0.247 0.107 0.461
 0.264 0.113 0.484
 0.283 0.12 0.512
 0.3 0.126 0.535
 0.314 0.13 0.552
 0.326 0.133 0.565
 0.34 0.138 0.581
 0.336 0.135 0.566
 -0.315 0.136 0.549
 -0.316 0.139 0.559
 -0.318 0.141 0.573
 -0.321 0.144 0.587
 -0.324 0.148 0.602
 -0.326 0.15 0.615
 -0.328 0.153 0.629
 -0.329 0.156 0.641
 -0.329 0.158 0.651
 -0.327 0.159 0.658
 -0.326 0.16 0.666
 -0.324 0.161 0.672
 -0.321 0.162 0.677
 -0.318 0.163 0.682
 -0.316 0.164 0.689
 -0.313 0.165 0.694
 -0.311 0.166 0.701
 -0.311 0.169 0.713
 -0.313 0.172 0.73
 -0.317 0.177 0.752
 -0.323 0.183 0.781
 -0.331 0.191 0.815
 -0.339 0.199 0.851
 -0.349 0.208 0.892
 -0.359 0.217 0.934
 -0.369 0.227 0.978
 -0.378 0.237 1.021
 -0.385 0.246 1.061
 -0.391 0.253 1.097
 -0.394 0.26 1.128
 -0.394 0.265 1.152
 -0.393 0.269 1.173
 -0.391 0.273 1.19
 -0.388 0.276 1.205
 -0.385 0.279 1.22
 -0.381 0.282 1.236
 -0.378 0.284 1.25
 -0.374 0.287 1.265
 -0.369 0.289 1.276
 -0.363 0.291 1.284
 -0.356 0.292 1.29
 -0.35 0.293 1.297
 -0.342 0.293 1.298
 -0.334 0.293 1.299
 -0.326 0.292 1.298
 -0.317 0.291 1.298
 -0.309 0.291 1.295
 -0.3 0.29 1.293
 -0.292 0.289 1.292
 -0.283 0.288 1.288
 -0.274 0.287 1.286
 -0.266 0.286 1.282
 -0.258 0.285 1.28
 -0.25 0.285 1.279
 -0.242 0.285 1.281
 -0.234 0.284 1.28
 -0.227 0.284 1.281
 -0.218 0.283 1.279
 -0.21 0.282 1.275
 -0.203 0.282 1.276
 -0.195 0.282 1.277
 -0.188 0.282 1.279
 -0.181 0.284 1.287
 -0.174 0.285 1.293
 -0.167 0.286 1.299
 -0.16 0.288 1.307
 -0.154 0.29 1.318
 -0.147 0.292 1.33
 -0.141 0.295 1.344
 -0.134 0.298 1.356
 -0.127 0.299 1.363
 -0.119 0.301 1.37
 -0.112 0.301 1.372
 -0.104 0.301 1.374
 -0.096 0.301 1.376
 -0.088 0.302 1.377
 -0.079 0.301 1.375
 -0.071 0.301 1.374
 -0.063 0.3 1.372
 -0.055 0.3 1.37
 -0.047 0.3 1.37
 -0.039 0.3 1.373
 -0.031 0.301 1.378
 -0.023 0.302 1.383
 -0.015 0.303 1.39
 -0.007 0.305 1.397
 0 0.306 1.404
 0.008 0.308 1.41
 0.017 0.308 1.412
 0.025 0.308 1.413
 0.033 0.308 1.413
 0.041 0.308 1.412
 0.05 0.308 1.413
 0.058 0.309 1.417
 0.067 0.31 1.422
 0.075 0.312 1.428
 0.084 0.313 1.433
 0.093 0.314 1.438
 0.101 0.315 1.441
 0.11 0.315 1.443
 0.118 0.315 1.443
 0.126 0.314 1.439
 0.134 0.313 1.431
 0.141 0.31 1.42
 0.148 0.307 1.405
 0.155 0.304 1.39
 0.161 0.3 1.373
 0.167 0.297 1.357
 0.173 0.293 1.34
 0.178 0.289 1.32
 0.181 0.281 1.282
 0.182 0.272 1.24
 0.182 0.261 1.19
 0.179 0.247 1.126
 0.177 0.235 1.072
 0.175 0.225 1.025
 0.174 0.215 0.98
 0.171 0.205 0.933
 0.17 0.197 0.897
 0.165 0.186 0.845
 0.162 0.177 0.803
 0.158 0.168 0.763
 0.156 0.161 0.729
 0.153 0.153 0.693
 0.149 0.146 0.66
 0.145 0.138 0.622
 0.141 0.13 0.588
 0.136 0.123 0.556
 0.134 0.118 0.531
 0.132 0.113 0.509
 0.13 0.109 0.49
 0.128 0.105 0.471
 0.127 0.101 0.457
 0.126 0.098 0.441
 0.126 0.096 0.432
 0.125 0.094 0.42
 0.126 0.092 0.414
 0.125 0.09 0.402
 0.124 0.087 0.39
 0.124 0.086 0.382
 0.125 0.085 0.378
 0.127 0.085 0.376
 0.129 0.084 0.375
 0.131 0.084 0.372
 0.134 0.084 0.373
 0.136 0.084 0.371
 0.137 0.083 0.366
 0.137 0.082 0.36
 0.141 0.083 0.365
 0.142 0.082 0.361
 0.145 0.083 0.362
 0.15 0.084 0.367
 0.153 0.084 0.368
 0.154 0.084 0.364
 0.158 0.085 0.367
 0.159 0.084 0.363
 0.16 0.083 0.359
 0.165 0.085 0.365
 0.169 0.085 0.367
 0.173 0.086 0.371
 0.179 0.088 0.376
 0.184 0.089 0.38
 0.186 0.089 0.38
 0.193 0.091 0.387
 0.198 0.092 0.391
 0.205 0.094 0.398
 0.214 0.098 0.411
 0.227 0.102 0.43
 0.242 0.108 0.45
 0.257 0.113 0.471
 0.275 0.12 0.497
 0.291 0.125 0.519
 0.305 0.13 0.536
 0.317 0.133 0.548
 0.342 0.142 0.584
 0.336 0.138 0.565
 -0.311 0.138 0.542
 -0.315 0.142 0.558
 -0.315 0.144 0.566
 -0.318 0.147 0.581
 -0.321 0.15 0.595
 -0.323 0.153 0.608
 -0.324 0.156 0.62
 -0.325 0.158 0.632
 -0.325 0.16 0.641
 -0.323 0.161 0.649
 -0.322 0.162 0.656
 -0.32 0.164 0.662
 -0.317 0.164 0.668
 -0.314 0.165 0.673
 -0.312 0.166 0.679
 -0.309 0.167 0.684
 -0.306 0.168 0.69
 -0.305 0.17 0.699
 -0.307 0.174 0.716
 -0.311 0.179 0.738
 -0.318 0.185 0.766
 -0.326 0.193 0.8
 -0.335 0.202 0.839
 -0.345 0.211 0.879
 -0.354 0.22 0.919
 -0.364 0.23 0.964
 -0.373 0.24 1.007
 -0.38 0.249 1.047
 -0.386 0.257 1.082
 -0.389 0.264 1.112
 -0.388 0.268 1.134
 -0.386 0.271 1.15
 -0.383 0.274 1.162
 -0.38 0.277 1.178
 -0.378 0.281 1.196
 -0.376 0.285 1.215
 -0.374 0.289 1.235
 -0.372 0.293 1.255
 -0.367 0.295 1.267
 -0.361 0.297 1.275
 -0.354 0.298 1.28
 -0.347 0.299 1.286
 -0.34 0.299 1.288
 -0.332 0.299 1.29
 -0.324 0.298 1.288
 -0.315 0.297 1.285
 -0.305 0.295 1.28
 -0.297 0.294 1.278
 -0.289 0.294 1.277
 -0.281 0.293 1.276
 -0.273 0.293 1.277
 -0.265 0.293 1.276
 -0.257 0.292 1.274
 -0.249 0.291 1.273
 -0.241 0.291 1.274
 -0.233 0.29 1.272
 -0.225 0.29 1.271
 -0.217 0.289 1.268
 -0.208 0.288 1.264
 -0.201 0.287 1.263
 -0.193 0.287 1.264
 -0.186 0.287 1.267
 -0.18 0.289 1.275
 -0.173 0.291 1.283
 -0.166 0.292 1.291
 -0.16 0.294 1.301
 -0.153 0.297 1.312
 -0.147 0.299 1.323
 -0.14 0.302 1.336
 -0.134 0.304 1.348
 -0.126 0.306 1.355
 -0.119 0.307 1.362
 -0.111 0.308 1.365
 -0.103 0.308 1.367
 -0.095 0.308 1.368
 -0.087 0.308 1.37
 -0.079 0.308 1.368
 -0.071 0.308 1.369
 -0.063 0.307 1.367
 -0.055 0.307 1.365
 -0.047 0.307 1.366
 -0.039 0.307 1.368
 -0.031 0.308 1.372
 -0.023 0.309 1.377
 -0.015 0.311 1.385
 -0.007 0.313 1.393
 0 0.314 1.4
 0.008 0.316 1.407
 0.017 0.316 1.407
 0.025 0.315 1.406
 0.033 0.315 1.405
 0.041 0.314 1.401
 0.049 0.314 1.4
 0.058 0.315 1.406
 0.066 0.317 1.411
 0.075 0.318 1.418
 0.083 0.32 1.425
 0.092 0.321 1.43
 0.101 0.321 1.432
 0.109 0.322 1.433
 0.117 0.321 1.431
 0.126 0.321 1.428
 0.133 0.319 1.419
 0.141 0.316 1.409
 0.147 0.313 1.394
 0.154 0.31 1.378
 0.16 0.306 1.36
 0.166 0.302 1.341
 0.171 0.298 1.324
 0.176 0.293 1.301
 0.178 0.284 1.262
 0.179 0.274 1.217
 0.179 0.263 1.167
 0.175 0.248 1.101
 0.173 0.236 1.047
 0.171 0.226 0.999
 0.169 0.216 0.955
 0.167 0.205 0.909
 0.166 0.198 0.873
 0.161 0.186 0.822
 0.158 0.177 0.784
 0.155 0.169 0.745
 0.153 0.162 0.713
 0.15 0.154 0.68
 0.148 0.148 0.651
 0.143 0.14 0.615
 0.139 0.132 0.583
 0.136 0.126 0.552
 0.133 0.12 0.527
 0.131 0.115 0.506
 0.13 0.112 0.489
 0.128 0.107 0.47
 0.126 0.104 0.454
 0.125 0.1 0.438
 0.124 0.098 0.426
 0.123 0.094 0.412
 0.123 0.093 0.405
 0.124 0.091 0.397
 0.123 0.089 0.388
 0.124 0.088 0.383
 0.126 0.088 0.38
 0.128 0.087 0.377
 0.129 0.087 0.374
 0.131 0.086 0.372
 0.132 0.086 0.368
 0.135 0.086 0.368
 0.135 0.085 0.363
 0.136 0.083 0.357
 0.139 0.084 0.358
 0.141 0.084 0.356
 0.142 0.083 0.353
