 -0.375 -0.037 0.682
 -0.381 -0.038 0.703
 -0.384 -0.039 0.719
 -0.388 -0.04 0.738
 -0.391 -0.041 0.756
 -0.392 -0.042 0.77
 -0.391 -0.042 0.781
 -0.389 -0.042 0.788
 -0.385 -0.042 0.792
 -0.381 -0.043 0.797
 -0.378 -0.043 0.802
 -0.374 -0.043 0.808
 -0.371 -0.043 0.814
 -0.368 -0.043 0.821
 -0.365 -0.044 0.828
 -0.363 -0.044 0.836
 -0.36 -0.044 0.844
 -0.36 -0.045 0.857
 -0.364 -0.046 0.882
 -0.372 -0.048 0.919
 -0.381 -0.05 0.957
 -0.393 -0.052 1.006
 -0.413 -0.055 1.077
 -0.425 -0.058 1.129
 -0.43 -0.059 1.163
 -0.44 -0.062 1.211
 -0.448 -0.064 1.258
 -0.445 -0.065 1.272
 -0.442 -0.065 1.29
 -0.446 -0.067 1.327
 -0.443 -0.068 1.343
 -0.435 -0.068 1.345
 -0.432 -0.069 1.365
 -0.432 -0.07 1.394
 -0.43 -0.071 1.414
 -0.428 -0.072 1.441
 -0.428 -0.074 1.473
 -0.425 -0.075 1.494
 -0.42 -0.075 1.508
 -0.413 -0.076 1.518
 -0.405 -0.076 1.525
 -0.397 -0.076 1.529
 -0.387 -0.076 1.527
 -0.377 -0.076 1.523
 -0.366 -0.076 1.52
 -0.355 -0.075 1.511
 -0.341 -0.074 1.489
 -0.33 -0.074 1.479
 -0.318 -0.073 1.465
 -0.303 -0.072 1.437
 -0.289 -0.07 1.413
 -0.279 -0.07 1.403
 0 0 0
 0 0 0
 0 0 0
 0 0 0
 0 0 0
 0 0 0
 0 0 0
 0 0 0
 0 0 0
 0 0 0
 0 0 0
 -0.18 -0.07 1.409
 -0.18 -0.074 1.48
 -0.176 -0.075 1.518
 -0.17 -0.076 1.541
 -0.164 -0.078 1.574
 -0.159 -0.08 1.609
 -0.15 -0.08 1.618
 -0.141 -0.08 1.622
 -0.132 -0.081 1.625
 -0.123 -0.081 1.629
 -0.114 -0.081 1.634
 -0.104 -0.081 1.637
 -0.095 -0.081 1.642
 -0.086 -0.082 1.647
 -0.077 -0.082 1.652
 -0.068 -0.082 1.657
 -0.058 -0.083 1.661
 -0.049 -0.083 1.666
 -0.039 -0.083 1.669
 -0.03 -0.083 1.672
 -0.02 -0.083 1.675
 -0.011 -0.084 1.678
 -0.001 -0.084 1.681
 0.008 -0.084 1.684
 0.017 -0.084 1.687
 0.027 -0.084 1.69
 0.037 -0.085 1.693
 0.047 -0.085 1.696
 0.057 -0.085 1.697
 0.066 -0.085 1.698
 0.076 -0.085 1.698
 0.086 -0.085 1.698
 0.096 -0.085 1.698
 0.105 -0.085 1.697
 0.115 -0.085 1.696
 0.125 -0.085 1.693
 0.134 -0.085 1.687
 0.143 -0.085 1.679
 0.152 -0.084 1.667
 0.16 -0.083 1.653
 0.168 -0.083 1.64
 0.176 -0.082 1.625
 0.184 -0.082 1.609
 0.191 -0.081 1.593
 0.198 -0.08 1.578
 0.206 -0.079 1.562
 0.213 -0.079 1.549
 0.218 -0.078 1.523
 0.218 -0.075 1.461
 0.223 -0.074 1.436
 0.229 -0.073 1.423
 0.235 -0.072 1.408
 0.243 -0.072 1.406
 0.257 -0.074 1.437
 0.264 -0.074 1.43
 0.268 -0.073 1.407
 0.272 -0.072 1.384
 0.275 -0.07 1.359
 0.278 -0.069 1.334
 0.28 -0.068 1.304
 0.284 -0.067 1.286
 0.287 -0.066 1.265
 0.292 -0.066 1.253
 0.296 -0.065 1.239
 0.301 -0.065 1.227
 0.303 -0.064 1.205
 0.304 -0.063 1.182
 0.304 -0.061 1.151
 0.302 -0.06 1.119
 0.302 -0.058 1.094
 0.301 -0.057 1.066
 0.297 -0.055 1.029
 0.291 -0.053 0.987
 0.292 -0.052 0.968
 0.291 -0.051 0.946
 0.296 -0.051 0.942
 0.3 -0.051 0.935
 0.304 -0.051 0.929
 0.309 -0.051 0.924
 0.313 -0.05 0.919
 0.313 -0.05 0.901
 0.317 -0.049 0.896
 0.323 -0.05 0.895
 0.325 -0.049 0.885
 0.325 -0.048 0.868
 0.33 -0.048 0.867
 0.329 -0.047 0.848
 0.324 -0.046 0.822
 0.328 -0.046 0.817
 0.334 -0.046 0.818
 0.336 -0.046 0.808
 0.339 -0.046 0.803
 0.339 -0.045 0.788
 0.341 -0.045 0.781
 0.34 -0.044 0.766
 0.348 -0.044 0.77
 0.356 -0.045 0.775
 0.361 -0.045 0.775
 0.369 -0.045 0.78
 0.387 -0.047 0.805
 0.399 -0.048 0.818
 0.415 -0.049 0.836
 0.43 -0.05 0.853
 0.438 -0.05 0.856
 0.448 -0.051 0.863
 0.455 -0.051 0.863
 0.46 -0.051 0.86
 0.467 -0.051 0.86
 0.476 -0.051 0.863
 0.482 -0.052 0.862
 0.517 -0.055 0.912
 0.515 -0.054 0.895
 -0.377 -0.033 0.676
 -0.377 -0.033 0.686
 -0.381 -0.034 0.704
 -0.385 -0.035 0.722
 -0.389 -0.035 0.741
 -0.392 -0.036 0.759
 -0.394 -0.037 0.773
 -0.393 -0.037 0.783
 -0.389 -0.037 0.789
 -0.386 -0.037 0.794
 -0.382 -0.038 0.798
 -0.378 -0.038 0.803
 -0.374 -0.038 0.808
 -0.371 -0.038 0.813
 -0.367 -0.038 0.819
 -0.364 -0.038 0.825
 -0.361 -0.039 0.832
 -0.358 -0.039 0.839
 -0.356 -0.039 0.847
 -0.355 -0.04 0.859
 -0.355 -0.04 0.875
 -0.356 -0.041 0.894
 -0.361 -0.042 0.922
 -0.375 -0.044 0.975
 -0.384 -0.046 1.019
 -0.389 -0.048 1.051
 -0.399 -0.05 1.097
 -0.407 -0.051 1.142
 -0.404 -0.052 1.155
 -0.402 -0.053 1.173
 -0.407 -0.054 1.21
 -0.404 -0.055 1.225
 -0.397 -0.055 1.227
 -0.395 -0.056 1.247
 -0.396 -0.057 1.277
 -0.394 -0.058 1.298
 -0.395 -0.059 1.327
 -0.397 -0.06 1.365
 -0.397 -0.062 1.394
 -0.395 -0.063 1.419
 -0.394 -0.064 1.448
 -0.392 -0.065 1.476
 -0.388 -0.066 1.496
 -0.381 -0.066 1.505
 -0.373 -0.066 1.509
 -0.363 -0.066 1.506
 -0.349 -0.065 1.486
 -0.332 -0.064 1.451
 -0.318 -0.063 1.428
 -0.306 -0.062 1.411
 -0.291 -0.061 1.381
 -0.277 -0.06 1.353
 -0.269 -0.06 1.353
 0 0 0
 0 0 0
 0 0 0
 0 0 0
 0 0 0
 0 0 0
 0 0 0
 0 0 0
 0 0 0
 0 0 0
 0 0 0
 -0.183 -0.063 1.433
 -0.182 -0.066 1.495
 -0.177 -0.067 1.527
 -0.17 -0.068 1.547
 -0.165 -0.069 1.586
 -0.159 -0.071 1.612
 -0.15 -0.071 1.619
 -0.141 -0.071 1.623
 -0.132 -0.071 1.626
 -0.123 -0.071 1.63
 -0.114 -0.072 1.635
 -0.105 -0.072 1.64
 -0.095 -0.072 1.645
 -0.086 -0.072 1.649
 -0.076 -0.072 1.644
 -0.066 -0.072 1.628
 -0.056 -0.071 1.614
 -0.047 -0.071 1.605
 -0.038 -0.07 1.6
 -0.029 -0.071 1.606
 -0.019 -0.071 1.619
 -0.01 -0.072 1.629
 -0.001 -0.072 1.63
 0.007 -0.072 1.625
 0.017 -0.071 1.618
 0.026 -0.071 1.611
 0.035 -0.071 1.603
 0.044 -0.071 1.604
 0.054 -0.072 1.62
 0.064 -0.073 1.639
 0.074 -0.073 1.658
 0.085 -0.074 1.68
 0.096 -0.075 1.696
 0.105 -0.075 1.697
 0.115 -0.075 1.695
 0.125 -0.075 1.692
 0.134 -0.075 1.686
 0.143 -0.075 1.678
 0.152 -0.074 1.667
 0.16 -0.074 1.653
 0.168 -0.073 1.639
 0.176 -0.073 1.624
 0.183 -0.072 1.607
 0.191 -0.071 1.591
 0.198 -0.071 1.575
 0.205 -0.07 1.56
 0.212 -0.07 1.546
 0.218 -0.069 1.52
 0.219 -0.067 1.469
 0.225 -0.066 1.448
 0.231 -0.065 1.436
 0.237 -0.065 1.423
 0.246 -0.065 1.424
 0.259 -0.066 1.448
 0.266 -0.066 1.439
 0.27 -0.065 1.417
 0.273 -0.064 1.391
 0.276 -0.063 1.363
 0.279 -0.062 1.338
 0.281 -0.06 1.308
 0.284 -0.06 1.288
 0.286 -0.059 1.262
 0.291 -0.058 1.251
 0.296 -0.058 1.24
 0.302 -0.058 1.232
 0.305 -0.057 1.213
 0.308 -0.056 1.197
 0.306 -0.055 1.162
 0.305 -0.053 1.129
 0.305 -0.052 1.103
 0.303 -0.051 1.074
 0.297 -0.049 1.029
 0.288 -0.047 0.975
 0.289 -0.046 0.957
 0.285 -0.045 0.927
 0.291 -0.045 0.925
 0.294 -0.045 0.917
 0.302 -0.045 0.921
 0.308 -0.045 0.924
 0.317 -0.045 0.932
 0.32 -0.045 0.921
 0.323 -0.045 0.913
 0.33 -0.045 0.915
 0.332 -0.045 0.905
 0.33 -0.044 0.882
 0.333 -0.043 0.875
 0.336 -0.043 0.867
 0.328 -0.042 0.832
 0.331 -0.041 0.825
 0.341 -0.042 0.836
 0.343 -0.042 0.825
 0.345 -0.041 0.818
 0.344 -0.041 0.801
 0.351 -0.041 0.804
 0.354 -0.041 0.798
 0.363 -0.041 0.804
 0.371 -0.042 0.809
 0.376 -0.042 0.806
 0.384 -0.042 0.812
 0.399 -0.043 0.829
 0.412 -0.044 0.844
 0.428 -0.045 0.863
 0.443 -0.046 0.881
 0.451 -0.046 0.883
 0.462 -0.047 0.891
 0.47 -0.047 0.892
 0.474 -0.047 0.886
 0.48 -0.047 0.885
 0.487 -0.047 0.885
 0.492 -0.047 0.879
 0.511 -0.048 0.901
 0.503 -0.047 0.874
 -0.376 -0.028 0.675
 -0.378 -0.029 0.687
 -0.382 -0.029 0.705
 -0.387 -0.03 0.726
 -0.391 -0.031 0.745
 -0.394 -0.031 0.763
 -0.396 -0.032 0.778
 -0.394 -0.032 0.786
 -0.39 -0.032 0.791
 -0.386 -0.032 0.795
 -0.382 -0.033 0.799
 -0.378 -0.033 0.804
 -0.374 -0.033 0.808
 -0.37 -0.033 0.813
 -0.367 -0.033 0.818
 -0.363 -0.033 0.823
 -0.36 -0.033 0.829
 -0.356 -0.034 0.835
 -0.353 -0.034 0.842
 -0.35 -0.034 0.849
 -0.347 -0.034 0.857
 -0.345 -0.035 0.866
 -0.345 -0.035 0.881
 -0.351 -0.036 0.914
 -0.355 -0.037 0.939
 -0.354 -0.038 0.956
 -0.359 -0.039 0.988
 -0.366 -0.04 1.024
 -0.362 -0.041 1.035
 -0.361 -0.041 1.052
 -0.367 -0.042 1.088
 -0.364 -0.043 1.103
 -0.358 -0.043 1.104
 -0.357 -0.044 1.124
 -0.358 -0.045 1.153
 -0.357 -0.045 1.174
 -0.359 -0.046 1.204
 -0.362 -0.048 1.242
 -0.362 -0.049 1.271
 -0.361 -0.05 1.296
 -0.362 -0.051 1.329
 -0.362 -0.052 1.363
 -0.36 -0.053 1.387
 -0.355 -0.053 1.4
 -0.349 -0.054 1.412
 -0.341 -0.054 1.416
 -0.329 -0.053 1.399
 -0.314 -0.052 1.369
 -0.3 -0.051 1.347
 -0.285 -0.05 1.313
 -0.265 -0.048 1.255
 -0.245 -0.046 1.195
 -0.225 -0.044 1.13
 0 0 0
 0 0 0
 0 0 0
 0 0 0
 0 0 0
 0 0 0
 0 0 0
 0 0 0
 0 0 0
 0 0 0
 -0.176 -0.05 1.32
 -0.182 -0.054 1.425
 -0.181 -0.057 1.485
 -0.176 -0.058 1.517
 -0.171 -0.059 1.553
 -0.166 -0.061 1.596
 -0.159 -0.061 1.613
 -0.15 -0.061 1.618
 -0.141 -0.062 1.622
 -0.132 -0.062 1.626
 -0.123 -0.062 1.633
 -0.114 -0.062 1.639
 -0.105 -0.062 1.642
 -0.095 -0.062 1.635
 -0.084 -0.061 1.613
 -0.073 -0.06 1.574
 -0.062 -0.058 1.525
 -0.052 -0.057 1.479
 -0.042 -0.056 1.449
 -0.034 -0.055 1.437
 -0.026 -0.055 1.442
 -0.018 -0.056 1.455
 -0.009 -0.056 1.464
 -0.001 -0.056 1.463
 0.007 -0.056 1.457
 0.015 -0.056 1.448
 0.023 -0.056 1.44
 0.031 -0.055 1.432
 0.039 -0.055 1.434
 0.048 -0.056 1.46
 0.059 -0.058 1.509
 0.07 -0.06 1.562
 0.082 -0.062 1.619
 0.094 -0.064 1.667
 0.105 -0.065 1.693
 0.115 -0.066 1.695
 0.125 -0.065 1.691
 0.134 -0.065 1.685
 0.143 -0.065 1.677
 0.151 -0.065 1.665
 0.16 -0.064 1.651
 0.168 -0.064 1.637
 0.176 -0.063 1.622
 0.183 -0.063 1.606
 0.191 -0.062 1.59
 0.198 -0.062 1.574
 0.205 -0.061 1.559
 0.212 -0.061 1.545
 0.218 -0.06 1.522
 0.221 -0.058 1.48
 0.227 -0.058 1.463
 0.233 -0.057 1.451
 0.24 -0.057 1.437
 0.248 -0.057 1.435
 0.261 -0.058 1.459
 0.268 -0.058 1.449
 0.272 -0.057 1.429
 0.276 -0.056 1.403
 0.279 -0.055 1.375
 0.282 -0.054 1.35
 0.283 -0.053 1.319
 0.287 -0.053 1.301
 0.288 -0.052 1.271
 0.294 -0.051 1.264
 0.3 -0.051 1.255
 0.306 -0.051 1.249
 0.311 -0.051 1.237
 0.317 -0.051 1.233
 0.316 -0.049 1.199
 0.318 -0.049 1.178
 0.318 -0.048 1.152
 0.318 -0.047 1.127
 0.303 -0.044 1.05
 0 0 0
 0.282 -0.039 0.934
 0.281 -0.039 0.911
 0.288 -0.039 0.917
 0.295 -0.039 0.918
 0.306 -0.04 0.934
 0.315 -0.04 0.942
 0.323 -0.04 0.948
 0.326 -0.04 0.94
 0.327 -0.04 0.926
 0.339 -0.04 0.941
 0.344 -0.04 0.939
 0.347 -0.04 0.928
 0 0 0
 0 0 0
 0 0 0
 0 0 0
 0 0 0
 0 0 0
 0 0 0
 0.373 -0.039 0.868
 0.379 -0.039 0.868
 0.385 -0.039 0.868
 0.385 -0.038 0.854
 0.386 -0.038 0.842
 0.389 -0.038 0.836
 0.394 -0.038 0.833
 0.401 -0.038 0.833
 0.412 -0.038 0.845
 0.425 -0.039 0.858
 0.437 -0.04 0.867
 0.446 -0.04 0.872
 0.457 -0.04 0.881
 0.463 -0.041 0.88
 0.467 -0.041 0.874
 0.473 -0.04 0.871
 0.477 -0.04 0.866
 0.479 -0.04 0.858
 0.508 -0.042 0.896
 0.524 -0.043 0.91
 -0.373 -0.024 0.669
 -0.38 -0.024 0.691
 -0.383 -0.025 0.708
 -0.389 -0.026 0.729
 -0.393 -0.026 0.749
 -0.397 -0.027 0.768
 -0.398 -0.027 0.782
 -0.395 -0.027 0.79
 -0.391 -0.027 0.794
 -0.387 -0.028 0.797
 -0.383 -0.028 0.801
 -0.378 -0.028 0.804
 -0.374 -0.028 0.808
 -0.37 -0.028 0.812
 -0.366 -0.028 0.817
 -0.362 -0.028 0.821
 -0.359 -0.028 0.827
 -0.355 -0.028 0.832
 -0.351 -0.028 0.838
 -0.348 -0.029 0.843
 -0.345 -0.029 0.85
 -0.342 -0.029 0.857
 -0.339 -0.029 0.867
 -0.339 -0.03 0.881
 -0.336 -0.03 0.889
 -0.333 -0.03 0.897
 -0.331 -0.03 0.909
 -0.331 -0.031 0.927
 -0.327 -0.031 0.934
 -0.325 -0.031 0.944
 -0.326 -0.032 0.966
 -0.323 -0.032 0.976
 -0.317 -0.032 0.977
 -0.316 -0.033 0.996
 -0.319 -0.034 1.025
 -0.319 -0.034 1.046
 -0.321 -0.035 1.077
 -0.325 -0.037 1.116
 -0.326 -0.037 1.144
 -0.326 -0.038 1.17
 -0.328 -0.039 1.203
 -0.329 -0.04 1.237
 -0.327 -0.041 1.26
 -0.323 -0.041 1.273
 -0.318 -0.042 1.287
 -0.312 -0.042 1.294
 -0.301 -0.042 1.281
 -0.287 -0.041 1.254
 -0.274 -0.04 1.23
 -0.258 -0.039 1.187
 -0.237 -0.037 1.123
 -0.219 -0.035 1.065
 -0.201 -0.033 1.006
 -0.189 -0.032 0.978
 -0.185 -0.033 0.987
 -0.181 -0.033 0.994
 -0.174 -0.033 0.989
 -0.171 -0.033 1.01
 -0.166 -0.033 1.013
 -0.161 -0.034 1.023
 -0.157 -0.034 1.033
 -0.151 -0.034 1.031
 -0.153 -0.036 1.097
 -0.17 -0.041 1.271
 -0.179 -0.045 1.401
 -0.181 -0.048 1.483
 -0.175 -0.049 1.512
 -0.171 -0.05 1.558
 -0.167 -0.052 1.603
 -0.159 -0.052 1.615
 -0.15 -0.052 1.621
 -0.141 -0.052 1.626
 -0.132 -0.053 1.631
 -0.123 -0.053 1.635
 -0.113 -0.052 1.627
 -0.102 -0.052 1.602
 -0.091 -0.051 1.562
 -0.079 -0.049 1.506
 -0.067 -0.047 1.436
 -0.056 -0.045 1.367
 -0.046 -0.043 1.314
 -0.038 -0.042 1.281
 -0.03 -0.042 1.268
 -0.023 -0.042 1.272
 -0.016 -0.042 1.284
 -0.008 -0.043 1.292
 -0.001 -0.043 1.291
 0.006 -0.042 1.284
 0.013 -0.042 1.274
 0.02 -0.042 1.265
 0.027 -0.042 1.257
 0.034 -0.042 1.258
 0.043 -0.043 1.285
 0.052 -0.044 1.34
 0.063 -0.047 1.418
 0.076 -0.05 1.509
 0.09 -0.052 1.592
 0.103 -0.054 1.652
 0.114 -0.055 1.683
 0.124 -0.056 1.689
 0.134 -0.055 1.683
 0.143 -0.055 1.675
 0.151 -0.055 1.664
 0.16 -0.055 1.651
 0.168 -0.054 1.637
 0.176 -0.054 1.622
 0.183 -0.053 1.605
 0.191 -0.053 1.589
 0.198 -0.053 1.574
 0.205 -0.052 1.558
 0.212 -0.052 1.544
 0.218 -0.051 1.523
 0.222 -0.05 1.491
 0.229 -0.05 1.474
 0.235 -0.049 1.463
 0.242 -0.049 1.449
 0.25 -0.049 1.446
 0.261 -0.05 1.458
 0.267 -0.049 1.449
 0.273 -0.049 1.431
 0.277 -0.048 1.411
 0.282 -0.048 1.391
 0.286 -0.047 1.373
 0.291 -0.047 1.356
 0.297 -0.046 1.347
 0.3 -0.046 1.321
 0.307 -0.046 1.318
 0.314 -0.046 1.313
 0.32 -0.045 1.304
 0.325 -0.045 1.296
 0.339 -0.046 1.317
 0.341 -0.045 1.293
 0.347 -0.045 1.285
 0.356 -0.045 1.292
 0 0 0
 0 0 0
 0 0 0
 0 0 0
 0.411 -0.047 1.335
 0.423 -0.048 1.347
 0.431 -0.048 1.347
 0.403 -0.044 1.234
 0.391 -0.042 1.171
 0.383 -0.041 1.127
 0.373 -0.039 1.077
 0.365 -0.038 1.033
 0.367 -0.037 1.02
 0.366 -0.037 0.997
 0.355 -0.035 0.951
 0 0 0
 0 0 0
 0 0 0
 0 0 0
 0 0 0
 0 0 0
 0.448 -0.04 1.062
 0.421 -0.037 0.981
 0.411 -0.036 0.943
 0.406 -0.035 0.916
 0.398 -0.034 0.884
 0.394 -0.033 0.861
 0.395 -0.033 0.849
 0.398 -0.033 0.842
 0.403 -0.033 0.84
 0.413 -0.033 0.846
 0.422 -0.033 0.852
 0.431 -0.034 0.857
 0.439 -0.034 0.86
 0.447 -0.034 0.862
 0.452 -0.034 0.858
 0.456 -0.034 0.853
 0.46 -0.034 0.848
 0.464 -0.034 0.842
 0.466 -0.034 0.833
 0.463 -0.033 0.817
 0.465 -0.033 0.808
 -0.373 -0.02 0.67
 -0.379 -0.02 0.69
 -0.384 -0.02 0.711
 -0.39 -0.021 0.733
 -0.395 -0.021 0.753
 -0.399 -0.022 0.772
 -0.399 -0.022 0.785
 -0.396 -0.022 0.792
 -0.392 -0.022 0.795
 -0.388 -0.023 0.799
 -0.383 -0.023 0.802
 -0.379 -0.023 0.805
 -0.374 -0.023 0.809
 -0.37 -0.023 0.812
 -0.366 -0.023 0.817
 -0.362 -0.023 0.821
 -0.358 -0.023 0.826
 -0.354 -0.023 0.83
 -0.35 -0.023 0.835
 -0.346 -0.023 0.84
 -0.343 -0.023 0.846
 -0.34 -0.024 0.852
 -0.336 -0.024 0.859
 -0.333 -0.024 0.865
 -0.329 -0.024 0.871
 -0.325 -0.024 0.875
 -0.32 -0.024 0.879
 -0.315 -0.024 0.882
 -0.31 -0.024 0.884
 -0.305 -0.024 0.885
 -0.3 -0.024 0.889
 -0.295 -0.024 0.89
 -0.289 -0.024 0.891
 -0.286 -0.025 0.899
 -0.285 -0.025 0.915
 -0.284 -0.025 0.932
 -0.285 -0.026 0.956
 -0.288 -0.027 0.986
 -0.289 -0.027 1.013
 -0.29 -0.028 1.039
 -0.292 -0.029 1.072
 -0.295 -0.03 1.106
 -0.294 -0.03 1.129
 -0.29 -0.031 1.144
 -0.287 -0.031 1.16
 -0.282 -0.031 1.167
 -0.272 -0.031 1.155
 -0.26 -0.03 1.135
 -0.249 -0.03 1.116
 -0.234 -0.029 1.077
 -0.217 -0.028 1.028
 -0.204 -0.027 0.994
 -0.192 -0.026 0.961
 -0.182 -0.026 0.939
 -0.177 -0.026 0.943
 -0.172 -0.026 0.946
 -0.166 -0.026 0.945
 -0.163 -0.026 0.961
 -0.158 -0.026 0.964
 -0.153 -0.026 0.972
 -0.15 -0.027 0.985
 -0.145 -0.027 0.992
 -0.149 -0.029 1.062
 -0.164 -0.033 1.228
 -0.175 -0.036 1.371
 -0.179 -0.039 1.471
 -0.176 -0.04 1.522
 -0.173 -0.042 1.577
 -0.168 -0.043 1.613
 -0.159 -0.043 1.622
 -0.15 -0.043 1.627
 -0.141 -0.043 1.627
 -0.131 -0.043 1.617
 -0.12 -0.042 1.593
 -0.108 -0.041 1.552
 -0.095 -0.04 1.495
 -0.083 -0.038 1.425
 -0.071 -0.036 1.349
 -0.059 -0.034 1.272
 -0.049 -0.033 1.199
 -0.04 -0.031 1.143
 -0.033 -0.03 1.108
 -0.026 -0.03 1.094
 -0.02 -0.03 1.097
 -0.014 -0.03 1.108
 -0.007 -0.031 1.116
 -0.001 -0.031 1.114
 0.005 -0.03 1.105
 0.011 -0.03 1.095
 0.017 -0.03 1.085
 0.023 -0.03 1.077
 0.029 -0.03 1.079
 0.036 -0.031 1.106
 0.045 -0.032 1.162
 0.055 -0.034 1.244
 0.068 -0.037 1.355
 0.083 -0.04 1.472
 0.097 -0.043 1.568
 0.111 -0.044 1.634
 0.123 -0.045 1.672
 0.134 -0.046 1.681
 0.143 -0.046 1.676
 0.151 -0.045 1.663
 0.159 -0.045 1.647
 0.167 -0.045 1.633
 0.175 -0.044 1.617
 0.183 -0.044 1.6
 0.19 -0.044 1.585
 0.198 -0.043 1.572
 0.205 -0.043 1.556
 0.212 -0.043 1.542
 0.218 -0.042 1.525
 0.224 -0.042 1.502
 0.231 -0.041 1.487
 0.238 -0.041 1.477
 0.244 -0.041 1.462
 0.252 -0.041 1.456
 0.26 -0.041 1.455
 0.267 -0.041 1.445
 0.272 -0.04 1.429
 0.278 -0.04 1.416
 0.283 -0.04 1.399
 0.29 -0.039 1.388
 0.297 -0.039 1.383
 0.304 -0.039 1.378
 0.307 -0.039 1.353
 0.315 -0.039 1.352
 0.322 -0.039 1.347
 0.326 -0.038 1.329
 0.331 -0.038 1.318
 0.345 -0.039 1.339
 0.352 -0.039 1.336
 0.363 -0.039 1.346
 0.378 -0.04 1.37
 0.392 -0.041 1.391
 0.399 -0.04 1.384
 0.401 -0.04 1.361
 0.403 -0.039 1.339
 0.408 -0.039 1.328
 0.415 -0.039 1.323
 0.421 -0.039 1.313
 0.406 -0.037 1.243
 0.398 -0.036 1.194
 0.393 -0.035 1.155
 0.386 -0.034 1.113
 0.38 -0.033 1.075
 0.383 -0.033 1.065
 0.385 -0.032 1.049
 0.381 -0.031 1.02
 0 0 0
 0 0 0
 0 0 0
 0 0 0
 0.431 -0.033 1.058
 0.436 -0.033 1.052
 0.435 -0.032 1.031
 0.422 -0.031 0.983
 0.416 -0.03 0.953
 0.412 -0.03 0.928
 0.405 -0.029 0.898
 0.401 -0.028 0.874
 0.401 -0.028 0.861
 0.403 -0.028 0.852
 0.406 -0.028 0.845
 0.412 -0.028 0.845
 0.419 -0.028 0.845
 0.426 -0.028 0.846
 0.432 -0.028 0.845
 0.438 -0.028 0.844
 0.442 -0.028 0.839
 0.445 -0.028 0.833
 0.449 -0.028 0.827
 0.452 -0.028 0.82
 0.454 -0.028 0.813
 0.432 -0.026 0.761
 0.434 -0.026 0.754
 -0.376 -0.015 0.674
 -0.378 -0.015 0.689
 -0.386 -0.016 0.714
 -0.392 -0.016 0.736
 -0.397 -0.017 0.757
 -0.4 -0.017 0.775
 -0.4 -0.017 0.787
 -0.397 -0.017 0.793
 -0.392 -0.017 0.796
 -0.388 -0.017 0.8
 -0.383 -0.018 0.803
 -0.379 -0.018 0.806
 -0.374 -0.018 0.809
 -0.37 -0.018 0.812
 -0.366 -0.018 0.816
 -0.362 -0.018 0.82
 -0.358 -0.018 0.825
 -0.354 -0.018 0.83
 -0.35 -0.018 0.834
 -0.346 -0.018 0.839
 -0.342 -0.018 0.844
 -0.338 -0.018 0.849
 -0.334 -0.018 0.854
 -0.331 -0.018 0.86
 -0.326 -0.019 0.864
 -0.321 -0.019 0.866
 -0.316 -0.019 0.868
 -0.311 -0.019 0.869
 -0.305 -0.019 0.87
 -0.3 -0.019 0.871
 -0.294 -0.019 0.872
 -0.289 -0.019 0.872
 -0.283 -0.019 0.873
 -0.278 -0.019 0.875
 -0.273 -0.019 0.876
 -0.268 -0.019 0.88
 -0.264 -0.019 0.885
 -0.261 -0.019 0.894
 -0.258 -0.019 0.903
 -0.257 -0.02 0.917
 -0.257 -0.02 0.942
 -0.259 -0.021 0.971
 -0.259 -0.021 0.993
 -0.257 -0.021 1.011
 -0.255 -0.022 1.029
 -0.251 -0.022 1.038
 -0.243 -0.022 1.032
 -0.235 -0.022 1.024
 -0.227 -0.021 1.017
 -0.216 -0.021 0.993
 -0.204 -0.021 0.966
 -0.196 -0.02 0.952
 -0.187 -0.02 0.935
 -0.178 -0.02 0.917
 -0.172 -0.02 0.918
 -0.167 -0.02 0.92
 -0.161 -0.02 0.918
 -0.158 -0.02 0.928
 -0.153 -0.02 0.931
 -0.148 -0.02 0.939
 -0.145 -0.02 0.953
 -0.141 -0.021 0.965
 -0.146 -0.022 1.04
 -0.16 -0.025 1.193
 -0.171 -0.028 1.339
 -0.177 -0.03 1.455
 -0.177 -0.031 1.525
 -0.175 -0.033 1.591
 -0.168 -0.033 1.614
 -0.158 -0.033 1.608
 -0.147 -0.033 1.591
 -0.136 -0.032 1.564
 -0.123 -0.032 1.523
 -0.111 -0.031 1.47
 -0.098 -0.029 1.409
 -0.085 -0.028 1.339
 -0.073 -0.027 1.261
 -0.062 -0.025 1.181
 -0.052 -0.024 1.101
 -0.042 -0.022 1.026
 -0.034 -0.021 0.968
 -0.028 -0.02 0.933
 -0.022 -0.02 0.918
 -0.017 -0.02 0.92
 -0.012 -0.021 0.931
 -0.006 -0.021 0.938
 -0.001 -0.021 0.936
 0.004 -0.021 0.928
 0.009 -0.02 0.917
 0.014 -0.02 0.907
 0.019 -0.02 0.898
 0.024 -0.02 0.9
 0.03 -0.021 0.927
 0.038 -0.022 0.983
 0.047 -0.023 1.066
 0.059 -0.026 1.18
 0.074 -0.028 1.312
 0.089 -0.031 1.441
 0.105 -0.033 1.543
 0.119 -0.035 1.616
 0.132 -0.036 1.658
 0.142 -0.036 1.661
 0.148 -0.035 1.63
 0.155 -0.034 1.598
 0.162 -0.034 1.581
 0.17 -0.034 1.567
 0.178 -0.034 1.56
 0.188 -0.034 1.566
 0.198 -0.034 1.57
 0.205 -0.034 1.556
 0.212 -0.034 1.542
 0.219 -0.034 1.527
 0.226 -0.033 1.512
 0.232 -0.033 1.497
 0.239 -0.033 1.483
 0.245 -0.033 1.466
 0.251 -0.032 1.452
 0.257 -0.032 1.437
 0.263 -0.032 1.424
 0.268 -0.032 1.407
 0.273 -0.031 1.391
 0.279 -0.031 1.375
 0.285 -0.031 1.368
 0.293 -0.031 1.366
 0.301 -0.031 1.363
 0.304 -0.031 1.34
 0.31 -0.03 1.333
 0.317 -0.03 1.325
 0.32 -0.03 1.307
 0.326 -0.03 1.297
 0.338 -0.03 1.315
 0.347 -0.031 1.318
 0.357 -0.031 1.322
 0.367 -0.031 1.331
 0.376 -0.031 1.332
 0.381 -0.031 1.32
 0.385 -0.031 1.306
 0.389 -0.03 1.291
 0.394 -0.03 1.282
 0.401 -0.03 1.278
 0.406 -0.03 1.266
 0.405 -0.03 1.237
 0.404 -0.029 1.213
 0.403 -0.029 1.187
 0.401 -0.028 1.157
 0.402 -0.028 1.139
 0.407 -0.028 1.13
 0.41 -0.027 1.119
 0.415 -0.027 1.111
 0 0 0
 0 0 0
 0 0 0
 0 0 0
 0.418 -0.026 1.025
 0.425 -0.026 1.024
 0.427 -0.026 1.013
 0.424 -0.025 0.99
 0.422 -0.025 0.967
 0.418 -0.024 0.943
 0.413 -0.024 0.916
 0.41 -0.023 0.895
 0.409 -0.023 0.878
 0.409 -0.023 0.866
 0.411 -0.023 0.855
 0.415 -0.023 0.85
 0.417 -0.022 0.842
 0.422 -0.022 0.838
 0.425 -0.022 0.832
 0.429 -0.022 0.827
 0.432 -0.022 0.82
 0.435 -0.022 0.813
 0.438 -0.022 0.806
 0.44 -0.022 0.798
 0.442 -0.022 0.79
 0.44 -0.022 0.776
 0.442 -0.021 0.767
 -0.376 -0.011 0.674
 -0.376 -0.011 0.685
 -0.388 -0.011 0.719
 -0.394 -0.012 0.741
 -0.399 -0.012 0.762
 -0.403 -0.012 0.78
 -0.402 -0.012 0.79
 -0.398 -0.012 0.795
 -0.393 -0.012 0.798
 -0.389 -0.012 0.801
 -0.384 -0.012 0.803
 -0.379 -0.013 0.806
 -0.375 -0.013 0.81
 -0.37 -0.013 0.813
 -0.366 -0.013 0.817
 -0.362 -0.013 0.822
 -0.358 -0.013 0.826
 -0.354 -0.013 0.83
 -0.35 -0.013 0.834
 -0.346 -0.013 0.839
 -0.342 -0.013 0.843
 -0.337 -0.013 0.847
 -0.333 -0.013 0.852
 -0.329 -0.013 0.856
 -0.324 -0.013 0.859
 -0.319 -0.013 0.86
 -0.314 -0.013 0.861
 -0.308 -0.013 0.862
 -0.302 -0.013 0.862
 -0.297 -0.013 0.863
 -0.291 -0.013 0.863
 -0.286 -0.013 0.864
 -0.281 -0.013 0.865
 -0.275 -0.013 0.866
 -0.27 -0.013 0.867
 -0.265 -0.013 0.869
 -0.26 -0.013 0.871
 -0.255 -0.013 0.873
 -0.25 -0.014 0.874
 -0.245 -0.014 0.876
 -0.241 -0.014 0.88
 -0.237 -0.014 0.888
 -0.233 -0.014 0.893
 -0.229 -0.014 0.899
 -0.226 -0.014 0.908
 -0.222 -0.014 0.917
 -0.218 -0.014 0.922
 -0.213 -0.014 0.926
 -0.208 -0.014 0.928
 -0.201 -0.014 0.923
 -0.194 -0.014 0.914
 -0.188 -0.014 0.913
 -0.181 -0.014 0.907
 -0.175 -0.014 0.902
 -0.169 -0.014 0.902
 -0.164 -0.014 0.903
 -0.158 -0.014 0.9
 -0.154 -0.014 0.908
 -0.149 -0.014 0.91
 -0.145 -0.014 0.917
 -0.141 -0.015 0.93
 -0.137 -0.015 0.94
 -0.14 -0.016 1.001
 -0.15 -0.017 1.118
 -0.159 -0.019 1.243
 -0.165 -0.02 1.352
 -0.166 -0.021 1.431
 -0.165 -0.022 1.498
 -0.157 -0.022 1.508
 -0.147 -0.022 1.49
 -0.135 -0.022 1.46
 -0.123 -0.021 1.421
 -0.111 -0.021 1.371
 -0.099 -0.02 1.313
 -0.087 -0.019 1.247
 -0.075 -0.018 1.173
 -0.064 -0.017 1.092
 -0.053 -0.016 1.012
 -0.044 -0.015 0.941
 -0.037 -0.014 0.885
 -0.03 -0.014 0.845
 -0.025 -0.014 0.823
 -0.02 -0.013 0.816
 -0.015 -0.014 0.815
 -0.01 -0.014 0.817
 -0.006 -0.014 0.818
 -0.001 -0.014 0.818
 0.003 -0.014 0.819
 0.008 -0.014 0.82
 0.012 -0.014 0.819
 0.017 -0.014 0.818
 0.022 -0.014 0.819
 0.027 -0.014 0.829
 0.033 -0.014 0.865
 0.041 -0.015 0.927
 0.051 -0.017 1.019
 0.064 -0.018 1.138
 0.08 -0.021 1.288
 0.097 -0.023 1.424
 0.112 -0.024 1.525
 0.126 -0.025 1.581
 0.136 -0.025 1.595
 0.141 -0.025 1.553
 0.145 -0.024 1.501
 0.153 -0.024 1.489
 0.162 -0.024 1.495
 0.173 -0.024 1.512
 0.185 -0.025 1.541
 0.197 -0.025 1.566
 0.205 -0.025 1.555
 0.212 -0.025 1.541
 0.219 -0.025 1.526
 0.225 -0.024 1.511
 0.232 -0.024 1.493
 0.238 -0.024 1.478
 0.243 -0.024 1.459
 0.249 -0.024 1.442
 0.255 -0.024 1.426
 0.261 -0.023 1.413
 0.267 -0.023 1.398
 0.273 -0.023 1.386
 0.279 -0.023 1.376
 0.286 -0.023 1.369
 0.293 -0.023 1.365
 0.3 -0.023 1.36
 0.306 -0.023 1.352
 0.313 -0.023 1.343
 0.319 -0.023 1.333
 0.323 -0.022 1.316
 0.328 -0.022 1.307
 0.337 -0.023 1.31
 0.345 -0.023 1.31
 0.353 -0.023 1.31
 0.362 -0.023 1.312
 0.369 -0.023 1.308
 0.374 -0.023 1.295
 0.378 -0.022 1.283
 0.382 -0.022 1.269
 0.388 -0.022 1.26
 0.394 -0.022 1.254
 0.397 -0.022 1.24
 0.403 -0.022 1.232
 0.407 -0.022 1.22
 0.41 -0.022 1.205
 0.411 -0.021 1.187
 0.413 -0.021 1.171
 0.416 -0.021 1.157
 0.419 -0.021 1.144
 0.423 -0.021 1.132
 0 0 0
 0 0 0
 0 0 0
 0.398 -0.019 0.993
 0.411 -0.019 1.009
 0.419 -0.019 1.01
 0.423 -0.019 1.002
 0.425 -0.019 0.991
 0.427 -0.019 0.978
 0.425 -0.019 0.958
 0.422 -0.018 0.937
 0.42 -0.018 0.917
 0.419 -0.018 0.9
 0.418 -0.018 0.885
 0.418 -0.017 0.87
 0.418 -0.017 0.857
 0.419 -0.017 0.846
 0.421 -0.017 0.836
 0.423 -0.017 0.827
 0.425 -0.017 0.818
 0.427 -0.017 0.811
 0.429 -0.017 0.803
 0.432 -0.017 0.795
 0.435 -0.017 0.789
 0.437 -0.017 0.782
 0.444 -0.017 0.783
 0.445 -0.017 0.774
 -0.378 -0.007 0.678
 -0.377 -0.007 0.687
 -0.391 -0.007 0.723
 -0.397 -0.007 0.746
 -0.402 -0.007 0.767
 -0.405 -0.007 0.785
 -0.403 -0.007 0.794
 -0.399 -0.007 0.798
 -0.394 -0.007 0.801
 -0.39 -0.007 0.804
 -0.385 -0.007 0.806
 -0.38 -0.007 0.809
 -0.376 -0.007 0.812
 -0.371 -0.008 0.815
 -0.367 -0.008 0.819
 -0.363 -0.008 0.824
 -0.359 -0.008 0.828
 -0.354 -0.008 0.831
 -0.35 -0.008 0.835
 -0.346 -0.008 0.839
 -0.341 -0.008 0.843
 -0.337 -0.008 0.846
 -0.333 -0.008 0.85
 -0.328 -0.008 0.853
 -0.323 -0.008 0.855
 -0.317 -0.008 0.856
 -0.312 -0.008 0.856
 -0.306 -0.008 0.856
 -0.3 -0.008 0.856
 -0.295 -0.008 0.857
 -0.29 -0.008 0.858
 -0.284 -0.008 0.859
 -0.279 -0.008 0.861
 -0.274 -0.008 0.862
 -0.269 -0.008 0.863
 -0.264 -0.008 0.864
 -0.259 -0.008 0.865
 -0.253 -0.008 0.866
 -0.248 -0.008 0.866
 -0.242 -0.008 0.866
 -0.237 -0.008 0.866
 -0.232 -0.008 0.867
 -0.227 -0.008 0.868
 -0.221 -0.008 0.869
 -0.216 -0.008 0.87
 -0.211 -0.008 0.872
 -0.206 -0.008 0.874
 -0.201 -0.008 0.873
 -0.195 -0.008 0.872
 -0.19 -0.008 0.87
 -0.184 -0.008 0.868
 -0.179 -0.009 0.868
 -0.174 -0.009 0.87
 -0.169 -0.009 0.873
 -0.165 -0.009 0.878
 -0.16 -0.009 0.882
 -0.156 -0.009 0.888
 -0.152 -0.009 0.894
 -0.147 -0.009 0.896
 -0.142 -0.009 0.902
 -0.139 -0.009 0.912
 -0.134 -0.009 0.92
 -0.135 -0.009 0.963
 -0.14 -0.01 1.048
 -0.146 -0.011 1.142
 -0.15 -0.012 1.233
 -0.151 -0.012 1.306
 -0.149 -0.013 1.355
 -0.142 -0.013 1.358
 -0.132 -0.012 1.339
 -0.121 -0.012 1.307
 -0.11 -0.012 1.265
 -0.098 -0.012 1.211
 -0.087 -0.011 1.149
 -0.075 -0.011 1.08
 -0.065 -0.01 1.006
 -0.055 -0.01 0.936
 -0.047 -0.009 0.881
 -0.04 -0.009 0.841
 -0.034 -0.009 0.819
 -0.029 -0.009 0.811
 -0.024 -0.009 0.81
 -0.02 -0.009 0.81
 -0.015 -0.009 0.812
 -0.01 -0.009 0.815
 -0.006 -0.009 0.818
 -0.001 -0.009 0.822
 0.003 -0.009 0.826
 0.008 -0.009 0.828
 0.013 -0.009 0.827
 0.017 -0.009 0.825
 0.022 -0.009 0.82
 0.026 -0.009 0.816
 0.031 -0.009 0.819
 0.037 -0.009 0.846
 0.045 -0.01 0.903
 0.055 -0.011 0.988
 0.069 -0.012 1.12
 0.086 -0.013 1.274
 0.102 -0.014 1.389
 0.116 -0.015 1.458
 0.126 -0.015 1.484
 0.132 -0.015 1.449
 0.134 -0.014 1.389
 0.143 -0.014 1.395
 0.154 -0.015 1.425
 0.168 -0.015 1.467
 0.182 -0.016 1.52
 0.197 -0.016 1.567
 0.206 -0.016 1.562
 0.213 -0.016 1.547
 0.22 -0.016 1.531
 0.226 -0.016 1.514
 0.232 -0.016 1.496
 0.238 -0.016 1.48
 0.244 -0.015 1.463
 0.25 -0.015 1.448
 0.256 -0.015 1.432
 0.262 -0.015 1.419
 0.268 -0.015 1.404
 0.274 -0.015 1.392
 0.28 -0.015 1.381
 0.286 -0.015 1.373
 0.294 -0.015 1.368
 0.301 -0.015 1.362
 0.307 -0.015 1.353
 0.313 -0.015 1.342
 0.318 -0.015 1.332
 0.323 -0.015 1.316
 0.328 -0.015 1.307
 0.337 -0.015 1.308
 0.344 -0.015 1.306
 0.352 -0.015 1.304
 0.36 -0.015 1.303
 0.365 -0.015 1.294
 0.369 -0.015 1.279
 0.372 -0.015 1.263
 0.376 -0.015 1.248
 0.38 -0.014 1.236
 0.385 -0.014 1.227
 0.388 -0.014 1.211
 0.393 -0.014 1.202
 0.397 -0.014 1.19
 0.4 -0.014 1.176
 0.402 -0.014 1.16
 0.405 -0.014 1.146
 0.408 -0.014 1.135
 0.412 -0.014 1.124
 0.415 -0.014 1.113
 0.418 -0.014 1.101
 0 0 0
 0 0 0
 0.392 -0.013 0.978
 0.407 -0.013 0.998
 0.415 -0.013 1.002
 0.421 -0.013 0.999
 0.426 -0.013 0.992
 0.431 -0.013 0.988
 0.43 -0.013 0.971
 0.429 -0.013 0.952
 0.427 -0.013 0.933
 0.426 -0.012 0.916
 0.426 -0.012 0.901
 0.425 -0.012 0.885
 0.425 -0.012 0.871
 0.425 -0.012 0.857
 0.425 -0.012 0.845
 0.427 -0.012 0.835
 0.428 -0.012 0.826
 0.43 -0.012 0.817
 0.433 -0.012 0.809
 0.435 -0.012 0.801
 0.437 -0.012 0.794
 0.44 -0.012 0.787
 0.443 -0.012 0.781
 0.446 -0.012 0.774
 -0.378 -0.002 0.678
 -0.379 -0.002 0.691
 -0.393 -0.002 0.728
 -0.4 -0.002 0.751
 -0.405 -0.002 0.772
 -0.407 -0.002 0.789
 -0.405 -0.002 0.797
 -0.4 -0.002 0.8
 -0.396 -0.002 0.803
 -0.391 -0.002 0.806
 -0.386 -0.002 0.809
 -0.382 -0.002 0.812
 -0.377 -0.002 0.815
 -0.373 -0.002 0.818
 -0.368 -0.002 0.822
 -0.364 -0.002 0.826
 -0.36 -0.003 0.83
 -0.355 -0.003 0.833
 -0.35 -0.003 0.836
 -0.346 -0.003 0.839
 -0.341 -0.003 0.842
 -0.337 -0.003 0.846
 -0.332 -0.003 0.849
 -0.327 -0.003 0.851
 -0.321 -0.003 0.851
 -0.316 -0.003 0.851
 -0.31 -0.003 0.851
 -0.304 -0.003 0.851
 -0.299 -0.003 0.851
 -0.293 -0.003 0.852
 -0.288 -0.003 0.854
 -0.283 -0.003 0.856
 -0.278 -0.003 0.858
 -0.273 -0.003 0.859
 -0.268 -0.003 0.86
 -0.263 -0.003 0.861
 -0.257 -0.003 0.861
 -0.252 -0.003 0.861
 -0.246 -0.003 0.861
 -0.241 -0.003 0.86
 -0.235 -0.003 0.86
 -0.23 -0.003 0.861
 -0.225 -0.003 0.861
 -0.219 -0.003 0.861
 -0.214 -0.003 0.861
 -0.209 -0.003 0.86
 -0.203 -0.003 0.858
 -0.197 -0.003 0.856
 -0.191 -0.003 0.854
 -0.186 -0.003 0.853
 -0.181 -0.003 0.852
 -0.175 -0.003 0.852
 -0.17 -0.003 0.852
 -0.165 -0.003 0.852
 -0.16 -0.003 0.853
 -0.155 -0.003 0.854
 -0.151 -0.003 0.857
 -0.146 -0.004 0.858
 -0.141 -0.004 0.86
 -0.137 -0.004 0.864
 -0.133 -0.004 0.873
 -0.129 -0.004 0.886
 -0.129 -0.004 0.919
 -0.131 -0.004 0.98
 -0.134 -0.004 1.049
 -0.136 -0.004 1.113
 -0.136 -0.004 1.172
 -0.133 -0.004 1.207
 -0.126 -0.004 1.204
 -0.117 -0.004 1.182
 -0.107 -0.004 1.148
 -0.096 -0.004 1.103
 -0.085 -0.004 1.047
 -0.075 -0.004 0.985
 -0.065 -0.004 0.928
 -0.057 -0.004 0.88
 -0.049 -0.004 0.842
 -0.043 -0.004 0.819
 -0.038 -0.004 0.81
 -0.033 -0.004 0.808
 -0.029 -0.004 0.808
 -0.024 -0.004 0.81
 -0.02 -0.004 0.812
 -0.015 -0.004 0.816
 -0.01 -0.004 0.823
 -0.006 -0.004 0.837
 -0.001 -0.004 0.867
 0.003 -0.004 0.893
 0.009 -0.004 0.904
 0.014 -0.004 0.901
 0.019 -0.004 0.888
 0.023 -0.004 0.857
 0.027 -0.004 0.829
 0.031 -0.004 0.814
 0.036 -0.004 0.813
 0.042 -0.004 0.834
 0.049 -0.005 0.884
 0.061 -0.005 0.983
 0.076 -0.005 1.119
 0.091 -0.006 1.238
 0.105 -0.006 1.319
 0.116 -0.006 1.358
 0.121 -0.006 1.334
 0.124 -0.006 1.281
 0.134 -0.006 1.309
 0.148 -0.006 1.364
 0.163 -0.006 1.431
 0.181 -0.007 1.51
 0.198 -0.007 1.577
 0.207 -0.007 1.574
 0.215 -0.007 1.559
 0.221 -0.007 1.544
 0.228 -0.007 1.529
 0.234 -0.007 1.511
 0.241 -0.007 1.496
 0.247 -0.007 1.479
 0.253 -0.007 1.463
 0.259 -0.007 1.447
 0.264 -0.007 1.431
 0.27 -0.007 1.416
 0.276 -0.007 1.404
 0.282 -0.007 1.392
 0.289 -0.007 1.384
 0.295 -0.007 1.376
 0.302 -0.007 1.366
 0.308 -0.007 1.357
 0.313 -0.007 1.345
 0.318 -0.007 1.332
 0.324 -0.007 1.321
 0.33 -0.007 1.313
 0.337 -0.007 1.309
 0.344 -0.007 1.306
 0.352 -0.007 1.305
 0.359 -0.007 1.3
 0.364 -0.007 1.29
 0.368 -0.007 1.275
 0.37 -0.007 1.254
 0.37 -0.007 1.229
 0.371 -0.007 1.207
 0.371 -0.007 1.183
 0.37 -0.007 1.155
 0.369 -0.007 1.128
 0.369 -0.007 1.106
 0.368 -0.007 1.083
 0.369 -0.007 1.065
 0.376 -0.007 1.065
 0.374 -0.007 1.039
 0.378 -0.007 1.03
 0.381 -0.007 1.02
 0.378 -0.007 0.995
 0 0 0
 0 0 0
 0.365 -0.006 0.91
 0.388 -0.007 0.95
 0.399 -0.007 0.962
 0.407 -0.007 0.965
 0.414 -0.007 0.964
 0.425 -0.007 0.974
 0.428 -0.007 0.965
 0.43 -0.007 0.954
 0.431 -0.007 0.941
 0.431 -0.007 0.927
 0.432 -0.007 0.914
 0.431 -0.007 0.898
 0.43 -0.007 0.882
 0.43 -0.007 0.868
 0.43 -0.007 0.854
 0.43 -0.007 0.842
 0.431 -0.006 0.832
 0.433 -0.006 0.822
 0.435 -0.006 0.813
 0.437 -0.006 0.805
 0.439 -0.006 0.797
 0.442 -0.006 0.79
 0.444 -0.006 0.782
 0.446 -0.006 0.775
 -0.378 0.001 0.679
 -0.38 0.001 0.692
 -0.396 0.002 0.733
 -0.402 0.002 0.756
 -0.407 0.002 0.778
 -0.409 0.002 0.794
 -0.406 0.002 0.8
 -0.402 0.002 0.803
 -0.397 0.002 0.806
 -0.392 0.002 0.809
 -0.388 0.002 0.812
 -0.383 0.002 0.815
 -0.378 0.002 0.818
 -0.374 0.002 0.821
 -0.369 0.002 0.824
 -0.365 0.002 0.828
 -0.36 0.002 0.831
 -0.355 0.002 0.833
 -0.351 0.002 0.836
 -0.346 0.002 0.84
 -0.341 0.002 0.842
 -0.336 0.002 0.845
 -0.332 0.002 0.848
 -0.326 0.001 0.848
 -0.32 0.001 0.848
 -0.314 0.001 0.848
 -0.309 0.001 0.848
 -0.303 0.001 0.847
 -0.298 0.001 0.848
 -0.293 0.001 0.85
 -0.288 0.001 0.852
 -0.283 0.001 0.854
 -0.278 0.001 0.856
 -0.273 0.001 0.857
 -0.267 0.001 0.858
 -0.262 0.001 0.858
 -0.256 0.001 0.857
 -0.25 0.001 0.856
 -0.245 0.001 0.856
 -0.239 0.001 0.855
 -0.234 0.001 0.856
 -0.229 0.001 0.857
 -0.224 0.001 0.857
 -0.218 0.001 0.855
 -0.212 0.001 0.854
 -0.207 0.001 0.852
 -0.201 0.001 0.85
 -0.195 0.001 0.848
 -0.19 0.001 0.847
 -0.185 0.001 0.846
 -0.179 0.001 0.846
 -0.174 0.001 0.845
 -0.169 0.001 0.844
 -0.163 0.001 0.843
 -0.158 0.001 0.843
 -0.153 0 0.842
 -0.148 0 0.842
 -0.143 0 0.842
 -0.138 0 0.843
 -0.134 0 0.846
 -0.13 0 0.852
 -0.126 0 0.86
 -0.123 0 0.88
 -0.123 0.001 0.915
 -0.123 0.001 0.956
 -0.122 0.001 0.995
 -0.12 0.001 1.03
 -0.116 0.001 1.05
 -0.109 0.001 1.043
 -0.101 0.001 1.02
 -0.092 0.001 0.984
 -0.082 0 0.942
 -0.074 0 0.9
 -0.066 0 0.865
 -0.059 0 0.839
 -0.053 0 0.823
 -0.048 0 0.813
 -0.043 0 0.808
 -0.038 0 0.807
 -0.033 0 0.808
 -0.029 0 0.81
 -0.024 0 0.814
 -0.02 0 0.819
 -0.015 0 0.831
 -0.011 0 0.861
 -0.006 0 0.906
 -0.001 0 0.967
 0.004 0 1.024
 0.01 0 1.057
 0.016 0 1.034
 0.021 0 0.99
 0.025 0 0.926
 0.028 0 0.864
 0.031 0 0.819
 0.036 0 0.81
 0.04 0 0.808
 0.046 0 0.824
 0.055 0 0.888
 0.067 0 0.994
 0.081 0 1.1
 0.094 0 1.187
 0.106 0.001 1.244
 0.113 0 1.239
 0.117 0 1.209
 0.128 0 1.248
 0.143 0.001 1.317
 0.16 0.001 1.398
 0.179 0.001 1.492
 0.198 0.001 1.57
 0.207 0.001 1.571
 0.214 0.001 1.558
 0.222 0.001 1.545
 0.229 0.001 1.532
 0.235 0.001 1.514
 0.241 0.001 1.498
 0.247 0.001 1.482
 0.253 0.001 1.465
 0.259 0 1.448
 0.265 0 1.433
 0.271 0 1.42
 0.277 0 1.407
 0.283 0 1.398
 0.29 0 1.389
 0.296 0 1.379
 0.302 0 1.369
 0.308 0 1.358
 0.313 0 1.344
 0.318 0 1.33
 0.323 0 1.319
 0.33 0 1.312
 0.337 0 1.31
 0.345 0 1.311
 0.354 0 1.311
 0.36 0 1.306
 0.366 0 1.296
 0.369 0 1.277
 0.368 0 1.249
 0.367 0 1.218
 0.366 0 1.188
 0.352 0 1.121
 0.342 0 1.066
 0.334 0 1.021
 0.334 0 1.001
 0.328 0 0.963
 0.331 0 0.955
 0.339 0 0.959
 0.333 -0.001 0.924
 0.321 -0.001 0.874
 0.31 -0.001 0.828
 0.278 -0.001 0.729
 0.208 -0.001 0.534
 0.199 -0.001 0.503
 0.277 -0.001 0.69
 0.324 -0.001 0.794
 0.356 -0.001 0.858
 0.372 -0.001 0.88
 0.391 -0.001 0.911
 0.41 -0.001 0.941
 0.42 -0.001 0.948
 0.427 -0.001 0.948
 0.431 -0.001 0.942
 0.434 -0.001 0.933
 0.436 -0.001 0.922
 0.436 -0.001 0.907
 0.435 -0.001 0.892
 0.434 -0.001 0.876
 0.434 -0.001 0.862
 0.433 -0.001 0.848
 0.434 -0.001 0.836
 0.435 -0.001 0.825
 0.436 -0.001 0.815
 0.438 -0.001 0.807
 0.44 -0.001 0.798
 0.442 -0.001 0.791
 0.445 -0.001 0.783
 0.449 -0.001 0.779
 -0.377 0.006 0.676
 -0.383 0.006 0.698
 -0.396 0.006 0.734
 -0.403 0.007 0.758
 -0.409 0.007 0.78
 -0.411 0.007 0.797
 -0.408 0.007 0.803
 -0.403 0.007 0.807
 -0.399 0.007 0.809
 -0.394 0.007 0.812
 -0.389 0.007 0.814
 -0.384 0.007 0.817
 -0.379 0.007 0.82
 -0.374 0.007 0.822
 -0.37 0.007 0.825
 -0.365 0.007 0.829
 -0.36 0.007 0.831
 -0.355 0.007 0.834
 -0.351 0.007 0.837
 -0.346 0.007 0.839
 -0.341 0.007 0.842
 -0.336 0.007 0.844
 -0.331 0.007 0.845
 -0.325 0.007 0.846
 -0.319 0.007 0.846
 -0.314 0.007 0.846
 -0.308 0.007 0.846
 -0.303 0.006 0.847
 -0.297 0.006 0.848
 -0.292 0.006 0.849
 -0.287 0.006 0.851
 -0.282 0.006 0.853
 -0.277 0.006 0.855
 -0.272 0.006 0.855
 -0.267 0.006 0.855
 -0.261 0.006 0.854
 -0.255 0.006 0.853
 -0.249 0.006 0.853
 -0.244 0.006 0.853
 -0.238 0.006 0.852
 -0.233 0.006 0.853
 -0.228 0.006 0.853
 -0.223 0.006 0.853
 -0.217 0.006 0.851
 -0.211 0.006 0.849
 -0.205 0.006 0.847
 -0.2 0.006 0.845
 -0.194 0.006 0.843
 -0.189 0.006 0.842
 -0.183 0.006 0.841
 -0.178 0.006 0.839
 -0.173 0.006 0.838
 -0.167 0.005 0.838
 -0.162 0.005 0.836
 -0.157 0.005 0.836
 -0.152 0.005 0.834
 -0.147 0.005 0.834
 -0.142 0.005 0.835
 -0.137 0.005 0.836
 -0.132 0.005 0.838
 -0.128 0.005 0.841
 -0.123 0.005 0.844
 -0.119 0.005 0.848
 -0.115 0.005 0.855
 -0.111 0.005 0.866
 -0.108 0.005 0.878
 -0.104 0.006 0.888
 -0.099 0.006 0.893
 -0.093 0.005 0.888
 -0.087 0.005 0.876
 -0.08 0.005 0.861
 -0.074 0.005 0.845
 -0.068 0.005 0.832
 -0.063 0.005 0.823
 -0.057 0.005 0.817
 -0.052 0.005 0.811
 -0.047 0.005 0.808
 -0.043 0.004 0.806
 -0.038 0.004 0.807
 -0.034 0.004 0.81
 -0.029 0.004 0.815
 -0.024 0.005 0.822
 -0.02 0.005 0.836
 -0.016 0.005 0.871
 -0.011 0.005 0.932
 -0.006 0.006 1.008
 -0.001 0.007 1.101
 0.005 0.008 1.18
 0.012 0.008 1.219
 0.019 0.008 1.184
 0.024 0.007 1.109
 0.028 0.006 1.014
 0.03 0.005 0.919
 0.032 0.004 0.841
 0.036 0.004 0.812
 0.04 0.004 0.805
 0.045 0.004 0.804
 0.051 0.004 0.834
 0.061 0.005 0.908
 0.074 0.006 1.004
 0.086 0.006 1.088
 0.099 0.007 1.166
 0.11 0.007 1.208
 0.118 0.007 1.224
 0.13 0.008 1.271
 0.145 0.008 1.342
 0.162 0.009 1.416
 0.18 0.01 1.495
 0.196 0.01 1.558
 0.206 0.01 1.56
 0.213 0.01 1.549
 0.22 0.01 1.534
 0.227 0.01 1.52
 0.233 0.01 1.501
 0.239 0.009 1.482
 0.245 0.009 1.467
 0.25 0.009 1.446
 0.255 0.009 1.426
 0.261 0.009 1.413
 0.266 0.008 1.397
 0.271 0.008 1.377
 0.278 0.008 1.369
 0.283 0.008 1.356
 0.289 0.008 1.344
 0.295 0.008 1.337
 0.3 0.008 1.323
 0.306 0.008 1.316
 0.315 0.008 1.318
 0.324 0.008 1.321
 0.334 0.008 1.33
 0.347 0.008 1.347
 0.357 0.008 1.353
 0.364 0.008 1.348
 0.362 0.007 1.31
 0.365 0.007 1.293
 0.355 0.007 1.231
 0.342 0.006 1.159
 0.328 0.005 1.087
 0.321 0.005 1.041
 0.298 0.004 0.949
 0.29 0.004 0.904
 0.284 0.004 0.866
 0.283 0.004 0.849
 0.278 0.003 0.816
 0.281 0.003 0.81
 0.285 0.003 0.805
 0.276 0.003 0.764
 0.261 0.002 0.71
 0.246 0.002 0.656
 0.216 0.001 0.565
 0.178 0 0.457
 0.171 0 0.43
 0.217 0.001 0.54
 0.26 0.002 0.635
 0.296 0.002 0.711
 0.319 0.003 0.754
 0.345 0.003 0.803
 0.367 0.003 0.84
 0.385 0.003 0.867
 0.401 0.004 0.889
 0.415 0.004 0.906
 0.427 0.004 0.917
 0.435 0.004 0.92
 0.438 0.004 0.912
 0.438 0.004 0.898
 0.438 0.004 0.883
 0.437 0.003 0.868
 0.436 0.003 0.854
 0.436 0.003 0.841
 0.437 0.003 0.829
 0.438 0.003 0.818
 0.439 0.003 0.809
 0.441 0.003 0.8
 0.443 0.003 0.792
 0.447 0.003 0.788
 0.449 0.003 0.78
 -0.378 0.01 0.679
 -0.381 0.01 0.694
 -0.392 0.011 0.726
 -0.399 0.011 0.75
 -0.404 0.012 0.771
 -0.407 0.012 0.79
 -0.407 0.012 0.801
 -0.403 0.012 0.807
 -0.399 0.012 0.811
 -0.394 0.012 0.814
 -0.39 0.012 0.816
 -0.385 0.012 0.818
 -0.38 0.012 0.821
 -0.375 0.012 0.824
 -0.37 0.012 0.826
 -0.365 0.012 0.829
 -0.36 0.012 0.832
 -0.356 0.012 0.834
 -0.351 0.012 0.837
 -0.346 0.012 0.839
 -0.341 0.012 0.841
 -0.335 0.012 0.843
 -0.33 0.012 0.844
 -0.325 0.012 0.845
 -0.319 0.012 0.846
 -0.314 0.012 0.846
 -0.308 0.012 0.846
 -0.303 0.012 0.847
 -0.297 0.012 0.848
 -0.292 0.012 0.849
 -0.287 0.012 0.851
 -0.282 0.012 0.852
 -0.277 0.011 0.853
 -0.271 0.011 0.853
 -0.266 0.011 0.853
 -0.26 0.011 0.852
 -0.254 0.011 0.851
 -0.249 0.011 0.85
 -0.243 0.011 0.851
 -0.238 0.011 0.851
 -0.233 0.011 0.851
 -0.227 0.011 0.851
 -0.222 0.011 0.849
 -0.216 0.011 0.847
 -0.21 0.011 0.846
 -0.205 0.011 0.844
 -0.199 0.011 0.842
 -0.193 0.011 0.84
 -0.188 0.011 0.839
 -0.182 0.01 0.837
 -0.177 0.01 0.835
 -0.172 0.01 0.834
 -0.167 0.01 0.833
 -0.161 0.01 0.832
 -0.156 0.01 0.831
 -0.151 0.01 0.83
 -0.146 0.01 0.83
 -0.141 0.01 0.831
 -0.137 0.01 0.832
 -0.132 0.01 0.834
 -0.127 0.01 0.836
 -0.122 0.01 0.837
 -0.118 0.01 0.838
 -0.113 0.01 0.838
 -0.108 0.01 0.839
 -0.103 0.01 0.84
 -0.098 0.01 0.841
 -0.093 0.01 0.84
 -0.088 0.01 0.839
 -0.083 0.01 0.836
 -0.078 0.01 0.831
 -0.072 0.01 0.826
 -0.067 0.01 0.821
 -0.062 0.009 0.816
 -0.057 0.009 0.811
 -0.052 0.009 0.807
 -0.047 0.009 0.804
 -0.042 0.009 0.802
 -0.038 0.009 0.804
 -0.033 0.009 0.808
 -0.029 0.009 0.814
 -0.024 0.009 0.82
 -0.02 0.009 0.835
 -0.016 0.01 0.874
 -0.012 0.011 0.946
 -0.007 0.012 1.043
 -0.001 0.014 1.158
 0.006 0.016 1.256
 0.014 0.016 1.305
 0.02 0.016 1.269
 0.026 0.014 1.181
 0.029 0.013 1.07
 0.032 0.011 0.965
 0.034 0.01 0.873
 0.037 0.009 0.833
 0.041 0.009 0.822
 0.045 0.009 0.814
 0.05 0.009 0.818
 0.059 0.01 0.87
 0.071 0.011 0.965
 0.084 0.012 1.06
 0.098 0.014 1.153
 0.112 0.015 1.232
 0.124 0.015 1.281
 0.137 0.016 1.33
 0.15 0.017 1.379
 0.164 0.017 1.433
 0.179 0.018 1.492
 0.193 0.019 1.534
 0.202 0.019 1.535
 0.21 0.019 1.528
 0.217 0.018 1.513
 0.224 0.018 1.499
 0.23 0.018 1.484
 0.235 0.018 1.459
 0.241 0.017 1.443
 0.246 0.017 1.42
 0.25 0.017 1.396
 0.256 0.016 1.384
 0.261 0.016 1.366
 0.263 0.016 1.336
 0.269 0.016 1.327
 0.273 0.015 1.308
 0.277 0.015 1.289
 0.282 0.015 1.276
 0.288 0.015 1.271
 0.298 0.015 1.279
 0.312 0.015 1.303
 0.326 0.015 1.328
 0.341 0.016 1.358
 0.355 0.016 1.379
 0.358 0.016 1.359
 0.355 0.015 1.316
 0.342 0.014 1.237
 0.333 0.013 1.179
 0.312 0.012 1.079
 0.291 0.011 0.987
 0.273 0.009 0.906
 0.263 0.009 0.852
 0.242 0.008 0.77
 0.236 0.007 0.733
 0.231 0.007 0.703
 0.229 0.006 0.686
 0.225 0.006 0.66
 0.228 0.006 0.655
 0.228 0.006 0.644
 0.22 0.005 0.61
 0.21 0.005 0.57
 0.199 0.004 0.531
 0.181 0.003 0.473
 0.165 0.003 0.424
 0.161 0.003 0.405
 0.186 0.003 0.46
 0.214 0.004 0.522
 0.243 0.005 0.583
 0.267 0.006 0.63
 0.293 0.006 0.682
 0.313 0.007 0.717
 0.333 0.007 0.75
 0.352 0.008 0.78
 0.372 0.008 0.812
 0.392 0.009 0.842
 0.41 0.009 0.867
 0.422 0.009 0.878
 0.429 0.009 0.879
 0.433 0.009 0.874
 0.436 0.009 0.866
 0.437 0.009 0.854
 0.437 0.009 0.843
 0.439 0.008 0.833
 0.44 0.008 0.823
 0.441 0.008 0.813
 0.443 0.008 0.803
 0.445 0.008 0.796
 0.445 0.008 0.784
 0.448 0.008 0.777
 -0.38 0.015 0.682
 -0.383 0.015 0.698
 -0.387 0.015 0.717
 -0.392 0.016 0.736
 -0.396 0.016 0.756
 -0.4 0.017 0.776
 -0.401 0.017 0.79
 -0.4 0.017 0.8
 -0.398 0.017 0.808
 -0.394 0.017 0.813
 -0.39 0.017 0.816
 -0.385 0.017 0.819
 -0.38 0.017 0.822
 -0.375 0.017 0.825
 -0.371 0.017 0.828
 -0.366 0.017 0.83
 -0.361 0.017 0.833
 -0.356 0.017 0.835
 -0.351 0.017 0.837
 -0.345 0.017 0.838
 -0.34 0.017 0.84
 -0.335 0.017 0.842
 -0.33 0.017 0.843
 -0.325 0.017 0.844
 -0.319 0.017 0.845
 -0.314 0.017 0.846
 -0.308 0.017 0.846
 -0.303 0.017 0.847
 -0.297 0.017 0.848
 -0.292 0.017 0.849
 -0.287 0.017 0.85
 -0.282 0.017 0.852
 -0.276 0.017 0.852
 -0.271 0.017 0.851
 -0.265 0.016 0.851
 -0.259 0.016 0.85
 -0.254 0.016 0.849
 -0.248 0.016 0.848
 -0.243 0.016 0.849
 -0.238 0.016 0.849
 -0.232 0.016 0.849
 -0.227 0.016 0.848
 -0.221 0.016 0.846
 -0.215 0.016 0.844
 -0.21 0.016 0.843
 -0.204 0.016 0.841
 -0.198 0.016 0.839
 -0.193 0.016 0.837
 -0.187 0.015 0.836
 -0.182 0.015 0.833
 -0.176 0.015 0.831
 -0.171 0.015 0.831
 -0.166 0.015 0.83
 -0.161 0.015 0.829
 -0.156 0.015 0.828
 -0.151 0.015 0.828
 -0.146 0.015 0.829
 -0.141 0.015 0.83
 -0.136 0.015 0.832
 -0.132 0.015 0.834
 -0.127 0.015 0.835
 -0.122 0.015 0.835
 -0.117 0.015 0.835
 -0.112 0.015 0.835
 -0.107 0.015 0.835
 -0.103 0.015 0.836
 -0.098 0.015 0.835
 -0.093 0.015 0.834
 -0.087 0.015 0.832
 -0.082 0.015 0.828
 -0.077 0.014 0.823
 -0.072 0.014 0.819
 -0.067 0.014 0.815
 -0.062 0.014 0.811
 -0.057 0.014 0.807
 -0.052 0.014 0.803
 -0.047 0.014 0.8
 -0.042 0.014 0.799
 -0.038 0.014 0.8
 -0.033 0.014 0.804
 -0.029 0.014 0.808
 -0.024 0.014 0.813
 -0.02 0.014 0.826
 -0.016 0.015 0.863
 -0.011 0.016 0.934
 -0.007 0.018 1.031
 -0.001 0.021 1.147
 0.006 0.023 1.252
 0.014 0.024 1.309
 0.021 0.023 1.279
 0.026 0.021 1.197
 0.03 0.019 1.091
 0.032 0.017 0.984
 0.034 0.015 0.89
 0.038 0.014 0.85
 0.042 0.014 0.841
 0.047 0.014 0.838
 0.052 0.014 0.844
 0.06 0.015 0.887
 0.073 0.017 0.988
 0.087 0.019 1.093
 0.101 0.021 1.191
 0.117 0.023 1.28
 0.13 0.024 1.347
 0.143 0.025 1.388
 0.153 0.025 1.412
 0.165 0.026 1.445
 0.178 0.027 1.483
 0.189 0.027 1.503
 0.197 0.027 1.496
 0.206 0.027 1.494
 0.213 0.027 1.481
 0.22 0.026 1.47
 0.227 0.026 1.46
 0.231 0.026 1.434
 0.236 0.025 1.413
 0.238 0.024 1.379
 0.241 0.024 1.345
 0.244 0.023 1.32
 0.245 0.023 1.283
 0.243 0.022 1.234
 0.247 0.021 1.219
 0.252 0.021 1.205
 0.258 0.021 1.199
 0.264 0.021 1.197
 0.279 0.021 1.228
 0.296 0.022 1.271
 0.313 0.023 1.308
 0.328 0.023 1.335
 0.342 0.024 1.362
 0.348 0.024 1.351
 0.34 0.023 1.29
 0.326 0.021 1.208
 0.302 0.019 1.094
 0.286 0.017 1.013
 0.261 0.015 0.902
 0.238 0.013 0.805
 0.216 0.011 0.715
 0.203 0.01 0.657
 0.186 0.009 0.589
 0.183 0.008 0.567
 0.179 0.008 0.545
 0.177 0.007 0.529
 0.175 0.007 0.511
 0.176 0.007 0.506
 0.173 0.007 0.486
 0.171 0.006 0.473
 0.168 0.006 0.455
 0.166 0.006 0.441
 0.16 0.005 0.417
 0.159 0.005 0.407
 0.156 0.005 0.392
 0.167 0.005 0.413
 0.181 0.006 0.441
 0.2 0.007 0.479
 0.219 0.007 0.516
 0.241 0.008 0.56
 0.26 0.009 0.594
 0.279 0.01 0.627
 0.299 0.01 0.661
 0.32 0.011 0.698
 0.343 0.012 0.735
 0.367 0.012 0.774
 0.385 0.013 0.802
 0.401 0.013 0.822
 0.414 0.014 0.836
 0.426 0.014 0.846
 0.432 0.014 0.844
 0.437 0.014 0.841
 0.44 0.014 0.834
 0.441 0.014 0.824
 0.441 0.013 0.812
 0.442 0.013 0.801
 0.443 0.013 0.792
 0.446 0.013 0.786
 0.449 0.013 0.779
 -0.38 0.019 0.681
 -0.381 0.019 0.694
 -0.38 0.019 0.702
 -0.382 0.02 0.718
 -0.385 0.02 0.734
 -0.389 0.021 0.754
 -0.392 0.021 0.771
 -0.393 0.022 0.785
 -0.392 0.022 0.796
 -0.391 0.022 0.806
 -0.388 0.022 0.813
 -0.384 0.022 0.817
 -0.38 0.022 0.821
 -0.375 0.022 0.824
 -0.371 0.022 0.827
 -0.366 0.022 0.83
 -0.361 0.022 0.833
 -0.356 0.022 0.835
 -0.351 0.022 0.837
 -0.346 0.022 0.839
 -0.341 0.022 0.841
 -0.336 0.022 0.843
 -0.331 0.022 0.845
 -0.325 0.022 0.846
 -0.32 0.022 0.847
 -0.314 0.022 0.847
 -0.308 0.022 0.847
 -0.303 0.022 0.847
 -0.297 0.022 0.847
 -0.292 0.022 0.848
 -0.287 0.022 0.85
 -0.282 0.022 0.852
 -0.277 0.022 0.853
 -0.271 0.022 0.853
 -0.266 0.022 0.854
 -0.26 0.022 0.853
 -0.255 0.021 0.852
 -0.249 0.021 0.852
 -0.244 0.021 0.852
 -0.238 0.021 0.852
 -0.233 0.021 0.851
 -0.227 0.021 0.85
 -0.221 0.021 0.848
 -0.216 0.021 0.846
 -0.21 0.021 0.845
 -0.204 0.021 0.843
 -0.199 0.021 0.841
 -0.193 0.021 0.839
 -0.188 0.02 0.837
 -0.182 0.02 0.835
 -0.177 0.02 0.834
 -0.172 0.02 0.834
 -0.167 0.02 0.833
 -0.161 0.02 0.833
 -0.156 0.02 0.832
 -0.151 0.02 0.831
 -0.146 0.02 0.832
 -0.142 0.02 0.833
 -0.137 0.02 0.835
 -0.132 0.02 0.837
 -0.128 0.02 0.838
 -0.123 0.02 0.838
 -0.117 0.02 0.837
 -0.112 0.02 0.836
 -0.107 0.02 0.835
 -0.102 0.02 0.834
 -0.097 0.02 0.833
 -0.092 0.019 0.831
 -0.087 0.019 0.828
 -0.082 0.019 0.824
 -0.077 0.019 0.819
 -0.071 0.019 0.815
 -0.066 0.019 0.812
 -0.061 0.019 0.808
 -0.057 0.019 0.805
 -0.052 0.018 0.801
 -0.047 0.018 0.797
 -0.042 0.018 0.795
 -0.038 0.018 0.796
 -0.033 0.018 0.798
 -0.028 0.018 0.801
 -0.024 0.018 0.804
 -0.02 0.019 0.816
 -0.015 0.02 0.851
 -0.011 0.021 0.917
 -0.006 0.023 1.002
 -0.001 0.026 1.094
 0.005 0.028 1.18
 0.013 0.029 1.232
 0.019 0.029 1.207
 0.025 0.027 1.139
 0.029 0.025 1.064
 0.032 0.023 0.983
 0.035 0.021 0.902
 0.038 0.02 0.868
 0.043 0.02 0.865
 0.048 0.02 0.865
 0.054 0.02 0.873
 0.061 0.021 0.903
 0.073 0.023 0.99
 0.086 0.025 1.09
 0.101 0.028 1.189
 0.115 0.03 1.263
 0.129 0.032 1.334
 0.141 0.033 1.377
 0.151 0.033 1.391
 0.159 0.033 1.392
 0.171 0.034 1.422
 0.181 0.034 1.438
 0.189 0.034 1.432
 0.196 0.034 1.422
 0.204 0.034 1.419
 0.211 0.033 1.412
 0.217 0.033 1.399
 0.219 0.032 1.361
 0.223 0.031 1.335
 0.224 0.03 1.293
 0.223 0.029 1.248
 0.225 0.028 1.218
 0.227 0.028 1.187
 0.224 0.026 1.14
 0.229 0.026 1.13
 0.232 0.026 1.11
 0.237 0.025 1.105
 0.247 0.026 1.119
 0.267 0.027 1.176
 0.288 0.029 1.237
 0.307 0.03 1.285
 0.316 0.03 1.288
 0.322 0.03 1.279
 0.317 0.029 1.231
 0.301 0.026 1.139
 0.28 0.024 1.037
 0.253 0.021 0.915
 0.233 0.018 0.825
 0.204 0.015 0.705
 0.178 0.013 0.601
 0.155 0.01 0.511
 0.139 0.009 0.45
 0.127 0.007 0.402
 0.13 0.007 0.403
 0.133 0.007 0.402
 0.133 0.007 0.396
 0.136 0.007 0.397
 0.14 0.007 0.401
 0.143 0.007 0.4
 0.145 0.007 0.399
 0.148 0.007 0.401
 0.151 0.007 0.402
 0.152 0.007 0.396
 0.151 0.007 0.387
 0.152 0.007 0.382
 0.155 0.007 0.383
 0.158 0.007 0.384
 0.167 0.007 0.399
 0.179 0.008 0.421
 0.193 0.009 0.447
 0.209 0.009 0.475
 0.227 0.01 0.509
 0.245 0.011 0.541
 0.268 0.012 0.582
 0.291 0.013 0.624
 0.316 0.015 0.666
 0.339 0.016 0.704
 0.363 0.017 0.742
 0.385 0.018 0.777
 0.406 0.018 0.807
 0.422 0.019 0.826
 0.434 0.019 0.836
 0.441 0.019 0.836
 0.442 0.019 0.826
 0.441 0.019 0.813
 0.442 0.018 0.801
 0.443 0.018 0.791
 0.453 0.018 0.799
 0.458 0.018 0.794
 -0.379 0.023 0.681
 -0.384 0.024 0.7
 -0.37 0.023 0.683
 -0.371 0.024 0.696
 -0.373 0.024 0.711
 -0.378 0.025 0.732
 -0.382 0.025 0.751
 -0.385 0.026 0.77
 -0.387 0.027 0.785
 -0.387 0.027 0.798
