 0.34 -0.253 0.746
 0.344 -0.253 0.742
 0.346 -0.251 0.735
 0.351 -0.252 0.734
 0.356 -0.251 0.732
 0.362 -0.252 0.732
 0.366 -0.251 0.727
 0.369 -0.251 0.723
 0.372 -0.249 0.717
 0.373 -0.247 0.707
 0.373 -0.244 0.697
 0.376 -0.243 0.692
 0.379 -0.242 0.686
 0.381 -0.24 0.678
 0.384 -0.24 0.674
 0.387 -0.238 0.669
 0.389 -0.237 0.662
 0.374 -0.225 0.627
 0.398 -0.237 0.658
 -0.316 -0.185 0.536
 -0.32 -0.19 0.552
 -0.318 -0.191 0.557
 -0.321 -0.195 0.571
 -0.321 -0.197 0.579
 -0.319 -0.199 0.585
 -0.317 -0.2 0.591
 -0.315 -0.201 0.595
 -0.312 -0.202 0.6
 -0.309 -0.203 0.604
 -0.306 -0.203 0.608
 -0.303 -0.204 0.611
 -0.3 -0.204 0.614
 -0.296 -0.205 0.617
 -0.292 -0.205 0.619
 -0.288 -0.205 0.62
 -0.284 -0.205 0.621
 -0.279 -0.204 0.622
 -0.276 -0.204 0.624
 -0.272 -0.205 0.626
 -0.269 -0.206 0.631
 -0.268 -0.208 0.639
 -0.27 -0.213 0.657
 -0.283 -0.226 0.7
 -0.302 -0.245 0.762
 -0.334 -0.275 0.86
 -0.385 -0.323 1.014
 -0.435 -0.371 1.168
 -0.473 -0.41 1.297
 -0.503 -0.444 1.407
 -0.519 -0.466 1.481
 -0.513 -0.469 1.494
 -0.505 -0.47 1.498
 -0.496 -0.471 1.503
 -0.487 -0.471 1.507
 -0.478 -0.471 1.511
 -0.469 -0.472 1.514
 -0.46 -0.472 1.518
 -0.451 -0.473 1.521
 -0.442 -0.473 1.525
 -0.433 -0.473 1.528
 -0.424 -0.474 1.531
 -0.415 -0.474 1.534
 -0.406 -0.475 1.538
 -0.397 -0.475 1.541
 -0.388 -0.476 1.545
 -0.379 -0.476 1.549
 -0.37 -0.477 1.553
 -0.361 -0.477 1.556
 -0.352 -0.478 1.56
 -0.343 -0.479 1.563
 -0.334 -0.479 1.567
 -0.325 -0.48 1.571
 -0.316 -0.481 1.576
 -0.307 -0.482 1.579
 -0.298 -0.482 1.583
 -0.289 -0.483 1.587
 -0.28 -0.484 1.59
 -0.271 -0.484 1.593
 -0.261 -0.485 1.597
 -0.252 -0.486 1.601
 -0.243 -0.487 1.605
 -0.234 -0.488 1.609
 -0.225 -0.489 1.613
 -0.215 -0.49 1.617
 -0.206 -0.49 1.62
 -0.197 -0.491 1.624
 -0.187 -0.492 1.628
 -0.178 -0.493 1.632
 -0.169 -0.494 1.635
 -0.159 -0.495 1.639
 -0.15 -0.496 1.644
 -0.14 -0.497 1.647
 -0.131 -0.498 1.65
 -0.121 -0.499 1.654
 -0.111 -0.5 1.657
 -0.102 -0.501 1.661
 -0.092 -0.502 1.665
 -0.082 -0.503 1.668
 -0.073 -0.504 1.672
 -0.063 -0.505 1.676
 -0.053 -0.506 1.678
 -0.043 -0.507 1.682
 -0.033 -0.508 1.686
 -0.023 -0.509 1.689
 -0.013 -0.51 1.692
 -0.003 -0.511 1.696
 0.006 -0.512 1.699
 0.016 -0.512 1.7
 0.026 -0.513 1.703
 0.036 -0.514 1.706
 0.046 -0.515 1.708
 0.056 -0.516 1.71
 0.067 -0.517 1.713
 0.077 -0.517 1.715
 0.087 -0.518 1.716
 0.097 -0.518 1.716
 0.108 -0.518 1.716
 0.118 -0.518 1.715
 0.128 -0.518 1.713
 0.138 -0.517 1.709
 0.147 -0.515 1.703
 0.157 -0.513 1.694
 0.166 -0.509 1.681
 0.174 -0.505 1.668
 0.183 -0.501 1.653
 0.191 -0.497 1.638
 0.199 -0.492 1.621
 0.206 -0.488 1.605
 0.214 -0.484 1.589
 0.222 -0.481 1.579
 0.229 -0.476 1.561
 0.237 -0.473 1.549
 0.246 -0.474 1.551
 0.257 -0.475 1.556
 0.267 -0.477 1.561
 0.279 -0.481 1.571
 0.29 -0.484 1.58
 0.299 -0.483 1.576
 0.307 -0.481 1.567
 0.314 -0.478 1.553
 0.321 -0.474 1.541
 0.326 -0.468 1.519
 0.33 -0.461 1.496
 0.335 -0.456 1.475
 0.34 -0.451 1.457
 0.344 -0.445 1.435
 0.349 -0.44 1.418
 0 0 0
 0 0 0
 0 0 0
 0 0 0
 0 0 0
 0 0 0
 0 0 0
 0 0 0
 0 0 0
 0 0 0
 0 0 0
 0 0 0
 0 0 0
 0 0 0
 0 0 0
 0 0 0
 0 0 0
 0 0 0
 0 0 0
 0 0 0
 0 0 0
 0 0 0
 0.325 -0.264 0.808
 0.328 -0.262 0.801
 0.334 -0.263 0.801
 0.335 -0.26 0.79
 0.339 -0.259 0.786
 0.34 -0.256 0.774
 0.34 -0.252 0.761
 0.338 -0.247 0.743
 0.342 -0.247 0.739
 0.344 -0.245 0.731
 0.349 -0.245 0.729
 0.354 -0.245 0.729
 0.359 -0.245 0.727
 0.361 -0.244 0.72
 0.364 -0.242 0.714
 0.367 -0.241 0.708
 0.368 -0.239 0.7
 0.37 -0.238 0.693
 0.374 -0.237 0.69
 0.377 -0.236 0.683
 0.378 -0.234 0.674
 0.381 -0.233 0.671
 0.383 -0.231 0.663
 0.385 -0.23 0.656
 0.382 -0.226 0.642
 0.394 -0.23 0.652
 -0.318 -0.183 0.542
 -0.321 -0.187 0.554
 -0.322 -0.189 0.564
 -0.322 -0.192 0.574
 -0.322 -0.194 0.582
 -0.32 -0.196 0.588
 -0.318 -0.197 0.594
 -0.316 -0.198 0.599
 -0.313 -0.199 0.603
 -0.311 -0.2 0.608
 -0.308 -0.2 0.612
 -0.305 -0.201 0.616
 -0.301 -0.201 0.619
 -0.298 -0.202 0.622
 -0.294 -0.202 0.624
 -0.29 -0.202 0.626
 -0.286 -0.202 0.627
 -0.281 -0.202 0.628
 -0.277 -0.202 0.629
 -0.273 -0.202 0.631
 -0.27 -0.203 0.635
 -0.269 -0.205 0.644
 -0.275 -0.213 0.67
 -0.297 -0.233 0.738
 -0.325 -0.259 0.824
 -0.365 -0.295 0.943
 -0.416 -0.342 1.099
 -0.462 -0.386 1.243
 -0.491 -0.417 1.347
 -0.511 -0.442 1.433
 -0.52 -0.457 1.485
 -0.513 -0.46 1.495
 -0.504 -0.46 1.499
 -0.495 -0.461 1.504
 -0.487 -0.461 1.508
 -0.478 -0.462 1.511
 -0.468 -0.462 1.514
 -0.46 -0.462 1.518
 -0.45 -0.463 1.521
 -0.442 -0.463 1.525
 -0.432 -0.463 1.528
 -0.424 -0.464 1.532
 -0.414 -0.464 1.535
 -0.405 -0.465 1.538
 -0.396 -0.465 1.542
 -0.388 -0.466 1.545
 -0.379 -0.466 1.549
 -0.37 -0.467 1.553
 -0.36 -0.467 1.556
 -0.351 -0.468 1.56
 -0.342 -0.468 1.563
 -0.333 -0.469 1.567
 -0.325 -0.47 1.571
 -0.316 -0.471 1.575
 -0.307 -0.471 1.579
 -0.298 -0.472 1.583
 -0.288 -0.473 1.586
 -0.279 -0.473 1.59
 -0.27 -0.474 1.594
 -0.261 -0.475 1.598
 -0.252 -0.476 1.601
 -0.243 -0.477 1.605
 -0.233 -0.477 1.609
 -0.224 -0.478 1.612
 -0.215 -0.479 1.616
 -0.206 -0.48 1.62
 -0.196 -0.481 1.624
 -0.187 -0.482 1.628
 -0.178 -0.483 1.631
 -0.168 -0.483 1.635
 -0.159 -0.484 1.639
 -0.149 -0.485 1.642
 -0.14 -0.486 1.646
 -0.13 -0.487 1.65
 -0.121 -0.488 1.653
 -0.111 -0.489 1.656
 -0.102 -0.49 1.66
 -0.092 -0.491 1.664
 -0.082 -0.492 1.667
 -0.072 -0.493 1.671
 -0.063 -0.494 1.675
 -0.053 -0.495 1.678
 -0.043 -0.496 1.682
 -0.033 -0.497 1.686
 -0.023 -0.498 1.688
 -0.013 -0.499 1.692
 -0.003 -0.5 1.695
 0.006 -0.501 1.698
 0.016 -0.501 1.7
 0.026 -0.502 1.703
 0.036 -0.503 1.706
 0.046 -0.504 1.708
 0.056 -0.504 1.71
 0.067 -0.505 1.712
 0.077 -0.506 1.714
 0.087 -0.506 1.714
 0.097 -0.507 1.715
 0.107 -0.507 1.716
 0.118 -0.507 1.715
 0.128 -0.507 1.713
 0.138 -0.506 1.709
 0.147 -0.504 1.703
 0.156 -0.502 1.693
 0.165 -0.498 1.681
 0.174 -0.495 1.667
 0.182 -0.49 1.652
 0.19 -0.486 1.637
 0.198 -0.482 1.621
 0.206 -0.477 1.604
 0.214 -0.473 1.588
 0.222 -0.47 1.578
 0.228 -0.465 1.558
 0.236 -0.462 1.546
 0.246 -0.463 1.55
 0.256 -0.465 1.556
 0.267 -0.467 1.56
 0.279 -0.471 1.573
 0.29 -0.475 1.583
 0.299 -0.474 1.577
 0.306 -0.471 1.567
 0.313 -0.467 1.552
 0.32 -0.464 1.54
 0.325 -0.458 1.517
 0.329 -0.451 1.494
 0.333 -0.444 1.469
 0.337 -0.438 1.446
 0.341 -0.431 1.422
 0.344 -0.425 1.4
 0.34 -0.411 1.35
 0 0 0
 0 0 0
 0 0 0
 0 0 0
 0 0 0
 0 0 0
 0 0 0
 0 0 0
 0 0 0
 0 0 0
 0 0 0
 0 0 0
 0 0 0
 0 0 0
 0 0 0
 0 0 0
 0 0 0
 0 0 0
 0 0 0
 0.325 -0.267 0.839
 0.329 -0.266 0.834
 0.329 -0.262 0.82
 0.333 -0.26 0.813
 0.336 -0.259 0.808
 0.337 -0.256 0.796
 0.34 -0.255 0.789
 0.342 -0.252 0.78
 0.343 -0.25 0.77
 0.344 -0.246 0.757
 0.347 -0.246 0.753
 0.35 -0.244 0.746
 0.354 -0.243 0.741
 0.358 -0.243 0.739
 0.362 -0.242 0.734
 0.362 -0.24 0.724
 0.364 -0.237 0.714
 0.367 -0.236 0.709
 0.368 -0.235 0.701
 0.371 -0.233 0.694
 0.376 -0.233 0.693
 0.379 -0.232 0.688
 0.38 -0.23 0.679
 0.384 -0.23 0.676
 0.384 -0.228 0.667
 0.386 -0.226 0.659
 0.382 -0.222 0.644
 0.389 -0.223 0.644
 -0.321 -0.181 0.547
 -0.322 -0.183 0.557
 -0.323 -0.186 0.568
 -0.323 -0.189 0.577
 -0.323 -0.191 0.585
 -0.321 -0.192 0.591
 -0.319 -0.193 0.597
 -0.317 -0.194 0.602
 -0.314 -0.195 0.606
 -0.312 -0.196 0.611
 -0.309 -0.197 0.616
 -0.306 -0.198 0.621
 -0.304 -0.199 0.625
 -0.301 -0.2 0.629
 -0.297 -0.2 0.632
 -0.293 -0.2 0.633
 -0.289 -0.2 0.634
 -0.284 -0.199 0.635
 -0.279 -0.199 0.635
 -0.275 -0.199 0.637
 -0.273 -0.2 0.641
 -0.272 -0.203 0.652
 -0.285 -0.216 0.696
 -0.316 -0.243 0.787
 -0.353 -0.275 0.897
 -0.398 -0.315 1.031
 -0.448 -0.361 1.186
 -0.487 -0.398 1.313
 -0.506 -0.421 1.392
 -0.518 -0.439 1.453
 -0.52 -0.448 1.488
 -0.512 -0.45 1.495
 -0.503 -0.45 1.5
 -0.495 -0.451 1.504
 -0.486 -0.451 1.508
 -0.477 -0.451 1.511
 -0.468 -0.452 1.514
 -0.459 -0.452 1.518
 -0.45 -0.452 1.521
 -0.441 -0.453 1.525
 -0.432 -0.453 1.529
 -0.423 -0.454 1.532
 -0.414 -0.454 1.536
 -0.405 -0.455 1.539
 -0.396 -0.455 1.542
 -0.387 -0.455 1.545
 -0.378 -0.456 1.549
 -0.369 -0.457 1.552
 -0.36 -0.457 1.556
 -0.351 -0.458 1.56
 -0.342 -0.458 1.563
 -0.333 -0.459 1.567
 -0.324 -0.46 1.571
 -0.315 -0.461 1.576
 -0.306 -0.461 1.579
 -0.297 -0.462 1.583
 -0.288 -0.462 1.586
 -0.279 -0.463 1.589
 -0.27 -0.464 1.593
 -0.261 -0.465 1.597
 -0.251 -0.465 1.6
 -0.242 -0.466 1.605
 -0.233 -0.467 1.608
 -0.224 -0.468 1.611
 -0.214 -0.468 1.615
 -0.205 -0.469 1.619
 -0.196 -0.47 1.623
 -0.187 -0.471 1.627
 -0.177 -0.472 1.631
 -0.168 -0.473 1.634
 -0.159 -0.474 1.638
 -0.149 -0.475 1.642
 -0.14 -0.476 1.646
 -0.13 -0.477 1.65
 -0.121 -0.477 1.653
 -0.111 -0.478 1.657
 -0.101 -0.48 1.661
 -0.092 -0.48 1.664
 -0.082 -0.481 1.668
 -0.072 -0.482 1.671
 -0.063 -0.483 1.675
 -0.053 -0.484 1.678
 -0.043 -0.485 1.681
 -0.033 -0.486 1.684
 -0.023 -0.487 1.687
 -0.013 -0.488 1.69
 -0.003 -0.489 1.694
 0.006 -0.49 1.697
 0.016 -0.49 1.7
 0.026 -0.491 1.703
 0.036 -0.492 1.706
 0.046 -0.493 1.707
 0.056 -0.494 1.709
 0.067 -0.494 1.711
 0.077 -0.495 1.713
 0.087 -0.495 1.713
 0.097 -0.496 1.714
 0.107 -0.496 1.715
 0.117 -0.496 1.714
 0.127 -0.496 1.712
 0.137 -0.495 1.709
 0.147 -0.493 1.702
 0.156 -0.491 1.693
 0.165 -0.487 1.68
 0.174 -0.484 1.666
 0.182 -0.48 1.651
 0.19 -0.476 1.636
 0.198 -0.471 1.62
 0.206 -0.467 1.604
 0.213 -0.463 1.588
 0.221 -0.46 1.578
 0.227 -0.454 1.554
 0.235 -0.451 1.543
 0.245 -0.452 1.546
 0.255 -0.454 1.552
 0.266 -0.456 1.556
 0.278 -0.461 1.574
 0.289 -0.464 1.581
 0.298 -0.463 1.577
 0.306 -0.461 1.568
 0.313 -0.458 1.554
 0.32 -0.455 1.543
 0.325 -0.449 1.521
 0.33 -0.443 1.498
 0.332 -0.434 1.467
 0.335 -0.426 1.438
 0.338 -0.419 1.412
 0.341 -0.413 1.39
 0.339 -0.401 1.346
 0 0 0
 0 0 0
 0 0 0
 0 0 0
 0 0 0
 0 0 0
 0 0 0
 0 0 0
 0 0 0
 0 0 0
 0 0 0
 0 0 0
 0 0 0
 0 0 0
 0 0 0
 0 0 0
 0 0 0
 0 0 0
 0 0 0
 0.328 -0.263 0.847
 0.327 -0.259 0.831
 0.327 -0.255 0.816
 0.331 -0.254 0.811
 0.334 -0.252 0.804
 0.334 -0.249 0.79
 0.337 -0.247 0.783
 0.339 -0.245 0.774
 0.34 -0.242 0.763
 0.341 -0.24 0.753
 0.344 -0.239 0.747
 0.348 -0.238 0.742
 0.353 -0.238 0.74
 0.357 -0.238 0.739
 0.36 -0.237 0.733
 0.362 -0.234 0.723
 0.364 -0.233 0.716
 0.365 -0.231 0.707
 0.368 -0.23 0.702
 0.369 -0.228 0.693
 0.374 -0.228 0.692
 0.378 -0.227 0.687
 0.379 -0.225 0.679
 0.382 -0.224 0.674
 0.385 -0.224 0.669
 0.387 -0.222 0.662
 0.37 -0.21 0.623
 0.383 -0.215 0.637
 -0.321 -0.177 0.548
 -0.32 -0.179 0.556
 -0.324 -0.183 0.57
 -0.324 -0.185 0.579
 -0.323 -0.187 0.587
 -0.322 -0.189 0.594
 -0.32 -0.19 0.6
 -0.318 -0.191 0.605
 -0.315 -0.192 0.61
 -0.313 -0.193 0.616
 -0.312 -0.195 0.622
 -0.309 -0.196 0.628
 -0.307 -0.197 0.633
 -0.304 -0.198 0.638
 -0.301 -0.198 0.641
 -0.297 -0.198 0.643
 -0.292 -0.198 0.644
 -0.287 -0.198 0.644
 -0.283 -0.197 0.644
 -0.279 -0.198 0.646
 -0.276 -0.199 0.651
 -0.278 -0.203 0.668
 -0.299 -0.222 0.733
 -0.339 -0.255 0.847
 -0.383 -0.292 0.975
 -0.428 -0.332 1.113
 -0.476 -0.375 1.262
 -0.505 -0.405 1.365
 -0.515 -0.42 1.42
 -0.519 -0.431 1.46
 -0.519 -0.439 1.489
 -0.511 -0.44 1.496
 -0.503 -0.44 1.5
 -0.494 -0.441 1.504
 -0.485 -0.441 1.508
 -0.476 -0.441 1.511
 -0.467 -0.442 1.514
 -0.458 -0.442 1.518
 -0.449 -0.442 1.521
 -0.44 -0.443 1.525
 -0.431 -0.444 1.529
 -0.422 -0.444 1.533
 -0.413 -0.444 1.536
 -0.404 -0.445 1.539
 -0.395 -0.445 1.542
 -0.386 -0.445 1.545
 -0.377 -0.446 1.549
 -0.368 -0.446 1.552
 -0.359 -0.447 1.555
 -0.35 -0.447 1.559
 -0.341 -0.448 1.563
 -0.332 -0.449 1.566
 -0.323 -0.449 1.57
 -0.315 -0.45 1.575
 -0.305 -0.451 1.578
 -0.297 -0.452 1.582
 -0.287 -0.452 1.586
 -0.278 -0.453 1.589
 -0.269 -0.454 1.593
 -0.26 -0.454 1.597
 -0.251 -0.455 1.6
 -0.242 -0.456 1.604
 -0.232 -0.456 1.607
 -0.223 -0.457 1.61
 -0.214 -0.458 1.614
 -0.205 -0.459 1.618
 -0.195 -0.46 1.622
 -0.186 -0.46 1.625
 -0.177 -0.461 1.629
 -0.167 -0.462 1.633
 -0.158 -0.463 1.637
 -0.149 -0.464 1.641
 -0.139 -0.465 1.645
 -0.13 -0.466 1.649
 -0.12 -0.467 1.653
 -0.111 -0.468 1.657
 -0.101 -0.469 1.661
 -0.092 -0.47 1.664
 -0.082 -0.471 1.668
 -0.072 -0.472 1.672
 -0.062 -0.473 1.675
 -0.053 -0.473 1.678
 -0.043 -0.474 1.681
 -0.033 -0.475 1.684
 -0.023 -0.476 1.687
 -0.013 -0.477 1.69
 -0.003 -0.478 1.693
 0.006 -0.479 1.696
 0.016 -0.48 1.699
 0.026 -0.481 1.702
 0.036 -0.481 1.705
 0.046 -0.482 1.707
 0.056 -0.483 1.709
 0.067 -0.483 1.711
 0.077 -0.484 1.713
 0.087 -0.484 1.713
 0.097 -0.485 1.714
 0.107 -0.485 1.715
 0.117 -0.485 1.714
 0.127 -0.485 1.711
 0.137 -0.484 1.708
 0.147 -0.482 1.702
 0.156 -0.48 1.692
 0.165 -0.477 1.679
 0.174 -0.473 1.666
 0.182 -0.469 1.651
 0.19 -0.465 1.636
 0.198 -0.461 1.62
 0.205 -0.457 1.604
 0.213 -0.452 1.587
 0.221 -0.45 1.577
 0.227 -0.444 1.554
 0.235 -0.441 1.542
 0.245 -0.442 1.545
 0.255 -0.444 1.552
 0.265 -0.446 1.557
 0.278 -0.452 1.575
 0.289 -0.454 1.583
 0.298 -0.454 1.578
 0.306 -0.452 1.57
 0.313 -0.448 1.556
 0.32 -0.445 1.544
 0.327 -0.441 1.528
 0.331 -0.435 1.506
 0.333 -0.426 1.473
 0.334 -0.417 1.439
 0.338 -0.411 1.415
 0.34 -0.404 1.389
 0.339 -0.393 1.349
 0.347 -0.392 1.345
 0 0 0
 0 0 0
 0 0 0
 0 0 0
 0 0 0
 0 0 0
 0 0 0
 0 0 0
 0 0 0
 0 0 0
 0 0 0
 0 0 0
 0 0 0
 0 0 0
 0 0 0
 0 0 0
 0 0 0
 0.32 -0.256 0.845
 0.328 -0.258 0.849
 0.331 -0.257 0.843
 0.33 -0.252 0.825
 0.335 -0.252 0.821
 0.338 -0.25 0.814
 0.338 -0.246 0.8
 0.339 -0.244 0.789
 0.341 -0.242 0.781
 0.342 -0.238 0.768
 0.342 -0.236 0.756
 0.345 -0.234 0.75
 0.347 -0.232 0.741
 0.351 -0.232 0.738
 0.356 -0.232 0.736
 0.359 -0.231 0.73
 0.361 -0.229 0.723
 0.364 -0.228 0.717
 0.365 -0.226 0.709
 0.367 -0.224 0.701
 0.369 -0.223 0.694
 0.373 -0.222 0.69
 0.376 -0.222 0.685
 0.378 -0.22 0.679
 0.382 -0.22 0.676
 0.385 -0.219 0.671
 0.387 -0.218 0.664
 0.392 -0.218 0.663
 0.393 -0.216 0.655
 -0.322 -0.174 0.55
 -0.323 -0.177 0.561
 -0.324 -0.179 0.571
 -0.324 -0.181 0.581
 -0.324 -0.184 0.59
 -0.323 -0.185 0.598
 -0.321 -0.187 0.603
 -0.319 -0.188 0.608
 -0.317 -0.189 0.614
 -0.316 -0.19 0.621
 -0.315 -0.192 0.629
 -0.313 -0.194 0.637
 -0.312 -0.196 0.644
 -0.309 -0.197 0.65
 -0.306 -0.198 0.654
 -0.302 -0.197 0.655
 -0.297 -0.197 0.656
 -0.292 -0.197 0.656
 -0.288 -0.197 0.656
 -0.283 -0.197 0.658
 -0.281 -0.198 0.664
 -0.29 -0.207 0.698
 -0.319 -0.232 0.784
 -0.365 -0.269 0.914
 -0.409 -0.306 1.046
 -0.455 -0.346 1.186
 -0.495 -0.382 1.316
 -0.515 -0.405 1.396
 -0.519 -0.414 1.433
 -0.521 -0.423 1.467
 -0.519 -0.429 1.49
 -0.511 -0.43 1.496
 -0.502 -0.43 1.5
 -0.493 -0.431 1.504
 -0.484 -0.431 1.508
 -0.475 -0.431 1.511
 -0.466 -0.432 1.514
 -0.457 -0.432 1.518
 -0.448 -0.432 1.521
 -0.44 -0.433 1.525
 -0.431 -0.434 1.53
 -0.422 -0.434 1.533
 -0.413 -0.434 1.536
 -0.404 -0.435 1.539
 -0.395 -0.435 1.542
 -0.386 -0.435 1.545
 -0.377 -0.436 1.549
 -0.368 -0.436 1.552
 -0.359 -0.437 1.555
 -0.35 -0.437 1.559
 -0.341 -0.438 1.563
 -0.332 -0.439 1.567
 -0.323 -0.439 1.57
 -0.314 -0.44 1.574
 -0.305 -0.441 1.578
 -0.296 -0.441 1.582
 -0.287 -0.442 1.585
 -0.278 -0.443 1.589
 -0.269 -0.443 1.593
 -0.26 -0.444 1.597
 -0.25 -0.445 1.6
 -0.241 -0.446 1.604
 -0.232 -0.446 1.607
 -0.223 -0.447 1.611
 -0.214 -0.448 1.614
 -0.204 -0.448 1.618
 -0.195 -0.449 1.622
 -0.186 -0.45 1.625
 -0.176 -0.451 1.629
 -0.167 -0.452 1.632
 -0.158 -0.452 1.636
 -0.148 -0.453 1.64
 -0.139 -0.455 1.645
 -0.13 -0.456 1.649
 -0.12 -0.456 1.653
 -0.111 -0.457 1.656
 -0.101 -0.458 1.66
 -0.091 -0.459 1.663
 -0.082 -0.46 1.667
 -0.072 -0.461 1.67
 -0.062 -0.462 1.674
 -0.052 -0.463 1.677
 -0.043 -0.464 1.68
 -0.033 -0.464 1.683
 -0.023 -0.465 1.686
 -0.013 -0.466 1.689
 -0.003 -0.467 1.693
 0.006 -0.468 1.695
 0.016 -0.469 1.699
 0.026 -0.47 1.702
 0.036 -0.471 1.706
 0.046 -0.471 1.708
 0.056 -0.472 1.71
 0.067 -0.473 1.711
 0.077 -0.473 1.713
 0.087 -0.473 1.713
 0.097 -0.474 1.713
 0.107 -0.474 1.714
 0.117 -0.474 1.713
 0.127 -0.474 1.71
 0.137 -0.473 1.707
 0.147 -0.471 1.701
 0.156 -0.469 1.691
 0.165 -0.466 1.678
 0.173 -0.462 1.665
 0.182 -0.458 1.65
 0.19 -0.455 1.635
 0.197 -0.45 1.618
 0.205 -0.446 1.603
 0.212 -0.442 1.586
 0.221 -0.44 1.577
 0.227 -0.434 1.554
 0.234 -0.43 1.54
 0.244 -0.432 1.544
 0.254 -0.434 1.549
 0.265 -0.435 1.553
 0.277 -0.441 1.572
 0.289 -0.444 1.582
 0.298 -0.443 1.578
 0.306 -0.442 1.571
 0.313 -0.439 1.559
 0.32 -0.436 1.546
 0.327 -0.432 1.53
 0.33 -0.425 1.503
 0.331 -0.415 1.465
 0.332 -0.405 1.43
 0.335 -0.399 1.406
 0.338 -0.393 1.38
 0.341 -0.386 1.356
 0.348 -0.386 1.353
 0 0 0
 0 0 0
 0 0 0
 0 0 0
 0 0 0
 0 0 0
 0 0 0
 0 0 0
 0 0 0
 0 0 0
 0 0 0
 0 0 0
 0 0 0
 0 0 0
 0 0 0
 0 0 0
 0 0 0
 0.318 -0.249 0.839
 0.325 -0.251 0.843
 0.329 -0.25 0.838
 0.329 -0.246 0.824
 0.333 -0.245 0.818
 0.336 -0.243 0.811
 0.337 -0.241 0.8
 0.34 -0.239 0.793
 0.343 -0.238 0.786
 0.344 -0.235 0.775
 0.345 -0.233 0.764
 0.345 -0.23 0.752
 0.346 -0.227 0.742
 0.35 -0.227 0.738
 0.354 -0.226 0.735
 0.358 -0.225 0.73
 0.361 -0.225 0.725
 0.364 -0.223 0.719
 0.364 -0.221 0.708
 0.366 -0.219 0.701
 0.368 -0.218 0.694
 0.373 -0.218 0.692
 0.376 -0.217 0.687
 0.379 -0.216 0.681
 0.383 -0.216 0.679
 0.386 -0.215 0.674
 0.387 -0.213 0.665
 0.408 -0.222 0.69
 0.401 -0.216 0.669
 -0.321 -0.17 0.55
 -0.319 -0.171 0.556
 -0.323 -0.175 0.571
 -0.324 -0.178 0.582
 -0.324 -0.18 0.592
 -0.324 -0.182 0.6
 -0.323 -0.183 0.607
 -0.321 -0.185 0.613
 -0.319 -0.186 0.619
 -0.319 -0.188 0.629
 -0.319 -0.191 0.639
 -0.318 -0.193 0.649
 -0.318 -0.195 0.658
 -0.316 -0.197 0.665
 -0.312 -0.197 0.668
 -0.308 -0.197 0.67
 -0.303 -0.197 0.671
 -0.298 -0.197 0.671
 -0.293 -0.196 0.671
 -0.289 -0.196 0.673
 -0.286 -0.197 0.677
 -0.303 -0.212 0.732
 -0.342 -0.243 0.842
 -0.39 -0.281 0.979
 -0.436 -0.319 1.118
 -0.476 -0.353 1.242
 -0.507 -0.383 1.351
 -0.519 -0.399 1.409
 -0.521 -0.407 1.441
 -0.521 -0.414 1.47
 -0.518 -0.419 1.49
 -0.51 -0.42 1.496
 -0.501 -0.42 1.5
 -0.492 -0.421 1.504
 -0.483 -0.421 1.507
 -0.474 -0.422 1.511
 -0.465 -0.422 1.514
 -0.457 -0.422 1.518
 -0.448 -0.423 1.522
 -0.439 -0.423 1.525
 -0.43 -0.424 1.53
 -0.421 -0.424 1.533
 -0.412 -0.424 1.536
 -0.403 -0.425 1.539
 -0.394 -0.425 1.542
 -0.385 -0.425 1.545
 -0.376 -0.426 1.548
 -0.367 -0.426 1.552
 -0.358 -0.427 1.555
 -0.349 -0.428 1.559
 -0.34 -0.428 1.562
 -0.331 -0.429 1.566
 -0.322 -0.429 1.57
 -0.313 -0.43 1.573
 -0.304 -0.43 1.577
 -0.295 -0.431 1.581
 -0.286 -0.432 1.584
 -0.277 -0.432 1.588
 -0.268 -0.433 1.592
 -0.259 -0.434 1.596
 -0.25 -0.435 1.599
 -0.241 -0.435 1.603
 -0.232 -0.436 1.606
 -0.222 -0.437 1.61
 -0.213 -0.437 1.613
 -0.204 -0.438 1.617
 -0.195 -0.439 1.621
 -0.185 -0.44 1.625
 -0.176 -0.44 1.628
 -0.167 -0.441 1.632
 -0.157 -0.442 1.636
 -0.148 -0.443 1.639
 -0.139 -0.444 1.644
 -0.129 -0.445 1.648
 -0.12 -0.446 1.652
 -0.11 -0.447 1.655
 -0.101 -0.448 1.659
 -0.091 -0.449 1.663
 -0.081 -0.449 1.666
 -0.072 -0.45 1.67
 -0.062 -0.451 1.673
 -0.052 -0.452 1.677
 -0.043 -0.453 1.68
 -0.033 -0.454 1.683
 -0.023 -0.455 1.686
 -0.013 -0.455 1.689
 -0.003 -0.456 1.692
 0.006 -0.457 1.695
 0.016 -0.458 1.699
 0.026 -0.459 1.702
 0.036 -0.46 1.705
 0.046 -0.46 1.706
 0.056 -0.461 1.709
 0.066 -0.462 1.71
 0.077 -0.462 1.712
 0.087 -0.463 1.712
 0.097 -0.463 1.713
 0.107 -0.463 1.714
 0.117 -0.463 1.713
 0.127 -0.463 1.71
 0.137 -0.462 1.706
 0.146 -0.461 1.7
 0.156 -0.458 1.69
 0.164 -0.455 1.678
 0.173 -0.452 1.665
 0.181 -0.448 1.65
 0.189 -0.444 1.634
 0.197 -0.44 1.618
 0.205 -0.436 1.601
 0.212 -0.432 1.584
 0.22 -0.429 1.575
 0.227 -0.425 1.556
 0.234 -0.421 1.54
 0.244 -0.422 1.544
 0.254 -0.424 1.548
 0.264 -0.425 1.552
 0.276 -0.43 1.568
 0.288 -0.433 1.579
 0.297 -0.432 1.574
 0.305 -0.431 1.568
 0.313 -0.429 1.558
 0.32 -0.426 1.547
 0.326 -0.422 1.53
 0.331 -0.416 1.507
 0.332 -0.407 1.472
 0.333 -0.398 1.435
 0.335 -0.39 1.407
 0.338 -0.385 1.384
 0.341 -0.378 1.358
 0.346 -0.375 1.345
 0 0 0
 0 0 0
 0 0 0
 0 0 0
 0 0 0
 0 0 0
 0 0 0
 0 0 0
 0 0 0
 0 0 0
 0 0 0
 0 0 0
 0 0 0
 0 0 0
 0 0 0
 0 0 0
 0 0 0
 0.326 -0.25 0.862
 0.326 -0.246 0.847
 0.329 -0.244 0.838
 0.332 -0.242 0.831
 0.336 -0.242 0.828
 0.339 -0.24 0.82
 0.341 -0.238 0.811
 0.343 -0.236 0.802
 0.345 -0.234 0.792
 0.345 -0.231 0.779
 0.347 -0.229 0.769
 0.347 -0.226 0.757
 0.35 -0.224 0.75
 0.352 -0.223 0.743
 0.355 -0.222 0.738
 0.358 -0.221 0.732
 0.361 -0.22 0.726
 0.364 -0.219 0.72
 0.365 -0.216 0.71
 0.367 -0.215 0.704
 0.37 -0.214 0.698
 0.374 -0.214 0.695
 0.376 -0.213 0.689
 0.379 -0.212 0.684
 0.383 -0.211 0.68
 0.386 -0.211 0.675
 0.388 -0.209 0.667
 0.384 -0.205 0.651
 0.397 -0.209 0.663
 -0.319 -0.165 0.548
 -0.318 -0.166 0.554
 -0.323 -0.171 0.571
 -0.324 -0.173 0.582
 -0.325 -0.176 0.593
 -0.325 -0.178 0.603
 -0.324 -0.18 0.61
 -0.322 -0.181 0.617
 -0.321 -0.183 0.625
 -0.32 -0.185 0.632
 -0.317 -0.186 0.637
 -0.314 -0.186 0.64
 -0.31 -0.186 0.643
 -0.305 -0.186 0.643
 -0.3 -0.186 0.644
 -0.299 -0.187 0.651
 -0.297 -0.189 0.658
 -0.294 -0.19 0.663
 -0.292 -0.191 0.67
 -0.291 -0.193 0.679
 -0.288 -0.194 0.683
 -0.318 -0.218 0.77
 -0.372 -0.258 0.917
 -0.42 -0.296 1.059
 -0.463 -0.331 1.188
 -0.494 -0.359 1.292
 -0.517 -0.382 1.379
 -0.522 -0.392 1.419
 -0.522 -0.399 1.447
 -0.522 -0.406 1.474
 -0.517 -0.409 1.491
 -0.509 -0.41 1.496
 -0.5 -0.411 1.5
 -0.491 -0.411 1.503
 -0.482 -0.411 1.507
 -0.474 -0.412 1.511
 -0.465 -0.412 1.514
 -0.456 -0.412 1.518
 -0.447 -0.413 1.522
 -0.438 -0.413 1.526
 -0.429 -0.414 1.529
 -0.42 -0.414 1.533
 -0.412 -0.415 1.536
 -0.402 -0.415 1.539
 -0.393 -0.415 1.542
 -0.384 -0.415 1.545
 -0.375 -0.416 1.548
 -0.366 -0.416 1.551
 -0.358 -0.417 1.555
 -0.349 -0.418 1.559
 -0.34 -0.418 1.563
 -0.331 -0.419 1.566
 -0.322 -0.419 1.57
 -0.313 -0.42 1.573
 -0.304 -0.42 1.577
 -0.295 -0.421 1.58
 -0.286 -0.422 1.584
 -0.277 -0.422 1.588
 -0.268 -0.423 1.592
 -0.259 -0.424 1.596
 -0.25 -0.424 1.599
 -0.241 -0.425 1.603
 -0.231 -0.426 1.606
 -0.222 -0.426 1.61
 -0.213 -0.427 1.613
 -0.204 -0.428 1.617
 -0.194 -0.429 1.621
 -0.185 -0.429 1.624
 -0.176 -0.43 1.627
 -0.167 -0.431 1.631
 -0.157 -0.432 1.635
 -0.148 -0.433 1.639
 -0.139 -0.434 1.644
 -0.129 -0.435 1.648
 -0.12 -0.436 1.652
 -0.11 -0.436 1.655
 -0.101 -0.437 1.659
 -0.091 -0.438 1.662
 -0.081 -0.439 1.666
 -0.072 -0.44 1.669
 -0.062 -0.441 1.673
 -0.052 -0.442 1.677
 -0.042 -0.442 1.68
 -0.033 -0.443 1.683
 -0.023 -0.444 1.686
 -0.013 -0.445 1.689
 -0.003 -0.446 1.692
 0.006 -0.447 1.695
 0.016 -0.447 1.698
 0.026 -0.448 1.701
 0.036 -0.449 1.704
 0.046 -0.45 1.706
 0.056 -0.451 1.709
 0.066 -0.451 1.711
 0.077 -0.452 1.712
 0.087 -0.452 1.713
 0.097 -0.452 1.713
 0.107 -0.453 1.714
 0.117 -0.453 1.713
 0.127 -0.452 1.71
 0.137 -0.451 1.706
 0.146 -0.45 1.7
 0.155 -0.447 1.69
 0.164 -0.444 1.677
 0.173 -0.441 1.665
 0.181 -0.438 1.65
 0.189 -0.434 1.634
 0.197 -0.43 1.617
 0.204 -0.426 1.601
 0.212 -0.422 1.584
 0.22 -0.419 1.574
 0.227 -0.415 1.556
 0.233 -0.41 1.538
 0.243 -0.411 1.54
 0.253 -0.413 1.545
 0.263 -0.414 1.549
 0.275 -0.419 1.565
 0.287 -0.423 1.577
 0.296 -0.422 1.572
 0.305 -0.421 1.567
 0.312 -0.419 1.557
 0.319 -0.416 1.545
 0.326 -0.413 1.532
 0.331 -0.407 1.508
 0.333 -0.399 1.476
 0.333 -0.389 1.438
 0.335 -0.382 1.408
 0.338 -0.375 1.383
 0.341 -0.37 1.361
 0.345 -0.366 1.343
 0 0 0
 0 0 0
 0 0 0
 0 0 0
 0 0 0
 0 0 0
 0 0 0
 0 0 0
 0 0 0
 0 0 0
 0 0 0
 0 0 0
 0 0 0
 0 0 0
 0 0 0
 0 0 0
 0 0 0
 0.331 -0.248 0.878
 0.329 -0.243 0.857
 0.329 -0.239 0.84
 0.331 -0.237 0.83
 0.335 -0.236 0.826
 0.337 -0.234 0.816
 0.34 -0.232 0.809
 0.343 -0.231 0.801
 0.343 -0.228 0.789
 0.343 -0.225 0.775
 0.345 -0.223 0.766
 0.345 -0.22 0.754
 0.348 -0.219 0.748
 0.351 -0.217 0.742
 0.354 -0.217 0.737
 0.356 -0.215 0.729
 0.361 -0.215 0.727
 0.364 -0.214 0.722
 0.366 -0.212 0.713
 0.368 -0.211 0.706
 0.371 -0.21 0.702
 0.373 -0.209 0.695
 0.376 -0.208 0.689
 0.379 -0.207 0.684
 0.382 -0.206 0.679
 0.385 -0.205 0.674
 0.386 -0.204 0.666
 0.398 -0.207 0.676
 0.386 -0.199 0.647
 -0.32 -0.162 0.551
 -0.319 -0.163 0.557
 -0.321 -0.166 0.57
 -0.323 -0.169 0.581
 -0.324 -0.172 0.594
 -0.325 -0.175 0.605
 -0.325 -0.177 0.614
 -0.324 -0.178 0.622
 -0.323 -0.18 0.63
 -0.319 -0.18 0.631
 -0.313 -0.179 0.63
 -0.306 -0.178 0.626
 -0.301 -0.177 0.626
 -0.293 -0.174 0.617
 -0.29 -0.175 0.622
 -0.291 -0.178 0.634
 -0.29 -0.18 0.643
 -0.288 -0.181 0.649
 -0.29 -0.186 0.667
 -0.29 -0.188 0.677
 -0.286 -0.189 0.68
 -0.342 -0.228 0.829
 -0.405 -0.275 1.004
 -0.451 -0.311 1.14
 -0.487 -0.34 1.253
 -0.508 -0.361 1.331
 -0.522 -0.377 1.395
 -0.524 -0.385 1.426
 -0.523 -0.391 1.453
 -0.522 -0.397 1.477
 -0.517 -0.4 1.491
 -0.508 -0.401 1.496
 -0.499 -0.401 1.5
 -0.491 -0.401 1.503
 -0.482 -0.401 1.507
 -0.473 -0.402 1.511
 -0.464 -0.402 1.514
 -0.455 -0.403 1.518
 -0.446 -0.403 1.521
 -0.437 -0.403 1.525
 -0.429 -0.404 1.529
 -0.42 -0.404 1.532
 -0.411 -0.405 1.536
 -0.402 -0.405 1.538
 -0.393 -0.405 1.541
 -0.384 -0.406 1.545
 -0.375 -0.406 1.547
 -0.366 -0.406 1.551
 -0.357 -0.407 1.555
 -0.348 -0.407 1.558
 -0.339 -0.408 1.562
 -0.33 -0.409 1.566
 -0.321 -0.409 1.569
 -0.312 -0.41 1.573
 -0.303 -0.41 1.577
 -0.294 -0.411 1.581
 -0.285 -0.412 1.584
 -0.276 -0.412 1.588
 -0.267 -0.413 1.592
 -0.258 -0.414 1.596
 -0.249 -0.414 1.6
 -0.24 -0.415 1.604
 -0.231 -0.416 1.607
 -0.222 -0.416 1.61
 -0.213 -0.417 1.613
 -0.203 -0.418 1.616
 -0.194 -0.418 1.62
 -0.185 -0.419 1.624
 -0.176 -0.42 1.627
 -0.166 -0.421 1.631
 -0.157 -0.422 1.636
 -0.148 -0.423 1.64
 -0.138 -0.424 1.644
 -0.129 -0.424 1.648
 -0.119 -0.425 1.652
 -0.11 -0.426 1.654
 -0.1 -0.427 1.658
 -0.091 -0.428 1.661
 -0.081 -0.428 1.665
 -0.071 -0.429 1.669
 -0.062 -0.43 1.672
 -0.052 -0.431 1.676
 -0.042 -0.432 1.679
 -0.032 -0.433 1.683
 -0.023 -0.434 1.686
 -0.013 -0.435 1.689
 -0.003 -0.435 1.692
 0.006 -0.436 1.695
 0.016 -0.437 1.698
 0.026 -0.438 1.701
 0.036 -0.439 1.704
 0.046 -0.439 1.706
 0.056 -0.44 1.709
 0.066 -0.441 1.711
 0.077 -0.441 1.712
 0.087 -0.441 1.713
 0.097 -0.442 1.713
 0.107 -0.442 1.713
 0.117 -0.442 1.713
 0.127 -0.441 1.71
 0.137 -0.441 1.706
 0.146 -0.439 1.7
 0.155 -0.437 1.69
 0.164 -0.434 1.677
 0.173 -0.431 1.664
 0.181 -0.427 1.649
 0.189 -0.423 1.633
 0.197 -0.42 1.617
 0.204 -0.416 1.601
 0.211 -0.411 1.583
 0.22 -0.409 1.573
 0.227 -0.406 1.56
 0.233 -0.401 1.538
 0.243 -0.402 1.54
 0.253 -0.403 1.544
 0.263 -0.404 1.548
 0.274 -0.407 1.558
 0.286 -0.411 1.572
 0.295 -0.41 1.567
 0.303 -0.41 1.562
 0.311 -0.408 1.555
 0.318 -0.405 1.543
 0.326 -0.403 1.531
 0.331 -0.398 1.511
 0.333 -0.391 1.481
 0.334 -0.382 1.444
 0.336 -0.374 1.413
 0.338 -0.368 1.388
 0.342 -0.363 1.366
 0.346 -0.358 1.347
 0.349 -0.354 1.328
 0 0 0
 0 0 0
 0 0 0
 0 0 0
 0 0 0
 0 0 0
 0 0 0
 0 0 0
 0 0 0
 0 0 0
 0 0 0
 0 0 0
 0 0 0
 0 0 0
 0 0 0
 0.328 -0.245 0.888
 0.327 -0.24 0.867
 0.326 -0.235 0.85
 0.329 -0.234 0.841
 0.331 -0.232 0.832
 0.336 -0.231 0.828
 0.338 -0.229 0.819
 0.341 -0.228 0.812
 0.343 -0.226 0.804
 0.344 -0.223 0.791
 0.344 -0.22 0.778
 0.347 -0.219 0.771
 0.348 -0.217 0.762
 0.349 -0.214 0.751
 0.352 -0.213 0.746
 0.355 -0.212 0.74
 0.357 -0.211 0.732
 0.36 -0.21 0.726
 0.365 -0.21 0.725
 0.366 -0.208 0.716
 0.367 -0.206 0.707
 0.37 -0.205 0.701
 0.373 -0.204 0.695
 0.374 -0.202 0.687
 0.377 -0.201 0.681
 0.381 -0.201 0.678
 0.382 -0.199 0.67
 0.384 -0.198 0.663
 0.381 -0.195 0.649
 0.395 -0.199 0.662
 -0.32 -0.158 0.552
 -0.317 -0.158 0.554
 -0.32 -0.162 0.569
 -0.322 -0.165 0.581
 -0.324 -0.168 0.594
 -0.326 -0.171 0.606
 -0.326 -0.173 0.617
 -0.326 -0.175 0.626
 -0.323 -0.176 0.63
 -0.315 -0.174 0.624
 -0.305 -0.171 0.615
 -0.295 -0.167 0.602
 -0.286 -0.164 0.594
 -0.278 -0.162 0.586
 -0.277 -0.163 0.594
 -0.279 -0.167 0.609
 -0.282 -0.171 0.627
 -0.285 -0.175 0.643
 -0.29 -0.181 0.666
 -0.291 -0.184 0.68
 -0.286 -0.184 0.681
 -0.374 -0.244 0.911
 -0.444 -0.294 1.104
 -0.483 -0.325 1.222
 -0.508 -0.347 1.309
 -0.518 -0.359 1.36
 -0.525 -0.37 1.405
 -0.525 -0.377 1.433
 -0.524 -0.383 1.458
 -0.522 -0.388 1.48
 -0.516 -0.39 1.491
 -0.507 -0.391 1.496
 -0.499 -0.391 1.499
 -0.49 -0.391 1.503
 -0.481 -0.392 1.507
 -0.472 -0.392 1.511
 -0.463 -0.392 1.514
 -0.454 -0.393 1.518
 -0.446 -0.393 1.521
 -0.437 -0.394 1.525
 -0.428 -0.394 1.528
 -0.419 -0.394 1.532
 -0.41 -0.395 1.536
 -0.401 -0.395 1.538
 -0.392 -0.395 1.541
 -0.383 -0.396 1.545
 -0.374 -0.396 1.547
 -0.365 -0.396 1.55
 -0.356 -0.397 1.555
 -0.348 -0.397 1.558
 -0.339 -0.398 1.562
 -0.33 -0.399 1.566
 -0.321 -0.399 1.57
 -0.312 -0.4 1.573
 -0.303 -0.401 1.577
 -0.294 -0.401 1.58
 -0.285 -0.402 1.584
 -0.276 -0.402 1.588
 -0.267 -0.403 1.592
 -0.258 -0.404 1.595
 -0.249 -0.404 1.599
 -0.24 -0.405 1.603
 -0.231 -0.406 1.606
 -0.221 -0.406 1.61
 -0.212 -0.407 1.613
 -0.203 -0.407 1.616
 -0.194 -0.408 1.62
 -0.185 -0.409 1.624
 -0.175 -0.41 1.627
 -0.166 -0.411 1.631
 -0.157 -0.412 1.636
 -0.147 -0.412 1.64
 -0.138 -0.413 1.644
 -0.129 -0.414 1.648
 -0.119 -0.415 1.651
 -0.11 -0.415 1.654
 -0.1 -0.416 1.658
 -0.091 -0.417 1.661
 -0.081 -0.418 1.665
 -0.071 -0.419 1.669
 -0.062 -0.42 1.672
 -0.052 -0.421 1.676
 -0.042 -0.422 1.679
 -0.032 -0.422 1.683
 -0.023 -0.423 1.686
 -0.013 -0.424 1.689
 -0.003 -0.425 1.692
 0.006 -0.426 1.695
 0.016 -0.426 1.698
 0.026 -0.427 1.701
 0.036 -0.428 1.703
 0.046 -0.429 1.706
 0.056 -0.429 1.708
 0.066 -0.43 1.71
 0.076 -0.43 1.711
 0.087 -0.431 1.712
 0.097 -0.431 1.712
 0.107 -0.431 1.713
 0.117 -0.431 1.713
 0.127 -0.431 1.71
 0.137 -0.43 1.706
 0.146 -0.429 1.7
 0.155 -0.426 1.689
 0.164 -0.423 1.677
 0.172 -0.42 1.663
 0.181 -0.417 1.648
 0.189 -0.413 1.632
 0.196 -0.409 1.616
 0.204 -0.405 1.6
 0.211 -0.402 1.583
 0.219 -0.399 1.573
 0.227 -0.397 1.561
 0.233 -0.391 1.537
 0.242 -0.391 1.538
 0.252 -0.393 1.541
 0.262 -0.394 1.544
 0.273 -0.396 1.552
 0.285 -0.4 1.568
 0.294 -0.4 1.563
 0.302 -0.399 1.557
 0.31 -0.397 1.55
 0.317 -0.394 1.538
 0.324 -0.392 1.524
 0.329 -0.387 1.505
 0.332 -0.38 1.477
 0.334 -0.372 1.443
 0.333 -0.363 1.404
 0.337 -0.357 1.382
 0.339 -0.352 1.358
 0.343 -0.347 1.338
 0.341 -0.338 1.299
 0 0 0
 0 0 0
 0 0 0
 0 0 0
 0 0 0
 0 0 0
 0 0 0
 0 0 0
 0 0 0
 0 0 0
 0 0 0
 0 0 0
 0 0 0
 0 0 0
 0.327 -0.242 0.902
 0.327 -0.238 0.886
 0.328 -0.235 0.872
 0.328 -0.231 0.855
 0.328 -0.228 0.84
 0.332 -0.227 0.836
 0.335 -0.225 0.827
 0.336 -0.223 0.817
 0.339 -0.221 0.808
 0.343 -0.221 0.804
 0.342 -0.217 0.788
 0.343 -0.215 0.777
 0.345 -0.213 0.769
 0.347 -0.211 0.761
 0.35 -0.21 0.754
 0.353 -0.209 0.748
 0.355 -0.207 0.74
 0.357 -0.206 0.733
 0.36 -0.205 0.726
 0.363 -0.204 0.721
 0.364 -0.202 0.712
 0.367 -0.201 0.708
 0.37 -0.2 0.702
 0.373 -0.199 0.696
 0.374 -0.198 0.688
 0.376 -0.196 0.681
 0.378 -0.195 0.675
 0.38 -0.194 0.668
 0.382 -0.193 0.661
 0.374 -0.186 0.637
 0.386 -0.19 0.648
 -0.32 -0.154 0.552
 -0.316 -0.155 0.555
 -0.319 -0.158 0.568
 -0.321 -0.16 0.58
 -0.323 -0.164 0.594
 -0.326 -0.167 0.608
 -0.326 -0.169 0.618
 -0.325 -0.171 0.625
 -0.318 -0.169 0.622
 -0.306 -0.165 0.607
 -0.292 -0.16 0.589
 -0.278 -0.154 0.568
 -0.268 -0.15 0.556
 -0.259 -0.148 0.547
 -0.258 -0.149 0.554
 -0.261 -0.153 0.569
 -0.27 -0.16 0.6
 -0.275 -0.166 0.622
 -0.284 -0.173 0.653
 -0.287 -0.178 0.673
 -0.301 -0.189 0.718
 -0.421 -0.268 1.027
 -0.486 -0.314 1.211
 -0.509 -0.334 1.29
 -0.519 -0.346 1.34
 -0.523 -0.354 1.376
 -0.527 -0.363 1.412
 -0.526 -0.369 1.438
 -0.525 -0.374 1.461
 -0.522 -0.379 1.483
 -0.516 -0.381 1.493
 -0.507 -0.381 1.497
 -0.498 -0.381 1.5
 -0.489 -0.382 1.503
 -0.48 -0.382 1.507
 -0.472 -0.382 1.511
 -0.463 -0.383 1.514
 -0.454 -0.383 1.517
 -0.445 -0.383 1.521
 -0.436 -0.384 1.525
 -0.427 -0.384 1.528
 -0.418 -0.384 1.532
 -0.41 -0.385 1.536
 -0.401 -0.385 1.538
 -0.392 -0.385 1.541
 -0.383 -0.386 1.545
 -0.374 -0.386 1.547
 -0.365 -0.386 1.55
 -0.356 -0.387 1.555
 -0.347 -0.387 1.558
 -0.338 -0.388 1.561
 -0.329 -0.389 1.565
 -0.32 -0.389 1.569
 -0.311 -0.39 1.573
 -0.303 -0.391 1.577
 -0.294 -0.391 1.58
 -0.285 -0.392 1.585
 -0.276 -0.392 1.588
 -0.267 -0.393 1.592
 -0.258 -0.394 1.595
 -0.248 -0.394 1.599
 -0.239 -0.395 1.602
 -0.23 -0.396 1.606
 -0.221 -0.396 1.609
 -0.212 -0.397 1.613
 -0.203 -0.397 1.616
 -0.194 -0.398 1.62
 -0.184 -0.399 1.624
 -0.175 -0.4 1.627
 -0.166 -0.401 1.632
 -0.157 -0.402 1.637
 -0.147 -0.402 1.64
 -0.138 -0.403 1.644
 -0.128 -0.404 1.648
 -0.119 -0.405 1.651
 -0.109 -0.405 1.654
 -0.1 -0.406 1.658
 -0.09 -0.407 1.661
 -0.081 -0.408 1.665
 -0.071 -0.409 1.668
 -0.062 -0.41 1.672
 -0.052 -0.41 1.676
 -0.042 -0.411 1.679
 -0.032 -0.412 1.683
 -0.022 -0.413 1.686
 -0.013 -0.414 1.689
 -0.003 -0.414 1.692
 0.006 -0.415 1.695
 0.016 -0.416 1.698
 0.026 -0.417 1.701
 0.036 -0.417 1.704
 0.046 -0.418 1.706
 0.056 -0.419 1.708
 0.066 -0.419 1.71
 0.076 -0.42 1.712
 0.087 -0.42 1.712
 0.097 -0.42 1.713
 0.107 -0.421 1.713
 0.117 -0.421 1.713
 0.127 -0.42 1.711
 0.136 -0.42 1.706
 0.146 -0.418 1.699
 0.155 -0.416 1.689
 0.164 -0.413 1.676
 0.172 -0.41 1.662
 0.18 -0.406 1.647
 0.188 -0.403 1.632
 0.196 -0.399 1.616
 0.204 -0.395 1.599
 0.211 -0.392 1.583
 0.219 -0.389 1.573
 0.226 -0.386 1.558
 0.233 -0.382 1.538
 0.242 -0.382 1.539
 0.252 -0.384 1.545
 0.262 -0.385 1.548
 0.273 -0.387 1.556
 0.285 -0.391 1.568
 0.294 -0.39 1.564
 0.301 -0.388 1.556
 0.309 -0.387 1.548
 0.316 -0.384 1.534
 0.323 -0.382 1.524
 0.329 -0.377 1.505
 0.332 -0.371 1.479
 0.334 -0.364 1.446
 0.333 -0.354 1.406
 0.336 -0.348 1.379
 0.338 -0.343 1.355
 0.339 -0.336 1.326
 0.34 -0.329 1.296
 0 0 0
 0 0 0
 0 0 0
 0 0 0
 0 0 0
 0 0 0
 0 0 0
 0 0 0
 0 0 0
 0 0 0
 0 0 0
 0 0 0
 0.323 -0.242 0.929
 0.329 -0.242 0.927
 0.326 -0.236 0.9
 0.329 -0.234 0.892
 0.329 -0.23 0.876
 0.329 -0.227 0.861
 0.331 -0.224 0.848
 0.334 -0.223 0.84
 0.335 -0.22 0.829
 0.336 -0.218 0.817
 0.338 -0.215 0.807
 0.34 -0.214 0.798
 0.34 -0.211 0.785
 0.341 -0.208 0.773
 0.344 -0.207 0.767
 0.347 -0.206 0.761
 0.351 -0.205 0.757
 0.352 -0.203 0.747
 0.356 -0.203 0.744
 0.357 -0.201 0.735
 0.359 -0.2 0.727
 0.362 -0.199 0.721
 0.366 -0.198 0.717
 0.367 -0.197 0.709
 0.37 -0.196 0.703
 0.372 -0.194 0.696
 0.373 -0.192 0.686
 0.373 -0.19 0.677
 0.376 -0.189 0.671
 0.378 -0.188 0.665
 0.381 -0.188 0.66
 0.378 -0.184 0.645
 0.385 -0.185 0.647
 -0.322 -0.152 0.558
 -0.317 -0.151 0.557
 -0.318 -0.154 0.567
 -0.319 -0.156 0.578
 -0.322 -0.159 0.593
 -0.322 -0.161 0.602
 -0.32 -0.162 0.608
 -0.316 -0.162 0.609
 -0.307 -0.159 0.6
 -0.29 -0.153 0.576
 -0.275 -0.147 0.554
 -0.26 -0.141 0.531
 -0.247 -0.136 0.513
 -0.236 -0.131 0.498
 -0.231 -0.131 0.496
 -0.226 -0.13 0.493
 -0.23 -0.133 0.509
 -0.238 -0.14 0.536
 0 0 0
 0 0 0
 -0.352 -0.216 0.843
 -0.483 -0.3 1.184
 -0.524 -0.33 1.307
 -0.524 -0.336 1.331
 -0.52 -0.339 1.346
 -0.527 -0.349 1.389
 -0.529 -0.356 1.419
 -0.527 -0.361 1.443
 -0.525 -0.365 1.464
 -0.522 -0.37 1.484
 -0.515 -0.371 1.493
 -0.506 -0.371 1.497
 -0.497 -0.372 1.5
 -0.488 -0.372 1.503
 -0.48 -0.372 1.507
 -0.471 -0.373 1.511
 -0.462 -0.373 1.514
 -0.453 -0.373 1.517
 -0.444 -0.374 1.521
 -0.436 -0.374 1.525
 -0.427 -0.374 1.528
 -0.418 -0.375 1.532
 -0.409 -0.375 1.536
 -0.4 -0.375 1.538
 -0.391 -0.376 1.541
 -0.382 -0.376 1.545
 -0.373 -0.376 1.547
 -0.364 -0.377 1.55
 -0.355 -0.377 1.555
 -0.346 -0.378 1.558
 -0.338 -0.378 1.562
 -0.329 -0.379 1.565
 -0.32 -0.379 1.569
 -0.311 -0.38 1.573
 -0.302 -0.381 1.577
 -0.293 -0.381 1.58
 -0.284 -0.382 1.584
 -0.275 -0.382 1.588
 -0.266 -0.383 1.592
 -0.257 -0.384 1.595
 -0.248 -0.384 1.598
 -0.239 -0.385 1.602
 -0.23 -0.385 1.606
 -0.221 -0.386 1.609
 -0.212 -0.387 1.612
 -0.202 -0.387 1.616
 -0.193 -0.388 1.62
 -0.184 -0.389 1.623
 -0.175 -0.39 1.627
 -0.166 -0.39 1.631
 -0.156 -0.391 1.636
 -0.147 -0.392 1.64
 -0.138 -0.393 1.644
 -0.128 -0.394 1.647
 -0.119 -0.395 1.651
 -0.109 -0.395 1.654
 -0.1 -0.396 1.658
 -0.09 -0.397 1.661
 -0.081 -0.398 1.665
 -0.071 -0.398 1.668
 -0.061 -0.399 1.672
 -0.052 -0.4 1.675
 -0.042 -0.401 1.679
 -0.032 -0.402 1.683
 -0.022 -0.402 1.686
 -0.013 -0.403 1.689
 -0.003 -0.404 1.692
 0.006 -0.405 1.694
 0.016 -0.405 1.697
 0.026 -0.406 1.7
 0.036 -0.407 1.703
 0.046 -0.408 1.706
 0.056 -0.408 1.708
 0.066 -0.409 1.71
 0.076 -0.409 1.712
 0.086 -0.41 1.712
 0.097 -0.41 1.712
 0.107 -0.41 1.712
 0.117 -0.41 1.713
 0.127 -0.41 1.71
 0.136 -0.409 1.706
 0.146 -0.408 1.699
 0.155 -0.405 1.689
 0.164 -0.402 1.676
 0.172 -0.399 1.662
 0.18 -0.396 1.646
 0.188 -0.392 1.631
 0.196 -0.389 1.615
 0.203 -0.385 1.599
 0.211 -0.382 1.582
 0.219 -0.38 1.572
 0.226 -0.377 1.56
 0.233 -0.372 1.539
 0.242 -0.373 1.54
 0.252 -0.375 1.547
 0.262 -0.376 1.551
 0.273 -0.378 1.556
 0.285 -0.381 1.57
 0.294 -0.381 1.566
 0.301 -0.379 1.556
 0.309 -0.377 1.547
 0.316 -0.374 1.534
 0.323 -0.372 1.522
 0.328 -0.367 1.502
 0.331 -0.362 1.477
 0.333 -0.354 1.442
 0.333 -0.345 1.404
 0.334 -0.338 1.374
 0.337 -0.333 1.351
 0.338 -0.326 1.322
 0.341 -0.322 1.301
 0.348 -0.321 1.297
 0.314 -0.284 1.141
 0.321 -0.284 1.139
 0 0 0
 0 0 0
 0.334 -0.277 1.109
 0 0 0
 0 0 0
 0 0 0
 0.318 -0.245 0.971
 0.307 -0.233 0.919
 0.315 -0.234 0.923
 0.319 -0.233 0.918
 0.321 -0.231 0.905
 0.324 -0.229 0.895
 0.326 -0.227 0.886
 0.327 -0.224 0.873
 0.329 -0.222 0.862
 0.331 -0.219 0.85
 0.333 -0.217 0.839
 0.333 -0.214 0.826
 0.335 -0.212 0.815
 0.334 -0.208 0.8
 0.337 -0.207 0.793
 0.339 -0.205 0.784
 0.341 -0.203 0.774
 0.343 -0.202 0.766
 0.347 -0.201 0.762
 0.349 -0.2 0.755
 0.351 -0.198 0.746
 0.355 -0.198 0.744
 0.357 -0.197 0.736
 0.359 -0.195 0.728
 0.362 -0.194 0.722
 0.365 -0.193 0.717
 0.366 -0.191 0.707
 0.368 -0.19 0.7
 0.37 -0.189 0.694
 0.372 -0.187 0.685
 0.372 -0.185 0.675
 0.375 -0.185 0.671
 0.378 -0.184 0.665
 0.38 -0.183 0.66
 0.386 -0.183 0.659
 0.386 -0.182 0.651
 -0.322 -0.148 0.559
 -0.32 -0.149 0.562
 -0.317 -0.149 0.567
 -0.318 -0.151 0.577
 -0.321 -0.155 0.591
 -0.321 -0.156 0.6
 -0.316 -0.156 0.601
 -0.309 -0.155 0.597
 -0.297 -0.151 0.582
 -0.279 -0.143 0.554
 -0.263 -0.137 0.53
 -0.25 -0.132 0.512
 -0.239 -0.128 0.496
 -0.229 -0.124 0.483
 -0.224 -0.123 0.48
 -0.217 -0.121 0.473
 -0.222 -0.126 0.492
 0 0 0
 0 0 0
 0 0 0
 -0.407 -0.243 0.98
 -0.516 -0.312 1.266
 -0.524 -0.322 1.31
 -0.524 -0.327 1.334
 -0.52 -0.33 1.348
 -0.53 -0.342 1.397
 -0.53 -0.347 1.424
 -0.528 -0.352 1.446
 -0.525 -0.356 1.466
 -0.522 -0.36 1.486
 -0.515 -0.362 1.494
 -0.506 -0.362 1.497
 -0.497 -0.362 1.501
 -0.488 -0.362 1.504
 -0.479 -0.363 1.508
 -0.47 -0.363 1.511
 -0.461 -0.363 1.514
 -0.452 -0.363 1.517
 -0.444 -0.364 1.521
 -0.435 -0.364 1.525
 -0.426 -0.365 1.528
 -0.417 -0.365 1.532
 -0.409 -0.365 1.535
 -0.399 -0.366 1.538
 -0.391 -0.366 1.541
 -0.382 -0.366 1.545
 -0.373 -0.367 1.548
 -0.364 -0.367 1.551
 -0.355 -0.368 1.554
 -0.346 -0.368 1.557
 -0.337 -0.368 1.561
 -0.328 -0.369 1.565
 -0.319 -0.369 1.568
 -0.311 -0.37 1.572
 -0.302 -0.371 1.577
 -0.293 -0.371 1.58
 -0.284 -0.372 1.584
 -0.275 -0.372 1.587
 -0.266 -0.373 1.59
 -0.257 -0.373 1.594
 -0.248 -0.374 1.597
 -0.238 -0.375 1.6
 -0.229 -0.375 1.605
 -0.22 -0.376 1.608
 -0.211 -0.377 1.612
 -0.202 -0.377 1.616
 -0.193 -0.378 1.62
 -0.184 -0.379 1.623
 -0.174 -0.379 1.627
 -0.165 -0.38 1.631
 -0.156 -0.381 1.635
 -0.147 -0.382 1.639
 -0.137 -0.383 1.642
 -0.128 -0.383 1.646
 -0.119 -0.384 1.65
 -0.109 -0.385 1.653
 -0.1 -0.386 1.657
 -0.09 -0.387 1.661
 -0.081 -0.387 1.665
 -0.071 -0.388 1.669
 -0.061 -0.389 1.672
 -0.052 -0.39 1.675
 -0.042 -0.391 1.679
 -0.032 -0.391 1.683
 -0.022 -0.392 1.686
 -0.012 -0.393 1.689
 -0.003 -0.394 1.692
 0.006 -0.394 1.694
 0.016 -0.395 1.697
 0.026 -0.396 1.7
 0.036 -0.396 1.703
 0.046 -0.397 1.705
 0.056 -0.398 1.708
 0.066 -0.398 1.71
 0.076 -0.399 1.711
 0.086 -0.399 1.712
 0.096 -0.399 1.712
 0.107 -0.399 1.712
 0.117 -0.4 1.712
 0.127 -0.399 1.71
 0.136 -0.398 1.706
 0.146 -0.397 1.699
 0.155 -0.395 1.689
 0.163 -0.392 1.675
 0.172 -0.389 1.661
 0.18 -0.386 1.646
 0.188 -0.382 1.63
 0.196 -0.379 1.614
 0.203 -0.375 1.598
 0.211 -0.372 1.582
 0.219 -0.37 1.572
 0.226 -0.367 1.561
 0.233 -0.363 1.541
 0.242 -0.363 1.54
 0.252 -0.365 1.545
 0.262 -0.366 1.548
 0.272 -0.367 1.552
 0.284 -0.371 1.566
 0.293 -0.37 1.563
 0.301 -0.369 1.555
 0.308 -0.367 1.545
 0.315 -0.364 1.532
 0.322 -0.361 1.519
 0.327 -0.358 1.5
 0.331 -0.352 1.477
 0.333 -0.346 1.446
 0.333 -0.337 1.406
 0.334 -0.33 1.376
 0.334 -0.322 1.339
 0.334 -0.315 1.307
 0.334 -0.307 1.275
 0.337 -0.303 1.255
 0.312 -0.275 1.136
 0.321 -0.277 1.141
 0 0 0
 0 0 0
 0 0 0
 0 0 0
 0 0 0
 0 0 0
 0.3 -0.226 0.917
 0.306 -0.226 0.917
 0.318 -0.231 0.934
 0.323 -0.231 0.931
 0.325 -0.228 0.918
 0.324 -0.224 0.899
 0.325 -0.22 0.883
 0.325 -0.217 0.867
 0.327 -0.215 0.856
 0.329 -0.213 0.847
 0.332 -0.211 0.838
 0.334 -0.209 0.828
 0.334 -0.206 0.815
 0.333 -0.202 0.796
 0.335 -0.2 0.787
 0.337 -0.199 0.779
 0.336 -0.196 0.765
 0.339 -0.195 0.758
 0.344 -0.194 0.756
 0.347 -0.194 0.75
 0.35 -0.193 0.744
 0.355 -0.193 0.744
 0.357 -0.191 0.736
 0.358 -0.189 0.725
 0.359 -0.188 0.718
 0.363 -0.187 0.713
 0.363 -0.185 0.702
 0.365 -0.184 0.695
 0.369 -0.184 0.692
 0.37 -0.182 0.683
 0.37 -0.18 0.672
 0.374 -0.18 0.67
 0.376 -0.179 0.664
 0.379 -0.178 0.658
 0.393 -0.182 0.673
 0.394 -0.181 0.665
 -0.321 -0.144 0.557
 -0.32 -0.145 0.563
 -0.317 -0.145 0.567
 -0.317 -0.147 0.576
 -0.319 -0.15 0.589
 -0.319 -0.152 0.597
 -0.313 -0.151 0.596
 -0.304 -0.148 0.586
 -0.29 -0.143 0.568
 -0.271 -0.136 0.54
 -0.254 -0.129 0.512
 -0.242 -0.125 0.496
 -0.233 -0.122 0.484
 -0.225 -0.119 0.475
 -0.219 -0.118 0.47
 -0.216 -0.118 0.472
 0 0 0
 0 0 0
 0 0 0
 0 0 0
 -0.484 -0.282 1.169
 -0.518 -0.306 1.274
 -0.525 -0.315 1.313
 -0.525 -0.32 1.337
 -0.521 -0.322 1.352
 -0.531 -0.334 1.404
 -0.531 -0.339 1.429
 -0.528 -0.343 1.45
 -0.525 -0.347 1.468
 -0.522 -0.351 1.487
 -0.514 -0.352 1.494
 -0.505 -0.352 1.497
 -0.496 -0.353 1.501
 -0.487 -0.353 1.504
 -0.479 -0.353 1.508
 -0.47 -0.353 1.511
 -0.461 -0.353 1.513
 -0.452 -0.354 1.517
 -0.443 -0.354 1.521
 -0.434 -0.355 1.524
 -0.426 -0.355 1.528
 -0.417 -0.355 1.531
 -0.408 -0.356 1.535
 -0.399 -0.356 1.538
 -0.39 -0.356 1.541
 -0.381 -0.357 1.544
 -0.372 -0.357 1.548
 -0.363 -0.357 1.55
 -0.354 -0.358 1.554
 -0.345 -0.358 1.557
 -0.337 -0.359 1.561
 -0.328 -0.359 1.565
 -0.319 -0.36 1.568
 -0.31 -0.36 1.572
 -0.301 -0.361 1.576
 -0.292 -0.361 1.579
 -0.283 -0.362 1.583
 -0.274 -0.363 1.587
 -0.265 -0.363 1.59
 -0.256 -0.363 1.593
 -0.247 -0.364 1.596
 -0.238 -0.364 1.599
 -0.229 -0.365 1.604
 -0.22 -0.366 1.608
 -0.211 -0.367 1.611
 -0.202 -0.367 1.616
 -0.193 -0.368 1.619
 -0.183 -0.369 1.623
 -0.174 -0.369 1.627
 -0.165 -0.37 1.631
 -0.156 -0.371 1.635
 -0.146 -0.372 1.638
 -0.137 -0.372 1.642
 -0.128 -0.373 1.645
 -0.118 -0.374 1.649
 -0.109 -0.375 1.653
 -0.099 -0.376 1.657
 -0.09 -0.376 1.661
 -0.08 -0.377 1.664
 -0.071 -0.378 1.668
 -0.061 -0.379 1.672
 -0.051 -0.379 1.675
 -0.042 -0.38 1.679
 -0.032 -0.381 1.682
 -0.022 -0.382 1.686
 -0.012 -0.383 1.689
 -0.003 -0.383 1.691
 0.006 -0.384 1.694
 0.016 -0.385 1.697
 0.026 -0.385 1.699
 0.036 -0.386 1.702
 0.046 -0.387 1.705
 0.056 -0.387 1.707
 0.066 -0.388 1.709
 0.076 -0.388 1.711
 0.086 -0.388 1.711
 0.096 -0.389 1.712
 0.106 -0.389 1.712
 0.117 -0.389 1.712
 0.126 -0.389 1.71
 0.136 -0.388 1.705
 0.146 -0.387 1.698
 0.155 -0.385 1.689
 0.163 -0.382 1.675
 0.172 -0.379 1.66
 0.18 -0.375 1.645
 0.188 -0.372 1.63
 0.195 -0.369 1.614
 0.203 -0.365 1.598
 0.21 -0.362 1.582
 0.218 -0.36 1.572
 0.226 -0.357 1.558
 0.232 -0.354 1.54
 0.241 -0.354 1.539
 0.252 -0.355 1.544
 0.261 -0.356 1.548
 0.272 -0.358 1.554
 0.284 -0.361 1.567
 0.293 -0.361 1.565
 0.301 -0.36 1.558
 0.308 -0.357 1.545
 0.315 -0.355 1.534
 0.322 -0.352 1.521
 0.327 -0.349 1.502
 0.33 -0.343 1.476
 0.333 -0.337 1.446
 0.333 -0.328 1.407
 0.334 -0.321 1.376
 0.331 -0.311 1.329
 0.331 -0.304 1.299
 0.328 -0.295 1.254
 0.326 -0.286 1.215
 0.314 -0.27 1.144
 0.327 -0.275 1.163
 0 0 0
 0 0 0
 0 0 0
 0 0 0
 0 0 0
 0.3 -0.224 0.936
 0.302 -0.221 0.923
 0.31 -0.223 0.928
 0.319 -0.225 0.937
 0.323 -0.224 0.931
 0.326 -0.222 0.921
 0.327 -0.219 0.906
 0.326 -0.215 0.887
 0.326 -0.212 0.872
 0.328 -0.21 0.859
 0.33 -0.208 0.849
 0.332 -0.206 0.839
 0.334 -0.204 0.83
 0.335 -0.201 0.816
 0.333 -0.197 0.797
 0.334 -0.195 0.788
 0.337 -0.194 0.781
 0.337 -0.191 0.768
 0.339 -0.19 0.76
 0.343 -0.189 0.756
 0.348 -0.189 0.753
 0.348 -0.187 0.742
 0.354 -0.187 0.742
 0.356 -0.186 0.734
 0.357 -0.184 0.725
 0.359 -0.183 0.717
 0.363 -0.183 0.714
 0.363 -0.181 0.704
 0.365 -0.179 0.697
 0.369 -0.179 0.693
 0.371 -0.178 0.685
 0.37 -0.175 0.674
 0.374 -0.175 0.67
 0.377 -0.174 0.666
 0.38 -0.174 0.661
 0.377 -0.171 0.646
 0.385 -0.172 0.65
 -0.319 -0.139 0.555
 -0.318 -0.14 0.561
 -0.317 -0.142 0.568
 -0.316 -0.143 0.575
 -0.318 -0.145 0.587
 -0.317 -0.147 0.594
 -0.311 -0.146 0.592
 -0.298 -0.142 0.576
 -0.285 -0.137 0.558
 -0.267 -0.13 0.532
 -0.249 -0.123 0.502
 -0.237 -0.119 0.486
 -0.231 -0.117 0.48
 -0.222 -0.114 0.469
 -0.212 -0.111 0.456
 0 0 0
 0 0 0
 0 0 0
 0 0 0
 0 0 0
 -0.491 -0.278 1.186
 -0.518 -0.298 1.275
 -0.525 -0.306 1.315
 -0.525 -0.311 1.338
 -0.521 -0.314 1.353
 -0.532 -0.326 1.409
 -0.531 -0.331 1.432
 -0.529 -0.335 1.452
 -0.525 -0.338 1.469
 -0.521 -0.342 1.488
 -0.513 -0.343 1.494
 -0.505 -0.343 1.498
 -0.496 -0.343 1.501
 -0.487 -0.343 1.505
 -0.478 -0.343 1.508
 -0.469 -0.344 1.511
 -0.46 -0.344 1.514
 -0.451 -0.344 1.517
 -0.442 -0.344 1.52
 -0.434 -0.345 1.524
 -0.425 -0.345 1.528
 -0.416 -0.346 1.531
 -0.407 -0.346 1.535
 -0.398 -0.346 1.538
 -0.389 -0.347 1.541
 -0.381 -0.347 1.544
 -0.372 -0.347 1.548
 -0.363 -0.348 1.551
 -0.354 -0.348 1.554
 -0.345 -0.348 1.557
 -0.336 -0.349 1.561
 -0.327 -0.349 1.564
 -0.318 -0.35 1.568
 -0.309 -0.35 1.571
 -0.301 -0.351 1.575
 -0.292 -0.352 1.579
 -0.283 -0.352 1.583
 -0.274 -0.353 1.587
 -0.265 -0.353 1.59
 -0.256 -0.354 1.593
 -0.247 -0.354 1.596
 -0.238 -0.355 1.599
 -0.229 -0.355 1.603
 -0.22 -0.356 1.607
 -0.21 -0.357 1.61
 -0.201 -0.357 1.615
 -0.192 -0.358 1.618
 -0.183 -0.359 1.622
 -0.174 -0.359 1.626
 -0.165 -0.36 1.63
 -0.156 -0.361 1.634
 -0.146 -0.362 1.638
 -0.137 -0.362 1.641
 -0.127 -0.363 1.645
 -0.118 -0.364 1.648
 -0.109 -0.364 1.652
 -0.099 -0.365 1.656
 -0.09 -0.366 1.659
 -0.08 -0.367 1.663
 -0.071 -0.367 1.666
 -0.061 -0.368 1.67
 -0.051 -0.369 1.674
 -0.042 -0.37 1.678
 -0.032 -0.371 1.681
 -0.022 -0.371 1.685
 -0.012 -0.372 1.688
 -0.003 -0.373 1.691
 0.006 -0.373 1.693
 0.016 -0.374 1.696
 0.026 -0.375 1.699
 0.036 -0.375 1.702
 0.046 -0.376 1.705
 0.056 -0.377 1.707
 0.066 -0.377 1.708
 0.076 -0.378 1.71
 0.086 -0.378 1.711
 0.096 -0.378 1.711
 0.106 -0.378 1.711
 0.116 -0.379 1.712
 0.126 -0.378 1.709
 0.136 -0.377 1.705
 0.145 -0.376 1.699
 0.154 -0.374 1.688
 0.163 -0.371 1.675
 0.172 -0.369 1.661
 0.18 -0.365 1.646
 0.188 -0.362 1.63
 0.195 -0.359 1.614
 0.203 -0.356 1.598
 0.21 -0.352 1.581
 0.218 -0.35 1.571
 0.225 -0.347 1.556
 0.232 -0.344 1.54
 0.241 -0.344 1.539
 0.251 -0.345 1.544
 0.261 -0.347 1.548
 0.272 -0.349 1.556
 0.283 -0.351 1.566
 0.293 -0.352 1.566
 0.301 -0.351 1.56
 0.308 -0.348 1.546
 0.315 -0.346 1.536
 0.322 -0.344 1.524
 0.327 -0.34 1.505
 0.331 -0.335 1.48
 0.333 -0.328 1.449
 0.335 -0.321 1.417
 0.335 -0.314 1.381
 0.332 -0.304 1.333
 0.33 -0.295 1.296
 0.329 -0.287 1.258
 0.323 -0.276 1.205
 0.316 -0.265 1.154
 0.323 -0.265 1.152
 0.327 -0.262 1.138
 0.321 -0.252 1.093
 0.329 -0.254 1.098
 0 0 0
 0.307 -0.228 0.979
 0.307 -0.223 0.959
 0.308 -0.22 0.943
 0.313 -0.22 0.941
 0.318 -0.219 0.935
 0.321 -0.217 0.926
 0.323 -0.215 0.915
 0.327 -0.214 0.907
 0.325 -0.209 0.885
 0.325 -0.206 0.868
 0.326 -0.203 0.855
 0.328 -0.201 0.846
 0.329 -0.199 0.833
 0.332 -0.198 0.826
 0.333 -0.195 0.814
 0.333 -0.192 0.799
 0.333 -0.19 0.786
 0.336 -0.189 0.78
 0.338 -0.187 0.77
 0.341 -0.186 0.764
 0.345 -0.185 0.76
 0.348 -0.185 0.756
 0.349 -0.183 0.745
 0.354 -0.183 0.743
 0.355 -0.181 0.734
 0.356 -0.179 0.724
 0.358 -0.178 0.717
 0.362 -0.178 0.713
 0.362 -0.175 0.702
 0.363 -0.174 0.693
 0.367 -0.173 0.689
 0.369 -0.172 0.683
 0.369 -0.17 0.673
 0.372 -0.17 0.669
 0.376 -0.17 0.665
 0.379 -0.169 0.661
 0.373 -0.165 0.64
 0.38 -0.166 0.642
 -0.32 -0.136 0.557
 -0.316 -0.136 0.559
 -0.317 -0.138 0.569
 -0.316 -0.139 0.575
 -0.316 -0.141 0.584
 -0.314 -0.142 0.59
 -0.31 -0.141 0.59
 -0.296 -0.137 0.573
 -0.283 -0.133 0.556
 -0.267 -0.127 0.532
 -0.248 -0.12 0.502
 -0.235 -0.115 0.482
 -0.229 -0.114 0.478
 -0.22 -0.111 0.467
 -0.21 -0.107 0.451
 0 0 0
 0 0 0
 0 0 0
 0 0 0
 0 0 0
 -0.514 -0.283 1.244
 -0.53 -0.297 1.307
 -0.533 -0.303 1.337
 -0.53 -0.306 1.354
