 1.803 -1.625 3.611
 1.835 -1.631 3.614
 1.867 -1.638 3.619
 1.812 -1.57 3.456
 1.815 -1.553 3.408
 1.837 -1.552 3.395
 1.79 -1.493 3.255
 1.784 -1.471 3.194
 1.768 -1.44 3.116
 1.776 -1.429 3.082
 1.784 -1.419 3.049
 1.773 -1.394 2.985
 1.751 -1.361 2.904
 1.744 -1.34 2.848
 1.739 -1.321 2.797
 -2.14 -1.619 3.572
 -2.116 -1.62 3.587
 -2.061 -1.597 3.548
 -2.058 -1.614 3.597
 -2.051 -1.628 3.64
 -2.04 -1.64 3.678
 -2.008 -1.633 3.676
 -1.939 -1.598 3.607
 -1.942 -1.621 3.67
 -1.925 -1.627 3.696
 -1.907 -1.633 3.721
 -1.863 -1.617 3.694
 -1.888 -1.661 3.806
 -1.802 -1.607 3.692
 -1.784 -1.613 3.717
 -1.777 -1.629 3.764
 -1.721 -1.601 3.707
 -1.705 -1.609 3.736
 -1.726 -1.653 3.848
 -1.658 -1.611 3.76
 -1.648 -1.626 3.804
 -1.622 -1.625 3.811
 -1.6 -1.627 3.825
 -1.571 -1.624 3.826
 -1.541 -1.618 3.822
 -1.521 -1.624 3.842
 -1.474 -1.599 3.793
 -1.452 -1.603 3.809
 -1.452 -1.63 3.881
 -1.412 -1.613 3.85
 -1.406 -1.635 3.909
 -1.349 -1.596 3.824
 -1.33 -1.603 3.848
 -1.321 -1.622 3.901
 -1.289 -1.613 3.885
 -1.258 -1.605 3.873
 -1.24 -1.614 3.903
 -1.224 -1.626 3.936
 -1.201 -1.628 3.948
 -1.166 -1.615 3.922
 -1.14 -1.613 3.923
 -1.111 -1.606 3.913
 -1.081 -1.598 3.9
 -1.082 -1.637 4
 -1.036 -1.605 3.926
 -1.012 -1.604 3.93
 -1.006 -1.635 4.011
 -0.966 -1.611 3.956
 -0.941 -1.61 3.959
 -0.914 -1.605 3.951
 -0.886 -1.6 3.943
 -0.87 -1.615 3.986
 -0.839 -1.603 3.961
 -0.823 -1.62 4.007
 -0.785 -1.593 3.943
 -0.768 -1.607 3.983
 -0.746 -1.612 3.999
 -0.725 -1.621 4.023
 -0.692 -1.602 3.979
 -0.667 -1.602 3.983
 -0.645 -1.607 3.998
 -0.625 -1.62 4.033
 -0.596 -1.607 4.005
 -0.576 -1.621 4.042
 -0.553 -1.625 4.054
 -0.524 -1.611 4.023
 -0.502 -1.619 4.045
 -0.478 -1.622 4.055
 -0.454 -1.626 4.068
 -0.419 -1.585 3.966
 -0.405 -1.627 4.074
 -0.378 -1.618 4.052
 -0.35 -1.602 4.014
 -0.332 -1.636 4.1
 -0.304 -1.62 4.062
 -0.277 -1.606 4.028
 -0.254 -1.611 4.042
 -0.231 -1.625 4.077
 -0.208 -1.635 4.103
 -0.182 -1.625 4.08
 -0.156 -1.614 4.052
 -0.133 -1.638 4.113
 -0.106 -1.598 4.012
 -0.082 -1.612 4.048
 -0.058 -1.611 4.044
 -0.033 -1.61 4.043
 -0.009 -1.612 4.047
 0.015 -1.629 4.09
 0.039 -1.607 4.034
 0.064 -1.627 4.083
 0.088 -1.609 4.038
 0.111 -1.593 3.997
 0.136 -1.604 4.023
 0.163 -1.621 4.064
 0.186 -1.608 4.032
 0.213 -1.631 4.088
 0.236 -1.621 4.06
 0.26 -1.615 4.046
 0.284 -1.609 4.029
 0.309 -1.614 4.038
 0.335 -1.622 4.057
 0.356 -1.607 4.017
 0.378 -1.595 3.984
 0.407 -1.614 4.029
 0.43 -1.61 4.018
 0.457 -1.618 4.035
 0.486 -1.633 4.071
 0.507 -1.621 4.037
 0.529 -1.613 4.015
 0.55 -1.604 3.989
 0.584 -1.631 4.053
 0.594 -1.593 3.954
 0.631 -1.625 4.03
 0.656 -1.626 4.029
 0.676 -1.616 4
 0.707 -1.631 4.034
 0.728 -1.623 4.01
 0.748 -1.612 3.979
 0.778 -1.625 4.005
 0.807 -1.632 4.02
 0.824 -1.618 3.979
 0.855 -1.63 4.004
 0.888 -1.646 4.038
 0.898 -1.619 3.967
 0.924 -1.622 3.968
 0.959 -1.639 4.006
 0.973 -1.621 3.957
 1.001 -1.628 3.969
 1.037 -1.645 4.004
 1.059 -1.641 3.988
 1.072 -1.624 3.94
 1.104 -1.635 3.962
 1.127 -1.632 3.947
 1.149 -1.628 3.931
 1.195 -1.658 3.996
 1.213 -1.648 3.966
 1.223 -1.629 3.912
 1.239 -1.617 3.877
 1.287 -1.648 3.944
 1.326 -1.666 3.978
 1.328 -1.637 3.903
 1.339 -1.621 3.855
 1.376 -1.636 3.883
 1.408 -1.644 3.895
 1.424 -1.635 3.865
 1.457 -1.643 3.876
 1.475 -1.636 3.85
 1.498 -1.635 3.838
 1.531 -1.643 3.849
 1.555 -1.643 3.84
 1.59 -1.653 3.854
 1.597 -1.635 3.803
 1.626 -1.64 3.803
 1.657 -1.646 3.808
 1.676 -1.64 3.785
 1.689 -1.629 3.748
 1.73 -1.645 3.776
 1.741 -1.632 3.735
 1.782 -1.648 3.761
 1.791 -1.633 3.716
 1.813 -1.631 3.7
 1.807 -1.604 3.628
 1.82 -1.594 3.595
 1.811 -1.566 3.52
 1.822 -1.555 3.484
 1.843 -1.553 3.468
 1.778 -1.48 3.294
 1.781 -1.464 3.249
 1.793 -1.456 3.219
 1.8 -1.444 3.181
 1.784 -1.415 3.106
 1.746 -1.368 2.992
 1.751 -1.356 2.956
 1.737 -1.33 2.887
 1.742 -1.319 2.853
 1.782 -1.334 2.874
 -2.148 -1.601 3.597
 -2.149 -1.62 3.653
 -2.128 -1.623 3.672
 -2.11 -1.629 3.698
 -2.085 -1.63 3.712
 -2.056 -1.627 3.717
 -2.032 -1.628 3.731
 -2.005 -1.627 3.741
 -1.976 -1.624 3.745
 -1.95 -1.623 3.754
 -1.929 -1.627 3.775
 -1.903 -1.627 3.785
 -1.876 -1.625 3.792
 -1.853 -1.628 3.808
 -1.827 -1.626 3.816
 -1.8 -1.625 3.823
 -1.776 -1.627 3.837
 -1.751 -1.627 3.848
 -1.72 -1.622 3.845
 -1.693 -1.62 3.85
 -1.667 -1.619 3.858
 -1.64 -1.618 3.863
 -1.614 -1.617 3.87
 -1.591 -1.619 3.884
 -1.565 -1.619 3.891
 -1.539 -1.617 3.896
 -1.513 -1.617 3.905
 -1.488 -1.617 3.913
 -1.464 -1.618 3.924
 -1.439 -1.618 3.932
 -1.415 -1.62 3.943
 -1.389 -1.619 3.947
 -1.362 -1.617 3.951
 -1.335 -1.615 3.953
 -1.309 -1.614 3.958
 -1.284 -1.613 3.962
 -1.26 -1.615 3.973
 -1.236 -1.616 3.983
 -1.211 -1.617 3.991
 -1.186 -1.616 3.996
 -1.161 -1.616 4.003
 -1.134 -1.615 4.005
 -1.108 -1.613 4.006
 -1.082 -1.611 4.007
 -1.058 -1.614 4.019
 -1.033 -1.613 4.022
 -1.006 -1.61 4.02
 -0.982 -1.612 4.031
 -0.957 -1.612 4.036
 -0.932 -1.612 4.04
 -0.907 -1.612 4.044
 -0.883 -1.614 4.053
 -0.856 -1.61 4.049
 -0.83 -1.609 4.05
 -0.805 -1.608 4.051
 -0.78 -1.609 4.058
 -0.755 -1.608 4.058
 -0.73 -1.608 4.063
 -0.706 -1.61 4.071
 -0.682 -1.612 4.078
 -0.657 -1.611 4.08
 -0.633 -1.615 4.092
 -0.609 -1.617 4.101
 -0.584 -1.617 4.104
 -0.558 -1.615 4.101
 -0.534 -1.617 4.109
 -0.509 -1.617 4.112
 -0.483 -1.616 4.11
 -0.458 -1.615 4.112
 -0.433 -1.615 4.112
 -0.407 -1.612 4.106
 -0.382 -1.61 4.103
 -0.357 -1.611 4.108
 -0.332 -1.611 4.108
 -0.308 -1.614 4.117
 -0.283 -1.616 4.124
 -0.258 -1.617 4.127
 -0.233 -1.616 4.127
 -0.208 -1.617 4.128
 -0.183 -1.616 4.127
 -0.158 -1.616 4.128
 -0.133 -1.615 4.125
 -0.108 -1.614 4.124
 -0.084 -1.615 4.127
 -0.059 -1.615 4.126
 -0.034 -1.613 4.121
 -0.009 -1.614 4.122
 0.015 -1.615 4.126
 0.04 -1.615 4.125
 0.065 -1.613 4.119
 0.09 -1.612 4.117
 0.115 -1.612 4.115
 0.139 -1.61 4.108
 0.164 -1.609 4.105
 0.189 -1.61 4.108
 0.214 -1.61 4.106
 0.239 -1.61 4.105
 0.264 -1.611 4.105
 0.288 -1.61 4.102
 0.313 -1.61 4.1
 0.338 -1.609 4.095
 0.363 -1.611 4.097
 0.387 -1.61 4.093
 0.412 -1.611 4.093
 0.438 -1.614 4.098
 0.464 -1.617 4.104
 0.488 -1.617 4.1
 0.514 -1.618 4.1
 0.539 -1.62 4.103
 0.563 -1.616 4.09
 0.588 -1.616 4.087
 0.613 -1.617 4.086
 0.638 -1.619 4.086
 0.663 -1.619 4.083
 0.69 -1.623 4.089
 0.715 -1.623 4.085
 0.74 -1.623 4.08
 0.765 -1.624 4.079
 0.789 -1.622 4.07
 0.814 -1.622 4.065
 0.84 -1.625 4.067
 0.865 -1.625 4.062
 0.889 -1.622 4.052
 0.915 -1.624 4.049
 0.94 -1.625 4.047
 0.964 -1.624 4.039
 0.991 -1.626 4.039
 1.017 -1.629 4.04
 1.043 -1.629 4.035
 1.068 -1.63 4.032
 1.093 -1.63 4.026
 1.118 -1.631 4.02
 1.145 -1.633 4.019
 1.172 -1.635 4.018
 1.197 -1.636 4.013
 1.223 -1.637 4.009
 1.25 -1.639 4.007
 1.276 -1.641 4.004
 1.302 -1.642 3.999
 1.328 -1.643 3.994
 1.355 -1.645 3.99
 1.379 -1.644 3.98
 1.402 -1.641 3.966
 1.427 -1.641 3.957
 1.451 -1.64 3.947
 1.476 -1.64 3.936
 1.5 -1.639 3.926
 1.526 -1.64 3.919
 1.551 -1.639 3.909
 1.576 -1.64 3.901
 1.601 -1.639 3.89
 1.625 -1.639 3.88
 1.648 -1.637 3.865
 1.674 -1.637 3.856
 1.696 -1.634 3.84
 1.72 -1.634 3.828
 1.745 -1.634 3.817
 1.768 -1.632 3.802
 1.787 -1.626 3.779
 1.803 -1.619 3.751
 1.814 -1.607 3.711
 1.822 -1.592 3.666
 1.819 -1.569 3.602
 1.823 -1.551 3.551
 1.822 -1.531 3.494
 1.82 -1.511 3.435
 1.798 -1.473 3.339
 1.782 -1.443 3.259
 1.774 -1.419 3.193
 1.768 -1.397 3.133
 1.77 -1.382 3.089
 1.77 -1.365 3.041
 1.766 -1.346 2.988
 1.761 -1.327 2.935
 1.754 -1.308 2.88
 1.765 -1.301 2.855
 -2.19 -1.607 3.678
 -2.215 -1.644 3.776
 -2.161 -1.623 3.741
 -2.141 -1.627 3.763
 -2.114 -1.627 3.774
 -2.086 -1.625 3.782
 -2.061 -1.626 3.795
 -2.032 -1.623 3.8
 -2.004 -1.621 3.808
 -1.979 -1.622 3.821
 -1.957 -1.625 3.839
 -1.931 -1.625 3.849
 -1.905 -1.625 3.86
 -1.88 -1.625 3.872
 -1.851 -1.623 3.877
 -1.824 -1.622 3.885
 -1.801 -1.624 3.9
 -1.775 -1.624 3.91
 -1.745 -1.62 3.91
 -1.717 -1.618 3.914
 -1.692 -1.618 3.924
 -1.665 -1.616 3.931
 -1.638 -1.616 3.938
 -1.615 -1.618 3.953
 -1.59 -1.618 3.962
 -1.561 -1.615 3.963
 -1.535 -1.614 3.969
 -1.509 -1.615 3.978
 -1.484 -1.614 3.986
 -1.458 -1.614 3.993
 -1.434 -1.616 4.006
 -1.408 -1.616 4.013
 -1.38 -1.613 4.014
 -1.353 -1.611 4.016
 -1.327 -1.611 4.022
 -1.3 -1.609 4.023
 -1.275 -1.609 4.03
 -1.251 -1.611 4.043
 -1.227 -1.613 4.054
 -1.201 -1.612 4.057
 -1.175 -1.611 4.063
 -1.149 -1.61 4.066
 -1.122 -1.608 4.067
 -1.095 -1.606 4.067
 -1.071 -1.608 4.078
 -1.046 -1.608 4.083
 -1.02 -1.607 4.085
 -0.995 -1.608 4.094
 -0.97 -1.609 4.101
 -0.946 -1.611 4.109
 -0.92 -1.61 4.111
 -0.895 -1.611 4.118
 -0.868 -1.608 4.115
 -0.842 -1.606 4.116
 -0.816 -1.605 4.115
 -0.791 -1.605 4.12
 -0.765 -1.604 4.12
 -0.74 -1.605 4.128
 -0.715 -1.607 4.135
 -0.69 -1.607 4.139
 -0.665 -1.607 4.143
 -0.641 -1.609 4.152
 -0.616 -1.61 4.157
 -0.59 -1.61 4.159
 -0.564 -1.608 4.157
 -0.54 -1.611 4.168
 -0.515 -1.612 4.173
 -0.489 -1.611 4.172
 -0.464 -1.611 4.173
 -0.439 -1.611 4.175
 -0.412 -1.608 4.169
 -0.387 -1.606 4.166
 -0.362 -1.606 4.168
 -0.336 -1.605 4.168
 -0.311 -1.606 4.171
 -0.286 -1.607 4.173
 -0.261 -1.607 4.176
 -0.235 -1.607 4.175
 -0.21 -1.607 4.177
 -0.185 -1.608 4.179
 -0.16 -1.609 4.183
 -0.135 -1.607 4.179
 -0.109 -1.607 4.178
 -0.084 -1.608 4.182
 -0.059 -1.607 4.179
 -0.034 -1.606 4.175
 -0.009 -1.606 4.177
 0.016 -1.608 4.181
 0.041 -1.608 4.181
 0.066 -1.607 4.177
 0.091 -1.606 4.175
 0.116 -1.607 4.175
 0.141 -1.605 4.169
 0.166 -1.603 4.164
 0.191 -1.604 4.166
 0.217 -1.604 4.164
 0.242 -1.603 4.16
 0.267 -1.603 4.158
 0.292 -1.604 4.158
 0.317 -1.604 4.155
 0.342 -1.603 4.151
 0.367 -1.604 4.152
 0.392 -1.604 4.15
 0.417 -1.604 4.148
 0.443 -1.607 4.153
 0.469 -1.609 4.156
 0.494 -1.609 4.152
 0.519 -1.61 4.151
 0.545 -1.612 4.155
 0.57 -1.61 4.145
 0.595 -1.61 4.144
 0.621 -1.612 4.145
 0.646 -1.613 4.145
 0.671 -1.613 4.139
 0.698 -1.616 4.144
 0.723 -1.616 4.14
 0.748 -1.616 4.135
 0.774 -1.617 4.135
 0.799 -1.617 4.128
 0.824 -1.615 4.121
 0.85 -1.618 4.123
 0.875 -1.617 4.116
 0.9 -1.616 4.108
 0.925 -1.617 4.106
 0.952 -1.619 4.105
 0.977 -1.619 4.098
 1.004 -1.622 4.101
 1.031 -1.625 4.102
 1.056 -1.624 4.094
 1.082 -1.625 4.091
 1.107 -1.625 4.084
 1.132 -1.625 4.078
 1.16 -1.628 4.08
 1.189 -1.633 4.085
 1.215 -1.634 4.08
 1.241 -1.635 4.077
 1.268 -1.637 4.074
 1.293 -1.637 4.066
 1.318 -1.636 4.056
 1.344 -1.637 4.051
 1.372 -1.639 4.049
 1.397 -1.639 4.04
 1.421 -1.638 4.029
 1.448 -1.639 4.024
 1.473 -1.638 4.014
 1.497 -1.637 4.002
 1.522 -1.637 3.993
 1.548 -1.637 3.984
 1.573 -1.637 3.973
 1.598 -1.637 3.965
 1.623 -1.636 3.954
 1.649 -1.636 3.944
 1.673 -1.635 3.932
 1.699 -1.636 3.923
 1.722 -1.634 3.909
 1.747 -1.633 3.897
 1.769 -1.631 3.88
 1.788 -1.625 3.855
 1.804 -1.617 3.825
 1.816 -1.605 3.786
 1.822 -1.589 3.738
 1.826 -1.571 3.685
 1.824 -1.549 3.621
 1.827 -1.531 3.569
 1.826 -1.511 3.51
 1.825 -1.491 3.452
 1.794 -1.447 3.34
 1.77 -1.411 3.245
 1.764 -1.389 3.183
 1.763 -1.371 3.132
 1.769 -1.359 3.094
 1.771 -1.345 3.05
 1.768 -1.328 3
 1.763 -1.309 2.947
 1.771 -1.299 2.915
 1.739 -1.262 2.819
 -2.238 -1.616 3.769
 -2.266 -1.655 3.873
 -2.195 -1.623 3.81
 -2.174 -1.626 3.831
 -2.146 -1.625 3.84
 -2.118 -1.624 3.85
 -2.092 -1.624 3.862
 -2.061 -1.621 3.866
 -2.034 -1.62 3.875
 -2.01 -1.622 3.891
 -1.985 -1.622 3.904
 -1.958 -1.622 3.915
 -1.934 -1.623 3.928
 -1.909 -1.624 3.942
 -1.88 -1.622 3.948
 -1.854 -1.623 3.959
 -1.829 -1.623 3.971
 -1.803 -1.623 3.981
 -1.772 -1.619 3.981
 -1.742 -1.615 3.981
 -1.715 -1.615 3.989
 -1.688 -1.613 3.996
 -1.661 -1.612 4.002
 -1.638 -1.615 4.018
 -1.613 -1.616 4.029
 -1.585 -1.614 4.033
 -1.557 -1.613 4.038
 -1.532 -1.613 4.046
 -1.505 -1.612 4.052
 -1.479 -1.612 4.061
 -1.455 -1.614 4.075
 -1.43 -1.615 4.084
 -1.401 -1.612 4.084
 -1.374 -1.611 4.088
 -1.348 -1.61 4.094
 -1.319 -1.606 4.091
 -1.292 -1.605 4.095
 -1.268 -1.607 4.107
 -1.243 -1.608 4.116
 -1.216 -1.606 4.117
 -1.19 -1.606 4.124
 -1.163 -1.605 4.126
 -1.137 -1.604 4.13
 -1.11 -1.602 4.13
 -1.085 -1.604 4.14
 -1.059 -1.604 4.146
 -1.034 -1.603 4.15
 -1.008 -1.605 4.158
 -0.984 -1.606 4.166
 -0.959 -1.607 4.176
 -0.932 -1.606 4.178
 -0.907 -1.607 4.182
 -0.88 -1.604 4.181
 -0.853 -1.603 4.181
 -0.827 -1.601 4.18
 -0.801 -1.6 4.183
 -0.775 -1.599 4.183
 -0.749 -1.6 4.189
 -0.724 -1.601 4.195
 -0.699 -1.601 4.199
 -0.673 -1.601 4.201
 -0.648 -1.602 4.209
 -0.622 -1.602 4.21
 -0.596 -1.601 4.21
 -0.57 -1.599 4.208
 -0.545 -1.601 4.217
 -0.52 -1.602 4.221
 -0.494 -1.603 4.226
 -0.468 -1.601 4.224
 -0.443 -1.601 4.225
 -0.416 -1.598 4.219
 -0.39 -1.595 4.213
 -0.364 -1.595 4.213
 -0.339 -1.594 4.213
 -0.314 -1.595 4.217
 -0.288 -1.595 4.217
 -0.263 -1.596 4.22
 -0.237 -1.594 4.218
 -0.212 -1.594 4.218
 -0.186 -1.593 4.217
 -0.161 -1.595 4.223
 -0.136 -1.594 4.22
 -0.11 -1.594 4.22
 -0.085 -1.596 4.225
 -0.059 -1.596 4.224
 -0.034 -1.594 4.219
 -0.009 -1.595 4.223
 0.016 -1.596 4.225
 0.041 -1.596 4.224
 0.067 -1.595 4.222
 0.092 -1.596 4.222
 0.117 -1.595 4.22
 0.143 -1.594 4.217
 0.168 -1.592 4.21
 0.193 -1.592 4.209
 0.218 -1.592 4.206
 0.244 -1.591 4.203
 0.269 -1.591 4.2
 0.294 -1.592 4.203
 0.32 -1.593 4.202
 0.345 -1.593 4.2
 0.371 -1.594 4.2
 0.396 -1.593 4.196
 0.421 -1.594 4.196
 0.447 -1.596 4.199
 0.473 -1.597 4.2
 0.498 -1.597 4.196
 0.524 -1.599 4.197
 0.55 -1.6 4.197
 0.575 -1.598 4.191
 0.6 -1.599 4.189
 0.626 -1.601 4.19
 0.652 -1.602 4.19
 0.678 -1.602 4.187
 0.705 -1.605 4.191
 0.73 -1.606 4.189
 0.756 -1.606 4.185
 0.782 -1.607 4.184
 0.807 -1.607 4.179
 0.832 -1.606 4.171
 0.858 -1.608 4.17
 0.884 -1.608 4.165
 0.909 -1.607 4.16
 0.934 -1.607 4.154
 0.961 -1.609 4.154
 0.987 -1.61 4.149
 1.014 -1.612 4.151
 1.041 -1.615 4.151
 1.067 -1.615 4.146
 1.093 -1.616 4.142
 1.119 -1.617 4.137
 1.146 -1.618 4.135
 1.173 -1.621 4.135
 1.201 -1.624 4.136
 1.228 -1.625 4.133
 1.255 -1.627 4.131
 1.281 -1.628 4.125
 1.307 -1.628 4.119
 1.334 -1.63 4.115
 1.361 -1.632 4.111
 1.389 -1.633 4.108
 1.414 -1.633 4.1
 1.44 -1.634 4.092
 1.467 -1.634 4.085
 1.492 -1.633 4.074
 1.516 -1.632 4.062
 1.542 -1.632 4.054
 1.569 -1.633 4.046
 1.594 -1.633 4.037
 1.62 -1.633 4.027
 1.645 -1.632 4.017
 1.671 -1.633 4.008
 1.695 -1.631 3.993
 1.722 -1.632 3.985
 1.745 -1.629 3.968
 1.768 -1.627 3.953
 1.788 -1.622 3.931
 1.804 -1.613 3.899
 1.817 -1.603 3.861
 1.827 -1.589 3.818
 1.83 -1.571 3.762
 1.834 -1.553 3.71
 1.833 -1.532 3.647
 1.835 -1.514 3.593
 1.834 -1.494 3.534
 1.834 -1.475 3.478
 1.786 -1.418 3.333
 1.746 -1.37 3.208
 1.75 -1.356 3.165
 1.756 -1.344 3.127
 1.767 -1.337 3.099
 1.773 -1.326 3.062
 1.773 -1.311 3.017
 1.768 -1.292 2.963
 1.749 -1.263 2.886
 1.777 -1.269 2.888
 -2.28 -1.62 3.849
 -2.244 -1.613 3.846
 -2.233 -1.624 3.885
 -2.209 -1.626 3.903
 -2.18 -1.624 3.911
 -2.151 -1.623 3.92
 -2.123 -1.622 3.929
 -2.092 -1.618 3.933
 -2.065 -1.618 3.943
 -2.039 -1.618 3.957
 -2.013 -1.619 3.97
 -1.987 -1.619 3.982
 -1.961 -1.619 3.994
 -1.935 -1.62 4.006
 -1.907 -1.619 4.014
 -1.881 -1.619 4.025
 -1.853 -1.618 4.034
 -1.827 -1.618 4.044
 -1.797 -1.616 4.047
 -1.766 -1.612 4.047
 -1.739 -1.611 4.055
 -1.712 -1.61 4.063
 -1.686 -1.61 4.072
 -1.661 -1.612 4.085
 -1.636 -1.613 4.098
 -1.608 -1.612 4.103
 -1.581 -1.611 4.109
 -1.554 -1.61 4.114
 -1.527 -1.609 4.121
 -1.501 -1.61 4.132
 -1.476 -1.611 4.143
 -1.45 -1.612 4.152
 -1.421 -1.609 4.152
 -1.393 -1.607 4.154
 -1.366 -1.606 4.159
 -1.338 -1.603 4.159
 -1.31 -1.601 4.16
 -1.285 -1.602 4.17
 -1.259 -1.603 4.179
 -1.231 -1.6 4.178
 -1.204 -1.6 4.182
 -1.178 -1.599 4.187
 -1.151 -1.598 4.191
 -1.124 -1.597 4.194
 -1.099 -1.598 4.202
 -1.073 -1.598 4.208
 -1.047 -1.599 4.215
 -1.021 -1.599 4.22
 -0.995 -1.598 4.224
 -0.969 -1.599 4.231
 -0.943 -1.599 4.233
 -0.916 -1.597 4.233
 -0.888 -1.594 4.231
 -0.862 -1.594 4.234
 -0.835 -1.592 4.233
 -0.808 -1.59 4.231
 -0.782 -1.589 4.234
 -0.757 -1.591 4.241
 -0.731 -1.59 4.244
 -0.705 -1.591 4.248
 -0.679 -1.59 4.249
 -0.653 -1.59 4.253
 -0.627 -1.588 4.251
 -0.6 -1.587 4.25
 -0.574 -1.584 4.245
 -0.549 -1.587 4.255
 -0.523 -1.587 4.258
 -0.497 -1.587 4.26
 -0.471 -1.585 4.258
 -0.445 -1.585 4.259
 -0.419 -1.583 4.254
 -0.393 -1.581 4.25
 -0.367 -1.58 4.25
 -0.341 -1.579 4.25
 -0.316 -1.579 4.252
 -0.29 -1.579 4.252
 -0.264 -1.579 4.251
 -0.238 -1.578 4.25
 -0.213 -1.578 4.25
 -0.187 -1.577 4.251
 -0.162 -1.579 4.255
 -0.136 -1.578 4.254
 -0.111 -1.58 4.259
 -0.085 -1.581 4.261
 -0.06 -1.58 4.26
 -0.034 -1.579 4.256
 -0.008 -1.579 4.257
 0.016 -1.578 4.252
 0.042 -1.577 4.25
 0.067 -1.577 4.248
 0.093 -1.577 4.249
 0.118 -1.577 4.247
 0.144 -1.577 4.248
 0.169 -1.577 4.245
 0.195 -1.576 4.243
 0.22 -1.576 4.24
 0.245 -1.576 4.239
 0.271 -1.576 4.237
 0.297 -1.577 4.238
 0.322 -1.578 4.24
 0.348 -1.577 4.234
 0.373 -1.579 4.237
 0.399 -1.578 4.232
 0.424 -1.579 4.233
 0.45 -1.581 4.235
 0.476 -1.582 4.235
 0.501 -1.581 4.23
 0.527 -1.582 4.231
 0.553 -1.582 4.227
 0.578 -1.582 4.223
 0.604 -1.583 4.223
 0.63 -1.583 4.22
 0.656 -1.584 4.219
 0.682 -1.585 4.217
 0.708 -1.588 4.221
 0.734 -1.588 4.218
 0.761 -1.59 4.218
 0.787 -1.591 4.217
 0.813 -1.592 4.215
 0.838 -1.591 4.208
 0.865 -1.593 4.207
 0.89 -1.593 4.203
 0.917 -1.594 4.201
 0.943 -1.595 4.198
 0.969 -1.596 4.196
 0.996 -1.597 4.193
 1.022 -1.599 4.192
 1.049 -1.601 4.191
 1.075 -1.6 4.184
 1.101 -1.601 4.18
 1.127 -1.602 4.177
 1.155 -1.605 4.176
 1.182 -1.607 4.175
 1.21 -1.61 4.175
 1.238 -1.613 4.176
 1.265 -1.613 4.171
 1.291 -1.614 4.165
 1.318 -1.615 4.161
 1.346 -1.618 4.161
 1.373 -1.62 4.157
 1.402 -1.622 4.155
 1.428 -1.623 4.149
 1.456 -1.624 4.144
 1.482 -1.625 4.136
 1.507 -1.624 4.126
 1.533 -1.623 4.116
 1.559 -1.624 4.108
 1.586 -1.624 4.1
 1.613 -1.626 4.094
 1.64 -1.627 4.087
 1.666 -1.626 4.077
 1.692 -1.627 4.067
 1.716 -1.625 4.052
 1.74 -1.622 4.036
 1.761 -1.618 4.015
 1.784 -1.616 3.999
 1.804 -1.61 3.973
 1.816 -1.598 3.934
 1.828 -1.586 3.894
 1.837 -1.572 3.848
 1.839 -1.553 3.79
 1.843 -1.536 3.737
 1.844 -1.517 3.678
 1.849 -1.501 3.629
 1.85 -1.483 3.574
 1.85 -1.464 3.517
 0 0 0
 1.718 -1.326 3.164
 1.744 -1.33 3.162
 1.755 -1.323 3.134
 1.767 -1.315 3.106
 1.774 -1.305 3.072
 1.777 -1.292 3.03
 1.772 -1.274 2.975
 1.769 -1.257 2.926
 1.749 -1.23 2.851
 -2.281 -1.594 3.86
 -2.279 -1.612 3.917
 -2.263 -1.619 3.948
 -2.237 -1.62 3.963
 -2.208 -1.619 3.973
 -2.18 -1.618 3.983
 -2.153 -1.618 3.996
 -2.124 -1.617 4.005
 -2.097 -1.616 4.016
 -2.07 -1.616 4.028
 -2.043 -1.616 4.039
 -2.016 -1.616 4.051
 -1.988 -1.616 4.06
 -1.961 -1.615 4.07
 -1.932 -1.614 4.078
 -1.906 -1.615 4.09
 -1.878 -1.613 4.097
 -1.852 -1.614 4.111
 -1.823 -1.612 4.114
 -1.794 -1.61 4.12
 -1.766 -1.609 4.126
 -1.737 -1.607 4.132
 -1.71 -1.606 4.139
 -1.685 -1.608 4.153
 -1.658 -1.608 4.163
 -1.63 -1.607 4.168
 -1.604 -1.608 4.178
 -1.575 -1.605 4.18
 -1.547 -1.604 4.187
 -1.52 -1.604 4.194
 -1.495 -1.605 4.205
 -1.469 -1.606 4.214
 -1.44 -1.603 4.216
 -1.411 -1.601 4.216
 -1.384 -1.601 4.224
 -1.355 -1.598 4.223
 -1.326 -1.594 4.22
 -1.299 -1.593 4.225
 -1.272 -1.594 4.233
 -1.244 -1.591 4.232
 -1.216 -1.589 4.232
 -1.189 -1.589 4.238
 -1.163 -1.589 4.245
 -1.136 -1.588 4.247
 -1.11 -1.588 4.254
 -1.084 -1.589 4.263
 -1.059 -1.59 4.27
 -1.031 -1.588 4.27
 -1.004 -1.586 4.27
 -0.977 -1.587 4.276
 -0.95 -1.584 4.274
 -0.922 -1.581 4.27
 -0.894 -1.579 4.268
 -0.868 -1.578 4.27
 -0.84 -1.576 4.268
 -0.813 -1.574 4.267
 -0.787 -1.573 4.269
 -0.761 -1.574 4.274
 -0.735 -1.573 4.275
 -0.709 -1.573 4.278
 -0.681 -1.57 4.274
 -0.656 -1.571 4.278
 -0.629 -1.569 4.277
 -0.603 -1.568 4.276
 -0.576 -1.565 4.271
 -0.551 -1.567 4.28
 -0.525 -1.566 4.279
 -0.499 -1.566 4.28
 -0.472 -1.564 4.278
 -0.447 -1.565 4.282
 -0.42 -1.563 4.279
 -0.394 -1.561 4.275
 -0.368 -1.561 4.276
 -0.342 -1.56 4.276
 -0.316 -1.558 4.272
 -0.29 -1.558 4.271
 -0.265 -1.558 4.272
 -0.239 -1.556 4.27
 -0.213 -1.556 4.269
 -0.188 -1.556 4.27
 -0.162 -1.557 4.274
 -0.136 -1.556 4.272
 -0.111 -1.557 4.275
 -0.085 -1.557 4.275
 -0.06 -1.557 4.274
 -0.034 -1.556 4.272
 -0.008 -1.557 4.273
 0.016 -1.555 4.269
 0.042 -1.556 4.269
 0.067 -1.555 4.267
 0.093 -1.555 4.267
 0.119 -1.554 4.264
 0.144 -1.555 4.264
 0.17 -1.555 4.263
 0.195 -1.555 4.262
 0.221 -1.555 4.261
 0.246 -1.555 4.26
 0.272 -1.555 4.258
 0.297 -1.555 4.256
 0.323 -1.557 4.259
 0.349 -1.556 4.254
 0.374 -1.557 4.255
 0.4 -1.556 4.251
 0.426 -1.557 4.251
 0.451 -1.558 4.25
 0.477 -1.559 4.25
 0.503 -1.559 4.247
 0.529 -1.56 4.248
 0.554 -1.56 4.245
 0.58 -1.561 4.244
 0.606 -1.562 4.244
 0.632 -1.563 4.243
 0.658 -1.565 4.243
 0.685 -1.567 4.245
 0.712 -1.569 4.246
 0.738 -1.57 4.245
 0.764 -1.572 4.246
 0.79 -1.572 4.244
 0.816 -1.573 4.241
 0.842 -1.573 4.235
 0.869 -1.574 4.236
 0.895 -1.575 4.231
 0.921 -1.576 4.23
 0.948 -1.577 4.228
 0.974 -1.578 4.226
 1.001 -1.579 4.223
 1.028 -1.581 4.222
 1.055 -1.583 4.221
 1.08 -1.582 4.213
 1.107 -1.584 4.21
 1.134 -1.586 4.209
 1.161 -1.587 4.206
 1.189 -1.59 4.207
 1.218 -1.593 4.21
 1.246 -1.596 4.21
 1.272 -1.597 4.205
 1.299 -1.598 4.199
 1.325 -1.598 4.193
 1.354 -1.6 4.192
 1.381 -1.602 4.187
 1.409 -1.604 4.185
 1.437 -1.606 4.182
 1.465 -1.608 4.18
 1.492 -1.609 4.172
 1.518 -1.609 4.165
 1.544 -1.609 4.155
 1.571 -1.609 4.148
 1.599 -1.611 4.142
 1.627 -1.613 4.138
 1.655 -1.615 4.133
 1.682 -1.615 4.124
 1.709 -1.616 4.117
 1.734 -1.615 4.103
 1.756 -1.611 4.084
 1.777 -1.606 4.061
 1.799 -1.603 4.041
 1.814 -1.593 4.006
 1.824 -1.579 3.96
 1.837 -1.568 3.921
 1.844 -1.553 3.872
 1.847 -1.534 3.815
 1.854 -1.52 3.766
 1.855 -1.501 3.709
 1.86 -1.486 3.66
 1.861 -1.467 3.603
 0 0 0
 0 0 0
 1.724 -1.309 3.183
 1.748 -1.311 3.176
 1.759 -1.304 3.149
 1.769 -1.295 3.117
 1.778 -1.287 3.085
 1.78 -1.273 3.043
 1.777 -1.257 2.992
 1.753 -1.226 2.907
 1.771 -1.225 2.894
 -2.343 -1.61 3.976
 -2.328 -1.618 4.01
 -2.294 -1.614 4.013
 -2.266 -1.613 4.024
 -2.239 -1.614 4.038
 -2.211 -1.614 4.05
 -2.182 -1.612 4.058
 -2.152 -1.611 4.067
 -2.125 -1.61 4.078
 -2.097 -1.61 4.091
 -2.069 -1.61 4.101
 -2.042 -1.61 4.113
 -2.015 -1.61 4.124
 -1.988 -1.61 4.136
 -1.957 -1.608 4.14
 -1.93 -1.608 4.151
 -1.902 -1.607 4.16
 -1.875 -1.607 4.17
 -1.847 -1.606 4.179
 -1.819 -1.606 4.188
 -1.791 -1.604 4.194
 -1.761 -1.602 4.198
 -1.734 -1.602 4.207
 -1.706 -1.601 4.214
 -1.678 -1.6 4.222
 -1.649 -1.599 4.227
 -1.622 -1.599 4.236
 -1.593 -1.597 4.239
 -1.565 -1.596 4.244
 -1.538 -1.595 4.251
 -1.511 -1.596 4.26
 -1.483 -1.595 4.266
 -1.454 -1.592 4.266
 -1.425 -1.59 4.267
 -1.397 -1.589 4.271
 -1.367 -1.585 4.269
 -1.337 -1.581 4.266
 -1.309 -1.58 4.27
 -1.282 -1.58 4.274
 -1.253 -1.577 4.273
 -1.225 -1.574 4.273
 -1.198 -1.574 4.278
 -1.172 -1.574 4.285
 -1.145 -1.573 4.288
 -1.118 -1.573 4.293
 -1.092 -1.574 4.302
 -1.066 -1.574 4.307
 -1.037 -1.571 4.304
 -1.009 -1.568 4.301
 -0.982 -1.568 4.305
 -0.954 -1.565 4.302
 -0.926 -1.562 4.299
 -0.899 -1.561 4.298
 -0.872 -1.559 4.299
 -0.844 -1.557 4.297
 -0.817 -1.556 4.297
 -0.79 -1.554 4.296
 -0.764 -1.554 4.299
 -0.737 -1.553 4.3
 -0.711 -1.551 4.298
 -0.683 -1.548 4.294
 -0.657 -1.548 4.297
 -0.631 -1.547 4.296
 -0.604 -1.546 4.295
 -0.578 -1.545 4.295
 -0.552 -1.545 4.298
 -0.525 -1.543 4.295
 -0.499 -1.543 4.297
 -0.473 -1.542 4.296
 -0.447 -1.542 4.298
 -0.421 -1.542 4.3
 -0.395 -1.54 4.297
 -0.369 -1.54 4.297
 -0.343 -1.54 4.298
 -0.317 -1.537 4.293
 -0.291 -1.536 4.29
 -0.265 -1.536 4.29
 -0.239 -1.534 4.286
 -0.213 -1.532 4.282
 -0.188 -1.532 4.282
 -0.162 -1.532 4.284
 -0.136 -1.531 4.281
 -0.111 -1.532 4.284
 -0.085 -1.532 4.285
 -0.059 -1.531 4.282
 -0.034 -1.531 4.281
 -0.008 -1.531 4.281
 0.016 -1.529 4.275
 0.042 -1.529 4.275
 0.068 -1.529 4.273
 0.093 -1.529 4.273
 0.119 -1.529 4.272
 0.144 -1.53 4.273
 0.17 -1.53 4.273
 0.196 -1.53 4.273
 0.221 -1.53 4.27
 0.247 -1.53 4.27
 0.272 -1.53 4.267
 0.298 -1.531 4.268
 0.324 -1.532 4.269
 0.349 -1.533 4.269
 0.375 -1.533 4.268
 0.401 -1.533 4.266
 0.427 -1.534 4.266
 0.452 -1.535 4.265
 0.478 -1.534 4.26
 0.503 -1.534 4.257
 0.529 -1.535 4.258
 0.554 -1.534 4.252
 0.58 -1.535 4.252
 0.607 -1.537 4.254
 0.633 -1.539 4.254
 0.659 -1.54 4.255
 0.686 -1.543 4.258
 0.712 -1.544 4.259
 0.739 -1.546 4.26
 0.765 -1.548 4.26
 0.792 -1.549 4.258
 0.818 -1.55 4.259
 0.844 -1.55 4.254
 0.871 -1.552 4.254
 0.897 -1.552 4.25
 0.923 -1.554 4.248
 0.95 -1.554 4.244
 0.976 -1.556 4.243
 1.003 -1.557 4.24
 1.03 -1.559 4.241
 1.057 -1.561 4.239
 1.083 -1.561 4.234
 1.11 -1.562 4.23
 1.137 -1.563 4.228
 1.164 -1.564 4.224
 1.192 -1.567 4.225
 1.219 -1.569 4.223
 1.248 -1.572 4.225
 1.275 -1.574 4.223
 1.303 -1.576 4.22
 1.33 -1.577 4.216
 1.359 -1.58 4.216
 1.386 -1.582 4.213
 1.415 -1.584 4.212
 1.444 -1.587 4.211
 1.472 -1.589 4.209
 1.5 -1.591 4.204
 1.527 -1.592 4.198
 1.553 -1.592 4.188
 1.581 -1.593 4.183
 1.61 -1.595 4.179
 1.638 -1.597 4.174
 1.666 -1.598 4.168
 1.694 -1.6 4.162
 1.721 -1.6 4.153
 1.746 -1.599 4.14
 1.768 -1.595 4.119
 1.789 -1.59 4.096
 1.807 -1.583 4.068
 1.822 -1.574 4.032
 1.831 -1.559 3.983
 1.843 -1.548 3.944
 1.851 -1.533 3.896
 1.858 -1.518 3.846
 1.865 -1.504 3.798
 1.877 -1.494 3.762
 1.879 -1.476 3.705
 0 0 0
 0 0 0
 0 0 0
 0 0 0
 1.746 -1.288 3.181
 1.76 -1.283 3.157
 1.77 -1.275 3.127
 1.781 -1.268 3.099
 1.786 -1.257 3.06
 1.785 -1.242 3.013
 1.782 -1.226 2.963
 1.777 -1.208 2.91
 -2.408 -1.627 4.096
 -2.357 -1.611 4.071
 -2.134 -1.477 3.741
 -2.108 -1.476 3.751
 -1.992 -1.412 3.599
 -1.968 -1.412 3.611
 -1.851 -1.345 3.45
 -1.739 -1.28 3.291
 -1.715 -1.278 3.298
 -1.778 -1.342 3.473
 -1.754 -1.342 3.482
 -1.816 -1.408 3.665
 -1.874 -1.472 3.844
 -1.849 -1.473 3.856
 -1.822 -1.472 3.863
 -1.876 -1.536 4.043
 -1.848 -1.535 4.051
 -1.821 -1.535 4.06
 -1.87 -1.599 4.241
 -1.843 -1.599 4.252
 -1.813 -1.597 4.257
 -1.782 -1.594 4.257
 -1.754 -1.593 4.266
 -1.725 -1.592 4.272
 -1.696 -1.59 4.276
 -1.667 -1.589 4.281
 -1.639 -1.588 4.288
 -1.608 -1.585 4.288
 -1.579 -1.583 4.291
 -1.55 -1.582 4.296
 -1.522 -1.581 4.302
 -1.495 -1.58 4.308
 -1.466 -1.578 4.31
 -1.436 -1.576 4.311
 -1.407 -1.573 4.312
 -1.377 -1.57 4.31
 -1.347 -1.566 4.307
 -1.317 -1.563 4.304
 -1.289 -1.561 4.307
 -1.261 -1.559 4.307
 -1.232 -1.557 4.308
 -1.205 -1.557 4.313
 -1.179 -1.557 4.32
 -1.151 -1.555 4.32
 -1.123 -1.554 4.322
 -1.096 -1.553 4.324
 -1.067 -1.551 4.323
 -1.039 -1.548 4.321
 -1.011 -1.546 4.321
 -0.984 -1.545 4.322
 -0.957 -1.543 4.322
 -0.929 -1.541 4.321
 -0.901 -1.539 4.319
 -0.873 -1.536 4.316
 -0.846 -1.534 4.314
 -0.819 -1.532 4.313
 -0.792 -1.531 4.313
 -0.765 -1.53 4.314
 -0.738 -1.529 4.313
 -0.712 -1.528 4.313
 -0.684 -1.525 4.308
 -0.658 -1.524 4.308
 -0.631 -1.523 4.309
 -0.605 -1.521 4.308
 -0.578 -1.519 4.305
 -0.552 -1.518 4.303
 -0.525 -1.516 4.299
 -0.498 -1.515 4.298
 -0.472 -1.514 4.298
 -0.447 -1.514 4.302
 -0.421 -1.515 4.305
 -0.395 -1.514 4.303
 -0.369 -1.513 4.303
 -0.343 -1.513 4.302
 -0.317 -1.511 4.298
 -0.291 -1.509 4.295
 -0.265 -1.509 4.296
 -0.239 -1.508 4.292
 -0.213 -1.506 4.288
 -0.187 -1.505 4.286
 -0.162 -1.505 4.287
 -0.136 -1.504 4.286
 -0.11 -1.505 4.287
 -0.085 -1.505 4.288
 -0.059 -1.504 4.286
 -0.034 -1.504 4.285
 -0.008 -1.504 4.285
 0.017 -1.503 4.282
 0.042 -1.503 4.281
 0.068 -1.502 4.277
 0.093 -1.502 4.277
 0.119 -1.502 4.275
 0.144 -1.502 4.275
 0.17 -1.503 4.276
 0.196 -1.504 4.277
 0.221 -1.504 4.276
 0.247 -1.504 4.276
 0.272 -1.504 4.275
 0.298 -1.505 4.275
 0.324 -1.506 4.277
 0.35 -1.507 4.276
 0.375 -1.507 4.275
 0.401 -1.508 4.274
 0.426 -1.508 4.271
 0.452 -1.508 4.269
 0.477 -1.507 4.264
 0.503 -1.507 4.262
 0.529 -1.508 4.263
 0.554 -1.507 4.257
 0.58 -1.509 4.257
 0.607 -1.511 4.26
 0.633 -1.512 4.259
 0.659 -1.513 4.26
 0.686 -1.516 4.265
 0.712 -1.517 4.262
 0.739 -1.519 4.264
 0.765 -1.521 4.264
 0.791 -1.521 4.261
 0.818 -1.523 4.261
 0.844 -1.524 4.261
 0.871 -1.525 4.259
 0.897 -1.526 4.256
 0.923 -1.527 4.254
 0.95 -1.528 4.251
 0.977 -1.53 4.251
 1.004 -1.531 4.251
 1.031 -1.533 4.25
 1.058 -1.535 4.248
 1.085 -1.537 4.248
 1.112 -1.538 4.244
 1.138 -1.539 4.241
 1.166 -1.54 4.239
 1.194 -1.543 4.24
 1.22 -1.544 4.234
 1.248 -1.546 4.234
 1.276 -1.549 4.234
 1.305 -1.551 4.233
 1.332 -1.553 4.231
 1.362 -1.556 4.233
 1.39 -1.558 4.23
 1.418 -1.561 4.229
 1.446 -1.563 4.227
 1.475 -1.565 4.225
 1.504 -1.568 4.223
 1.531 -1.569 4.218
 1.558 -1.569 4.209
 1.586 -1.571 4.205
 1.616 -1.574 4.203
 1.644 -1.576 4.198
 1.672 -1.578 4.194
 1.702 -1.58 4.19
 1.73 -1.581 4.184
 1.755 -1.58 4.17
 1.777 -1.576 4.149
 1.797 -1.571 4.124
 1.814 -1.562 4.091
 1.828 -1.552 4.053
 1.836 -1.537 4.004
 1.849 -1.527 3.966
 1.86 -1.514 3.922
 1.869 -1.501 3.877
 1.876 -1.487 3.829
 1.892 -1.48 3.799
 0 0 0
 0 0 0
 0 0 0
 0 0 0
 0 0 0
 1.748 -1.268 3.192
 1.76 -1.261 3.165
 1.769 -1.253 3.133
 1.784 -1.248 3.11
 1.791 -1.239 3.076
 1.793 -1.226 3.033
 1.803 -1.219 3.004
 1.814 -1.213 2.978
 -2.429 -1.613 4.142
 -2.373 -1.594 4.107
 -1.692 -1.15 2.97
 -1.67 -1.149 2.976
 -1.558 -1.086 2.819
 -1.539 -1.086 2.829
 -1.427 -1.019 2.663
 -1.32 -0.955 2.501
 -1.301 -0.953 2.504
 -1.369 -1.016 2.678
 -1.435 -1.079 2.853
 -1.586 -1.208 3.206
 -1.645 -1.271 3.381
 -1.705 -1.335 3.561
 -1.68 -1.333 3.567
 -1.736 -1.397 3.749
 -1.709 -1.396 3.754
 -1.762 -1.459 3.936
 -1.811 -1.522 4.116
 -1.86 -1.586 4.301
 -1.829 -1.584 4.304
 -1.797 -1.58 4.305
 -1.768 -1.579 4.311
 -1.739 -1.578 4.317
 -1.709 -1.575 4.319
 -1.679 -1.573 4.323
 -1.65 -1.572 4.327
 -1.619 -1.568 4.326
 -1.589 -1.566 4.327
 -1.559 -1.564 4.33
 -1.53 -1.562 4.333
 -1.502 -1.561 4.337
 -1.472 -1.558 4.339
 -1.443 -1.556 4.339
 -1.412 -1.552 4.335
 -1.382 -1.549 4.334
 -1.352 -1.545 4.331
 -1.322 -1.541 4.328
 -1.293 -1.54 4.329
 -1.265 -1.538 4.332
 -1.236 -1.536 4.331
 -1.208 -1.534 4.332
 -1.181 -1.534 4.338
 -1.153 -1.532 4.338
 -1.125 -1.53 4.337
 -1.097 -1.528 4.338
 -1.068 -1.526 4.336
 -1.04 -1.523 4.332
 -1.012 -1.52 4.33
 -0.984 -1.519 4.332
 -0.956 -1.517 4.33
 -0.929 -1.515 4.329
 -0.901 -1.512 4.327
 -0.873 -1.51 4.325
 -0.846 -1.508 4.323
 -0.819 -1.506 4.321
 -0.792 -1.505 4.321
 -0.765 -1.503 4.319
 -0.737 -1.501 4.317
 -0.71 -1.499 4.315
 -0.683 -1.497 4.312
 -0.657 -1.497 4.313
 -0.631 -1.497 4.316
 -0.604 -1.495 4.314
 -0.578 -1.493 4.312
 -0.551 -1.492 4.31
 -0.524 -1.489 4.305
 -0.498 -1.487 4.302
 -0.472 -1.487 4.302
 -0.446 -1.488 4.307
 -0.421 -1.488 4.311
 -0.395 -1.488 4.31
 -0.369 -1.487 4.309
 -0.343 -1.487 4.31
 -0.317 -1.485 4.305
 -0.291 -1.483 4.301
 -0.265 -1.483 4.302
 -0.239 -1.481 4.299
 -0.213 -1.48 4.295
 -0.187 -1.479 4.292
 -0.161 -1.479 4.293
 -0.136 -1.478 4.292
 -0.11 -1.478 4.291
 -0.085 -1.478 4.292
 -0.059 -1.478 4.292
 -0.033 -1.477 4.29
 -0.008 -1.477 4.288
 0.017 -1.476 4.286
 0.042 -1.477 4.286
 0.068 -1.476 4.284
 0.093 -1.476 4.284
 0.119 -1.476 4.281
 0.144 -1.476 4.281
 0.17 -1.476 4.28
 0.196 -1.476 4.28
 0.221 -1.476 4.278
 0.247 -1.477 4.28
 0.272 -1.478 4.279
 0.298 -1.478 4.279
 0.324 -1.479 4.279
 0.349 -1.48 4.28
 0.375 -1.48 4.279
 0.401 -1.482 4.28
 0.426 -1.481 4.275
 0.452 -1.481 4.273
 0.477 -1.479 4.266
 0.502 -1.479 4.263
 0.528 -1.48 4.264
 0.554 -1.481 4.262
 0.58 -1.483 4.265
 0.607 -1.485 4.267
 0.633 -1.486 4.267
 0.659 -1.487 4.266
 0.686 -1.489 4.269
 0.711 -1.489 4.265
 0.738 -1.491 4.266
 0.764 -1.493 4.268
 0.79 -1.493 4.262
 0.816 -1.494 4.261
 0.843 -1.496 4.263
 0.87 -1.497 4.262
 0.896 -1.498 4.258
 0.922 -1.499 4.258
 0.949 -1.501 4.256
 0.976 -1.502 4.255
 1.003 -1.505 4.257
 1.03 -1.506 4.254
 1.057 -1.508 4.253
 1.084 -1.51 4.253
 1.111 -1.511 4.251
 1.138 -1.512 4.246
 1.165 -1.513 4.245
 1.194 -1.517 4.247
 1.221 -1.518 4.244
 1.248 -1.52 4.243
 1.277 -1.522 4.243
 1.305 -1.525 4.242
 1.332 -1.526 4.238
 1.36 -1.528 4.236
 1.388 -1.53 4.233
 1.417 -1.533 4.233
 1.446 -1.536 4.233
 1.475 -1.539 4.233
 1.505 -1.542 4.234
 1.533 -1.544 4.231
 1.561 -1.546 4.226
 1.59 -1.548 4.222
 1.619 -1.55 4.219
 1.646 -1.551 4.212
 1.676 -1.554 4.21
 1.704 -1.556 4.205
 1.732 -1.557 4.198
 1.758 -1.556 4.186
 1.78 -1.552 4.164
 1.799 -1.546 4.137
 1.816 -1.537 4.104
 1.831 -1.528 4.068
 1.841 -1.515 4.023
 1.856 -1.506 3.989
 1.868 -1.495 3.949
 1.883 -1.487 3.914
 1.891 -1.473 3.868
 0 0 0
 0 0 0
 0 0 0
 0 0 0
 0 0 0
 0 0 0
 1.502 -1.071 2.748
 1.618 -1.14 2.915
 1.776 -1.237 3.153
 1.791 -1.233 3.131
 1.801 -1.225 3.101
 1.806 -1.214 3.062
 1.781 -1.184 2.974
 1.816 -1.194 2.989
 -0.034 -0.024 0.045
 -2.376 -1.569 4.124
 -1.246 -0.833 2.189
 -1.23 -0.832 2.194
 -1.122 -0.769 2.032
 -1.111 -0.77 2.043
 -1.004 -0.705 1.873
 -0.902 -0.641 1.708
 -0.887 -0.639 1.707
 -1.046 -0.764 2.049
 -1.113 -0.823 2.216
 -1.268 -0.949 2.566
 -1.414 -1.073 2.911
 -1.476 -1.135 3.088
 -1.452 -1.133 3.09
 -1.591 -1.259 3.444
 -1.647 -1.321 3.624
 -1.699 -1.383 3.803
 -1.825 -1.507 4.156
 -1.874 -1.57 4.343
 -1.842 -1.568 4.345
 -1.809 -1.563 4.341
 -1.778 -1.56 4.344
 -1.747 -1.558 4.346
 -1.716 -1.555 4.347
 -1.685 -1.551 4.347
 -1.655 -1.549 4.35
 -1.623 -1.545 4.347
 -1.593 -1.543 4.349
 -1.562 -1.539 4.347
 -1.533 -1.537 4.349
 -1.504 -1.535 4.352
 -1.474 -1.533 4.354
 -1.444 -1.53 4.353
 -1.414 -1.527 4.35
 -1.384 -1.524 4.348
 -1.354 -1.521 4.347
 -1.324 -1.517 4.344
 -1.295 -1.515 4.343
 -1.266 -1.513 4.344
 -1.237 -1.51 4.341
 -1.208 -1.507 4.34
 -1.181 -1.507 4.344
 -1.152 -1.504 4.343
 -1.124 -1.503 4.344
 -1.096 -1.501 4.344
 -1.067 -1.498 4.341
 -1.039 -1.495 4.338
 -1.011 -1.493 4.337
 -0.984 -1.492 4.338
 -0.956 -1.49 4.336
 -0.928 -1.488 4.336
 -0.901 -1.486 4.334
 -0.873 -1.484 4.332
 -0.846 -1.482 4.33
 -0.818 -1.48 4.327
 -0.791 -1.478 4.327
 -0.764 -1.476 4.323
 -0.736 -1.473 4.32
 -0.709 -1.471 4.315
 -0.682 -1.469 4.314
 -0.656 -1.468 4.314
 -0.63 -1.468 4.317
 -0.604 -1.467 4.317
 -0.577 -1.467 4.318
 -0.551 -1.465 4.316
 -0.524 -1.463 4.311
 -0.498 -1.462 4.309
 -0.472 -1.46 4.308
 -0.446 -1.461 4.31
 -0.42 -1.46 4.312
 -0.394 -1.459 4.311
 -0.368 -1.459 4.311
 -0.342 -1.459 4.312
 -0.316 -1.458 4.31
 -0.29 -1.457 4.309
 -0.265 -1.457 4.311
 -0.239 -1.456 4.307
 -0.213 -1.454 4.302
 -0.187 -1.452 4.297
 -0.161 -1.451 4.296
 -0.135 -1.45 4.293
 -0.11 -1.45 4.291
 -0.084 -1.45 4.293
 -0.059 -1.452 4.296
 -0.033 -1.451 4.294
 -0.008 -1.451 4.295
 0.017 -1.451 4.295
 0.042 -1.452 4.295
 0.068 -1.45 4.291
 0.094 -1.45 4.29
 0.119 -1.45 4.287
 0.145 -1.45 4.287
 0.17 -1.45 4.287
 0.196 -1.451 4.288
 0.221 -1.451 4.285
 0.247 -1.451 4.286
 0.272 -1.451 4.283
 0.298 -1.452 4.285
 0.323 -1.452 4.283
 0.349 -1.454 4.286
 0.375 -1.454 4.285
 0.401 -1.455 4.285
 0.426 -1.453 4.277
 0.451 -1.453 4.274
 0.476 -1.452 4.268
 0.502 -1.452 4.265
 0.528 -1.453 4.265
 0.554 -1.454 4.265
 0.58 -1.455 4.267
 0.606 -1.457 4.268
 0.632 -1.458 4.269
 0.658 -1.459 4.268
 0.684 -1.461 4.269
 0.71 -1.461 4.265
 0.737 -1.463 4.266
 0.763 -1.464 4.266
 0.789 -1.465 4.263
 0.815 -1.466 4.264
 0.843 -1.469 4.267
 0.869 -1.471 4.267
 0.896 -1.472 4.265
 0.922 -1.473 4.263
 0.948 -1.473 4.259
 0.975 -1.475 4.259
 1.002 -1.477 4.259
 1.029 -1.478 4.255
 1.056 -1.48 4.257
 1.085 -1.483 4.261
 1.112 -1.485 4.26
 1.138 -1.486 4.255
 1.166 -1.489 4.257
 1.194 -1.491 4.257
 1.221 -1.492 4.254
 1.249 -1.494 4.251
 1.277 -1.496 4.251
 1.305 -1.498 4.249
 1.332 -1.5 4.247
 1.36 -1.501 4.243
 1.387 -1.503 4.239
 1.416 -1.506 4.239
 1.445 -1.508 4.239
 1.474 -1.511 4.237
 1.503 -1.513 4.237
 1.532 -1.516 4.235
 1.56 -1.517 4.23
 1.588 -1.519 4.225
 1.617 -1.522 4.224
 1.646 -1.524 4.22
 1.675 -1.526 4.217
 1.704 -1.528 4.213
 1.733 -1.531 4.209
 1.76 -1.531 4.199
 1.782 -1.527 4.178
 1.803 -1.522 4.154
 1.82 -1.514 4.122
 1.836 -1.505 4.088
 1.848 -1.494 4.045
 1.866 -1.488 4.017
 1.881 -1.479 3.983
 1.899 -1.473 3.955
 0 0 0
 0 0 0
 0 0 0
 0 0 0
 0 0 0
 0 0 0
 0 0 0
 1.261 -0.884 2.31
 1.61 -1.115 2.906
 1.783 -1.22 3.172
 1.799 -1.217 3.152
 1.81 -1.21 3.123
 1.82 -1.202 3.093
 0 0 0
 0 0 0
 -0.022 -0.015 0.025
 -0.044 -0.03 0.063
 -0.802 -0.527 1.407
 -0.79 -0.526 1.408
 -0.685 -0.461 1.238
 -0.676 -0.461 1.24
 -0.573 -0.396 1.066
 -0.474 -0.332 0.893
 -0.464 -0.329 0.889
 -0.629 -0.451 1.228
 -0.701 -0.51 1.394
 -0.859 -0.633 1.739
 -1.011 -0.754 2.081
 -1.16 -0.877 2.429
 -1.22 -0.935 2.599
 -1.442 -1.12 3.126
 -1.578 -1.243 3.479
 -1.707 -1.364 3.829
 -1.832 -1.486 4.181
 -1.878 -1.546 4.363
 -1.847 -1.544 4.365
 -1.814 -1.54 4.364
 -1.784 -1.538 4.367
 -1.752 -1.534 4.368
 -1.721 -1.532 4.369
 -1.689 -1.528 4.367
 -1.658 -1.525 4.366
 -1.626 -1.521 4.365
 -1.596 -1.518 4.364
 -1.565 -1.514 4.363
 -1.533 -1.51 4.359
 -1.503 -1.508 4.359
 -1.473 -1.505 4.36
 -1.443 -1.503 4.359
 -1.413 -1.499 4.356
 -1.383 -1.496 4.355
 -1.354 -1.494 4.354
 -1.323 -1.49 4.351
 -1.294 -1.487 4.35
 -1.266 -1.486 4.351
 -1.236 -1.483 4.348
 -1.208 -1.48 4.348
 -1.18 -1.479 4.351
 -1.151 -1.477 4.349
 -1.123 -1.474 4.346
 -1.095 -1.473 4.349
 -1.067 -1.47 4.345
 -1.038 -1.467 4.341
 -1.01 -1.465 4.34
 -0.983 -1.465 4.343
 -0.955 -1.462 4.34
 -0.927 -1.46 4.338
 -0.9 -1.458 4.338
 -0.873 -1.457 4.337
 -0.845 -1.454 4.335
 -0.818 -1.452 4.332
 -0.791 -1.451 4.333
 -0.763 -1.449 4.329
 -0.736 -1.447 4.326
 -0.709 -1.444 4.321
 -0.682 -1.442 4.317
 -0.655 -1.44 4.314
 -0.628 -1.439 4.315
 -0.602 -1.438 4.314
 -0.576 -1.438 4.317
 -0.55 -1.438 4.318
 -0.523 -1.435 4.313
 -0.497 -1.434 4.312
 -0.471 -1.433 4.31
 -0.445 -1.431 4.307
 -0.419 -1.431 4.308
 -0.393 -1.431 4.31
 -0.367 -1.43 4.309
 -0.341 -1.43 4.31
 -0.316 -1.431 4.314
 -0.29 -1.43 4.312
 -0.264 -1.43 4.313
 -0.238 -1.429 4.312
 -0.213 -1.428 4.307
 -0.187 -1.425 4.301
 -0.161 -1.425 4.3
 -0.135 -1.423 4.295
 -0.11 -1.422 4.292
 -0.084 -1.423 4.294
 -0.059 -1.424 4.298
 -0.033 -1.423 4.294
 -0.007 -1.424 4.297
 0.017 -1.424 4.296
 0.043 -1.424 4.297
 0.068 -1.423 4.291
 0.094 -1.423 4.291
 0.119 -1.422 4.287
 0.145 -1.423 4.289
 0.17 -1.423 4.288
 0.196 -1.424 4.29
 0.221 -1.425 4.292
 0.247 -1.427 4.297
 0.273 -1.427 4.295
 0.298 -1.427 4.294
 0.324 -1.426 4.29
 0.349 -1.427 4.289
 0.374 -1.425 4.283
 0.4 -1.426 4.282
 0.425 -1.424 4.273
 0.451 -1.426 4.276
 0.476 -1.425 4.271
 0.501 -1.424 4.265
 0.527 -1.425 4.266
 0.554 -1.428 4.271
 0.579 -1.428 4.268
 0.605 -1.429 4.27
 0.632 -1.432 4.274
 0.657 -1.432 4.269
 0.683 -1.432 4.267
 0.709 -1.432 4.263
 0.735 -1.433 4.261
 0.761 -1.434 4.26
 0.787 -1.436 4.261
 0.814 -1.437 4.26
 0.841 -1.44 4.265
 0.867 -1.441 4.263
 0.894 -1.443 4.264
 0.92 -1.443 4.261
 0.946 -1.444 4.257
 0.973 -1.446 4.258
 1.001 -1.449 4.263
 1.028 -1.45 4.26
 1.056 -1.453 4.261
 1.084 -1.456 4.265
 1.111 -1.458 4.264
 1.137 -1.458 4.259
 1.166 -1.462 4.262
 1.194 -1.464 4.263
 1.221 -1.465 4.26
 1.249 -1.467 4.258
 1.277 -1.469 4.257
 1.304 -1.471 4.254
 1.331 -1.472 4.251
 1.359 -1.474 4.248
 1.386 -1.475 4.243
 1.415 -1.478 4.244
 1.444 -1.48 4.243
 1.473 -1.483 4.242
 1.502 -1.486 4.242
 1.531 -1.488 4.241
 1.56 -1.491 4.238
 1.589 -1.493 4.236
 1.618 -1.495 4.233
 1.647 -1.497 4.23
 1.676 -1.5 4.227
 1.704 -1.501 4.221
 1.732 -1.502 4.214
 1.759 -1.502 4.204
 1.782 -1.5 4.186
 1.804 -1.496 4.165
 1.822 -1.489 4.136
 1.841 -1.483 4.107
 1.855 -1.473 4.069
 1.868 -1.463 4.031
 1.884 -1.455 3.998
 1.904 -1.451 3.975
 0 0 0
 0 0 0
 0 0 0
 0 0 0
 0.083 -0.063 0.154
 0.084 -0.063 0.153
 0.085 -0.063 0.153
 0.905 -0.625 1.661
 1.39 -0.946 2.515
 1.785 -1.2 3.182
 1.804 -1.198 3.167
 1.819 -1.194 3.145
 1.832 -1.189 3.12
 0 0 0
 0 0 0
 -0.071 -0.046 0.109
 -0.088 -0.057 0.141
 -0.349 -0.226 0.606
 -0.342 -0.224 0.604
 -0.242 -0.161 0.429
 -0.238 -0.161 0.43
 -0.141 -0.097 0.253
 -0.046 -0.033 0.076
 -0.039 -0.028 0.063
 -0.206 -0.146 0.395
 -0.283 -0.202 0.555
 -0.445 -0.322 0.896
 -0.684 -0.501 1.407
 -0.836 -0.621 1.752
 -0.903 -0.68 1.924
 -1.208 -0.922 2.621
 -1.424 -1.102 3.147
 -1.555 -1.221 3.495
 -1.757 -1.399 4.018
 -1.878 -1.519 4.372
 -1.846 -1.515 4.372
 -1.813 -1.511 4.37
 -1.782 -1.508 4.372
 -1.752 -1.506 4.376
 -1.721 -1.504 4.378
 -1.69 -1.5 4.377
 -1.658 -1.497 4.375
 -1.626 -1.493 4.373
 -1.596 -1.491 4.374
 -1.564 -1.487 4.37
 -1.533 -1.483 4.366
 -1.502 -1.48 4.365
 -1.473 -1.477 4.366
 -1.442 -1.474 4.362
 -1.412 -1.471 4.362
 -1.383 -1.469 4.364
 -1.354 -1.467 4.363
 -1.324 -1.463 4.36
 -1.295 -1.462 4.361
 -1.266 -1.459 4.359
 -1.236 -1.455 4.355
 -1.207 -1.453 4.354
 -1.179 -1.452 4.355
 -1.149 -1.447 4.348
 -1.121 -1.445 4.348
 -1.093 -1.444 4.349
 -1.064 -1.441 4.344
 -1.035 -1.437 4.338
 -1.008 -1.436 4.34
 -0.98 -1.434 4.34
 -0.952 -1.432 4.336
 -0.925 -1.431 4.337
 -0.898 -1.429 4.337
 -0.871 -1.428 4.338
 -0.844 -1.426 4.336
 -0.817 -1.425 4.335
 -0.791 -1.425 4.341
 -0.764 -1.424 4.339
 -0.736 -1.422 4.336
 -0.71 -1.42 4.335
 -0.682 -1.417 4.329
 -0.654 -1.413 4.318
 -0.628 -1.412 4.317
 -0.601 -1.41 4.316
 -0.575 -1.41 4.319
 -0.549 -1.41 4.321
 -0.523 -1.408 4.316
 -0.497 -1.407 4.316
 -0.47 -1.406 4.314
 -0.444 -1.404 4.31
 -0.418 -1.404 4.311
 -0.392 -1.403 4.31
 -0.366 -1.402 4.309
 -0.341 -1.402 4.308
 -0.315 -1.402 4.309
 -0.289 -1.401 4.308
 -0.263 -1.401 4.31
 -0.238 -1.4 4.309
 -0.212 -1.4 4.307
 -0.186 -1.398 4.302
 -0.161 -1.398 4.303
 -0.135 -1.396 4.297
 -0.109 -1.395 4.294
 -0.084 -1.395 4.294
 -0.058 -1.396 4.298
 -0.033 -1.395 4.295
 -0.007 -1.397 4.3
 0.017 -1.398 4.303
 0.043 -1.399 4.307
 0.068 -1.398 4.301
 0.094 -1.398 4.3
 0.119 -1.396 4.295
 0.145 -1.396 4.294
 0.17 -1.397 4.293
 0.196 -1.397 4.293
 0.221 -1.399 4.298
 0.247 -1.401 4.304
 0.273 -1.402 4.303
 0.298 -1.402 4.302
 0.324 -1.401 4.296
 0.349 -1.4 4.291
 0.374 -1.399 4.286
 0.4 -1.398 4.283
 0.424 -1.396 4.273
 0.451 -1.399 4.279
 0.476 -1.398 4.275
 0.501 -1.397 4.269
 0.527 -1.399 4.271
 0.554 -1.402 4.278
 0.579 -1.402 4.275
 0.605 -1.404 4.277
 0.632 -1.406 4.28
 0.657 -1.405 4.274
 0.683 -1.406 4.272
 0.708 -1.405 4.267
 0.734 -1.406 4.264
 0.76 -1.407 4.265
 0.787 -1.409 4.265
 0.813 -1.409 4.262
 0.84 -1.412 4.267
 0.866 -1.413 4.264
 0.893 -1.415 4.265
 0.919 -1.416 4.263
 0.945 -1.416 4.26
 0.972 -1.418 4.26
 1.001 -1.422 4.267
 1.027 -1.423 4.263
 1.055 -1.426 4.266
 1.083 -1.429 4.27
 1.11 -1.431 4.268
 1.137 -1.431 4.263
 1.165 -1.433 4.264
 1.192 -1.436 4.264
 1.22 -1.437 4.262
 1.247 -1.439 4.26
 1.275 -1.441 4.26
 1.303 -1.443 4.258
 1.33 -1.444 4.255
 1.358 -1.446 4.252
 1.385 -1.447 4.246
 1.413 -1.449 4.245
 1.441 -1.451 4.243
 1.47 -1.454 4.242
 1.499 -1.456 4.24
 1.528 -1.459 4.241
 1.558 -1.462 4.241
 1.587 -1.464 4.239
 1.616 -1.467 4.236
 1.646 -1.47 4.235
 1.674 -1.471 4.23
 1.702 -1.472 4.224
 1.73 -1.473 4.217
 1.755 -1.473 4.204
 1.78 -1.471 4.189
 1.804 -1.469 4.172
 1.824 -1.464 4.147
 1.844 -1.459 4.122
 1.864 -1.454 4.097
 1.883 -1.448 4.071
 0 0 0
 0 0 0
 0 0 0
 0 0 0
 0 0 0
 0 0 0
 0.091 -0.067 0.169
 0.092 -0.067 0.168
 0.085 -0.062 0.153
 0.737 -0.5 1.354
 1.284 -0.859 2.327
 1.789 -1.181 3.196
 1.808 -1.179 3.18
 1.828 -1.179 3.168
 1.643 -1.048 2.804
 0 0 0
 0 0 0
 -0.112 -0.071 0.18
 -0.139 -0.088 0.23
 -0.086 -0.056 0.14
 -0.08 -0.053 0.132
 -0.072 -0.048 0.12
 -0.067 -0.046 0.113
 -0.062 -0.042 0.103
 -0.054 -0.038 0.091
 -0.047 -0.033 0.079
 -0.127 -0.089 0.238
 -0.203 -0.143 0.396
 -0.279 -0.199 0.559
 -0.519 -0.374 1.066
 -0.755 -0.551 1.584
 -0.902 -0.667 1.926
 -1.206 -0.903 2.622
 -1.501 -1.14 3.323
 -1.631 -1.257 3.675
 -1.755 -1.372 4.022
 -1.877 -1.489 4.377
 -1.845 -1.487 4.379
 -1.813 -1.483 4.379
 -1.781 -1.479 4.377
 -1.75 -1.477 4.379
 -1.719 -1.474 4.38
 -1.688 -1.471 4.38
 -1.656 -1.468 4.38
 -1.626 -1.465 4.38
 -1.596 -1.463 4.382
 -1.564 -1.459 4.378
 -1.532 -1.455 4.374
 -1.501 -1.452 4.371
 -1.47 -1.448 4.368
 -1.439 -1.444 4.364
 -1.41 -1.442 4.364
 -1.381 -1.44 4.365
 -1.352 -1.438 4.365
 -1.323 -1.436 4.365
 -1.294 -1.434 4.367
 -1.265 -1.431 4.364
 -1.235 -1.428 4.361
 -1.207 -1.426 4.36
 -1.179 -1.425 4.364
 -1.15 -1.422 4.36
 -1.122 -1.42 4.36
 -1.094 -1.419 4.362
 -1.065 -1.416 4.356
 -1.035 -1.411 4.346
 -1.007 -1.409 4.345
 -0.98 -1.407 4.345
 -0.951 -1.404 4.338
 -0.924 -1.403 4.34
 -0.897 -1.402 4.342
 -0.871 -1.402 4.344
 -0.843 -1.4 4.342
 -0.816 -1.399 4.342
 -0.791 -1.4 4.349
 -0.763 -1.397 4.346
 -0.736 -1.395 4.342
 -0.709 -1.393 4.34
 -0.681 -1.39 4.332
 -0.653 -1.385 4.318
 -0.626 -1.384 4.318
 -0.6 -1.382 4.317
 -0.575 -1.384 4.325
 -0.55 -1.385 4.33
 -0.523 -1.382 4.323
 -0.497 -1.382 4.324
 -0.47 -1.38 4.321
 -0.443 -1.377 4.312
 -0.417 -1.376 4.31
 -0.392 -1.376 4.311
 -0.366 -1.374 4.309
 -0.34 -1.375 4.311
 -0.314 -1.375 4.312
 -0.289 -1.374 4.31
 -0.263 -1.373 4.31
 -0.237 -1.373 4.31
 -0.212 -1.372 4.307
 -0.186 -1.37 4.303
 -0.16 -1.371 4.306
 -0.135 -1.37 4.302
 -0.109 -1.369 4.299
 -0.084 -1.369 4.299
 -0.058 -1.37 4.304
 -0.033 -1.369 4.3
 -0.007 -1.371 4.305
 0.017 -1.372 4.309
 0.043 -1.374 4.314
 0.068 -1.372 4.307
 0.094 -1.372 4.307
 0.119 -1.37 4.301
 0.145 -1.371 4.301
 0.17 -1.371 4.3
 0.195 -1.369 4.294
 0.221 -1.372 4.3
 0.247 -1.375 4.307
 0.273 -1.375 4.306
 0.298 -1.374 4.303
 0.324 -1.375 4.302
 0.349 -1.373 4.294
 0.374 -1.372 4.288
 0.399 -1.371 4.284
 0.424 -1.369 4.275
 0.451 -1.372 4.284
 0.476 -1.373 4.283
 0.501 -1.371 4.274
 0.527 -1.373 4.277
 0.554 -1.376 4.285
 0.579 -1.376 4.281
 0.605 -1.377 4.281
 0.632 -1.38 4.287
 0.657 -1.379 4.279
 0.683 -1.379 4.275
 0.708 -1.379 4.272
 0.734 -1.379 4.269
 0.76 -1.381 4.269
 0.787 -1.383 4.271
 0.813 -1.383 4.268
 0.84 -1.386 4.272
 0.866 -1.386 4.269
 0.893 -1.389 4.271
 0.92 -1.39 4.271
 0.945 -1.39 4.267
 0.972 -1.392 4.266
 1 -1.394 4.268
 1.026 -1.396 4.266
 1.054 -1.398 4.267
 1.082 -1.4 4.27
 1.108 -1.402 4.268
 1.135 -1.403 4.265
 1.163 -1.405 4.264
 1.19 -1.407 4.263
 1.217 -1.408 4.261
 1.245 -1.41 4.261
 1.273 -1.413 4.261
 1.301 -1.414 4.258
 1.329 -1.416 4.256
 1.356 -1.418 4.254
 1.383 -1.418 4.248
 1.41 -1.419 4.243
 1.438 -1.421 4.241
 1.467 -1.424 4.241
 1.496 -1.426 4.239
 1.525 -1.429 4.24
 1.556 -1.433 4.242
 1.585 -1.436 4.24
 1.613 -1.437 4.236
 1.643 -1.441 4.237
 1.671 -1.442 4.23
 1.699 -1.443 4.223
 1.726 -1.443 4.215
 1.752 -1.443 4.205
 1.777 -1.442 4.191
 1.802 -1.441 4.177
 1.824 -1.437 4.156
 1.847 -1.435 4.138
 1.865 -1.428 4.108
 0 0 0
 0 0 0
 0 0 0
 0 0 0
 0 0 0
 0 0 0
 0.12 -0.087 0.229
 0.103 -0.074 0.193
 0.105 -0.074 0.193
 0.102 -0.072 0.185
 0.485 -0.324 0.89
 1.094 -0.719 1.986
 1.805 -1.169 3.231
 1.826 -1.169 3.219
 1.847 -1.169 3.207
 1.508 -0.944 2.578
 0 0 0
 0 0 0
 -0.133 -0.082 0.217
 -0.091 -0.057 0.146
 -0.097 -0.062 0.161
 -0.091 -0.058 0.151
 -0.082 -0.053 0.137
 -0.072 -0.048 0.122
 -0.067 -0.045 0.114
 -0.06 -0.041 0.103
 -0.052 -0.036 0.089
 -0.129 -0.089 0.243
 -0.121 -0.084 0.231
 -0.196 -0.137 0.389
 -0.436 -0.309 0.897
 -0.672 -0.481 1.411
 -0.902 -0.654 1.93
 -1.285 -0.944 2.801
 -1.578 -1.177 3.502
 -1.707 -1.291 3.854
 -1.831 -1.405 4.204
 -1.875 -1.46 4.382
 -1.844 -1.458 4.384
 -1.812 -1.455 4.384
 -1.779 -1.451 4.383
 -1.747 -1.447 4.381
 -1.717 -1.445 4.384
 -1.685 -1.441 4.382
 -1.655 -1.439 4.383
 -1.624 -1.437 4.385
 -1.595 -1.435 4.388
 -1.563 -1.431 4.383
 -1.532 -1.428 4.381
 -1.5 -1.423 4.375
 -1.468 -1.419 4.37
 -1.438 -1.416 4.368
 -1.409 -1.414 4.37
 -1.38 -1.412 4.371
 -1.351 -1.411 4.372
 -1.323 -1.409 4.375
 -1.294 -1.407 4.375
 -1.264 -1.404 4.371
 -1.236 -1.402 4.37
 -1.208 -1.401 4.372
 -1.18 -1.399 4.374
 -1.151 -1.396 4.37
 -1.123 -1.395 4.371
 -1.095 -1.393 4.37
 -1.065 -1.389 4.363
 -1.034 -1.383 4.35
 -1.007 -1.382 4.35
 -0.979 -1.38 4.35
 -0.95 -1.377 4.343
 -0.924 -1.376 4.345
 -0.897 -1.375 4.346
 -0.87 -1.374 4.346
 -0.842 -1.372 4.343
 -0.815 -1.371 4.344
 -0.79 -1.373 4.355
 -0.764 -1.372 4.355
 -0.737 -1.371 4.354
 -0.71 -1.37 4.354
 -0.682 -1.365 4.342
 -0.651 -1.356 4.317
 -0.625 -1.354 4.314
 -0.599 -1.354 4.315
 -0.574 -1.356 4.326
 -0.549 -1.358 4.333
 -0.522 -1.355 4.324
 -0.496 -1.354 4.325
 -0.469 -1.353 4.322
 -0.442 -1.347 4.307
 -0.416 -1.347 4.306
 -0.391 -1.347 4.309
 -0.365 -1.346 4.306
 -0.339 -1.346 4.308
 -0.314 -1.346 4.31
 -0.288 -1.345 4.308
 -0.262 -1.345 4.307
 -0.237 -1.344 4.307
 -0.211 -1.343 4.304
 -0.185 -1.342 4.301
 -0.16 -1.343 4.305
 -0.134 -1.343 4.305
 -0.109 -1.342 4.303
 -0.083 -1.343 4.304
 -0.058 -1.344 4.309
 -0.032 -1.343 4.305
 -0.007 -1.344 4.309
 0.017 -1.346 4.313
 0.043 -1.348 4.318
 0.068 -1.344 4.307
 0.094 -1.345 4.309
 0.119 -1.343 4.302
 0.145 -1.344 4.304
 0.17 -1.345 4.305
 0.196 -1.343 4.299
 0.222 -1.347 4.309
 0.248 -1.351 4.319
 0.273 -1.351 4.317
 0.299 -1.349 4.311
 0.324 -1.35 4.312
 0.349 -1.346 4.298
 0.374 -1.344 4.289
 0.399 -1.343 4.284
 0.424 -1.342 4.278
 0.451 -1.346 4.289
 0.476 -1.347 4.289
