 -0.98 -1.456 4.296
 -0.967 -1.457 4.301
 -0.953 -1.456 4.301
 -0.94 -1.456 4.302
 -0.927 -1.457 4.306
 -0.913 -1.455 4.302
 -0.899 -1.453 4.299
 -0.886 -1.453 4.302
 -0.873 -1.452 4.302
 -0.859 -1.451 4.3
 -0.846 -1.451 4.301
 -0.832 -1.45 4.302
 -0.819 -1.45 4.301
 -0.804 -1.447 4.296
 -0.79 -1.444 4.288
 -0.776 -1.442 4.286
 -0.762 -1.441 4.284
 -0.749 -1.441 4.285
 -0.737 -1.441 4.288
 -0.724 -1.442 4.291
 -0.711 -1.442 4.292
 -0.698 -1.442 4.294
 -0.685 -1.441 4.293
 -0.672 -1.441 4.293
 -0.658 -1.439 4.29
 -0.644 -1.438 4.287
 -0.631 -1.436 4.285
 -0.617 -1.435 4.281
 -0.604 -1.434 4.279
 -0.591 -1.433 4.279
 -0.578 -1.434 4.281
 -0.565 -1.433 4.282
 -0.552 -1.432 4.279
 -0.539 -1.432 4.28
 -0.526 -1.431 4.279
 -0.514 -1.432 4.283
 -0.501 -1.432 4.283
 -0.487 -1.431 4.281
 -0.475 -1.431 4.284
 -0.463 -1.434 4.292
 -0.449 -1.432 4.288
 -0.436 -1.432 4.288
 -0.424 -1.434 4.294
 -0.411 -1.433 4.293
 -0.397 -1.43 4.284
 -0.384 -1.429 4.282
 -0.372 -1.43 4.286
 -0.359 -1.428 4.281
 -0.345 -1.427 4.278
 -0.333 -1.427 4.278
 -0.32 -1.426 4.278
 -0.307 -1.424 4.273
 -0.294 -1.424 4.273
 -0.282 -1.426 4.28
 -0.269 -1.427 4.281
 -0.256 -1.426 4.28
 -0.243 -1.426 4.281
 -0.231 -1.427 4.283
 -0.218 -1.425 4.279
 -0.205 -1.426 4.28
 -0.192 -1.425 4.278
 -0.179 -1.424 4.275
 -0.166 -1.423 4.272
 -0.153 -1.421 4.268
 -0.141 -1.42 4.265
 -0.128 -1.422 4.271
 -0.116 -1.424 4.278
 -0.103 -1.424 4.278
 -0.09 -1.425 4.279
 -0.077 -1.425 4.28
 -0.065 -1.424 4.278
 -0.052 -1.422 4.27
 -0.039 -1.423 4.275
 -0.027 -1.423 4.275
 -0.014 -1.423 4.272
 -0.001 -1.422 4.271
 0.011 -1.422 4.269
 0.023 -1.419 4.262
 0.036 -1.419 4.26
 0.049 -1.42 4.262
 0.061 -1.42 4.263
 0.074 -1.42 4.263
 0.087 -1.421 4.265
 0.099 -1.422 4.267
 0.112 -1.422 4.267
 0.125 -1.42 4.261
 0.137 -1.422 4.266
 0.15 -1.422 4.266
 0.163 -1.42 4.26
 0.175 -1.419 4.256
 0.188 -1.421 4.262
 0.201 -1.42 4.259
 0.213 -1.42 4.258
 0.226 -1.42 4.256
 0.239 -1.422 4.261
 0.252 -1.423 4.263
 0.264 -1.423 4.264
 0.277 -1.423 4.261
 0.29 -1.426 4.269
 0.303 -1.426 4.268
 0.315 -1.423 4.258
 0.328 -1.423 4.257
 0.34 -1.422 4.254
 0.352 -1.419 4.243
 0.364 -1.418 4.239
 0.377 -1.419 4.243
 0.389 -1.417 4.235
 0.403 -1.42 4.244
 0.417 -1.424 4.252
 0.43 -1.425 4.256
 0.443 -1.427 4.26
 0.456 -1.429 4.266
 0.469 -1.429 4.263
 0.481 -1.428 4.258
 0.494 -1.428 4.259
 0.507 -1.428 4.255
 0.52 -1.429 4.257
 0.533 -1.43 4.259
 0.546 -1.43 4.257
 0.558 -1.429 4.253
 0.571 -1.429 4.251
 0.582 -1.426 4.242
 0.595 -1.426 4.24
 0.609 -1.43 4.25
 0.621 -1.429 4.245
 0.634 -1.429 4.245
 0.648 -1.433 4.252
 0.661 -1.433 4.25
 0.674 -1.432 4.247
 0.688 -1.435 4.252
 0.7 -1.435 4.251
 0.714 -1.436 4.253
 0.727 -1.437 4.255
 0.741 -1.438 4.256
 0.754 -1.439 4.256
 0.767 -1.44 4.258
 0.78 -1.44 4.254
 0.792 -1.44 4.251
 0.805 -1.439 4.246
 0.818 -1.439 4.246
 0.832 -1.442 4.252
 0.845 -1.442 4.249
 0.858 -1.442 4.246
 0.871 -1.443 4.247
 0.883 -1.442 4.243
 0.895 -1.441 4.236
 0.909 -1.442 4.237
 0.922 -1.443 4.238
 0.936 -1.444 4.239
 0.949 -1.444 4.236
 0.961 -1.444 4.233
 0.975 -1.445 4.234
 0.989 -1.447 4.235
 1.002 -1.447 4.233
 1.016 -1.449 4.237
 1.03 -1.451 4.239
 1.043 -1.451 4.236
 1.056 -1.451 4.233
 1.071 -1.454 4.24
 1.084 -1.454 4.237
 1.098 -1.456 4.238
 1.113 -1.458 4.242
 1.126 -1.459 4.241
 1.139 -1.459 4.238
 1.154 -1.461 4.242
 1.167 -1.462 4.241
 1.18 -1.462 4.236
 1.195 -1.464 4.24
 1.208 -1.464 4.236
 1.221 -1.464 4.233
 1.235 -1.465 4.233
 1.249 -1.467 4.234
 1.263 -1.467 4.232
 1.276 -1.468 4.231
 1.29 -1.469 4.23
 1.303 -1.469 4.225
 1.315 -1.467 4.218
 1.33 -1.47 4.222
 1.343 -1.47 4.217
 1.356 -1.471 4.216
 1.371 -1.472 4.217
 1.387 -1.475 4.221
 1.399 -1.475 4.216
 1.412 -1.475 4.212
 1.426 -1.475 4.21
 1.44 -1.476 4.209
 1.454 -1.478 4.208
 1.468 -1.479 4.207
 1.484 -1.481 4.209
 1.499 -1.483 4.211
 1.514 -1.485 4.212
 1.529 -1.486 4.212
 1.541 -1.486 4.205
 1.557 -1.488 4.209
 1.57 -1.488 4.204
 1.584 -1.489 4.202
 1.598 -1.49 4.2
 1.615 -1.494 4.205
 1.63 -1.495 4.205
 1.646 -1.497 4.205
 1.66 -1.498 4.204
 1.674 -1.499 4.201
 1.687 -1.498 4.195
 1.701 -1.5 4.193
 1.716 -1.501 4.192
 1.731 -1.502 4.19
 1.745 -1.504 4.189
 1.76 -1.505 4.187
 1.772 -1.504 4.179
 1.786 -1.504 4.175
 1.8 -1.505 4.172
 1.813 -1.504 4.165
 1.827 -1.505 4.163
 1.84 -1.505 4.156
 1.847 -1.5 4.136
 1.849 -1.491 4.107
 1.858 -1.488 4.092
 1.86 -1.479 4.062
 1.868 -1.474 4.044
 1.88 -1.474 4.037
 1.893 -1.474 4.032
 1.898 -1.468 4.008
 1.914 -1.47 4.01
 1.918 -1.463 3.986
 0 0 0
 0 0 0
 0 0 0
 0 0 0
 0 0 0
 0 0 0
 0 0 0
 0 0 0
 0 0 0
 0 0 0
 0 0 0
 0 0 0
 0 0 0
 0 0 0
 0 0 0
 0 0 0
 0 0 0
 0 0 0
 0 0 0
 0 0 0
 0 0 0
 0 0 0
 1.826 -1.208 3.168
 1.847 -1.214 3.179
 1.85 -1.209 3.161
 1.852 -1.204 3.142
 1.856 -1.2 3.125
 1.855 -1.192 3.099
 1.871 -1.196 3.103
 1.842 -1.171 3.032
 -2.517 -1.601 4.299
 0 0 0
 -2.465 -1.586 4.274
 -2.454 -1.589 4.288
 -2.444 -1.592 4.303
 -2.436 -1.596 4.32
 -2.417 -1.593 4.319
 -2.401 -1.592 4.325
 -2.375 -1.585 4.311
 -2.361 -1.585 4.317
 -2.34 -1.58 4.313
 -2.324 -1.579 4.316
 -2.307 -1.578 4.319
 -2.288 -1.575 4.317
 -2.273 -1.574 4.321
 -2.253 -1.57 4.318
 -2.236 -1.569 4.319
 -2.219 -1.567 4.32
 -2.208 -1.569 4.332
 -2.188 -1.565 4.328
 -2.172 -1.564 4.33
 -2.154 -1.561 4.329
 -2.137 -1.559 4.33
 -2.119 -1.556 4.328
 -2.105 -1.557 4.334
 -2.089 -1.555 4.335
 -2.072 -1.553 4.334
 -2.053 -1.549 4.33
 -2.034 -1.546 4.326
 -2.013 -1.54 4.317
 -1.997 -1.539 4.319
 -1.983 -1.539 4.323
 -1.969 -1.539 4.329
 -1.953 -1.538 4.331
 -1.94 -1.538 4.337
 -1.923 -1.535 4.336
 -1.906 -1.533 4.335
 -1.889 -1.531 4.334
 -1.872 -1.529 4.332
 -1.856 -1.527 4.333
 -1.841 -1.526 4.335
 -1.823 -1.523 4.33
 -1.805 -1.519 4.325
 -1.789 -1.518 4.325
 -1.773 -1.515 4.323
 -1.757 -1.513 4.322
 -1.743 -1.514 4.328
 -1.73 -1.514 4.333
 -1.713 -1.511 4.329
 -1.696 -1.509 4.327
 -1.681 -1.508 4.329
 -1.665 -1.505 4.327
 -1.647 -1.502 4.32
 -1.632 -1.5 4.321
 -1.617 -1.499 4.322
 -1.601 -1.496 4.318
 -1.583 -1.493 4.311
 -1.57 -1.493 4.316
 -1.554 -1.491 4.315
 -1.54 -1.49 4.316
 -1.524 -1.488 4.315
 -1.512 -1.49 4.322
 -1.496 -1.487 4.319
 -1.482 -1.487 4.322
 -1.467 -1.486 4.323
 -1.454 -1.486 4.327
 -1.438 -1.483 4.323
 -1.424 -1.482 4.323
 -1.41 -1.482 4.326
 -1.395 -1.48 4.325
 -1.38 -1.479 4.325
 -1.366 -1.478 4.326
 -1.35 -1.475 4.321
 -1.335 -1.474 4.32
 -1.321 -1.474 4.323
 -1.305 -1.47 4.317
 -1.29 -1.469 4.315
 -1.278 -1.47 4.321
 -1.262 -1.467 4.315
 -1.245 -1.463 4.307
 -1.232 -1.462 4.309
 -1.218 -1.462 4.31
 -1.204 -1.461 4.311
 -1.189 -1.459 4.307
 -1.176 -1.46 4.313
 -1.162 -1.458 4.311
 -1.148 -1.457 4.31
 -1.131 -1.452 4.299
 -1.119 -1.454 4.306
 -1.104 -1.452 4.304
 -1.092 -1.454 4.311
 -1.077 -1.451 4.306
 -1.065 -1.453 4.313
 -1.051 -1.451 4.312
 -1.036 -1.449 4.307
 -1.021 -1.446 4.301
 -1.008 -1.446 4.303
 -0.993 -1.444 4.3
 -0.979 -1.443 4.298
 -0.966 -1.443 4.301
 -0.952 -1.442 4.3
 -0.939 -1.441 4.299
 -0.927 -1.443 4.307
 -0.912 -1.441 4.303
 -0.899 -1.44 4.303
 -0.886 -1.44 4.305
 -0.873 -1.44 4.309
 -0.859 -1.439 4.305
 -0.846 -1.439 4.309
 -0.832 -1.438 4.307
 -0.819 -1.436 4.305
 -0.804 -1.433 4.297
 -0.789 -1.43 4.29
 -0.775 -1.428 4.284
 -0.762 -1.428 4.287
 -0.749 -1.428 4.287
 -0.736 -1.427 4.288
 -0.723 -1.428 4.292
 -0.711 -1.429 4.295
 -0.697 -1.427 4.293
 -0.685 -1.428 4.296
 -0.671 -1.428 4.296
 -0.658 -1.426 4.294
 -0.644 -1.424 4.289
 -0.63 -1.423 4.286
 -0.616 -1.42 4.279
 -0.603 -1.419 4.276
 -0.591 -1.419 4.28
 -0.578 -1.42 4.283
 -0.565 -1.42 4.284
 -0.552 -1.419 4.283
 -0.539 -1.419 4.284
 -0.525 -1.417 4.278
 -0.513 -1.417 4.281
 -0.5 -1.418 4.284
 -0.487 -1.416 4.28
 -0.474 -1.417 4.282
 -0.462 -1.419 4.291
 -0.449 -1.419 4.29
 -0.436 -1.417 4.287
 -0.424 -1.42 4.297
 -0.411 -1.421 4.298
 -0.397 -1.417 4.29
 -0.384 -1.416 4.285
 -0.372 -1.417 4.289
 -0.358 -1.414 4.281
 -0.345 -1.412 4.277
 -0.332 -1.411 4.275
 -0.319 -1.411 4.274
 -0.306 -1.41 4.271
 -0.293 -1.41 4.272
 -0.281 -1.412 4.279
 -0.269 -1.413 4.282
 -0.256 -1.413 4.283
 -0.243 -1.412 4.279
 -0.23 -1.412 4.28
 -0.217 -1.41 4.276
 -0.205 -1.411 4.278
 -0.192 -1.41 4.276
 -0.179 -1.411 4.279
 -0.166 -1.41 4.277
 -0.154 -1.41 4.275
 -0.141 -1.41 4.275
 -0.128 -1.411 4.279
 -0.116 -1.412 4.283
 -0.103 -1.413 4.285
 -0.09 -1.412 4.283
 -0.077 -1.412 4.283
 -0.065 -1.412 4.281
 -0.052 -1.409 4.275
 -0.039 -1.41 4.276
 -0.026 -1.41 4.277
 -0.014 -1.409 4.272
 -0.001 -1.408 4.27
 0.011 -1.408 4.269
 0.023 -1.406 4.265
 0.036 -1.406 4.262
 0.049 -1.408 4.268
 0.061 -1.407 4.267
 0.074 -1.406 4.262
 0.087 -1.407 4.264
 0.099 -1.407 4.265
 0.112 -1.407 4.265
 0.124 -1.406 4.26
 0.137 -1.408 4.265
 0.15 -1.407 4.263
 0.163 -1.406 4.26
 0.175 -1.403 4.251
 0.188 -1.406 4.256
 0.2 -1.405 4.255
 0.213 -1.406 4.256
 0.226 -1.406 4.256
 0.239 -1.409 4.265
 0.252 -1.41 4.268
 0.265 -1.412 4.272
 0.277 -1.411 4.268
 0.29 -1.413 4.272
 0.303 -1.412 4.269
 0.315 -1.41 4.261
 0.327 -1.409 4.257
 0.34 -1.409 4.256
 0.352 -1.406 4.246
 0.365 -1.406 4.244
 0.378 -1.407 4.248
 0.39 -1.406 4.244
 0.403 -1.408 4.248
 0.416 -1.41 4.253
 0.43 -1.412 4.257
 0.443 -1.413 4.259
 0.456 -1.415 4.264
 0.469 -1.414 4.262
 0.481 -1.414 4.259
 0.494 -1.415 4.259
 0.506 -1.413 4.255
 0.519 -1.415 4.258
 0.533 -1.416 4.26
 0.546 -1.417 4.262
 0.558 -1.417 4.26
 0.571 -1.417 4.259
 0.583 -1.415 4.25
 0.595 -1.415 4.247
 0.61 -1.418 4.256
 0.622 -1.416 4.249
 0.634 -1.416 4.246
 0.647 -1.417 4.247
 0.66 -1.417 4.245
 0.672 -1.416 4.241
 0.686 -1.419 4.247
 0.699 -1.42 4.249
 0.714 -1.423 4.256
 0.727 -1.424 4.258
 0.74 -1.425 4.257
 0.753 -1.425 4.255
 0.766 -1.425 4.254
 0.779 -1.425 4.252
 0.792 -1.426 4.251
 0.804 -1.425 4.246
 0.817 -1.426 4.247
 0.832 -1.428 4.252
 0.844 -1.428 4.248
 0.857 -1.427 4.245
 0.869 -1.427 4.243
 0.882 -1.427 4.239
 0.893 -1.425 4.231
 0.907 -1.427 4.233
 0.921 -1.428 4.234
 0.935 -1.43 4.239
 0.948 -1.431 4.239
 0.961 -1.431 4.235
 0.975 -1.432 4.236
 0.989 -1.434 4.238
 1.001 -1.433 4.234
 1.016 -1.436 4.239
 1.03 -1.438 4.244
 1.044 -1.439 4.242
 1.056 -1.438 4.237
 1.071 -1.441 4.243
 1.083 -1.44 4.237
 1.097 -1.441 4.239
 1.112 -1.443 4.241
 1.125 -1.444 4.241
 1.138 -1.445 4.239
 1.153 -1.447 4.244
 1.167 -1.448 4.241
 1.18 -1.448 4.239
 1.195 -1.45 4.242
 1.208 -1.45 4.239
 1.221 -1.451 4.237
 1.234 -1.451 4.235
 1.248 -1.452 4.232
 1.261 -1.453 4.232
 1.275 -1.454 4.232
 1.289 -1.454 4.229
 1.302 -1.455 4.227
 1.315 -1.454 4.223
 1.33 -1.457 4.225
 1.343 -1.457 4.221
 1.357 -1.458 4.222
 1.372 -1.46 4.223
 1.387 -1.462 4.225
 1.4 -1.462 4.223
 1.413 -1.462 4.219
 1.426 -1.462 4.213
 1.439 -1.462 4.21
 1.453 -1.463 4.209
 1.466 -1.463 4.204
 1.481 -1.465 4.205
 1.497 -1.467 4.208
 1.512 -1.47 4.211
 1.527 -1.472 4.212
 1.539 -1.47 4.204
 1.554 -1.472 4.205
 1.568 -1.473 4.202
 1.583 -1.475 4.204
 1.596 -1.475 4.198
 1.614 -1.479 4.204
 1.629 -1.48 4.205
 1.644 -1.483 4.206
 1.658 -1.483 4.204
 1.674 -1.485 4.204
 1.687 -1.485 4.2
 1.701 -1.486 4.196
 1.715 -1.487 4.193
 1.729 -1.488 4.191
 1.744 -1.489 4.19
 1.758 -1.489 4.185
 1.77 -1.488 4.177
 1.784 -1.489 4.174
 1.798 -1.49 4.172
 1.811 -1.49 4.166
 1.828 -1.493 4.168
 1.842 -1.493 4.164
 1.85 -1.489 4.148
 1.852 -1.48 4.117
 1.862 -1.478 4.105
 1.863 -1.468 4.072
 1.87 -1.463 4.054
 1.879 -1.46 4.039
 1.896 -1.463 4.042
 1.9 -1.457 4.019
 0 0 0
 0 0 0
 0 0 0
 0 0 0
 0 0 0
 0 0 0
 0 0 0
 0 0 0
 0 0 0
 0 0 0
 0 0 0
 0 0 0
 0 0 0
 0 0 0
 0 0 0
 0 0 0
 0 0 0
 0 0 0
 0 0 0
 0 0 0
 0 0 0
 0 0 0
 0 0 0
 0 0 0
 1.823 -1.195 3.167
 1.845 -1.202 3.18
 1.85 -1.198 3.164
 1.851 -1.192 3.143
 1.857 -1.189 3.129
 1.853 -1.18 3.1
 1.862 -1.179 3.091
 1.823 -1.148 3.003
 0 0 0
 0 0 0
 -2.485 -1.585 4.314
 -2.473 -1.586 4.325
 -2.463 -1.589 4.34
 -2.449 -1.59 4.349
 -2.431 -1.588 4.35
 -2.413 -1.586 4.351
 -2.387 -1.578 4.338
 -2.367 -1.575 4.335
 -2.345 -1.569 4.326
 -2.329 -1.568 4.33
 -2.31 -1.565 4.329
 -2.294 -1.564 4.332
 -2.277 -1.563 4.334
 -2.257 -1.559 4.33
 -2.24 -1.557 4.331
 -2.221 -1.554 4.329
 -2.205 -1.553 4.331
 -2.186 -1.549 4.328
 -2.17 -1.548 4.331
 -2.152 -1.545 4.328
 -2.137 -1.544 4.332
 -2.12 -1.542 4.333
 -2.105 -1.542 4.338
 -2.088 -1.54 4.339
 -2.073 -1.539 4.342
 -2.053 -1.535 4.336
 -2.036 -1.533 4.334
 -2.017 -1.529 4.329
 -2.001 -1.528 4.332
 -1.984 -1.526 4.331
 -1.968 -1.524 4.332
 -1.952 -1.523 4.333
 -1.939 -1.523 4.339
 -1.921 -1.52 4.337
 -1.906 -1.52 4.341
 -1.89 -1.518 4.341
 -1.875 -1.517 4.343
 -1.856 -1.513 4.337
 -1.842 -1.513 4.34
 -1.823 -1.509 4.333
 -1.805 -1.506 4.33
 -1.79 -1.505 4.331
 -1.774 -1.503 4.331
 -1.757 -1.5 4.327
 -1.743 -1.499 4.331
 -1.728 -1.499 4.334
 -1.71 -1.495 4.327
 -1.693 -1.492 4.323
 -1.679 -1.491 4.326
 -1.664 -1.49 4.327
 -1.647 -1.487 4.323
 -1.631 -1.486 4.323
 -1.617 -1.485 4.326
 -1.602 -1.484 4.325
 -1.585 -1.481 4.321
 -1.571 -1.481 4.324
 -1.556 -1.479 4.324
 -1.541 -1.478 4.325
 -1.527 -1.477 4.326
 -1.512 -1.476 4.326
 -1.496 -1.474 4.324
 -1.482 -1.474 4.327
 -1.468 -1.473 4.329
 -1.453 -1.471 4.328
 -1.439 -1.47 4.329
 -1.424 -1.469 4.328
 -1.41 -1.468 4.33
 -1.394 -1.466 4.327
 -1.381 -1.466 4.331
 -1.365 -1.464 4.329
 -1.35 -1.462 4.326
 -1.335 -1.461 4.324
 -1.321 -1.46 4.326
 -1.306 -1.457 4.322
 -1.291 -1.456 4.32
 -1.278 -1.456 4.324
 -1.261 -1.452 4.315
 -1.245 -1.45 4.311
 -1.231 -1.448 4.311
 -1.218 -1.448 4.313
 -1.203 -1.447 4.313
 -1.189 -1.446 4.312
 -1.177 -1.447 4.318
 -1.162 -1.445 4.314
 -1.148 -1.444 4.314
 -1.132 -1.44 4.306
 -1.119 -1.441 4.312
 -1.105 -1.44 4.311
 -1.093 -1.441 4.317
 -1.078 -1.439 4.314
 -1.066 -1.44 4.32
 -1.051 -1.439 4.318
 -1.036 -1.435 4.309
 -1.021 -1.434 4.307
 -1.008 -1.433 4.308
 -0.994 -1.432 4.308
 -0.98 -1.431 4.306
 -0.967 -1.431 4.309
 -0.953 -1.43 4.307
 -0.938 -1.427 4.301
 -0.926 -1.428 4.305
 -0.911 -1.425 4.3
 -0.897 -1.425 4.3
 -0.884 -1.423 4.299
 -0.872 -1.426 4.308
 -0.858 -1.424 4.305
 -0.846 -1.426 4.312
 -0.832 -1.424 4.309
 -0.818 -1.423 4.306
 -0.803 -1.42 4.299
 -0.789 -1.417 4.292
 -0.775 -1.414 4.286
 -0.762 -1.415 4.289
 -0.749 -1.415 4.291
 -0.735 -1.414 4.29
 -0.723 -1.414 4.293
 -0.71 -1.414 4.294
 -0.697 -1.413 4.293
 -0.684 -1.414 4.296
 -0.671 -1.413 4.296
 -0.657 -1.411 4.292
 -0.644 -1.411 4.29
 -0.63 -1.409 4.287
 -0.616 -1.407 4.282
 -0.603 -1.406 4.28
 -0.591 -1.407 4.285
 -0.578 -1.407 4.286
 -0.565 -1.407 4.288
 -0.552 -1.406 4.285
 -0.538 -1.404 4.282
 -0.525 -1.402 4.276
 -0.512 -1.401 4.275
 -0.499 -1.402 4.278
 -0.486 -1.401 4.276
 -0.473 -1.402 4.281
 -0.462 -1.405 4.29
 -0.449 -1.406 4.293
 -0.436 -1.405 4.29
 -0.424 -1.408 4.302
 -0.412 -1.41 4.308
 -0.398 -1.406 4.297
 -0.384 -1.404 4.292
 -0.372 -1.405 4.296
 -0.358 -1.402 4.287
 -0.345 -1.4 4.281
 -0.332 -1.4 4.282
 -0.319 -1.399 4.281
 -0.306 -1.398 4.278
 -0.294 -1.398 4.277
 -0.281 -1.4 4.284
 -0.268 -1.399 4.282
 -0.256 -1.399 4.283
 -0.243 -1.398 4.28
 -0.23 -1.398 4.28
 -0.217 -1.396 4.275
 -0.204 -1.397 4.277
 -0.191 -1.395 4.271
 -0.179 -1.395 4.272
 -0.166 -1.395 4.274
 -0.153 -1.395 4.273
 -0.141 -1.396 4.274
 -0.128 -1.396 4.276
 -0.115 -1.398 4.281
 -0.103 -1.398 4.282
 -0.09 -1.397 4.28
 -0.077 -1.398 4.282
 -0.065 -1.398 4.283
 -0.052 -1.395 4.274
 -0.039 -1.395 4.274
 -0.026 -1.395 4.274
 -0.014 -1.394 4.269
 -0.001 -1.394 4.269
 0.011 -1.394 4.27
 0.023 -1.393 4.266
 0.036 -1.393 4.266
 0.049 -1.394 4.27
 0.061 -1.394 4.269
 0.074 -1.392 4.262
 0.087 -1.394 4.266
 0.099 -1.393 4.264
 0.112 -1.393 4.263
 0.124 -1.391 4.257
 0.137 -1.394 4.265
 0.15 -1.392 4.26
 0.163 -1.393 4.262
 0.175 -1.391 4.254
 0.188 -1.393 4.259
 0.2 -1.392 4.257
 0.213 -1.392 4.257
 0.226 -1.392 4.256
 0.239 -1.395 4.263
 0.252 -1.398 4.273
 0.265 -1.399 4.275
 0.277 -1.398 4.271
 0.29 -1.399 4.274
 0.303 -1.399 4.272
 0.315 -1.396 4.263
 0.327 -1.395 4.258
 0.34 -1.396 4.258
 0.352 -1.393 4.25
 0.365 -1.392 4.246
 0.377 -1.394 4.249
 0.39 -1.394 4.251
 0.404 -1.397 4.256
 0.416 -1.397 4.256
 0.43 -1.4 4.263
 0.443 -1.4 4.263
 0.456 -1.401 4.263
 0.468 -1.4 4.26
 0.481 -1.401 4.261
 0.493 -1.4 4.258
 0.506 -1.401 4.259
 0.519 -1.401 4.258
 0.533 -1.403 4.262
 0.545 -1.403 4.259
 0.558 -1.403 4.258
 0.57 -1.401 4.252
 0.582 -1.401 4.249
 0.595 -1.4 4.244
 0.609 -1.404 4.256
 0.621 -1.403 4.25
 0.634 -1.402 4.247
 0.646 -1.402 4.243
 0.659 -1.401 4.24
 0.671 -1.401 4.236
 0.685 -1.403 4.242
 0.699 -1.405 4.247
 0.713 -1.408 4.254
 0.726 -1.409 4.254
 0.739 -1.409 4.252
 0.751 -1.409 4.249
 0.764 -1.409 4.248
 0.778 -1.411 4.25
 0.792 -1.412 4.254
 0.804 -1.411 4.248
 0.817 -1.412 4.249
 0.831 -1.415 4.254
 0.843 -1.413 4.247
 0.856 -1.414 4.247
 0.869 -1.414 4.245
 0.881 -1.413 4.238
 0.893 -1.411 4.232
 0.906 -1.412 4.231
 0.919 -1.412 4.228
 0.934 -1.415 4.236
 0.948 -1.417 4.24
 0.961 -1.417 4.237
 0.974 -1.418 4.238
 0.988 -1.42 4.239
 1 -1.419 4.233
 1.014 -1.42 4.235
 1.028 -1.422 4.238
 1.042 -1.423 4.239
 1.055 -1.424 4.237
 1.069 -1.426 4.24
 1.081 -1.424 4.232
 1.095 -1.426 4.235
 1.11 -1.428 4.237
 1.123 -1.429 4.237
 1.136 -1.429 4.235
 1.152 -1.432 4.242
 1.166 -1.434 4.242
 1.179 -1.435 4.241
 1.194 -1.437 4.244
 1.208 -1.438 4.243
 1.221 -1.438 4.241
 1.233 -1.437 4.234
 1.246 -1.436 4.23
 1.259 -1.437 4.228
 1.273 -1.438 4.228
 1.286 -1.438 4.225
 1.301 -1.44 4.227
 1.314 -1.441 4.224
 1.328 -1.442 4.224
 1.341 -1.442 4.221
 1.356 -1.444 4.222
 1.37 -1.444 4.22
 1.384 -1.446 4.22
 1.398 -1.446 4.218
 1.41 -1.446 4.213
 1.423 -1.446 4.209
 1.437 -1.446 4.206
 1.452 -1.448 4.207
 1.466 -1.449 4.206
 1.481 -1.451 4.207
 1.495 -1.453 4.207
 1.511 -1.455 4.21
 1.525 -1.457 4.21
 1.537 -1.455 4.202
 1.553 -1.458 4.205
 1.567 -1.459 4.204
 1.582 -1.461 4.204
 1.596 -1.461 4.202
 1.612 -1.464 4.205
 1.627 -1.466 4.205
 1.643 -1.468 4.207
 1.658 -1.469 4.206
 1.672 -1.47 4.204
 1.687 -1.472 4.203
 1.701 -1.472 4.2
 1.715 -1.473 4.197
 1.73 -1.474 4.195
 1.744 -1.475 4.193
 1.756 -1.474 4.185
 1.768 -1.473 4.178
 1.783 -1.475 4.176
 1.798 -1.476 4.175
 1.811 -1.476 4.17
 1.829 -1.48 4.174
 1.841 -1.479 4.166
 1.85 -1.476 4.152
 1.851 -1.466 4.118
 1.86 -1.463 4.104
 1.861 -1.453 4.071
 1.867 -1.447 4.05
 1.869 -1.439 4.021
 1.888 -1.444 4.029
 1.89 -1.435 4
 0 0 0
 0 0 0
 0 0 0
 0 0 0
 0 0 0
 0 0 0
 0 0 0
 0 0 0
 0 0 0
 0 0 0
 0 0 0
 0 0 0
 0 0 0
 0 0 0
 0 0 0
 0 0 0
 0 0 0
 0 0 0
 0 0 0
 0 0 0
 0 0 0
 0 0 0
 0 0 0
 0 0 0
 1.82 -1.182 3.164
 1.843 -1.19 3.179
 1.845 -1.185 3.16
 1.849 -1.18 3.143
 1.857 -1.179 3.132
 1.855 -1.171 3.106
 1.853 -1.163 3.08
 1.84 -1.148 3.035
 0 0 0
 0 0 0
 -2.494 -1.576 4.334
 -2.482 -1.578 4.347
 -2.47 -1.579 4.357
 -2.453 -1.578 4.36
 -2.431 -1.573 4.356
 -2.419 -1.575 4.366
 -2.395 -1.569 4.357
 -2.374 -1.565 4.352
 -2.352 -1.56 4.345
 -2.335 -1.558 4.346
 -2.312 -1.552 4.338
 -2.293 -1.549 4.335
 -2.277 -1.548 4.339
 -2.258 -1.545 4.336
 -2.241 -1.543 4.338
 -2.224 -1.541 4.338
 -2.208 -1.54 4.341
 -2.187 -1.536 4.335
 -2.172 -1.535 4.339
 -2.153 -1.532 4.336
 -2.139 -1.532 4.341
 -2.122 -1.53 4.343
 -2.108 -1.53 4.349
 -2.091 -1.528 4.348
 -2.074 -1.526 4.348
 -2.052 -1.521 4.339
 -2.036 -1.519 4.339
 -2.016 -1.515 4.333
 -2.001 -1.514 4.336
 -1.984 -1.512 4.335
 -1.969 -1.511 4.338
 -1.951 -1.508 4.336
 -1.937 -1.508 4.341
 -1.921 -1.506 4.341
 -1.906 -1.506 4.344
 -1.889 -1.503 4.343
 -1.873 -1.501 4.342
 -1.854 -1.498 4.337
 -1.838 -1.496 4.336
 -1.821 -1.494 4.335
 -1.805 -1.492 4.333
 -1.791 -1.491 4.337
 -1.776 -1.49 4.339
 -1.758 -1.487 4.335
 -1.742 -1.485 4.333
 -1.725 -1.482 4.33
 -1.707 -1.479 4.324
 -1.689 -1.475 4.316
 -1.674 -1.474 4.317
 -1.66 -1.474 4.323
 -1.644 -1.472 4.321
 -1.629 -1.47 4.321
 -1.616 -1.471 4.327
 -1.601 -1.469 4.327
 -1.585 -1.467 4.324
 -1.571 -1.467 4.327
 -1.555 -1.465 4.325
 -1.539 -1.463 4.323
 -1.524 -1.462 4.324
 -1.509 -1.46 4.324
 -1.494 -1.458 4.322
 -1.481 -1.458 4.326
 -1.467 -1.459 4.33
 -1.452 -1.457 4.33
 -1.437 -1.455 4.328
 -1.423 -1.454 4.329
 -1.409 -1.454 4.332
 -1.394 -1.453 4.331
 -1.38 -1.452 4.332
 -1.364 -1.45 4.329
 -1.349 -1.448 4.328
 -1.335 -1.447 4.327
 -1.319 -1.444 4.323
 -1.303 -1.441 4.318
 -1.287 -1.439 4.313
 -1.274 -1.439 4.317
 -1.258 -1.436 4.31
 -1.244 -1.434 4.309
 -1.23 -1.434 4.311
 -1.217 -1.435 4.316
 -1.203 -1.434 4.316
 -1.188 -1.432 4.313
 -1.176 -1.433 4.32
 -1.161 -1.431 4.317
 -1.147 -1.43 4.315
 -1.131 -1.427 4.309
 -1.119 -1.428 4.315
 -1.105 -1.427 4.314
 -1.093 -1.428 4.321
 -1.079 -1.427 4.321
 -1.065 -1.427 4.323
 -1.051 -1.425 4.319
 -1.035 -1.421 4.309
 -1.02 -1.419 4.305
 -1.006 -1.418 4.306
 -0.992 -1.417 4.304
 -0.979 -1.416 4.306
 -0.966 -1.417 4.31
 -0.953 -1.416 4.309
 -0.937 -1.412 4.299
 -0.924 -1.413 4.304
 -0.91 -1.411 4.299
 -0.896 -1.409 4.296
 -0.881 -1.406 4.29
 -0.87 -1.409 4.301
 -0.856 -1.407 4.297
 -0.844 -1.409 4.305
 -0.831 -1.409 4.306
 -0.817 -1.407 4.302
 -0.802 -1.404 4.295
 -0.787 -1.401 4.287
 -0.772 -1.397 4.277
 -0.76 -1.398 4.28
 -0.747 -1.399 4.285
 -0.735 -1.399 4.288
 -0.722 -1.401 4.294
 -0.71 -1.402 4.3
 -0.697 -1.401 4.299
 -0.684 -1.401 4.301
 -0.671 -1.401 4.3
 -0.657 -1.399 4.297
 -0.643 -1.397 4.291
 -0.629 -1.394 4.285
 -0.616 -1.393 4.282
 -0.603 -1.392 4.281
 -0.59 -1.393 4.286
 -0.578 -1.394 4.29
 -0.565 -1.394 4.292
 -0.551 -1.392 4.286
 -0.538 -1.39 4.282
 -0.523 -1.387 4.271
 -0.51 -1.386 4.269
 -0.498 -1.387 4.273
 -0.485 -1.386 4.271
 -0.473 -1.387 4.276
 -0.461 -1.39 4.287
 -0.449 -1.393 4.295
 -0.435 -1.391 4.292
 -0.424 -1.397 4.31
 -0.412 -1.398 4.315
 -0.398 -1.394 4.305
 -0.384 -1.391 4.296
 -0.372 -1.392 4.3
 -0.358 -1.388 4.286
 -0.344 -1.385 4.278
 -0.332 -1.384 4.277
 -0.319 -1.383 4.274
 -0.306 -1.382 4.272
 -0.293 -1.381 4.269
 -0.28 -1.383 4.276
 -0.268 -1.383 4.276
 -0.255 -1.384 4.279
 -0.242 -1.383 4.276
 -0.23 -1.384 4.28
 -0.217 -1.383 4.277
 -0.204 -1.383 4.279
 -0.191 -1.382 4.273
 -0.179 -1.383 4.276
 -0.166 -1.382 4.276
 -0.153 -1.382 4.277
 -0.14 -1.382 4.276
 -0.128 -1.383 4.277
 -0.115 -1.383 4.28
 -0.102 -1.383 4.28
 -0.09 -1.382 4.275
 -0.077 -1.382 4.276
 -0.064 -1.383 4.278
 -0.052 -1.381 4.272
 -0.039 -1.381 4.273
 -0.026 -1.381 4.273
 -0.014 -1.381 4.272
 -0.001 -1.381 4.272
 0.011 -1.381 4.272
 0.023 -1.381 4.271
 0.036 -1.381 4.27
 0.049 -1.383 4.277
 0.061 -1.382 4.275
 0.074 -1.38 4.266
 0.087 -1.38 4.266
 0.099 -1.38 4.265
 0.112 -1.378 4.26
 0.124 -1.376 4.253
 0.137 -1.379 4.261
 0.15 -1.377 4.255
 0.162 -1.378 4.258
 0.175 -1.376 4.252
 0.188 -1.379 4.259
 0.2 -1.378 4.255
 0.213 -1.379 4.258
 0.226 -1.379 4.257
 0.239 -1.381 4.264
 0.252 -1.385 4.273
 0.265 -1.387 4.28
 0.278 -1.386 4.276
 0.291 -1.388 4.281
 0.303 -1.387 4.278
 0.315 -1.385 4.27
 0.328 -1.383 4.263
 0.34 -1.384 4.264
 0.352 -1.381 4.255
 0.365 -1.38 4.251
 0.378 -1.381 4.254
 0.391 -1.384 4.262
 0.404 -1.386 4.265
 0.417 -1.386 4.263
 0.431 -1.389 4.272
 0.443 -1.389 4.272
 0.456 -1.388 4.267
 0.468 -1.387 4.263
 0.481 -1.388 4.265
 0.493 -1.387 4.26
 0.506 -1.387 4.259
 0.519 -1.387 4.258
 0.532 -1.389 4.263
 0.545 -1.389 4.261
 0.557 -1.389 4.258
 0.57 -1.389 4.256
 0.583 -1.388 4.253
 0.595 -1.387 4.247
 0.609 -1.392 4.26
 0.622 -1.39 4.255
 0.634 -1.389 4.249
 0.646 -1.388 4.243
 0.658 -1.388 4.241
 0.67 -1.386 4.235
 0.684 -1.389 4.242
 0.698 -1.392 4.248
 0.713 -1.396 4.258
 0.726 -1.396 4.258
 0.739 -1.396 4.256
 0.751 -1.395 4.25
 0.764 -1.396 4.25
 0.778 -1.397 4.252
 0.792 -1.4 4.259
 0.804 -1.399 4.255
 0.818 -1.401 4.256
 0.831 -1.401 4.256
 0.843 -1.4 4.251
 0.856 -1.401 4.25
 0.869 -1.401 4.249
 0.881 -1.4 4.242
 0.894 -1.4 4.242
 0.907 -1.4 4.238
 0.919 -1.399 4.231
 0.932 -1.4 4.233
 0.947 -1.403 4.24
 0.96 -1.403 4.237
 0.974 -1.404 4.238
 0.988 -1.406 4.242
 1 -1.406 4.238
 1.014 -1.407 4.239
 1.028 -1.408 4.239
 1.041 -1.41 4.24
 1.054 -1.409 4.235
 1.068 -1.411 4.239
 1.081 -1.411 4.235
 1.096 -1.414 4.241
 1.11 -1.416 4.243
 1.124 -1.417 4.243
 1.137 -1.416 4.24
 1.151 -1.418 4.24
 1.164 -1.418 4.239
 1.179 -1.42 4.241
 1.193 -1.422 4.243
 1.207 -1.423 4.244
 1.22 -1.424 4.242
 1.233 -1.423 4.237
 1.245 -1.422 4.231
 1.26 -1.425 4.234
 1.274 -1.426 4.234
 1.287 -1.426 4.23
 1.301 -1.427 4.23
 1.314 -1.428 4.228
 1.327 -1.427 4.223
 1.34 -1.427 4.219
 1.354 -1.429 4.22
 1.368 -1.43 4.22
 1.382 -1.43 4.217
 1.397 -1.432 4.22
 1.409 -1.432 4.214
 1.423 -1.433 4.213
 1.436 -1.432 4.207
 1.451 -1.434 4.208
 1.465 -1.436 4.209
 1.479 -1.437 4.207
 1.494 -1.438 4.207
 1.509 -1.44 4.209
 1.524 -1.442 4.211
 1.536 -1.441 4.203
 1.553 -1.445 4.21
 1.568 -1.446 4.208
 1.583 -1.448 4.211
 1.598 -1.45 4.211
 1.614 -1.452 4.213
 1.628 -1.453 4.211
 1.644 -1.455 4.212
 1.657 -1.455 4.208
 1.671 -1.456 4.204
 1.685 -1.456 4.202
 1.699 -1.457 4.198
 1.713 -1.458 4.195
 1.728 -1.459 4.195
 1.742 -1.46 4.192
 1.756 -1.461 4.188
 1.769 -1.461 4.183
 1.784 -1.462 4.183
 1.8 -1.464 4.184
 1.814 -1.465 4.18
 1.829 -1.466 4.178
 1.842 -1.466 4.172
 1.851 -1.463 4.158
 1.853 -1.454 4.127
 1.862 -1.451 4.112
 1.862 -1.441 4.079
 1.867 -1.435 4.056
 1.864 -1.422 4.015
 0 0 0
 0 0 0
 0 0 0
 0 0 0
 0 0 0
 0 0 0
 0 0 0
 0 0 0
 0 0 0
 0 0 0
 0 0 0
 0 0 0
 0 0 0
 0 0 0
 0 0 0
 0 0 0
 0 0 0
 0 0 0
 0 0 0
 0 0 0
 0 0 0
 0 0 0
 0 0 0
 0 0 0
 0 0 0
 0 0 0
 0 0 0
 1.847 -1.182 3.19
 1.852 -1.178 3.175
 1.853 -1.172 3.153
 1.857 -1.168 3.136
 1.856 -1.161 3.111
 1.89 -1.175 3.144
 1.805 -1.117 2.981
 0 0 0
 -2.51 -1.562 4.335
 -2.495 -1.562 4.341
 -2.482 -1.563 4.351
 -2.469 -1.564 4.361
 -2.452 -1.563 4.364
 -2.433 -1.56 4.363
 -2.419 -1.56 4.371
 -2.398 -1.556 4.366
 -2.375 -1.551 4.359
 -2.351 -1.545 4.348
 -2.334 -1.543 4.349
 -2.31 -1.537 4.339
 -2.291 -1.534 4.336
 -2.275 -1.532 4.339
 -2.259 -1.532 4.343
 -2.241 -1.529 4.343
 -2.224 -1.527 4.343
 -2.208 -1.526 4.345
 -2.187 -1.521 4.339
 -2.171 -1.52 4.342
 -2.153 -1.518 4.341
 -2.141 -1.519 4.351
 -2.125 -1.518 4.352
 -2.109 -1.517 4.356
 -2.092 -1.515 4.355
 -2.073 -1.512 4.352
 -2.051 -1.506 4.341
 -2.035 -1.504 4.341
 -2.017 -1.501 4.339
 -2 -1.499 4.338
 -1.984 -1.498 4.339
 -1.967 -1.495 4.338
 -1.949 -1.492 4.335
 -1.935 -1.493 4.34
 -1.919 -1.491 4.341
 -1.906 -1.491 4.348
 -1.89 -1.49 4.348
 -1.874 -1.489 4.35
 -1.855 -1.485 4.343
 -1.837 -1.481 4.339
 -1.819 -1.478 4.333
 -1.804 -1.477 4.334
 -1.788 -1.475 4.334
 -1.773 -1.474 4.336
 -1.756 -1.472 4.334
 -1.739 -1.469 4.331
 -1.722 -1.466 4.326
 -1.705 -1.464 4.324
 -1.687 -1.46 4.317
 -1.674 -1.46 4.322
 -1.66 -1.46 4.326
 -1.645 -1.459 4.326
 -1.629 -1.457 4.325
 -1.616 -1.457 4.331
 -1.6 -1.455 4.328
 -1.584 -1.453 4.326
 -1.569 -1.452 4.326
 -1.553 -1.45 4.325
 -1.537 -1.447 4.32
 -1.522 -1.446 4.321
 -1.507 -1.444 4.321
 -1.492 -1.443 4.319
 -1.479 -1.443 4.324
 -1.465 -1.443 4.329
 -1.45 -1.442 4.328
 -1.435 -1.44 4.326
 -1.421 -1.439 4.328
 -1.407 -1.439 4.33
 -1.392 -1.437 4.329
 -1.378 -1.437 4.331
 -1.363 -1.435 4.328
 -1.348 -1.433 4.328
 -1.333 -1.431 4.324
 -1.316 -1.428 4.319
 -1.3 -1.425 4.313
 -1.285 -1.423 4.31
 -1.272 -1.424 4.315
 -1.256 -1.421 4.308
 -1.243 -1.42 4.31
 -1.229 -1.42 4.311
 -1.216 -1.42 4.315
 -1.202 -1.419 4.314
 -1.188 -1.418 4.316
 -1.176 -1.42 4.323
 -1.161 -1.418 4.321
 -1.146 -1.415 4.315
 -1.13 -1.412 4.309
 -1.116 -1.412 4.31
 -1.101 -1.409 4.304
 -1.088 -1.409 4.308
 -1.075 -1.409 4.308
 -1.062 -1.409 4.313
 -1.048 -1.407 4.31
 -1.032 -1.405 4.304
 -1.018 -1.403 4.301
 -1.004 -1.402 4.302
 -0.991 -1.402 4.302
 -0.977 -1.401 4.302
 -0.965 -1.402 4.309
 -0.951 -1.401 4.306
 -0.936 -1.398 4.3
 -0.923 -1.398 4.301
 -0.908 -1.396 4.296
 -0.894 -1.394 4.293
 -0.88 -1.392 4.289
 -0.87 -1.396 4.304
 -0.856 -1.395 4.301
 -0.844 -1.396 4.309
 -0.83 -1.396 4.308
 -0.816 -1.394 4.304
 -0.801 -1.39 4.294
 -0.787 -1.387 4.287
 -0.772 -1.384 4.278
 -0.76 -1.385 4.284
 -0.747 -1.386 4.29
 -0.735 -1.387 4.292
 -0.722 -1.387 4.297
 -0.71 -1.389 4.303
 -0.697 -1.388 4.302
 -0.684 -1.389 4.307
 -0.671 -1.389 4.307
 -0.657 -1.387 4.303
 -0.644 -1.386 4.3
 -0.63 -1.384 4.296
 -0.616 -1.381 4.288
 -0.602 -1.379 4.284
 -0.59 -1.38 4.289
 -0.577 -1.38 4.29
 -0.564 -1.38 4.29
 -0.551 -1.379 4.287
 -0.538 -1.378 4.286
 -0.524 -1.375 4.278
 -0.51 -1.373 4.274
 -0.498 -1.373 4.274
 -0.485 -1.373 4.274
 -0.472 -1.373 4.276
 -0.46 -1.376 4.285
 -0.448 -1.379 4.295
 -0.435 -1.377 4.293
 -0.424 -1.383 4.311
 -0.412 -1.386 4.322
 -0.398 -1.383 4.311
 -0.385 -1.38 4.303
 -0.372 -1.38 4.305
 -0.357 -1.373 4.285
 -0.344 -1.369 4.272
 -0.331 -1.368 4.27
 -0.317 -1.366 4.263
 -0.305 -1.367 4.267
 -0.292 -1.367 4.266
 -0.28 -1.368 4.27
 -0.267 -1.368 4.272
 -0.255 -1.37 4.279
 -0.242 -1.368 4.273
 -0.229 -1.369 4.277
 -0.216 -1.369 4.276
 -0.204 -1.37 4.279
 -0.191 -1.368 4.272
 -0.178 -1.369 4.277
 -0.166 -1.37 4.28
 -0.153 -1.371 4.284
 -0.14 -1.37 4.281
 -0.128 -1.37 4.281
 -0.115 -1.37 4.281
 -0.102 -1.37 4.28
 -0.09 -1.368 4.275
 -0.077 -1.368 4.276
 -0.064 -1.369 4.279
 -0.051 -1.368 4.274
 -0.039 -1.368 4.274
 -0.026 -1.368 4.273
 -0.013 -1.367 4.272
 -0.001 -1.366 4.269
 0.011 -1.368 4.274
 0.023 -1.367 4.27
 0.036 -1.366 4.267
 0.049 -1.37 4.279
 0.062 -1.37 4.28
 0.074 -1.366 4.268
 0.087 -1.367 4.27
 0.099 -1.366 4.266
 0.112 -1.363 4.256
 0.124 -1.361 4.248
 0.137 -1.362 4.253
 0.149 -1.36 4.245
 0.162 -1.363 4.253
 0.174 -1.36 4.243
 0.187 -1.361 4.245
 0.199 -1.36 4.242
 0.212 -1.362 4.248
 0.225 -1.362 4.248
 0.239 -1.368 4.266
 0.252 -1.373 4.28
 0.265 -1.376 4.29
 0.278 -1.374 4.281
 0.29 -1.374 4.282
 0.302 -1.371 4.271
 0.315 -1.37 4.267
 0.327 -1.368 4.259
 0.34 -1.371 4.267
 0.353 -1.369 4.261
 0.365 -1.37 4.261
 0.378 -1.37 4.261
 0.392 -1.373 4.27
 0.404 -1.373 4.268
 0.417 -1.372 4.264
 0.43 -1.375 4.273
 0.443 -1.376 4.275
 0.456 -1.375 4.27
 0.468 -1.374 4.265
 0.481 -1.376 4.27
 0.494 -1.374 4.264
 0.506 -1.374 4.261
 0.519 -1.374 4.259
 0.532 -1.377 4.266
 0.545 -1.377 4.265
 0.558 -1.377 4.263
 0.57 -1.377 4.262
 0.583 -1.376 4.258
 0.595 -1.374 4.25
 0.609 -1.379 4.263
 0.621 -1.377 4.257
 0.634 -1.376 4.252
 0.646 -1.375 4.247
 0.658 -1.375 4.244
 0.67 -1.373 4.237
 0.684 -1.376 4.244
 0.698 -1.377 4.246
 0.712 -1.38 4.254
 0.725 -1.382 4.257
 0.738 -1.381 4.253
 0.75 -1.38 4.248
 0.763 -1.381 4.248
 0.777 -1.384 4.254
 0.791 -1.386 4.259
 0.804 -1.386 4.256
 0.818 -1.387 4.258
 0.831 -1.388 4.257
 0.843 -1.387 4.252
 0.857 -1.388 4.255
 0.87 -1.389 4.255
 0.882 -1.387 4.247
 0.895 -1.388 4.248
 0.907 -1.388 4.244
 0.919 -1.386 4.235
 0.932 -1.387 4.235
 0.947 -1.391 4.244
 0.96 -1.391 4.241
 0.973 -1.391 4.24
 0.988 -1.394 4.246
 1.002 -1.395 4.246
 1.014 -1.395 4.244
 1.028 -1.396 4.244
 1.042 -1.397 4.246
 1.053 -1.395 4.236
 1.067 -1.396 4.236
 1.079 -1.396 4.232
 1.093 -1.397 4.233
 1.107 -1.399 4.236
 1.122 -1.401 4.24
 1.135 -1.402 4.238
 1.149 -1.403 4.239
 1.163 -1.404 4.238
 1.177 -1.405 4.238
 1.19 -1.406 4.238
 1.204 -1.407 4.238
 1.218 -1.408 4.237
 1.231 -1.408 4.234
 1.245 -1.409 4.234
 1.259 -1.411 4.235
 1.273 -1.412 4.235
 1.286 -1.412 4.232
 1.3 -1.413 4.232
 1.312 -1.412 4.225
 1.325 -1.412 4.22
 1.339 -1.413 4.219
 1.354 -1.415 4.221
 1.368 -1.416 4.222
 1.382 -1.418 4.223
 1.398 -1.42 4.225
 1.411 -1.42 4.221
 1.424 -1.42 4.218
 1.436 -1.419 4.211
 1.45 -1.421 4.211
 1.465 -1.422 4.211
 1.479 -1.423 4.211
 1.493 -1.424 4.21
 1.508 -1.426 4.21
 1.522 -1.427 4.209
 1.536 -1.428 4.206
 1.552 -1.43 4.209
 1.567 -1.432 4.21
 1.583 -1.434 4.212
 1.597 -1.436 4.212
 1.613 -1.438 4.213
 1.627 -1.439 4.212
 1.641 -1.44 4.21
 1.656 -1.441 4.208
 1.67 -1.442 4.207
 1.684 -1.442 4.202
 1.697 -1.442 4.198
 1.712 -1.444 4.197
 1.727 -1.445 4.196
 1.741 -1.446 4.193
 1.754 -1.445 4.187
 1.767 -1.446 4.184
 1.782 -1.447 4.183
 1.798 -1.449 4.182
 1.812 -1.45 4.18
 1.829 -1.453 4.183
 1.843 -1.454 4.179
 1.853 -1.451 4.167
 1.857 -1.444 4.141
 1.866 -1.441 4.126
 1.866 -1.43 4.09
 1.869 -1.423 4.063
 0 0 0
 0 0 0
 0 0 0
 0 0 0
 0 0 0
 0 0 0
 0 0 0
 0 0 0
 0 0 0
 0 0 0
 0 0 0
 0 0 0
 0 0 0
 0 0 0
 0 0 0
 0 0 0
 0 0 0
 0 0 0
 0 0 0
 0 0 0
 0 0 0
 0 0 0
 0 0 0
 0 0 0
 0 0 0
 0 0 0
 0 0 0
 0 0 0
 1.841 -1.167 3.183
 1.849 -1.166 3.173
 1.85 -1.16 3.152
 1.853 -1.155 3.132
 1.851 -1.147 3.106
 1.843 -1.136 3.07
 1.878 -1.151 3.105
 -2.505 -1.536 4.299
 -2.499 -1.54 4.319
 -2.501 -1.551 4.356
 -2.486 -1.551 4.363
 -2.47 -1.55 4.368
 -2.452 -1.548 4.368
 -2.432 -1.545 4.366
 -2.415 -1.543 4.369
 -2.393 -1.539 4.363
 -2.373 -1.535 4.359
 -2.351 -1.53 4.352
 -2.335 -1.529 4.355
 -2.312 -1.524 4.347
 -2.293 -1.521 4.345
 -2.277 -1.519 4.347
 -2.259 -1.517 4.347
 -2.242 -1.516 4.349
 -2.226 -1.514 4.352
 -2.207 -1.511 4.349
 -2.186 -1.506 4.341
 -2.171 -1.506 4.345
 -2.152 -1.503 4.342
 -2.138 -1.503 4.35
 -2.122 -1.502 4.352
 -2.106 -1.5 4.353
 -2.089 -1.498 4.353
 -2.07 -1.495 4.349
 -2.05 -1.491 4.342
 -2.034 -1.49 4.345
 -2.018 -1.488 4.346
 -2.001 -1.486 4.344
 -1.984 -1.484 4.344
 -1.966 -1.481 4.341
 -1.948 -1.478 4.338
 -1.934 -1.478 4.343
 -1.919 -1.477 4.346
 -1.907 -1.479 4.356
 -1.892 -1.477 4.357
 -1.876 -1.476 4.358
 -1.855 -1.471 4.347
 -1.837 -1.468 4.343
 -1.82 -1.465 4.34
 -1.803 -1.462 4.337
 -1.786 -1.46 4.335
 -1.773 -1.46 4.34
 -1.755 -1.457 4.335
 -1.736 -1.453 4.328
 -1.719 -1.45 4.324
 -1.705 -1.45 4.327
 -1.688 -1.447 4.322
 -1.673 -1.446 4.325
 -1.661 -1.447 4.332
 -1.645 -1.445 4.33
 -1.628 -1.442 4.327
 -1.613 -1.441 4.328
 -1.598 -1.44 4.329
 -1.582 -1.438 4.326
 -1.568 -1.437 4.329
 -1.552 -1.435 4.327
 -1.536 -1.433 4.322
 -1.521 -1.431 4.321
 -1.506 -1.43 4.323
 -1.492 -1.429 4.323
 -1.478 -1.429 4.328
 -1.465 -1.43 4.333
 -1.45 -1.428 4.33
 -1.434 -1.425 4.327
 -1.419 -1.424 4.328
 -1.405 -1.423 4.328
 -1.391 -1.423 4.329
 -1.376 -1.422 4.33
 -1.362 -1.42 4.33
 -1.346 -1.418 4.326
 -1.331 -1.416 4.322
 -1.314 -1.413 4.316
 -1.3 -1.412 4.317
 -1.283 -1.408 4.308
 -1.27 -1.408 4.311
 -1.255 -1.406 4.307
 -1.242 -1.407 4.313
 -1.228 -1.405 4.312
 -1.216 -1.406 4.318
 -1.201 -1.405 4.316
 -1.188 -1.405 4.319
 -1.173 -1.403 4.317
 -1.158 -1.401 4.313
 -1.142 -1.398 4.306
 -1.127 -1.396 4.303
 -1.114 -1.395 4.303
 -1.098 -1.392 4.297
 -1.086 -1.394 4.304
 -1.073 -1.394 4.307
 -1.061 -1.395 4.312
 -1.046 -1.393 4.308
 -1.031 -1.39 4.303
 -1.017 -1.389 4.303
 -1.004 -1.388 4.302
 -0.99 -1.388 4.304
 -0.977 -1.387 4.302
 -0.965 -1.389 4.311
 -0.95 -1.386 4.304
 -0.935 -1.383 4.298
 -0.921 -1.381 4.294
 -0.907 -1.381 4.295
 -0.893 -1.379 4.291
 -0.88 -1.379 4.291
 -0.869 -1.383 4.306
 -0.856 -1.382 4.306
 -0.844 -1.384 4.313
 -0.83 -1.382 4.31
 -0.815 -1.378 4.299
 -0.801 -1.376 4.296
 -0.786 -1.373 4.288
 -0.77 -1.368 4.274
 -0.758 -1.369 4.278
 -0.746 -1.372 4.288
 -0.733 -1.371 4.287
 -0.721 -1.372 4.292
 -0.709 -1.374 4.3
 -0.696 -1.374 4.302
 -0.683 -1.374 4.304
 -0.67 -1.374 4.305
 -0.657 -1.373 4.304
 -0.644 -1.373 4.305
 -0.63 -1.371 4.3
 -0.617 -1.37 4.299
 -0.603 -1.368 4.294
 -0.591 -1.369 4.296
 -0.578 -1.368 4.296
 -0.564 -1.368 4.296
 -0.551 -1.366 4.292
 -0.537 -1.363 4.283
 -0.523 -1.359 4.272
 -0.509 -1.357 4.265
 -0.496 -1.357 4.268
 -0.484 -1.357 4.269
 -0.472 -1.359 4.275
 -0.46 -1.362 4.286
 -0.448 -1.366 4.298
 -0.435 -1.363 4.292
 -0.423 -1.368 4.307
 -0.412 -1.373 4.324
 -0.398 -1.37 4.316
 -0.384 -1.365 4.3
 -0.371 -1.365 4.301
 -0.357 -1.359 4.284
 -0.343 -1.356 4.273
 -0.33 -1.352 4.261
 -0.317 -1.353 4.265
 -0.305 -1.354 4.271
 -0.292 -1.353 4.265
 -0.279 -1.352 4.265
 -0.267 -1.353 4.269
 -0.254 -1.354 4.272
 -0.241 -1.353 4.267
 -0.229 -1.354 4.272
 -0.216 -1.355 4.276
 -0.204 -1.356 4.28
 -0.191 -1.355 4.275
 -0.178 -1.356 4.28
 -0.166 -1.357 4.283
 -0.153 -1.358 4.285
 -0.14 -1.357 4.284
 -0.128 -1.357 4.284
 -0.115 -1.357 4.285
 -0.102 -1.358 4.286
 -0.09 -1.356 4.281
 -0.077 -1.356 4.282
 -0.064 -1.358 4.286
 -0.051 -1.356 4.282
 -0.039 -1.355 4.278
 -0.026 -1.355 4.278
 -0.013 -1.355 4.276
 -0.001 -1.353 4.27
 0.011 -1.354 4.274
 0.024 -1.355 4.276
 0.036 -1.354 4.271
 0.049 -1.359 4.287
 0.062 -1.359 4.288
 0.074 -1.353 4.269
 0.087 -1.353 4.269
 0.099 -1.352 4.265
 0.111 -1.346 4.246
 0.124 -1.341 4.231
 0.136 -1.341 4.23
 0.148 -1.34 4.225
 0.161 -1.345 4.239
 0.173 -1.339 4.222
 0.187 -1.345 4.238
 0.2 -1.349 4.252
 0.213 -1.351 4.257
 0.226 -1.354 4.265
 0.24 -1.36 4.285
 0.253 -1.363 4.291
 0.265 -1.361 4.285
 0.277 -1.357 4.273
 0.289 -1.356 4.266
 0.302 -1.354 4.262
 0.314 -1.354 4.261
 0.327 -1.354 4.257
 0.341 -1.36 4.276
 0.353 -1.358 4.268
 0.366 -1.358 4.268
 0.378 -1.358 4.266
 0.392 -1.361 4.275
 0.404 -1.359 4.269
 0.416 -1.357 4.259
 0.43 -1.361 4.271
 0.443 -1.361 4.27
 0.456 -1.362 4.274
 0.468 -1.361 4.268
 0.483 -1.366 4.283
 0.494 -1.364 4.274
 0.508 -1.365 4.277
 0.52 -1.364 4.27
 0.533 -1.366 4.277
 0.545 -1.364 4.269
 0.558 -1.364 4.267
 0.571 -1.365 4.268
 0.584 -1.365 4.267
 0.595 -1.363 4.259
 0.61 -1.368 4.272
 0.623 -1.367 4.269
 0.634 -1.364 4.256
 0.645 -1.36 4.242
 0.657 -1.36 4.241
 0.67 -1.359 4.236
 0.683 -1.36 4.237
 0.697 -1.363 4.246
 0.712 -1.367 4.255
 0.724 -1.367 4.254
 0.737 -1.366 4.248
 0.749 -1.365 4.245
 0.761 -1.365 4.242
 0.776 -1.368 4.25
 0.791 -1.371 4.257
 0.803 -1.371 4.254
 0.817 -1.373 4.257
 0.829 -1.372 4.253
 0.842 -1.372 4.249
 0.855 -1.373 4.251
 0.869 -1.374 4.253
 0.881 -1.374 4.248
 0.895 -1.376 4.252
 0.908 -1.375 4.248
 0.919 -1.373 4.238
 0.932 -1.374 4.239
 0.947 -1.377 4.246
 0.959 -1.376 4.24
 0.973 -1.377 4.241
 0.988 -1.381 4.249
 1.002 -1.382 4.25
 1.014 -1.381 4.246
 1.028 -1.383 4.248
 1.042 -1.384 4.249
 1.053 -1.382 4.24
 1.067 -1.383 4.24
 1.079 -1.383 4.236
 1.093 -1.384 4.236
 1.106 -1.385 4.235
 1.121 -1.387 4.24
 1.134 -1.387 4.237
 1.149 -1.389 4.239
 1.163 -1.39 4.24
 1.177 -1.392 4.243
 1.191 -1.394 4.244
 1.206 -1.395 4.246
 1.219 -1.396 4.245
 1.232 -1.396 4.24
 1.245 -1.396 4.239
 1.259 -1.397 4.236
 1.272 -1.397 4.234
 1.284 -1.397 4.229
 1.298 -1.398 4.229
 1.311 -1.398 4.225
 1.324 -1.398 4.221
 1.338 -1.399 4.221
 1.353 -1.401 4.222
 1.367 -1.402 4.223
 1.381 -1.403 4.222
 1.396 -1.405 4.223
 1.41 -1.406 4.222
 1.425 -1.408 4.224
 1.437 -1.407 4.217
 1.451 -1.408 4.216
 1.464 -1.408 4.213
 1.477 -1.408 4.209
 1.491 -1.409 4.206
 1.504 -1.409 4.203
 1.518 -1.41 4.202
 1.533 -1.412 4.203
 1.55 -1.415 4.208
 1.566 -1.418 4.211
 1.582 -1.421 4.215
 1.596 -1.421 4.213
 1.611 -1.423 4.214
 1.625 -1.424 4.211
 1.639 -1.424 4.207
 1.654 -1.426 4.208
 1.67 -1.428 4.21
 1.684 -1.429 4.207
 1.697 -1.429 4.202
 1.712 -1.43 4.2
 1.727 -1.432 4.2
 1.74 -1.432 4.196
 1.753 -1.432 4.19
 1.767 -1.432 4.185
 1.782 -1.434 4.186
 1.796 -1.434 4.182
 1.811 -1.436 4.182
 1.827 -1.438 4.182
 1.842 -1.439 4.18
 1.853 -1.437 4.17
 1.862 -1.434 4.154
 1.869 -1.43 4.136
 1.874 -1.423 4.112
 0 0 0
 0 0 0
 0 0 0
 0 0 0
 0 0 0
 0 0 0
 0 0 0
 0 0 0
 0 0 0
 0 0 0
 0 0 0
 0 0 0
 0 0 0
 0 0 0
 0 0 0
 0 0 0
 0 0 0
 0 0 0
 0 0 0
 0 0 0
 0 0 0
 0 0 0
 0 0 0
 0 0 0
 0 0 0
 0 0 0
 0 0 0
 0 0 0
 0 0 0
 1.83 -1.15 3.168
 1.842 -1.151 3.165
 1.848 -1.147 3.151
 1.85 -1.142 3.131
 1.85 -1.136 3.107
 1.822 -1.112 3.037
 1.854 -1.126 3.068
 -2.528 -1.535 4.343
 -2.547 -1.556 4.408
 -2.502 -1.537 4.363
 -2.486 -1.536 4.368
 -2.47 -1.535 4.372
 -2.452 -1.534 4.374
 -2.435 -1.532 4.377
 -2.416 -1.529 4.375
 -2.394 -1.524 4.368
 -2.373 -1.521 4.364
 -2.351 -1.516 4.357
 -2.333 -1.513 4.356
 -2.315 -1.511 4.357
 -2.296 -1.508 4.354
 -2.279 -1.507 4.357
 -2.259 -1.503 4.353
 -2.244 -1.502 4.357
 -2.225 -1.499 4.354
 -2.208 -1.497 4.355
 -2.188 -1.494 4.349
 -2.174 -1.494 4.356
 -2.154 -1.49 4.352
 -2.141 -1.491 4.359
 -2.125 -1.49 4.362
 -2.106 -1.486 4.358
 -2.087 -1.483 4.355
 -2.071 -1.482 4.356
 -2.051 -1.478 4.35
 -2.034 -1.476 4.349
 -2.02 -1.475 4.354
 -2.002 -1.473 4.352
 -1.983 -1.469 4.346
 -1.965 -1.466 4.343
 -1.948 -1.464 4.341
 -1.932 -1.463 4.343
 -1.918 -1.463 4.349
 -1.907 -1.465 4.36
 -1.892 -1.464 4.362
 -1.875 -1.462 4.361
 -1.855 -1.457 4.351
 -1.836 -1.453 4.343
 -1.818 -1.449 4.339
 -1.8 -1.446 4.334
 -1.784 -1.445 4.334
 -1.772 -1.446 4.343
 -1.757 -1.445 4.344
 -1.74 -1.442 4.34
 -1.723 -1.439 4.337
 -1.708 -1.438 4.338
 -1.689 -1.434 4.331
 -1.674 -1.433 4.331
 -1.66 -1.433 4.334
 -1.644 -1.431 4.334
 -1.628 -1.428 4.33
 -1.612 -1.427 4.33
 -1.597 -1.425 4.329
 -1.582 -1.424 4.328
 -1.568 -1.423 4.331
 -1.552 -1.421 4.329
 -1.536 -1.419 4.327
 -1.519 -1.417 4.322
 -1.504 -1.415 4.321
 -1.489 -1.414 4.321
 -1.477 -1.415 4.328
 -1.463 -1.414 4.33
 -1.448 -1.413 4.33
 -1.434 -1.412 4.331
 -1.419 -1.411 4.33
 -1.403 -1.408 4.327
 -1.388 -1.407 4.326
 -1.374 -1.406 4.326
 -1.359 -1.404 4.324
 -1.343 -1.402 4.32
 -1.329 -1.4 4.32
 -1.313 -1.398 4.316
 -1.299 -1.398 4.318
 -1.283 -1.395 4.311
 -1.27 -1.395 4.315
 -1.254 -1.392 4.31
 -1.243 -1.394 4.318
 -1.227 -1.392 4.314
 -1.215 -1.392 4.32
 -1.2 -1.39 4.316
 -1.187 -1.391 4.321
 -1.172 -1.389 4.316
 -1.157 -1.386 4.311
 -1.139 -1.381 4.299
 -1.126 -1.381 4.302
 -1.112 -1.381 4.302
 -1.098 -1.378 4.298
 -1.086 -1.38 4.307
 -1.074 -1.382 4.313
 -1.06 -1.381 4.314
 -1.047 -1.38 4.314
 -1.031 -1.377 4.305
 -1.017 -1.376 4.305
 -1.003 -1.375 4.304
 -0.99 -1.375 4.307
 -0.976 -1.373 4.305
 -0.965 -1.376 4.315
 -0.95 -1.373 4.309
 -0.936 -1.372 4.305
 -0.921 -1.368 4.297
 -0.907 -1.367 4.296
 -0.892 -1.364 4.289
 -0.878 -1.362 4.284
 -0.867 -1.365 4.296
 -0.854 -1.365 4.298
 -0.842 -1.367 4.307
 -0.829 -1.368 4.31
 -0.814 -1.364 4.301
 -0.8 -1.363 4.297
 -0.785 -1.359 4.288
 -0.769 -1.353 4.271
 -0.756 -1.352 4.269
 -0.744 -1.355 4.28
 -0.732 -1.356 4.285
 -0.72 -1.357 4.29
 -0.707 -1.357 4.292
 -0.695 -1.359 4.298
 -0.681 -1.358 4.297
 -0.668 -1.356 4.293
 -0.655 -1.355 4.292
 -0.644 -1.36 4.309
 -0.63 -1.358 4.304
 -0.618 -1.359 4.307
 -0.604 -1.357 4.302
 -0.59 -1.356 4.299
 -0.576 -1.353 4.292
 -0.563 -1.352 4.289
 -0.549 -1.349 4.283
 -0.535 -1.347 4.275
 -0.523 -1.348 4.281
 -0.51 -1.346 4.275
 -0.497 -1.346 4.276
 -0.485 -1.349 4.288
 -0.473 -1.351 4.294
 -0.461 -1.354 4.305
 -0.449 -1.357 4.314
 0 0 0
 0 0 0
 0 0 0
 0 0 0
 0 0 0
 0 0 0
 0 0 0
 0 0 0
 -0.329 -1.337 4.259
 -0.317 -1.34 4.268
 -0.305 -1.342 4.275
 -0.292 -1.341 4.271
 -0.279 -1.34 4.271
 -0.267 -1.341 4.272
 -0.254 -1.341 4.275
 -0.241 -1.341 4.274
 -0.229 -1.342 4.277
 -0.216 -1.343 4.283
 -0.204 -1.344 4.286
 -0.191 -1.343 4.281
 -0.178 -1.341 4.277
 -0.165 -1.342 4.28
 -0.153 -1.342 4.279
 -0.14 -1.341 4.277
 -0.127 -1.341 4.277
 -0.115 -1.343 4.281
 -0.102 -1.342 4.28
 -0.089 -1.342 4.278
 -0.077 -1.342 4.281
 -0.064 -1.343 4.284
 -0.051 -1.342 4.281
 -0.039 -1.341 4.275
 -0.026 -1.34 4.272
 -0.013 -1.338 4.268
 -0.001 -1.336 4.26
 0.011 -1.333 4.25
 0 0 0
 0 0 0
 0 0 0
 0 0 0
 0 0 0
 0 0 0
 0 0 0
 0 0 0
 0 0 0
 0 0 0
 0 0 0
 0 0 0
 0 0 0
 0 0 0
 0 0 0
 0 0 0
 0 0 0
 0 0 0
 0 0 0
 0 0 0
 0 0 0
 0 0 0
 0 0 0
 0 0 0
 0 0 0
 0 0 0
 0 0 0
 0 0 0
 0 0 0
 0 0 0
 0.405 -1.348 4.277
 0.416 -1.344 4.262
 0.431 -1.352 4.288
 0.444 -1.353 4.29
 0.458 -1.356 4.299
 0.47 -1.355 4.292
 0.485 -1.361 4.31
 0.495 -1.353 4.284
 0.509 -1.357 4.294
 0.519 -1.35 4.271
 0.533 -1.351 4.273
 0.543 -1.345 4.254
 0.556 -1.346 4.253
 0.567 -1.344 4.245
 0.582 -1.349 4.26
 0.594 -1.347 4.251
 0.61 -1.353 4.27
 0.624 -1.357 4.28
 0.635 -1.353 4.267
 0.645 -1.348 4.248
 0.658 -1.348 4.247
 0.67 -1.346 4.239
 0.681 -1.345 4.232
 0.696 -1.349 4.243
 0.709 -1.349 4.244
 0.723 -1.351 4.246
 0.736 -1.352 4.247
 0.748 -1.351 4.244
 0.762 -1.354 4.25
 0.779 -1.361 4.271
 0.793 -1.363 4.275
 0.804 -1.36 4.263
 0.818 -1.362 4.266
 0.828 -1.358 4.251
 0.84 -1.357 4.246
 0.855 -1.359 4.251
 0.869 -1.362 4.257
 0.881 -1.36 4.25
 0.897 -1.366 4.265
 0.909 -1.364 4.257
 0.92 -1.362 4.247
 0.933 -1.361 4.243
 0.947 -1.364 4.25
 0.959 -1.363 4.244
 0.973 -1.364 4.243
 0.987 -1.366 4.249
 1.002 -1.37 4.255
 1.014 -1.367 4.246
 1.026 -1.367 4.242
 1.04 -1.369 4.244
 1.052 -1.368 4.238
 1.065 -1.368 4.236
 1.079 -1.369 4.237
 1.093 -1.371 4.239
 1.107 -1.372 4.241
 1.122 -1.375 4.245
 1.134 -1.374 4.241
 1.147 -1.375 4.238
 1.161 -1.375 4.237
 1.174 -1.376 4.237
 1.188 -1.377 4.237
 1.203 -1.379 4.239
 1.217 -1.38 4.239
 1.23 -1.38 4.237
 1.244 -1.382 4.237
 1.257 -1.382 4.234
 1.27 -1.382 4.231
 1.282 -1.381 4.226
 1.297 -1.383 4.226
 1.309 -1.383 4.222
 1.322 -1.382 4.218
 1.336 -1.384 4.219
 1.351 -1.386 4.22
 1.365 -1.387 4.221
 1.379 -1.388 4.221
 1.394 -1.39 4.222
 1.408 -1.391 4.221
 1.424 -1.394 4.226
 1.437 -1.394 4.222
 1.451 -1.395 4.221
 1.465 -1.396 4.218
 1.478 -1.396 4.216
 1.491 -1.396 4.211
 1.503 -1.395 4.204
 1.517 -1.396 4.202
 1.533 -1.398 4.204
 1.549 -1.401 4.208
 1.564 -1.403 4.211
 1.58 -1.406 4.214
 1.595 -1.407 4.213
 1.609 -1.408 4.212
 1.623 -1.408 4.209
 1.636 -1.409 4.204
 1.652 -1.411 4.206
 1.668 -1.413 4.209
 1.682 -1.414 4.205
 1.695 -1.413 4.2
 1.709 -1.415 4.198
 1.724 -1.416 4.197
 1.737 -1.416 4.192
 1.75 -1.416 4.187
 1.764 -1.417 4.184
 1.78 -1.419 4.185
 1.794 -1.42 4.182
 1.809 -1.421 4.18
 1.824 -1.422 4.179
 1.838 -1.422 4.175
 1.849 -1.421 4.164
 1.861 -1.42 4.156
 1.869 -1.416 4.14
 0 0 0
 0 0 0
 0 0 0
 0 0 0
 0 0 0
 0 0 0
 0 0 0
 0 0 0
 0 0 0
 0 0 0
 0 0 0
 0 0 0
 0 0 0
 0 0 0
 0 0 0
 0 0 0
 0 0 0
 0 0 0
 0 0 0
 0 0 0
 0 0 0
 0 0 0
 0 0 0
 0 0 0
 0 0 0
 0 0 0
 0 0 0
 0 0 0
 0 0 0
 0 0 0
 1.825 -1.136 3.162
 1.842 -1.139 3.167
 1.846 -1.136 3.152
 1.848 -1.13 3.13
 1.85 -1.125 3.11
 1.828 -1.106 3.051
 1.811 -1.09 3
 -2.54 -1.527 4.368
 -2.532 -1.532 4.387
 -2.504 -1.523 4.37
 -2.487 -1.522 4.373
 -2.472 -1.522 4.38
 -2.455 -1.521 4.383
 -2.436 -1.518 4.383
 -2.415 -1.514 4.378
 -2.395 -1.511 4.375
 -2.373 -1.506 4.368
 -2.35 -1.5 4.359
 -2.331 -1.498 4.358
 -2.314 -1.496 4.36
 -2.29 -1.49 4.348
 -2.273 -1.489 4.35
 -2.257 -1.487 4.353
 -2.242 -1.487 4.357
 -2.223 -1.484 4.355
 -2.208 -1.484 4.361
 -2.19 -1.481 4.359
 -2.173 -1.479 4.359
 -2.155 -1.476 4.357
 -2.14 -1.476 4.363
 -2.124 -1.475 4.365
 -2.104 -1.471 4.359
 -2.088 -1.469 4.36
 -2.071 -1.468 4.361
 -2.052 -1.464 4.357
 -2.035 -1.462 4.355
 -2.02 -1.461 4.358
 -2.001 -1.458 4.354
 -1.982 -1.454 4.348
 -1.965 -1.452 4.347
 -1.947 -1.45 4.345
 -1.931 -1.448 4.345
 -1.918 -1.448 4.352
 -1.905 -1.449 4.359
 -1.89 -1.449 4.363
 -1.874 -1.447 4.363
 -1.855 -1.443 4.357
 -1.837 -1.44 4.351
 -1.819 -1.436 4.346
 -1.799 -1.432 4.337
 -1.782 -1.429 4.332
 -1.769 -1.43 4.34
 -1.753 -1.428 4.339
 -1.737 -1.426 4.338
 -1.721 -1.425 4.338
 -1.707 -1.424 4.341
 -1.689 -1.421 4.335
 -1.674 -1.419 4.335
 -1.66 -1.419 4.338
 -1.644 -1.417 4.338
 -1.629 -1.416 4.337
 -1.614 -1.414 4.337
 -1.597 -1.412 4.332
 -1.58 -1.409 4.329
 -1.565 -1.408 4.328
 -1.549 -1.405 4.324
 -1.532 -1.402 4.32
 -1.517 -1.401 4.319
 -1.503 -1.4 4.321
 -1.488 -1.399 4.321
 -1.475 -1.4 4.327
 -1.461 -1.399 4.329
 -1.446 -1.398 4.328
 -1.431 -1.396 4.327
 -1.417 -1.395 4.327
 -1.4 -1.392 4.322
 -1.387 -1.392 4.326
 -1.373 -1.391 4.326
 -1.358 -1.389 4.324
 -1.342 -1.387 4.32
 -1.328 -1.386 4.32
 -1.31 -1.382 4.311
 -1.297 -1.382 4.313
 -1.281 -1.379 4.306
 -1.268 -1.38 4.313
 -1.254 -1.378 4.311
 -1.243 -1.381 4.322
 -1.228 -1.379 4.319
 -1.215 -1.379 4.324
 -1.199 -1.377 4.318
 -1.186 -1.377 4.321
 -1.17 -1.373 4.312
 -1.155 -1.371 4.309
 -1.138 -1.367 4.299
 -1.125 -1.367 4.301
 -1.112 -1.367 4.305
 -1.097 -1.365 4.301
 -1.086 -1.367 4.308
 -1.073 -1.367 4.312
 -1.059 -1.366 4.312
 -1.044 -1.364 4.308
 -1.028 -1.361 4.299
 -1.014 -1.359 4.297
 -1.001 -1.358 4.297
 -0.987 -1.358 4.297
 -0.974 -1.357 4.298
 -0.964 -1.361 4.313
 -0.949 -1.358 4.306
 -0.935 -1.358 4.308
 -0.921 -1.356 4.303
 -0.907 -1.354 4.3
 -0.891 -1.35 4.287
 -0.876 -1.348 4.282
 -0.865 -1.35 4.291
 -0.852 -1.35 4.293
 -0.841 -1.353 4.304
 -0.829 -1.354 4.312
 -0.815 -1.353 4.309
 -0.8 -1.35 4.302
 -0.784 -1.344 4.283
 -0.764 -1.332 4.246
 -0.749 -1.327 4.234
 -0.736 -1.328 4.238
 -0.727 -1.335 4.261
 0 0 0
 0 0 0
 0 0 0
 0 0 0
 0 0 0
 0 0 0
 0 0 0
 0 0 0
 0 0 0
 0 0 0
 0 0 0
 0 0 0
 0 0 0
 0 0 0
 0 0 0
 0 0 0
 0 0 0
 0 0 0
 0 0 0
 0 0 0
 0 0 0
 0 0 0
 0 0 0
 0 0 0
 0 0 0
 0 0 0
 0 0 0
 0 0 0
 0 0 0
 0 0 0
 -0.326 -1.314 4.226
 -0.315 -1.32 4.249
 -0.303 -1.322 4.255
 -0.291 -1.322 4.257
 -0.278 -1.323 4.259
 -0.266 -1.325 4.265
 -0.253 -1.325 4.266
 -0.241 -1.327 4.272
 -0.228 -1.328 4.276
 -0.216 -1.33 4.285
 -0.204 -1.333 4.292
 -0.191 -1.333 4.293
 -0.178 -1.332 4.29
 -0.166 -1.331 4.288
 -0.153 -1.33 4.284
 -0.14 -1.328 4.279
 -0.127 -1.328 4.278
 -0.115 -1.328 4.279
 -0.102 -1.327 4.277
 -0.089 -1.327 4.276
 -0.077 -1.328 4.28
 -0.064 -1.329 4.282
 -0.051 -1.329 4.281
 -0.039 -1.328 4.28
 -0.026 -1.328 4.278
 -0.013 -1.327 4.274
 -0.001 -1.324 4.265
 0.011 -1.321 4.254
 0 0 0
 0 0 0
 0 0 0
 0 0 0
 0 0 0
 0 0 0
 0 0 0
 0 0 0
 0 0 0
