0.566 -1.625 4.112
0.591 -1.626 4.111
0.615 -1.623 4.1
0.641 -1.625 4.101
0.667 -1.627 4.103
0.692 -1.627 4.098
0.717 -1.627 4.096
0.743 -1.629 4.096
0.768 -1.63 4.093
0.793 -1.631 4.091
0.819 -1.633 4.091
0.845 -1.634 4.09
0.872 -1.637 4.092
0.896 -1.636 4.085
0.921 -1.634 4.076
0.946 -1.635 4.071
0.971 -1.634 4.065
0.996 -1.634 4.06
1.022 -1.636 4.057
1.047 -1.636 4.052
1.072 -1.637 4.048
1.099 -1.639 4.047
1.125 -1.64 4.044
1.151 -1.641 4.04
1.177 -1.643 4.037
1.201 -1.641 4.027
1.227 -1.642 4.022
1.252 -1.642 4.015
1.276 -1.641 4.005
1.302 -1.642 3.998
1.328 -1.643 3.993
1.35 -1.639 3.977
1.377 -1.641 3.973
1.405 -1.644 3.973
1.431 -1.646 3.969
1.458 -1.648 3.966
1.486 -1.65 3.963
1.51 -1.649 3.951
1.533 -1.647 3.936
1.559 -1.648 3.93
1.583 -1.647 3.918
1.607 -1.645 3.905
1.632 -1.645 3.895
1.656 -1.644 3.883
1.677 -1.641 3.865
1.698 -1.637 3.846
1.721 -1.635 3.831
1.735 -1.624 3.796
1.745 -1.611 3.753
1.752 -1.595 3.705
1.758 -1.578 3.656
1.756 -1.556 3.593
1.76 -1.538 3.541
1.77 -1.527 3.505
1.773 -1.509 3.454
1.701 -1.429 3.26
1.667 -1.384 3.146
1.655 -1.357 3.074
1.668 -1.351 3.05
1.676 -1.34 3.015
1.678 -1.326 2.973
1.674 -1.307 2.92
1.668 -1.287 2.866
1.663 -1.268 2.814
1.662 -1.253 2.769
1.679 -1.252 2.756
1.655 -1.22 2.676
-2.226 -1.633 3.738
-2.19 -1.626 3.734
-2.161 -1.623 3.74
-2.134 -1.623 3.751
-2.111 -1.624 3.768
-2.086 -1.625 3.782
-2.064 -1.628 3.801
-2.035 -1.625 3.806
-2.009 -1.625 3.817
-1.981 -1.624 3.825
-1.959 -1.627 3.843
-1.931 -1.625 3.85
-1.909 -1.628 3.87
-1.886 -1.631 3.886
-1.861 -1.632 3.898
-1.832 -1.629 3.902
-1.805 -1.628 3.91
-1.777 -1.626 3.915
-1.75 -1.625 3.922
-1.723 -1.624 3.929
-1.697 -1.623 3.938
-1.673 -1.625 3.95
-1.645 -1.622 3.953
-1.617 -1.62 3.958
-1.593 -1.621 3.969
-1.568 -1.622 3.979
-1.539 -1.619 3.981
-1.514 -1.62 3.992
-1.489 -1.62 4.001
-1.462 -1.619 4.004
-1.435 -1.618 4.009
-1.41 -1.618 4.019
-1.385 -1.619 4.027
-1.36 -1.62 4.037
-1.336 -1.622 4.049
-1.311 -1.623 4.058
-1.285 -1.622 4.063
-1.259 -1.621 4.067
-1.231 -1.618 4.067
-1.204 -1.615 4.067
-1.177 -1.614 4.068
-1.152 -1.614 4.076
-1.126 -1.614 4.081
-1.101 -1.614 4.088
-1.077 -1.617 4.099
-1.052 -1.617 4.106
-1.026 -1.616 4.109
-1 -1.617 4.115
-0.975 -1.617 4.121
-0.949 -1.616 4.123
-0.923 -1.616 4.126
-0.898 -1.617 4.133
-0.872 -1.615 4.133
-0.847 -1.615 4.139
-0.821 -1.615 4.142
-0.795 -1.614 4.144
-0.77 -1.614 4.147
-0.745 -1.616 4.156
-0.72 -1.616 4.159
-0.695 -1.618 4.168
-0.671 -1.621 4.179
-0.645 -1.62 4.18
-0.62 -1.622 4.188
-0.595 -1.623 4.192
-0.568 -1.62 4.188
-0.542 -1.618 4.185
-0.517 -1.619 4.19
-0.492 -1.619 4.192
-0.466 -1.618 4.192
-0.441 -1.619 4.197
-0.416 -1.62 4.202
-0.389 -1.618 4.196
-0.363 -1.615 4.19
-0.338 -1.614 4.191
-0.312 -1.612 4.187
-0.287 -1.613 4.189
-0.262 -1.616 4.198
-0.237 -1.617 4.203
-0.212 -1.617 4.202
-0.186 -1.617 4.203
-0.161 -1.614 4.197
-0.135 -1.613 4.195
-0.11 -1.612 4.191
-0.084 -1.612 4.191
-0.059 -1.611 4.189
-0.034 -1.612 4.193
-0.009 -1.613 4.194
0.016 -1.611 4.19
0.041 -1.612 4.191
0.066 -1.612 4.192
0.091 -1.612 4.19
0.117 -1.611 4.185
0.142 -1.612 4.188
0.167 -1.61 4.183
0.192 -1.611 4.184
0.217 -1.608 4.174
0.242 -1.607 4.17
0.267 -1.608 4.17
0.293 -1.609 4.171
0.318 -1.609 4.169
0.344 -1.613 4.178
0.37 -1.615 4.182
0.395 -1.616 4.182
0.42 -1.616 4.179
0.446 -1.616 4.176
0.471 -1.616 4.173
0.496 -1.615 4.169
0.521 -1.615 4.166
0.546 -1.615 4.162
0.571 -1.615 4.158
0.596 -1.614 4.155
0.621 -1.612 4.145
0.646 -1.613 4.144
0.673 -1.616 4.147
0.698 -1.617 4.146
0.724 -1.617 4.143
0.75 -1.619 4.142
0.775 -1.619 4.14
0.801 -1.62 4.137
0.827 -1.622 4.137
0.853 -1.623 4.136
0.88 -1.626 4.138
0.905 -1.627 4.134
0.93 -1.626 4.127
0.955 -1.625 4.121
0.981 -1.626 4.116
1.006 -1.626 4.111
1.032 -1.627 4.107
1.058 -1.628 4.104
1.085 -1.63 4.103
1.112 -1.632 4.102
1.137 -1.632 4.097
1.164 -1.634 4.093
1.19 -1.634 4.088
1.214 -1.633 4.078
1.241 -1.634 4.075
1.267 -1.636 4.071
1.292 -1.635 4.061
1.318 -1.636 4.056
1.344 -1.636 4.049
1.367 -1.634 4.036
1.395 -1.636 4.034
1.422 -1.639 4.032
1.449 -1.641 4.029
1.477 -1.643 4.025
1.504 -1.644 4.02
1.528 -1.643 4.007
1.552 -1.641 3.994
1.578 -1.642 3.987
1.603 -1.641 3.976
1.626 -1.64 3.962
1.653 -1.64 3.954
1.677 -1.639 3.941
1.699 -1.636 3.923
1.718 -1.63 3.899
1.738 -1.625 3.877
1.747 -1.61 3.83
1.757 -1.596 3.787
1.762 -1.579 3.736
1.77 -1.564 3.69
1.77 -1.544 3.63
1.777 -1.529 3.585
1.779 -1.511 3.532
1.781 -1.493 3.479
1.693 -1.401 3.254
1.656 -1.353 3.132
1.658 -1.338 3.087
1.67 -1.331 3.061
1.678 -1.321 3.028
1.682 -1.308 2.988
1.68 -1.291 2.938
1.672 -1.27 2.88
1.667 -1.252 2.828
1.665 -1.236 2.781
1.645 -1.208 2.708
1.663 -1.207 2.696
-2.249 -1.624 3.787
-2.227 -1.627 3.807
-2.192 -1.621 3.805
-2.166 -1.62 3.817
-2.14 -1.621 3.831
-2.117 -1.623 3.848
-2.092 -1.624 3.861
-2.065 -1.623 3.872
-2.036 -1.621 3.88
-2.008 -1.62 3.887
-1.983 -1.621 3.901
-1.956 -1.62 3.91
-1.935 -1.625 3.932
-1.914 -1.628 3.952
-1.889 -1.63 3.967
-1.862 -1.629 3.976
-1.836 -1.629 3.986
-1.805 -1.625 3.985
-1.776 -1.623 3.99
-1.749 -1.622 3.998
-1.722 -1.621 4.005
-1.695 -1.62 4.012
-1.668 -1.619 4.02
-1.641 -1.618 4.025
-1.615 -1.618 4.035
-1.589 -1.618 4.043
-1.562 -1.617 4.049
-1.536 -1.617 4.058
-1.511 -1.618 4.068
-1.483 -1.616 4.072
-1.456 -1.615 4.078
-1.431 -1.616 4.087
-1.405 -1.616 4.094
-1.38 -1.617 4.104
-1.355 -1.618 4.114
-1.329 -1.619 4.122
-1.303 -1.618 4.129
-1.276 -1.617 4.133
-1.248 -1.615 4.134
-1.221 -1.613 4.134
-1.194 -1.611 4.136
-1.169 -1.612 4.145
-1.141 -1.61 4.146
-1.115 -1.61 4.151
-1.091 -1.612 4.162
-1.066 -1.614 4.171
-1.039 -1.611 4.171
-1.014 -1.613 4.181
-0.988 -1.613 4.185
-0.962 -1.612 4.188
-0.935 -1.611 4.19
-0.909 -1.61 4.192
-0.882 -1.608 4.192
-0.857 -1.61 4.199
-0.831 -1.608 4.2
-0.804 -1.607 4.201
-0.779 -1.609 4.209
-0.754 -1.61 4.214
-0.727 -1.608 4.214
-0.702 -1.61 4.222
-0.677 -1.612 4.23
-0.651 -1.611 4.231
-0.626 -1.612 4.237
-0.601 -1.613 4.243
-0.574 -1.611 4.24
-0.548 -1.61 4.24
-0.522 -1.61 4.242
-0.497 -1.61 4.244
-0.471 -1.61 4.245
-0.445 -1.61 4.248
-0.419 -1.609 4.248
-0.393 -1.607 4.244
-0.367 -1.605 4.241
-0.341 -1.604 4.239
-0.315 -1.602 4.234
-0.29 -1.603 4.238
-0.264 -1.605 4.245
-0.239 -1.605 4.245
-0.213 -1.604 4.245
-0.188 -1.605 4.248
-0.162 -1.603 4.242
-0.136 -1.601 4.239
-0.111 -1.6 4.237
-0.085 -1.599 4.234
-0.059 -1.598 4.231
-0.034 -1.599 4.233
-0.009 -1.6 4.235
0.016 -1.598 4.231
0.041 -1.598 4.23
0.067 -1.599 4.232
0.092 -1.599 4.23
0.118 -1.597 4.225
0.143 -1.598 4.227
0.168 -1.598 4.225
0.194 -1.598 4.224
0.219 -1.596 4.216
0.244 -1.595 4.213
0.27 -1.595 4.212
0.295 -1.596 4.212
0.32 -1.596 4.21
0.347 -1.599 4.216
0.372 -1.6 4.217
0.398 -1.601 4.217
0.423 -1.601 4.215
0.449 -1.6 4.211
0.474 -1.6 4.208
0.5 -1.602 4.208
0.525 -1.6 4.202
0.55 -1.6 4.199
0.576 -1.601 4.197
0.601 -1.6 4.191
0.625 -1.597 4.181
0.651 -1.6 4.183
0.678 -1.602 4.186
0.703 -1.603 4.184
0.729 -1.604 4.184
0.755 -1.605 4.181
0.78 -1.604 4.175
0.806 -1.605 4.172
0.832 -1.606 4.17
0.858 -1.607 4.169
0.885 -1.61 4.172
0.911 -1.611 4.169
0.937 -1.611 4.163
0.962 -1.611 4.159
0.987 -1.61 4.151
1.013 -1.611 4.146
1.039 -1.612 4.144
1.065 -1.613 4.14
1.093 -1.615 4.14
1.121 -1.619 4.143
1.146 -1.619 4.137
1.172 -1.62 4.132
1.199 -1.621 4.128
1.223 -1.619 4.118
1.25 -1.621 4.114
1.278 -1.623 4.114
1.303 -1.623 4.106
1.33 -1.625 4.102
1.357 -1.626 4.097
1.382 -1.626 4.088
1.408 -1.627 4.083
1.437 -1.629 4.081
1.463 -1.63 4.074
1.491 -1.632 4.072
1.518 -1.633 4.066
1.542 -1.632 4.054
1.567 -1.631 4.041
1.594 -1.633 4.036
1.619 -1.632 4.025
1.644 -1.632 4.015
1.671 -1.632 4.007
1.694 -1.63 3.991
1.715 -1.625 3.97
1.731 -1.617 3.939
1.748 -1.609 3.909
1.754 -1.592 3.856
1.766 -1.579 3.815
1.771 -1.562 3.764
1.78 -1.549 3.72
1.781 -1.529 3.662
1.796 -1.521 3.631
1.798 -1.503 3.577
0 0 0
0 0 0
1.646 -1.324 3.12
1.665 -1.322 3.107
1.676 -1.315 3.079
1.685 -1.306 3.047
1.689 -1.293 3.008
1.686 -1.276 2.958
1.676 -1.254 2.895
1.67 -1.234 2.84
1.665 -1.217 2.789
1.669 -1.206 2.754
1.66 -1.186 2.699
-2.29 -1.627 3.866
-2.218 -1.594 3.801
-2.224 -1.617 3.869
-2.195 -1.616 3.879
-2.169 -1.616 3.892
-2.144 -1.618 3.907
-2.118 -1.618 3.921
-2.092 -1.618 3.933
-2.065 -1.618 3.945
-2.04 -1.619 3.958
-2.012 -1.618 3.969
-1.985 -1.618 3.979
-1.965 -1.623 4.002
-1.941 -1.625 4.02
-1.914 -1.625 4.03
-1.888 -1.625 4.041
-1.86 -1.624 4.048
-1.828 -1.619 4.046
-1.799 -1.617 4.051
-1.772 -1.616 4.059
-1.746 -1.617 4.07
-1.719 -1.617 4.079
-1.693 -1.617 4.089
-1.665 -1.615 4.094
-1.639 -1.616 4.104
-1.61 -1.613 4.106
-1.583 -1.613 4.113
-1.557 -1.613 4.123
-1.531 -1.614 4.133
-1.503 -1.612 4.136
-1.477 -1.612 4.144
-1.451 -1.613 4.154
-1.424 -1.612 4.159
-1.398 -1.613 4.17
-1.373 -1.614 4.18
-1.346 -1.613 4.185
-1.32 -1.613 4.193
-1.293 -1.612 4.197
-1.265 -1.611 4.198
-1.238 -1.609 4.201
-1.21 -1.608 4.204
-1.184 -1.608 4.21
-1.156 -1.606 4.21
-1.129 -1.604 4.213
-1.103 -1.604 4.218
-1.078 -1.605 4.226
-1.05 -1.603 4.225
-1.025 -1.605 4.235
-0.999 -1.605 4.24
-0.973 -1.605 4.247
-0.946 -1.604 4.249
-0.92 -1.603 4.251
-0.892 -1.6 4.248
-0.866 -1.602 4.255
-0.839 -1.6 4.254
-0.813 -1.599 4.255
-0.788 -1.6 4.263
-0.762 -1.602 4.271
-0.735 -1.599 4.267
-0.709 -1.599 4.272
-0.683 -1.6 4.277
-0.657 -1.599 4.277
-0.631 -1.599 4.279
-0.605 -1.599 4.284
-0.578 -1.597 4.28
-0.552 -1.596 4.281
-0.526 -1.595 4.278
-0.499 -1.594 4.279
-0.473 -1.593 4.279
-0.448 -1.594 4.284
-0.422 -1.593 4.282
-0.395 -1.592 4.281
-0.369 -1.591 4.279
-0.343 -1.59 4.278
-0.317 -1.587 4.271
-0.291 -1.587 4.274
-0.266 -1.588 4.277
-0.24 -1.587 4.276
-0.214 -1.587 4.275
-0.188 -1.587 4.277
-0.162 -1.584 4.269
-0.137 -1.583 4.268
-0.111 -1.583 4.266
-0.085 -1.581 4.262
-0.06 -1.579 4.258
-0.034 -1.58 4.259
-0.008 -1.58 4.26
0.016 -1.579 4.256
0.042 -1.581 4.26
0.067 -1.582 4.262
0.093 -1.581 4.26
0.118 -1.581 4.258
0.144 -1.582 4.261
0.17 -1.581 4.257
0.195 -1.581 4.256
0.22 -1.579 4.248
0.246 -1.579 4.245
0.271 -1.578 4.243
0.297 -1.578 4.241
0.322 -1.578 4.238
0.348 -1.581 4.244
0.374 -1.58 4.24
0.399 -1.581 4.239
0.425 -1.581 4.239
0.45 -1.58 4.233
0.476 -1.581 4.231
0.502 -1.582 4.234
0.527 -1.581 4.227
0.552 -1.581 4.223
0.578 -1.581 4.221
0.603 -1.581 4.216
0.628 -1.579 4.209
0.655 -1.582 4.213
0.681 -1.584 4.214
0.707 -1.585 4.213
0.733 -1.585 4.209
0.758 -1.585 4.206
0.783 -1.584 4.199
0.81 -1.586 4.198
0.836 -1.587 4.197
0.862 -1.589 4.197
0.89 -1.592 4.2
0.916 -1.594 4.199
0.942 -1.594 4.195
0.968 -1.595 4.191
0.994 -1.595 4.186
1.019 -1.594 4.179
1.045 -1.595 4.175
1.071 -1.595 4.17
1.098 -1.598 4.17
1.126 -1.601 4.172
1.153 -1.602 4.168
1.179 -1.603 4.164
1.205 -1.603 4.159
1.231 -1.604 4.153
1.258 -1.605 4.148
1.286 -1.608 4.149
1.313 -1.609 4.144
1.34 -1.611 4.141
1.367 -1.612 4.137
1.393 -1.612 4.13
1.419 -1.612 4.121
1.446 -1.614 4.117
1.472 -1.614 4.109
1.5 -1.616 4.106
1.527 -1.617 4.1
1.553 -1.618 4.092
1.579 -1.617 4.082
1.607 -1.62 4.079
1.634 -1.62 4.071
1.66 -1.621 4.062
1.687 -1.621 4.054
1.71 -1.618 4.037
1.73 -1.614 4.015
1.745 -1.603 3.978
1.759 -1.593 3.943
1.766 -1.577 3.891
1.777 -1.564 3.85
1.783 -1.547 3.798
1.793 -1.535 3.755
1.796 -1.517 3.701
1.814 -1.512 3.678
0 0 0
0 0 0
0 0 0
1.641 -1.299 3.118
1.664 -1.3 3.112
1.676 -1.294 3.087
1.686 -1.286 3.056
1.69 -1.273 3.017
1.69 -1.258 2.971
1.681 -1.237 2.911
1.672 -1.216 2.851
1.667 -1.199 2.799
1.664 -1.183 2.752
1.671 -1.174 2.722
-2.33 -1.628 3.943
-2.295 -1.623 3.944
-2.256 -1.614 3.935
-2.228 -1.614 3.948
-2.202 -1.614 3.962
-2.176 -1.615 3.976
-2.15 -1.615 3.99
-2.122 -1.615 4
-2.096 -1.616 4.014
-2.072 -1.618 4.032
-2.045 -1.618 4.043
-2.016 -1.616 4.051
-1.995 -1.621 4.074
-1.969 -1.621 4.086
-1.94 -1.62 4.093
-1.913 -1.62 4.105
-1.887 -1.621 4.118
-1.854 -1.616 4.114
-1.826 -1.615 4.121
-1.799 -1.614 4.131
-1.773 -1.616 4.144
-1.745 -1.614 4.149
-1.718 -1.615 4.16
-1.69 -1.613 4.166
-1.663 -1.613 4.174
-1.631 -1.608 4.169
-1.603 -1.607 4.176
-1.576 -1.606 4.183
-1.548 -1.606 4.19
-1.52 -1.603 4.192
-1.495 -1.606 4.206
-1.468 -1.605 4.213
-1.442 -1.606 4.222
-1.417 -1.608 4.236
-1.391 -1.608 4.243
-1.362 -1.606 4.245
-1.335 -1.606 4.251
-1.307 -1.604 4.252
-1.279 -1.601 4.253
-1.252 -1.601 4.259
-1.224 -1.6 4.262
-1.198 -1.6 4.269
-1.17 -1.599 4.27
-1.142 -1.597 4.271
-1.115 -1.595 4.272
-1.088 -1.595 4.278
-1.06 -1.593 4.277
-1.034 -1.593 4.284
-1.007 -1.592 4.286
-0.981 -1.593 4.292
-0.954 -1.591 4.292
-0.927 -1.59 4.293
-0.9 -1.588 4.293
-0.874 -1.589 4.299
-0.847 -1.588 4.301
-0.82 -1.587 4.302
-0.794 -1.587 4.306
-0.767 -1.587 4.309
-0.74 -1.584 4.305
-0.713 -1.583 4.307
-0.687 -1.583 4.309
-0.661 -1.583 4.312
-0.634 -1.582 4.312
-0.608 -1.582 4.316
-0.581 -1.579 4.31
-0.555 -1.579 4.311
-0.528 -1.575 4.305
-0.501 -1.574 4.304
-0.475 -1.574 4.304
-0.449 -1.574 4.308
-0.423 -1.572 4.304
-0.397 -1.571 4.302
-0.37 -1.57 4.302
-0.344 -1.568 4.297
-0.318 -1.565 4.29
-0.292 -1.565 4.292
-0.266 -1.566 4.294
-0.24 -1.564 4.289
-0.214 -1.563 4.288
-0.189 -1.564 4.292
-0.163 -1.562 4.286
-0.137 -1.56 4.283
-0.111 -1.56 4.283
-0.085 -1.559 4.28
-0.06 -1.558 4.277
-0.034 -1.558 4.277
-0.008 -1.558 4.277
0.016 -1.557 4.272
0.042 -1.558 4.276
0.068 -1.557 4.274
0.093 -1.557 4.271
0.119 -1.557 4.271
0.144 -1.558 4.272
0.17 -1.557 4.269
0.196 -1.558 4.269
0.221 -1.557 4.266
0.247 -1.557 4.264
0.272 -1.557 4.263
0.298 -1.558 4.263
0.323 -1.558 4.261
0.349 -1.558 4.26
0.374 -1.557 4.255
0.4 -1.557 4.254
0.426 -1.558 4.254
0.451 -1.556 4.246
0.477 -1.558 4.248
0.503 -1.56 4.25
0.528 -1.559 4.245
0.553 -1.558 4.238
0.58 -1.559 4.24
0.605 -1.558 4.234
0.63 -1.559 4.23
0.657 -1.561 4.232
0.683 -1.563 4.235
0.709 -1.563 4.231
0.735 -1.564 4.23
0.761 -1.564 4.225
0.786 -1.564 4.22
0.812 -1.564 4.217
0.838 -1.566 4.217
0.864 -1.566 4.213
0.891 -1.569 4.215
0.918 -1.57 4.213
0.944 -1.571 4.211
0.97 -1.571 4.206
0.996 -1.573 4.205
1.022 -1.572 4.197
1.048 -1.573 4.195
1.074 -1.574 4.19
1.102 -1.577 4.192
1.129 -1.579 4.192
1.156 -1.58 4.189
1.183 -1.582 4.187
1.21 -1.583 4.182
1.236 -1.584 4.178
1.262 -1.584 4.171
1.29 -1.587 4.172
1.317 -1.588 4.166
1.345 -1.59 4.165
1.371 -1.591 4.159
1.398 -1.591 4.152
1.425 -1.592 4.147
1.453 -1.595 4.144
1.479 -1.595 4.138
1.507 -1.598 4.135
1.535 -1.6 4.131
1.562 -1.6 4.124
1.588 -1.6 4.115
1.616 -1.602 4.111
1.644 -1.604 4.106
1.671 -1.605 4.098
1.698 -1.606 4.09
1.72 -1.602 4.071
1.741 -1.597 4.048
1.756 -1.587 4.011
1.77 -1.577 3.976
1.777 -1.561 3.924
1.791 -1.55 3.887
1.798 -1.535 3.838
1.808 -1.523 3.797
1.813 -1.506 3.744
0 0 0
0 0 0
0 0 0
0 0 0
0 0 0
1.663 -1.279 3.118
1.678 -1.275 3.098
1.685 -1.264 3.063
1.69 -1.253 3.025
1.693 -1.24 2.984
1.686 -1.22 2.925
1.674 -1.198 2.861
1.669 -1.18 2.809
1.648 -1.153 2.733
1.655 -1.145 2.704
-2.303 -1.582 3.907
-2.323 -1.615 4.002
-2.102 -1.479 3.675
-2.076 -1.478 3.685
-2.142 -1.544 3.863
-2.206 -1.61 4.041
-2.179 -1.61 4.053
-2.151 -1.61 4.065
-2.125 -1.61 4.078
-2.1 -1.612 4.095
-2.072 -1.612 4.106
-2.043 -1.611 4.115
-2.019 -1.613 4.133
-1.993 -1.614 4.146
-1.965 -1.614 4.157
-1.939 -1.615 4.17
-1.913 -1.616 4.183
-1.881 -1.612 4.184
-1.854 -1.612 4.194
-1.824 -1.61 4.2
-1.797 -1.61 4.209
-1.767 -1.607 4.212
-1.74 -1.608 4.224
-1.71 -1.606 4.226
-1.684 -1.606 4.237
-1.653 -1.603 4.237
-1.627 -1.603 4.247
-1.597 -1.601 4.25
-1.569 -1.6 4.256
-1.54 -1.598 4.258
-1.514 -1.599 4.269
-1.486 -1.598 4.273
-1.459 -1.597 4.28
-1.433 -1.599 4.292
-1.405 -1.597 4.295
-1.376 -1.595 4.297
-1.349 -1.595 4.303
-1.32 -1.593 4.304
-1.291 -1.591 4.305
-1.265 -1.591 4.313
-1.237 -1.59 4.315
-1.21 -1.59 4.321
-1.181 -1.587 4.318
-1.152 -1.584 4.318
-1.123 -1.581 4.314
-1.096 -1.579 4.316
-1.067 -1.576 4.312
-1.041 -1.577 4.319
-1.013 -1.575 4.32
-0.986 -1.575 4.324
-0.959 -1.574 4.326
-0.931 -1.572 4.324
-0.904 -1.57 4.324
-0.877 -1.569 4.326
-0.85 -1.568 4.327
-0.823 -1.567 4.327
-0.797 -1.567 4.331
-0.77 -1.567 4.335
-0.742 -1.563 4.329
-0.716 -1.562 4.329
-0.688 -1.56 4.326
-0.662 -1.56 4.329
-0.635 -1.558 4.326
-0.609 -1.558 4.33
-0.582 -1.555 4.324
-0.556 -1.556 4.328
-0.529 -1.552 4.321
-0.502 -1.552 4.321
-0.476 -1.55 4.32
-0.45 -1.551 4.324
-0.423 -1.548 4.318
-0.397 -1.547 4.317
-0.371 -1.547 4.317
-0.345 -1.545 4.314
-0.318 -1.543 4.309
-0.292 -1.543 4.31
-0.266 -1.542 4.308
-0.24 -1.539 4.3
-0.214 -1.537 4.297
-0.188 -1.537 4.296
-0.162 -1.535 4.292
-0.137 -1.534 4.289
-0.111 -1.534 4.289
-0.085 -1.533 4.286
-0.059 -1.533 4.286
-0.034 -1.532 4.285
-0.008 -1.532 4.284
0.016 -1.532 4.283
0.042 -1.533 4.286
0.068 -1.533 4.285
0.093 -1.532 4.282
0.119 -1.532 4.281
0.145 -1.532 4.281
0.17 -1.533 4.28
0.196 -1.532 4.278
0.221 -1.531 4.274
0.247 -1.53 4.27
0.272 -1.531 4.271
0.298 -1.53 4.266
0.323 -1.531 4.265
0.349 -1.531 4.264
0.374 -1.531 4.261
0.4 -1.531 4.26
0.426 -1.532 4.259
0.451 -1.53 4.253
0.477 -1.533 4.256
0.503 -1.534 4.259
0.528 -1.533 4.252
0.554 -1.532 4.246
0.58 -1.535 4.25
0.605 -1.533 4.242
0.631 -1.533 4.239
0.657 -1.535 4.24
0.684 -1.537 4.243
0.709 -1.537 4.238
0.735 -1.538 4.238
0.761 -1.539 4.235
0.787 -1.539 4.231
0.812 -1.539 4.227
0.839 -1.541 4.227
0.865 -1.541 4.224
0.891 -1.542 4.222
0.917 -1.543 4.22
0.943 -1.544 4.215
0.969 -1.544 4.21
0.996 -1.546 4.211
1.022 -1.547 4.208
1.049 -1.548 4.205
1.076 -1.55 4.204
1.103 -1.552 4.203
1.13 -1.554 4.202
1.157 -1.555 4.2
1.185 -1.558 4.2
1.211 -1.559 4.196
1.239 -1.561 4.196
1.265 -1.562 4.19
1.293 -1.564 4.189
1.32 -1.565 4.183
1.348 -1.568 4.183
1.374 -1.567 4.175
1.401 -1.569 4.171
1.428 -1.569 4.164
1.455 -1.571 4.16
1.482 -1.572 4.154
1.51 -1.574 4.151
1.538 -1.575 4.145
1.566 -1.578 4.143
1.593 -1.579 4.137
1.621 -1.581 4.132
1.651 -1.584 4.13
1.678 -1.585 4.124
1.704 -1.585 4.114
1.728 -1.582 4.097
1.749 -1.578 4.075
1.764 -1.568 4.04
1.779 -1.559 4.005
1.789 -1.545 3.96
1.805 -1.537 3.927
1.816 -1.525 3.885
1.82 -1.508 3.83
0 0 0
0 0 0
0 0 0
0 0 0
0 0 0
0 0 0
1.657 -1.253 3.115
1.677 -1.253 3.103
1.685 -1.243 3.069
1.692 -1.233 3.035
1.697 -1.223 2.998
1.69 -1.203 2.94
1.677 -1.18 2.873
1.671 -1.163 2.82
1.644 -1.131 2.733
1.688 -1.148 2.763
-2.363 -1.596 4.019
-2.328 -1.592 4.021
-1.666 -1.153 2.917
-1.643 -1.151 2.921
-1.804 -1.279 3.26
-1.872 -1.343 3.435
-1.848 -1.343 3.444
-1.914 -1.408 3.623
-1.89 -1.409 3.636
-1.869 -1.411 3.652
-1.928 -1.475 3.829
-1.904 -1.476 3.842
-1.88 -1.477 3.856
-1.855 -1.477 3.868
-1.83 -1.478 3.879
-1.725 -1.413 3.718
-1.701 -1.413 3.727
-1.673 -1.41 3.729
-1.726 -1.476 3.913
-1.699 -1.475 3.919
-1.748 -1.54 4.103
-1.792 -1.603 4.283
-1.765 -1.604 4.293
-1.734 -1.6 4.294
-1.705 -1.599 4.301
-1.673 -1.595 4.298
-1.646 -1.595 4.306
-1.616 -1.593 4.31
-1.588 -1.592 4.316
-1.558 -1.589 4.317
-1.532 -1.591 4.328
-1.502 -1.588 4.329
-1.473 -1.586 4.332
-1.446 -1.586 4.34
-1.416 -1.583 4.34
-1.386 -1.58 4.338
-1.358 -1.58 4.343
-1.329 -1.577 4.343
-1.3 -1.575 4.343
-1.273 -1.575 4.351
-1.245 -1.573 4.351
-1.216 -1.571 4.353
-1.187 -1.568 4.351
-1.159 -1.566 4.351
-1.129 -1.563 4.346
-1.102 -1.561 4.348
-1.073 -1.559 4.347
-1.046 -1.559 4.351
-1.018 -1.556 4.349
-0.991 -1.556 4.354
-0.964 -1.555 4.355
-0.935 -1.551 4.35
-0.907 -1.549 4.347
-0.88 -1.547 4.347
-0.851 -1.544 4.342
-0.824 -1.542 4.34
-0.797 -1.542 4.343
-0.771 -1.541 4.345
-0.743 -1.538 4.34
-0.716 -1.537 4.339
-0.689 -1.534 4.336
-0.662 -1.534 4.337
-0.635 -1.531 4.332
-0.609 -1.531 4.336
-0.582 -1.53 4.334
-0.556 -1.53 4.337
-0.529 -1.527 4.332
-0.502 -1.526 4.331
-0.476 -1.525 4.329
-0.45 -1.524 4.329
-0.423 -1.521 4.322
-0.397 -1.521 4.323
-0.371 -1.52 4.322
-0.344 -1.518 4.319
-0.318 -1.516 4.315
-0.292 -1.517 4.316
-0.266 -1.514 4.311
-0.24 -1.512 4.306
-0.214 -1.511 4.302
-0.188 -1.51 4.301
-0.162 -1.508 4.296
-0.136 -1.507 4.294
-0.111 -1.507 4.293
-0.085 -1.506 4.292
-0.059 -1.506 4.291
-0.034 -1.506 4.291
-0.008 -1.505 4.289
0.017 -1.506 4.289
0.042 -1.507 4.291
0.068 -1.507 4.291
0.094 -1.506 4.289
0.119 -1.506 4.288
0.145 -1.506 4.287
0.17 -1.506 4.286
0.196 -1.505 4.282
0.221 -1.504 4.277
0.247 -1.504 4.274
0.272 -1.504 4.275
0.298 -1.503 4.269
0.323 -1.504 4.271
0.349 -1.505 4.27
0.375 -1.505 4.268
0.4 -1.505 4.266
0.426 -1.506 4.267
0.451 -1.504 4.259
0.477 -1.506 4.261
0.503 -1.507 4.26
0.528 -1.505 4.252
0.553 -1.504 4.246
0.579 -1.506 4.25
0.604 -1.505 4.243
0.63 -1.505 4.241
0.657 -1.508 4.245
0.683 -1.511 4.249
0.709 -1.51 4.244
0.735 -1.512 4.243
0.761 -1.512 4.24
0.786 -1.512 4.236
0.812 -1.512 4.231
0.838 -1.513 4.229
0.864 -1.514 4.229
0.891 -1.515 4.227
0.916 -1.515 4.222
0.943 -1.517 4.22
0.969 -1.518 4.219
0.996 -1.519 4.217
1.022 -1.52 4.214
1.049 -1.522 4.214
1.075 -1.523 4.21
1.102 -1.524 4.207
1.129 -1.526 4.205
1.156 -1.528 4.206
1.184 -1.531 4.207
1.211 -1.532 4.203
1.239 -1.535 4.204
1.266 -1.536 4.2
1.294 -1.539 4.199
1.321 -1.539 4.193
1.349 -1.542 4.194
1.375 -1.543 4.187
1.403 -1.544 4.184
1.428 -1.543 4.173
1.456 -1.546 4.171
1.483 -1.547 4.165
1.511 -1.549 4.162
1.54 -1.551 4.16
1.569 -1.554 4.16
1.596 -1.555 4.153
1.624 -1.557 4.148
1.653 -1.559 4.145
1.68 -1.56 4.137
1.706 -1.56 4.126
1.731 -1.558 4.112
1.752 -1.554 4.091
1.77 -1.547 4.062
1.787 -1.54 4.032
1.802 -1.53 3.997
1.819 -1.523 3.965
1.83 -1.511 3.923
0 0 0
0 0 0
0 0 0
0 0 0
0 0 0
0 0 0
0 0 0
1.73 -1.286 3.259
1.678 -1.232 3.112
1.685 -1.223 3.077
1.692 -1.213 3.042
1.696 -1.202 3.003
1.692 -1.184 2.95
1.678 -1.161 2.882
1.671 -1.143 2.827
1.637 -1.107 2.728
1.641 -1.098 2.694
-2.415 -1.604 4.119
-0.01 -0.008 0.005
-1.227 -0.835 2.15
-1.209 -0.833 2.152
-1.375 -0.959 2.488
-1.447 -1.021 2.658
-1.427 -1.019 2.662
-1.494 -1.081 2.832
-1.477 -1.083 2.846
-1.461 -1.085 2.86
-1.611 -1.211 3.204
-1.591 -1.212 3.217
-1.571 -1.213 3.228
-1.548 -1.212 3.233
-1.526 -1.211 3.239
-1.346 -1.084 2.905
-1.326 -1.083 2.908
-1.382 -1.145 3.085
-1.438 -1.209 3.266
-1.492 -1.273 3.448
-1.617 -1.4 3.803
-1.738 -1.528 4.162
-1.711 -1.528 4.17
-1.752 -1.589 4.349
-1.723 -1.588 4.354
-1.691 -1.584 4.352
-1.66 -1.582 4.355
-1.63 -1.579 4.355
-1.599 -1.576 4.356
-1.568 -1.573 4.356
-1.542 -1.573 4.365
-1.511 -1.57 4.365
-1.481 -1.568 4.366
-1.453 -1.567 4.371
-1.423 -1.564 4.369
-1.392 -1.56 4.367
-1.364 -1.559 4.37
-1.334 -1.556 4.368
-1.305 -1.553 4.368
-1.277 -1.553 4.373
-1.248 -1.55 4.371
-1.219 -1.547 4.37
-1.19 -1.545 4.369
-1.161 -1.542 4.367
-1.131 -1.538 4.361
-1.103 -1.537 4.362
-1.075 -1.535 4.363
-1.047 -1.533 4.363
-1.019 -1.531 4.363
-0.992 -1.531 4.366
-0.964 -1.528 4.364
-0.936 -1.526 4.362
-0.908 -1.525 4.362
-0.881 -1.523 4.36
-0.853 -1.521 4.359
-0.826 -1.519 4.358
-0.798 -1.517 4.355
-0.771 -1.515 4.354
-0.743 -1.512 4.349
-0.715 -1.509 4.344
-0.688 -1.507 4.339
-0.661 -1.505 4.339
-0.634 -1.504 4.338
-0.608 -1.504 4.339
-0.581 -1.502 4.339
-0.555 -1.503 4.342
-0.528 -1.501 4.338
-0.502 -1.499 4.335
-0.475 -1.497 4.333
-0.449 -1.496 4.332
-0.422 -1.494 4.327
-0.396 -1.494 4.329
-0.37 -1.492 4.325
-0.344 -1.49 4.321
-0.318 -1.49 4.32
-0.292 -1.489 4.319
-0.265 -1.486 4.313
-0.239 -1.486 4.311
-0.214 -1.484 4.308
-0.188 -1.483 4.304
-0.162 -1.481 4.301
-0.136 -1.481 4.299
-0.11 -1.48 4.298
-0.085 -1.48 4.298
-0.059 -1.48 4.297
-0.033 -1.48 4.296
-0.008 -1.478 4.292
0.017 -1.478 4.29
0.042 -1.478 4.291
0.068 -1.478 4.29
0.093 -1.478 4.289
0.119 -1.479 4.291
0.145 -1.479 4.29
0.17 -1.479 4.29
0.196 -1.478 4.285
0.221 -1.477 4.28
0.246 -1.476 4.275
0.272 -1.477 4.276
0.297 -1.475 4.269
0.323 -1.476 4.27
0.348 -1.476 4.268
0.374 -1.476 4.266
0.399 -1.476 4.265
0.425 -1.477 4.265
0.45 -1.475 4.258
0.476 -1.477 4.259
0.502 -1.478 4.259
0.527 -1.476 4.252
0.552 -1.476 4.248
0.578 -1.478 4.251
0.604 -1.478 4.246
0.629 -1.478 4.243
0.656 -1.48 4.246
0.682 -1.482 4.248
0.708 -1.482 4.245
0.734 -1.484 4.246
0.76 -1.485 4.243
0.786 -1.485 4.24
0.811 -1.485 4.236
0.838 -1.486 4.235
0.864 -1.488 4.234
0.89 -1.489 4.232
0.916 -1.488 4.226
0.942 -1.489 4.224
0.968 -1.49 4.22
0.994 -1.491 4.218
1.021 -1.493 4.218
1.049 -1.496 4.219
1.075 -1.497 4.216
1.102 -1.498 4.214
1.128 -1.499 4.211
1.156 -1.501 4.21
1.183 -1.503 4.21
1.21 -1.505 4.207
1.238 -1.508 4.208
1.266 -1.509 4.206
1.293 -1.511 4.205
1.32 -1.512 4.2
1.348 -1.515 4.199
1.375 -1.516 4.193
1.401 -1.516 4.187
1.428 -1.516 4.179
1.456 -1.519 4.177
1.483 -1.52 4.173
1.511 -1.522 4.169
1.539 -1.524 4.166
1.568 -1.527 4.165
1.596 -1.528 4.16
1.624 -1.53 4.155
1.652 -1.532 4.151
1.679 -1.533 4.144
1.706 -1.533 4.135
1.732 -1.533 4.123
1.754 -1.53 4.105
1.774 -1.524 4.08
1.794 -1.519 4.054
1.813 -1.513 4.029
1.827 -1.503 3.991
1.839 -1.492 3.951
0 0 0
0 0 0
0 0 0
0 0 0
0 0 0
0 0 0
0 0 0
1.729 -1.264 3.265
1.671 -1.206 3.106
1.677 -1.196 3.068
1.686 -1.188 3.039
1.694 -1.18 3.006
1.693 -1.165 2.959
1.68 -1.142 2.891
1.675 -1.126 2.84
1.656 -1.101 2.765
1.659 -1.09 2.729
-0.075 -0.051 0.116
-0.028 -0.02 0.035
-0.786 -0.526 1.377
-0.774 -0.525 1.377
-0.947 -0.649 1.713
-1.025 -0.711 1.884
-1.01 -0.71 1.886
-1.082 -0.769 2.052
-1.068 -0.769 2.058
-1.055 -0.77 2.066
-1.209 -0.894 2.408
-1.194 -0.894 2.416
-1.178 -0.894 2.421
-1.159 -0.892 2.422
-1.14 -0.89 2.422
-0.964 -0.763 2.08
-0.948 -0.761 2.081
-1.01 -0.823 2.257
-1.148 -0.949 2.61
-1.282 -1.075 2.968
-1.484 -1.263 3.496
-1.68 -1.451 4.03
-1.724 -1.513 4.211
-1.764 -1.573 4.388
-1.734 -1.57 4.391
-1.702 -1.567 4.391
-1.671 -1.564 4.391
-1.639 -1.56 4.389
-1.608 -1.558 4.39
-1.577 -1.554 4.388
-1.548 -1.553 4.393
-1.516 -1.548 4.389
-1.486 -1.546 4.39
-1.457 -1.544 4.393
-1.426 -1.541 4.39
-1.395 -1.536 4.385
-1.367 -1.535 4.388
-1.335 -1.53 4.381
-1.305 -1.527 4.377
-1.277 -1.526 4.381
-1.248 -1.523 4.381
-1.219 -1.521 4.379
-1.19 -1.519 4.379
-1.162 -1.517 4.379
-1.132 -1.513 4.375
-1.104 -1.511 4.374
-1.076 -1.509 4.374
-1.047 -1.507 4.373
-1.019 -1.505 4.37
-0.991 -1.503 4.37
-0.962 -1.5 4.366
-0.934 -1.497 4.363
-0.907 -1.496 4.364
-0.879 -1.494 4.361
-0.851 -1.492 4.359
-0.824 -1.491 4.361
-0.797 -1.489 4.358
-0.769 -1.486 4.355
-0.742 -1.484 4.352
-0.714 -1.482 4.348
-0.687 -1.479 4.344
-0.66 -1.478 4.343
-0.634 -1.477 4.343
-0.607 -1.476 4.342
-0.581 -1.475 4.342
-0.554 -1.474 4.343
-0.528 -1.473 4.342
-0.501 -1.472 4.34
-0.475 -1.471 4.338
-0.449 -1.47 4.337
-0.422 -1.467 4.332
-0.396 -1.467 4.332
-0.37 -1.465 4.329
-0.343 -1.463 4.325
-0.317 -1.462 4.323
-0.291 -1.462 4.322
-0.265 -1.46 4.318
-0.239 -1.459 4.315
-0.213 -1.458 4.313
-0.187 -1.456 4.309
-0.162 -1.456 4.308
-0.136 -1.454 4.304
-0.11 -1.453 4.302
-0.085 -1.454 4.304
-0.059 -1.455 4.305
-0.033 -1.453 4.302
-0.008 -1.452 4.298
0.017 -1.452 4.297
0.042 -1.451 4.295
0.068 -1.45 4.291
0.093 -1.45 4.289
0.119 -1.451 4.291
0.145 -1.45 4.287
0.17 -1.451 4.288
0.196 -1.45 4.285
0.221 -1.45 4.284
0.246 -1.448 4.275
0.272 -1.448 4.275
0.297 -1.447 4.269
0.322 -1.447 4.269
0.348 -1.447 4.266
0.374 -1.449 4.27
0.399 -1.45 4.269
0.425 -1.449 4.266
0.45 -1.448 4.259
0.475 -1.449 4.26
0.501 -1.449 4.257
0.526 -1.447 4.25
0.551 -1.447 4.245
0.577 -1.449 4.249
0.603 -1.449 4.244
0.628 -1.449 4.241
0.655 -1.452 4.246
0.681 -1.454 4.247
0.707 -1.455 4.246
0.733 -1.456 4.248
0.76 -1.458 4.247
0.785 -1.457 4.242
0.811 -1.458 4.239
0.837 -1.458 4.236
0.863 -1.459 4.234
0.889 -1.46 4.231
0.914 -1.46 4.226
0.941 -1.461 4.226
0.967 -1.462 4.222
0.993 -1.464 4.221
1.02 -1.465 4.219
1.047 -1.467 4.219
1.073 -1.468 4.216
1.1 -1.469 4.214
1.127 -1.471 4.212
1.154 -1.473 4.211
1.182 -1.475 4.211
1.209 -1.477 4.21
1.237 -1.48 4.211
1.264 -1.482 4.209
1.292 -1.484 4.208
1.318 -1.484 4.202
1.346 -1.487 4.201
1.373 -1.487 4.195
1.4 -1.488 4.19
1.426 -1.489 4.184
1.455 -1.491 4.183
1.483 -1.493 4.179
1.51 -1.494 4.174
1.539 -1.497 4.173
1.567 -1.499 4.169
1.595 -1.5 4.164
1.623 -1.502 4.16
1.651 -1.504 4.155
1.678 -1.505 4.147
1.705 -1.506 4.141
1.732 -1.507 4.133
1.756 -1.504 4.116
1.779 -1.501 4.098
1.803 -1.5 4.083
1.824 -1.496 4.061
1.839 -1.487 4.026
0 0 0
0 0 0
0 0 0
0 0 0
0 0 0
0.606 -0.455 1.199
0.614 -0.455 1.195
0.822 -0.6 1.576
1.519 -1.092 2.874
1.531 -1.086 2.85
1.672 -1.171 3.066
1.684 -1.166 3.04
1.692 -1.157 3.009
1.69 -1.143 2.96
1.68 -1.123 2.898
1.674 -1.106 2.844
1.676 -1.095 2.805
1.651 -1.067 2.723
-0.08 -0.052 0.124
-0.052 -0.035 0.077
-0.346 -0.228 0.6
-0.339 -0.226 0.597
-0.516 -0.348 0.93
-0.598 -0.408 1.096
-0.586 -0.405 1.091
-0.663 -0.464 1.255
-0.652 -0.462 1.255
-0.642 -0.46 1.254
-0.801 -0.582 1.593
-0.791 -0.582 1.6
-0.778 -0.58 1.598
-0.765 -0.578 1.597
-0.751 -0.576 1.595
-0.58 -0.451 1.249
-0.567 -0.448 1.242
-0.634 -0.508 1.415
-0.775 -0.629 1.762
-0.989 -0.815 2.291
-1.267 -1.059 2.99
-1.54 -1.307 3.701
-1.658 -1.429 4.058
-1.77 -1.55 4.412
-1.739 -1.547 4.414
-1.708 -1.545 4.416
-1.677 -1.542 4.417
-1.645 -1.538 4.415
-1.615 -1.536 4.417
-1.583 -1.532 4.415
-1.552 -1.529 4.414
-1.52 -1.525 4.409
-1.489 -1.521 4.406
-1.459 -1.518 4.406
-1.428 -1.515 4.402
-1.396 -1.511 4.398
-1.368 -1.509 4.399
-1.336 -1.505 4.394
-1.306 -1.501 4.389
-1.277 -1.499 4.389
-1.247 -1.496 4.386
-1.217 -1.492 4.382
-1.188 -1.489 4.38
-1.16 -1.488 4.38
-1.131 -1.485 4.379
-1.103 -1.484 4.38
-1.075 -1.482 4.38
-1.046 -1.479 4.378
-1.018 -1.477 4.375
-0.99 -1.475 4.373
-0.961 -1.471 4.368
-0.933 -1.469 4.366
-0.906 -1.468 4.366
-0.878 -1.466 4.365
-0.85 -1.463 4.361
-0.823 -1.462 4.362
-0.795 -1.46 4.357
-0.768 -1.458 4.355
-0.74 -1.455 4.351
-0.713 -1.453 4.347
-0.686 -1.451 4.345
-0.659 -1.449 4.342
-0.632 -1.448 4.341
-0.605 -1.446 4.337
-0.579 -1.446 4.34
-0.553 -1.444 4.338
-0.527 -1.444 4.341
-0.5 -1.444 4.341
-0.475 -1.444 4.344
-0.448 -1.443 4.343
-0.422 -1.44 4.337
-0.396 -1.44 4.337
-0.369 -1.439 4.335
-0.343 -1.437 4.33
-0.317 -1.435 4.325
-0.291 -1.435 4.327
-0.265 -1.433 4.322
-0.239 -1.432 4.318
-0.213 -1.431 4.316
-0.187 -1.43 4.314
-0.161 -1.428 4.31
-0.136 -1.427 4.306
-0.11 -1.426 4.304
-0.084 -1.426 4.304
-0.059 -1.426 4.304
-0.033 -1.428 4.309
-0.008 -1.427 4.306
0.017 -1.427 4.305
0.043 -1.426 4.304
0.068 -1.426 4.301
0.094 -1.423 4.294
0.119 -1.424 4.295
0.145 -1.424 4.292
0.17 -1.425 4.295
0.196 -1.424 4.291
0.221 -1.424 4.29
0.246 -1.422 4.281
0.272 -1.422 4.28
0.297 -1.42 4.272
0.322 -1.42 4.271
0.348 -1.421 4.27
0.374 -1.423 4.274
0.399 -1.423 4.273
0.424 -1.422 4.268
0.45 -1.421 4.263
0.475 -1.421 4.261
0.5 -1.422 4.259
0.525 -1.42 4.252
0.551 -1.42 4.249
0.577 -1.423 4.253
0.602 -1.422 4.248
0.628 -1.422 4.244
0.654 -1.425 4.25
0.68 -1.426 4.25
0.707 -1.428 4.252
0.733 -1.43 4.254
0.76 -1.432 4.254
0.786 -1.433 4.253
0.812 -1.434 4.251
0.837 -1.434 4.247
0.864 -1.435 4.245
0.889 -1.435 4.24
0.914 -1.434 4.232
0.94 -1.435 4.231
0.966 -1.435 4.227
0.992 -1.436 4.224
1.019 -1.438 4.224
1.046 -1.44 4.223
1.073 -1.441 4.22
1.099 -1.442 4.219
1.126 -1.444 4.217
1.153 -1.446 4.216
1.18 -1.447 4.214
1.207 -1.449 4.211
1.235 -1.451 4.211
1.262 -1.453 4.209
1.29 -1.455 4.208
1.316 -1.456 4.203
1.344 -1.457 4.201
1.371 -1.459 4.196
1.398 -1.46 4.193
1.425 -1.461 4.186
1.454 -1.464 4.187
1.482 -1.466 4.184
1.509 -1.467 4.18
1.538 -1.47 4.178
1.566 -1.472 4.176
1.594 -1.474 4.172
1.622 -1.475 4.166
1.649 -1.476 4.159
1.676 -1.476 4.151
1.707 -1.481 4.153
1.734 -1.482 4.146
1.761 -1.482 4.136
1.787 -1.481 4.125
1.814 -1.482 4.117
1.828 -1.473 4.079
0 0 0
0 0 0
0 0 0
0 0 0
0 0 0
0.514 -0.384 1.034
0.446 -0.33 0.882
0.452 -0.33 0.879
0.701 -0.503 1.346
1.364 -0.963 2.585
1.535 -1.07 2.865
1.678 -1.155 3.085
1.689 -1.149 3.057
1.696 -1.14 3.022
1.694 -1.125 2.973
1.683 -1.105 2.91
1.677 -1.088 2.855
1.66 -1.065 2.784
1.665 -1.057 2.752
-0.08 -0.051 0.124
-0.072 -0.047 0.114
-0.088 -0.058 0.144
-0.083 -0.056 0.137
-0.172 -0.115 0.301
-0.167 -0.113 0.297
-0.159 -0.109 0.287
-0.241 -0.166 0.448
-0.235 -0.164 0.444
-0.228 -0.161 0.438
-0.39 -0.279 0.772
-0.383 -0.277 0.769
-0.374 -0.275 0.764
-0.363 -0.271 0.753
-0.353 -0.267 0.745
-0.186 -0.143 0.392
-0.179 -0.14 0.384
-0.327 -0.258 0.725
-0.55 -0.439 1.248
-0.843 -0.682 1.955
-1.199 -0.985 2.835
-1.546 -1.288 3.723
-1.664 -1.409 4.082
-1.776 -1.527 4.436
-1.743 -1.523 4.434
-1.712 -1.52 4.434
-1.679 -1.516 4.431
-1.646 -1.512 4.427
-1.615 -1.509 4.428
-1.583 -1.505 4.424
-1.551 -1.501 4.419
-1.519 -1.497 4.416
-1.488 -1.493 4.413
-1.458 -1.491 4.413
-1.427 -1.487 4.41
-1.397 -1.484 4.406
-1.367 -1.481 4.405
-1.335 -1.476 4.398
-1.304 -1.472 4.391
-1.274 -1.468 4.387
-1.244 -1.465 4.385
-1.214 -1.462 4.38
-1.186 -1.46 4.38
-1.157 -1.458 4.38
-1.129 -1.456 4.381
-1.102 -1.456 4.385
-1.074 -1.455 4.386
-1.045 -1.451 4.381
-1.017 -1.448 4.377
-0.989 -1.447 4.377
-0.96 -1.443 4.371
-0.932 -1.441 4.369
-0.904 -1.439 4.367
-0.877 -1.438 4.368
-0.849 -1.435 4.362
-0.822 -1.434 4.362
-0.794 -1.432 4.361
-0.768 -1.431 4.361
-0.739 -1.428 4.354
-0.712 -1.426 4.352
-0.685 -1.424 4.349
-0.657 -1.42 4.341
-0.631 -1.42 4.342
-0.604 -1.418 4.34
-0.579 -1.419 4.346
-0.552 -1.418 4.344
-0.526 -1.418 4.346
-0.5 -1.417 4.345
-0.474 -1.418 4.35
-0.447 -1.415 4.342
-0.421 -1.412 4.338
-0.395 -1.412 4.337
-0.369 -1.411 4.335
-0.342 -1.408 4.329
-0.316 -1.407 4.325
-0.29 -1.406 4.323
-0.264 -1.404 4.319
-0.238 -1.403 4.318
-0.212 -1.403 4.316
-0.187 -1.403 4.317
-0.161 -1.402 4.314
-0.135 -1.4 4.311
-0.11 -1.4 4.309
-0.084 -1.4 4.31
-0.058 -1.4 4.309
-0.033 -1.402 4.314
-0.007 -1.402 4.314
0.017 -1.401 4.312
0.043 -1.4 4.31
0.068 -1.399 4.306
0.094 -1.396 4.296
0.119 -1.397 4.297
0.145 -1.396 4.294
0.17 -1.397 4.295
0.196 -1.397 4.294
0.221 -1.398 4.295
0.246 -1.396 4.288
0.272 -1.396 4.287
0.297 -1.394 4.278
0.322 -1.394 4.276
0.348 -1.394 4.274
0.374 -1.396 4.278
0.399 -1.396 4.276
0.424 -1.396 4.273
0.449 -1.394 4.266
0.475 -1.394 4.262
0.5 -1.394 4.258
0.525 -1.393 4.252
0.55 -1.393 4.251
0.576 -1.395 4.254
0.602 -1.395 4.25
0.627 -1.395 4.246
0.654 -1.399 4.255
0.68 -1.399 4.252
0.706 -1.401 4.255
0.733 -1.403 4.257
0.759 -1.405 4.257
0.785 -1.406 4.256
0.812 -1.407 4.256
0.837 -1.408 4.254
0.864 -1.409 4.253
0.889 -1.408 4.245
0.913 -1.407 4.235
0.94 -1.408 4.235
0.966 -1.409 4.232
0.991 -1.408 4.225
1.019 -1.412 4.229
1.046 -1.413 4.228
1.072 -1.414 4.225
1.098 -1.415 4.222
1.126 -1.417 4.223
1.152 -1.419 4.22
1.179 -1.42 4.216
1.206 -1.421 4.215
1.234 -1.424 4.215
1.261 -1.425 4.212
1.288 -1.427 4.21
1.315 -1.428 4.207
1.342 -1.429 4.202
1.369 -1.431 4.199
1.397 -1.432 4.197
1.424 -1.434 4.192
1.453 -1.436 4.192
1.481 -1.438 4.19
1.509 -1.44 4.186
1.537 -1.442 4.184
1.565 -1.444 4.179
1.592 -1.445 4.174
1.619 -1.446 4.167
1.646 -1.446 4.158
1.673 -1.447 4.151
1.705 -1.452 4.155
1.733 -1.454 4.15
1.76 -1.455 4.143
1.791 -1.458 4.143
1.823 -1.463 4.145
0 0 0
0 0 0
0 0 0
0 0 0
0 0 0
0 0 0
0.514 -0.378 1.037
0.446 -0.324 0.884
0.452 -0.324 0.881
0.517 -0.365 0.992
1.332 -0.924 2.53
1.522 -1.042 2.847
1.68 -1.136 3.094
1.688 -1.127 3.061
1.695 -1.119 3.027
1.692 -1.104 2.976
1.683 -1.085 2.917
1.675 -1.068 2.859
1.653 -1.042 2.779
1.663 -1.036 2.754
-0.12 -0.075 0.194
-0.126 -0.08 0.209
-0.108 -0.07 0.18
-0.103 -0.067 0.173
-0.098 -0.065 0.167
-0.094 -0.063 0.162
-0.086 -0.058 0.149
-0.079 -0.054 0.138
-0.074 -0.052 0.131
-0.066 -0.047 0.119
-0.146 -0.103 0.281
-0.139 -0.1 0.271
-0.133 -0.097 0.263
-0.123 -0.091 0.247
-0.115 -0.086 0.235
-0.108 -0.082 0.224
-0.103 -0.079 0.215
-0.328 -0.253 0.727
-0.549 -0.43 1.25
-0.918 -0.729 2.133
-1.198 -0.965 2.838
-1.543 -1.263 3.725
-1.662 -1.381 4.085
-1.775 -1.498 4.441
-1.742 -1.494 4.44
-1.711 -1.491 4.44
-1.678 -1.488 4.438
-1.645 -1.483 4.431
-1.613 -1.479 4.43
-1.581 -1.475 4.425
-1.549 -1.471 4.421
-1.517 -1.467 4.417
-1.486 -1.464 4.416
-1.456 -1.461 4.415
-1.426 -1.458 4.413
-1.395 -1.455 4.41
-1.365 -1.452 4.408
-1.334 -1.448 4.401
-1.303 -1.444 4.397
-1.273 -1.441 4.394
-1.243 -1.438 4.39
-1.213 -1.434 4.384
-1.184 -1.431 4.382
-1.156 -1.43 4.383
-1.128 -1.429 4.385
-1.102 -1.429 4.391
-1.074 -1.427 4.392
-1.045 -1.425 4.39
-1.016 -1.421 4.383
-0.987 -1.418 4.378
-0.958 -1.414 4.371
-0.931 -1.413 4.371
-0.903 -1.411 4.369
-0.876 -1.41 4.371
-0.848 -1.407 4.366
-0.821 -1.406 4.367
-0.794 -1.405 4.366
-0.767 -1.405 4.368
-0.739 -1.401 4.361
-0.713 -1.4 4.361
-0.685 -1.398 4.358
-0.658 -1.395 4.351
-0.632 -1.395 4.353
-0.604 -1.392 4.348
-0.579 -1.393 4.352
-0.552 -1.391 4.347
-0.526 -1.39 4.349
-0.499 -1.389 4.347
-0.474 -1.392 4.357
-0.447 -1.387 4.345
-0.42 -1.385 4.34
-0.394 -1.384 4.338
-0.368 -1.384 4.338
-0.342 -1.381 4.331
-0.316 -1.38 4.33
-0.29 -1.379 4.326
-0.264 -1.377 4.323
-0.238 -1.376 4.319
-0.212 -1.375 4.316
-0.186 -1.374 4.316
-0.161 -1.374 4.316
-0.135 -1.374 4.315
-0.109 -1.373 4.312
-0.084 -1.374 4.316
-0.058 -1.374 4.315
-0.033 -1.377 4.323
-0.007 -1.376 4.322
0.017 -1.375 4.319
0.043 -1.374 4.314
0.068 -1.373 4.309
0.094 -1.368 4.294
0.119 -1.369 4.298
0.145 -1.369 4.295
0.17 -1.371 4.301
0.196 -1.372 4.302
0.222 -1.373 4.305
0.247 -1.37 4.294
0.272 -1.37 4.291
0.297 -1.368 4.282
0.322 -1.366 4.275
0.347 -1.365 4.27
0.373 -1.368 4.276
0.398 -1.368 4.275
0.423 -1.367 4.269
0.448 -1.366 4.263
0.474 -1.365 4.258
0.499 -1.366 4.26
0.524 -1.365 4.252
0.55 -1.365 4.251
0.576 -1.368 4.257
0.602 -1.369 4.255
0.626 -1.368 4.248
0.654 -1.372 4.259
0.679 -1.372 4.254
0.706 -1.374 4.258
0.732 -1.376 4.26
0.759 -1.378 4.261
0.785 -1.379 4.26
0.812 -1.382 4.265
0.838 -1.383 4.262
0.864 -1.383 4.26
0.888 -1.382 4.25
0.913 -1.38 4.241
0.939 -1.381 4.237
0.964 -1.381 4.231
0.99 -1.381 4.227
1.018 -1.384 4.23
1.044 -1.385 4.229
1.071 -1.386 4.226
1.097 -1.387 4.223
1.124 -1.389 4.223
1.15 -1.39 4.219
1.176 -1.39 4.214
1.204 -1.393 4.215
1.232 -1.395 4.216
1.258 -1.396 4.211
1.286 -1.398 4.208
1.313 -1.399 4.207
1.339 -1.4 4.201
1.366 -1.401 4.197
1.395 -1.404 4.196
1.422 -1.406 4.194
1.451 -1.408 4.194
1.479 -1.41 4.191
1.507 -1.412 4.188
1.534 -1.413 4.184
1.561 -1.414 4.177
1.589 -1.416 4.172
1.616 -1.416 4.165
1.643 -1.417 4.159
1.672 -1.42 4.157
1.704 -1.425 4.161
1.732 -1.427 4.156
1.762 -1.43 4.155
1.794 -1.434 4.157
1.827 -1.439 4.161
0 0 0
0 0 0
0 0 0
0 0 0
0 0 0
0 0 0
0.109 -0.081 0.214
0.103 -0.076 0.199
0.104 -0.076 0.198
0.091 -0.066 0.169
1.129 -0.769 2.147
1.511 -1.016 2.832
1.684 -1.118 3.108
1.691 -1.109 3.074
1.699 -1.101 3.04
1.697 -1.087 2.992
1.687 -1.068 2.929
1.678 -1.05 2.87
1.659 -1.027 2.796
1.68 -1.028 2.789
-0.157 -0.097 0.259
-0.127 -0.079 0.21
-0.126 -0.079 0.211
-0.118 -0.076 0.201
-0.113 -0.073 0.195
-0.109 -0.071 0.19
-0.1 -0.067 0.177
-0.095 -0.064 0.169
-0.088 -0.06 0.158
-0.077 -0.054 0.14
-0.07 -0.049 0.128
-0.06 -0.043 0.111
-0.053 -0.039 0.098
-0.044 -0.033 0.08
-0.036 -0.028 0.065
-0.107 -0.08 0.221
-0.18 -0.136 0.389
-0.403 -0.306 0.901
-0.701 -0.539 1.601
-1.067 -0.831 2.487
-1.346 -1.065 3.198
-1.616 -1.297 3.908
-1.733 -1.413 4.268
-1.771 -1.467 4.442
-1.74 -1.464 4.442
-1.708 -1.461 4.441
-1.676 -1.458 4.44
-1.643 -1.454 4.436
-1.612 -1.451 4.436
-1.58 -1.446 4.431
-1.548 -1.442 4.427
-1.516 -1.438 4.422
-1.485 -1.435 4.42
-1.454 -1.432 4.417
-1.424 -1.429 4.415
-1.393 -1.425 4.411
-1.363 -1.423 4.41
-1.331 -1.418 4.402
-1.302 -1.416 4.402
-1.273 -1.413 4.4
-1.243 -1.41 4.396
-1.213 -1.406 4.39
-1.184 -1.404 4.388
-1.156 -1.402 4.389
-1.128 -1.401 4.392
-1.102 -1.402 4.399
-1.074 -1.401 4.4
-1.045 -1.398 4.397
-1.015 -1.393 4.386
-0.986 -1.39 4.38
-0.957 -1.386 4.374
-0.929 -1.385 4.372
-0.901 -1.382 4.368
-0.875 -1.382 4.372
-0.846 -1.378 4.364
-0.819 -1.378 4.366
-0.793 -1.377 4.369
-0.767 -1.377 4.372
-0.738 -1.374 4.363
-0.712 -1.374 4.367
-0.685 -1.371 4.363
-0.657 -1.368 4.354
-0.631 -1.367 4.354
-0.604 -1.365 4.35
-0.578 -1.365 4.353
-0.55 -1.361 4.344
-0.524 -1.361 4.346
-0.498 -1.362 4.349
-0.474 -1.365 4.36
-0.445 -1.357 4.339
-0.419 -1.355 4.334
-0.393 -1.353 4.329
-0.367 -1.354 4.331
-0.341 -1.352 4.328
-0.315 -1.351 4.327
-0.289 -1.35 4.324
-0.263 -1.349 4.321
-0.237 -1.347 4.317
-0.211 -1.345 4.311
-0.186 -1.345 4.312
-0.16 -1.345 4.311
-0.134 -1.343 4.305
-0.109 -1.343 4.304
-0.083 -1.343 4.306
-0.058 -1.343 4.306
-0.033 -1.348 4.321
-0.007 -1.356 4.345
0.018 -1.356 4.347
0.043 -1.355 4.341
0.069 -1.35 4.326
0.094 -1.341 4.296
0.119 -1.342 4.297
0.144 -1.341 4.292
0.17 -1.343 4.3
0.196 -1.345 4.303
0.222 -1.348 4.312
0.246 -1.343 4.295
0.272 -1.342 4.289
0.296 -1.339 4.279
0.321 -1.338 4.274
0.346 -1.337 4.269
0.373 -1.342 4.283
0.398 -1.341 4.278
0.423 -1.34 4.27
0.448 -1.339 4.264
0.473 -1.338 4.261
0.498 -1.338 4.258
0.523 -1.338 4.253
0.549 -1.338 4.251
0.576 -1.341 4.259
0.6 -1.339 4.249
0.625 -1.338 4.243
0.652 -1.343 4.254
0.677 -1.342 4.248
0.704 -1.346 4.256
0.731 -1.348 4.259
0.759 -1.352 4.268
0.786 -1.356 4.274
0.814 -1.359 4.281
0.84 -1.36 4.278
0.866 -1.36 4.276
0.89 -1.357 4.261
0.913 -1.354 4.246
0.938 -1.354 4.241
0.964 -1.354 4.236
0.99 -1.355 4.232
1.016 -1.356 4.231
1.043 -1.358 4.232
1.07 -1.36 4.23
1.096 -1.36 4.226
1.123 -1.362 4.225
1.149 -1.363 4.221
1.175 -1.363 4.216
1.203 -1.365 4.217
1.231 -1.368 4.218
1.257 -1.368 4.213
1.284 -1.37 4.209
1.311 -1.372 4.208
1.338 -1.372 4.203
1.364 -1.373 4.197
1.393 -1.376 4.198
1.421 -1.378 4.197
1.449 -1.38 4.194
1.476 -1.381 4.19
1.504 -1.383 4.188
1.532 -1.385 4.184
1.559 -1.386 4.179
1.587 -1.388 4.175
1.615 -1.389 4.169
1.642 -1.39 4.164
1.671 -1.392 4.161
1.703 -1.397 4.166
1.732 -1.4 4.163
1.762 -1.403 4.162
1.795 -1.408 4.167
1.833 -1.417 4.183
0 0 0
0 0 0
0 0 0
0 0 0
0 0 0
0 0 0
0 0 0
0.1 -0.073 0.195
0.102 -0.073 0.194
0 0 0
1.03 -0.689 1.962
1.5 -0.989 2.816
1.69 -1.101 3.125
1.696 -1.091 3.088
1.702 -1.082 3.052
1.698 -1.067 3
1.688 -1.049 2.937
1.678 -1.031 2.876
1.664 -1.011 2.81
1.668 -1.002 2.774
-0.185 -0.111 0.308
-0.143 -0.088 0.239
-0.142 -0.088 0.24
-0.131 -0.082 0.225
-0.125 -0.079 0.216
-0.117 -0.075 0.206
-0.106 -0.069 0.189
-0.099 -0.065 0.178
-0.091 -0.061 0.166
-0.079 -0.054 0.144
-0.07 -0.049 0.129
-0.06 -0.042 0.11
-0.052 -0.037 0.096
-0.044 -0.032 0.079
-0.036 -0.027 0.064
-0.187 -0.136 0.397
-0.259 -0.19 0.564
-0.558 -0.415 1.254
-0.853 -0.642 1.955
-1.215 -0.929 2.841
-1.418 -1.1 3.376
-1.686 -1.328 4.087
-1.731 -1.384 4.272
-1.77 -1.438 4.446
-1.738 -1.435 4.447
-1.706 -1.432 4.446
-1.676 -1.43 4.447
-1.642 -1.424 4.44
-1.611 -1.422 4.44
-1.579 -1.418 4.437
-1.547 -1.415 4.433
-1.515 -1.41 4.428
-1.485 -1.408 4.429
-1.454 -1.404 4.424
-1.423 -1.402 4.422
-1.393 -1.399 4.421
-1.364 -1.396 4.42
-1.332 -1.392 4.412
-1.303 -1.39 4.414
-1.273 -1.387 4.409
-1.242 -1.383 4.402
-1.212 -1.379 4.396
-1.183 -1.376 4.393
-1.155 -1.375 4.395
-1.127 -1.374 4.396
-1.101 -1.375 4.405
-1.074 -1.374 4.406
-1.045 -1.371 4.403
-1.014 -1.365 4.389
-0.985 -1.362 4.383
-0.956 -1.359 4.378
-0.929 -1.358 4.38
-0.901 -1.356 4.375
-0.875 -1.356 4.38
-0.846 -1.352 4.37
-0.819 -1.351 4.371
-0.792 -1.35 4.372
-0.766 -1.351 4.378
-0.738 -1.346 4.367
-0.712 -1.347 4.372
-0.684 -1.343 4.364
-0.655 -1.338 4.35
-0.629 -1.337 4.347
-0.601 -1.334 4.341
-0.576 -1.336 4.35
-0.549 -1.333 4.343
-0.523 -1.333 4.343
-0.498 -1.334 4.351
-0.474 -1.341 4.375
-0.444 -1.329 4.336
-0.418 -1.326 4.33
-0.392 -1.325 4.327
-0.366 -1.325 4.329
-0.34 -1.324 4.326
-0.314 -1.324 4.327
-0.288 -1.322 4.324
-0.263 -1.321 4.321
-0.237 -1.32 4.317
-0.211 -1.318 4.31
-0.185 -1.318 4.312
-0.16 -1.317 4.311
-0.134 -1.316 4.306
-0.109 -1.316 4.306
-0.083 -1.317 4.309
-0.058 -1.315 4.302
-0.032 -1.32 4.321
0 0 0
0 0 0
0 0 0
0 0 0
0 0 0
0 0 0
0 0 0
0 0 0
0 0 0
0 0 0
0 0 0
0 0 0
0 0 0
0 0 0
0 0 0
0 0 0
0 0 0
0 0 0
0 0 0
0 0 0
0 0 0
0 0 0
0 0 0
0 0 0
0 0 0
0 0 0
0 0 0
0 0 0
0 0 0
0 0 0
0 0 0
0 0 0
0 0 0
0 0 0
0.873 -1.345 4.315
0.889 -1.331 4.266
0.911 -1.325 4.242
0.936 -1.325 4.237
0.961 -1.325 4.231
0.987 -1.325 4.228
1.015 -1.328 4.231
1.042 -1.331 4.234
1.069 -1.333 4.234
1.096 -1.334 4.231
1.122 -1.335 4.228
1.148 -1.335 4.224
1.174 -1.336 4.219
1.201 -1.338 4.218
1.229 -1.34 4.218
1.255 -1.341 4.214
1.282 -1.342 4.21
1.31 -1.344 4.21
1.336 -1.344 4.204
1.362 -1.345 4.197
1.391 -1.347 4.198
1.418 -1.349 4.195
1.445 -1.35 4.19
1.472 -1.351 4.187
1.501 -1.354 4.185
1.529 -1.356 4.182
1.557 -1.357 4.179
1.584 -1.359 4.175
1.611 -1.36 4.168
1.638 -1.361 4.162
1.668 -1.363 4.16
1.7 -1.368 4.165
1.728 -1.37 4.161
1.758 -1.373 4.161
1.792 -1.379 4.169
1.829 -1.387 4.182
0 0 0
0 0 0
0 0 0
0 0 0
0 0 0
0 0 0
0 0 0
0 0 0
0 0 0
0 0 0
1.256 -0.823 2.399
1.676 -1.084 3.154
1.689 -1.08 3.13
1.695 -1.07 3.092
1.7 -1.061 3.055
1.701 -1.049 3.01
1.69 -1.03 2.946
1.68 -1.012 2.885
1.669 -0.994 2.823
1.659 -0.978 2.766
-0.188 -0.111 0.313
-0.178 -0.106 0.301
-0.147 -0.089 0.251
-0.135 -0.083 0.233
-0.125 -0.078 0.219
-0.118 -0.075 0.208
-0.107 -0.068 0.19
-0.097 -0.063 0.175
-0.09 -0.059 0.164
-0.078 -0.052 0.143
-0.069 -0.047 0.127
-0.057 -0.04 0.105
-0.05 -0.035 0.091
-0.122 -0.085 0.247
-0.195 -0.137 0.408
-0.343 -0.244 0.741
-0.493 -0.354 1.089
-0.867 -0.631 1.958
-1.158 -0.855 2.665
-1.441 -1.079 3.376
-1.641 -1.248 3.915
-1.831 -1.414 4.448
-1.801 -1.413 4.454
-1.768 -1.409 4.45
-1.737 -1.406 4.453
-1.704 -1.403 4.449
-1.673 -1.4 4.45
-1.639 -1.395 4.442
-1.608 -1.392 4.44
-1.576 -1.388 4.436
-1.545 -1.385 4.434
-1.513 -1.381 4.43
-1.482 -1.378 4.426
-1.451 -1.374 4.423
-1.42 -1.371 4.42
-1.39 -1.369 4.42
-1.36 -1.365 4.416
-1.33 -1.363 4.414
-1.303 -1.363 4.42
-1.273 -1.36 4.416
-1.242 -1.356 4.41
-1.212 -1.353 4.405
-1.183 -1.35 4.403
-1.156 -1.349 4.406
-1.127 -1.348 4.405
-1.101 -1.348 4.413
-1.074 -1.347 4.415
-1.046 -1.346 4.415
-1.014 -1.339 4.396
-0.984 -1.335 4.389
-0.956 -1.333 4.387
-0.929 -1.331 4.384
-0.899 -1.327 4.374
-0.873 -1.326 4.376
-0.843 -1.321 4.364
-0.816 -1.32 4.362
-0.792 -1.323 4.378
-0.768 -1.327 4.394
-0.739 -1.322 4.38
0 0 0
0 0 0
0 0 0
0 0 0
0 0 0
0 0 0
0 0 0
0 0 0
0 0 0
0 0 0
-0.439 -1.287 4.29
-0.415 -1.292 4.308
-0.39 -1.293 4.312
-0.364 -1.294 4.319
-0.339 -1.295 4.321
-0.314 -1.296 4.328
-0.288 -1.294 4.322
-0.262 -1.293 4.32
-0.236 -1.292 4.317
-0.21 -1.29 4.31
-0.185 -1.289 4.308
-0.159 -1.29 4.311
-0.134 -1.289 4.308
-0.108 -1.288 4.305
-0.083 -1.29 4.31
-0.057 -1.288 4.306
-0.032 -1.285 4.296
0 0 0
0 0 0
0 0 0
0 0 0
0 0 0
0 0 0
0 0 0
0 0 0
0 0 0
0 0 0
0 0 0
0 0 0
0 0 0
0 0 0
0 0 0
0 0 0
0 0 0
0 0 0
0 0 0
0 0 0
0 0 0
0 0 0
0 0 0
0 0 0
0 0 0
0 0 0
0 0 0
0 0 0
0 0 0
0 0 0
0 0 0
0 0 0
0 0 0
0 0 0
0 0 0
0.879 -1.29 4.224
0.906 -1.292 4.226
0.933 -1.294 4.227
0.958 -1.295 4.224
0.985 -1.296 4.223
1.013 -1.299 4.228
1.04 -1.302 4.23
1.067 -1.304 4.231
1.094 -1.305 4.23
1.12 -1.306 4.225
1.146 -1.306 4.221
1.171 -1.306 4.215
1.199 -1.309 4.216
1.227 -1.311 4.216
1.253 -1.313 4.214
1.28 -1.314 4.211
1.309 -1.317 4.213
1.335 -1.318 4.209
1.361 -1.317 4.201
1.389 -1.319 4.199
1.415 -1.32 4.194
1.442 -1.321 4.189
1.468 -1.322 4.182
1.496 -1.324 4.18
1.524 -1.325 4.176
1.553 -1.328 4.175
1.579 -1.328 4.169
1.606 -1.329 4.163
1.634 -1.331 4.159
1.665 -1.335 4.16
1.693 -1.336 4.155
1.721 -1.338 4.15
1.75 -1.34 4.147
1.78 -1.343 4.147
1.802 -1.34 4.128
0 0 0
0 0 0
0 0 0
0 0 0
0 0 0
0 0 0
0 0 0
0 0 0
0 0 0
0 0 0
0 0 0
1.67 -1.059 3.148
1.682 -1.054 3.123
1.689 -1.046 3.088
1.698 -1.039 3.057
1.697 -1.026 3.009
1.689 -1.01 2.951
1.681 -0.993 2.893
1.679 -0.981 2.846
1.666 -0.963 2.782
-0.175 -0.101 0.292
-0.167 -0.098 0.283
-0.148 -0.088 0.253
-0.137 -0.082 0.237
-0.126 -0.077 0.22
-0.117 -0.072 0.206
-0.104 -0.065 0.185
-0.092 -0.059 0.166
-0.084 -0.054 0.153
-0.072 -0.048 0.132
-0.065 -0.043 0.118
-0.055 -0.037 0.1
-0.048 -0.033 0.087
-0.203 -0.138 0.419
-0.275 -0.189 0.583
-0.502 -0.349 1.092
-0.649 -0.457 1.441
-0.944 -0.674 2.138
-1.081 -0.783 2.493
-1.364 -1.002 3.203
-1.491 -1.112 3.564
-1.684 -1.274 4.097
-1.728 -1.328 4.279
-1.766 -1.379 4.454
-1.735 -1.377 4.456
-1.702 -1.373 4.45
-1.67 -1.37 4.449
-1.636 -1.365 4.442
-1.606 -1.362 4.442
-1.574 -1.358 4.438
-1.543 -1.355 4.436
-1.51 -1.351 4.43
-1.478 -1.347 4.422
-1.446 -1.343 4.416
-1.415 -1.339 4.411
-1.384 -1.336 4.407
-1.355 -1.333 4.406
-1.327 -1.333 4.411
-1.303 -1.336 4.427
-1.275 -1.335 4.431
-1.244 -1.33 4.421
-1.212 -1.326 4.412
-1.181 -1.32 4.4
-1.154 -1.321 4.406
-1.125 -1.318 4.403
-1.1 -1.32 4.413
0 0 0
0 0 0
0 0 0
0 0 0
0 0 0
0 0 0
0 0 0
0 0 0
0 0 0
0 0 0
0 0 0
0 0 0
0 0 0
0 0 0
0 0 0
0 0 0
0 0 0
0 0 0
0 0 0
0 0 0
0 0 0
0 0 0
0 0 0
-0.44 -1.265 4.307
-0.415 -1.266 4.315
-0.389 -1.266 4.314
-0.364 -1.267 4.318
-0.338 -1.267 4.321
-0.313 -1.268 4.325
-0.287 -1.267 4.321
-0.261 -1.266 4.32
-0.236 -1.265 4.318
-0.21 -1.263 4.312
-0.184 -1.262 4.307
-0.159 -1.262 4.308
-0.133 -1.261 4.306
-0.108 -1.261 4.304
-0.083 -1.261 4.306
-0.057 -1.261 4.305
-0.032 -1.259 4.297
0 0 0
0 0 0
0 0 0
0 0 0
0 0 0
0 0 0
0 0 0
0 0 0
0 0 0
0 0 0
0 0 0
0 0 0
0 0 0
0 0 0
0 0 0
0 0 0
0 0 0
0 0 0
0 0 0
0 0 0
0 0 0
0 0 0
0 0 0
0 0 0
0 0 0
0 0 0
0 0 0
0 0 0
0 0 0
0 0 0
0 0 0
0 0 0
0 0 0
0 0 0
0 0 0
0.878 -1.263 4.222
