 -0.374 -1.601 4.009
 -0.35 -1.602 4.014
 -0.33 -1.622 4.066
 -0.304 -1.615 4.049
 -0.278 -1.612 4.042
 -0.254 -1.615 4.051
 -0.23 -1.618 4.06
 -0.205 -1.617 4.058
 -0.179 -1.599 4.013
 -0.157 -1.626 4.083
 -0.129 -1.587 3.983
 -0.107 -1.613 4.05
 -0.082 -1.612 4.048
 -0.058 -1.631 4.096
 -0.033 -1.624 4.079
 -0.009 -1.592 3.998
 0.015 -1.634 4.101
 0.04 -1.633 4.098
 0.064 -1.628 4.085
 0.088 -1.607 4.034
 0.113 -1.616 4.055
 0.138 -1.616 4.055
 0.163 -1.627 4.081
 0.187 -1.617 4.054
 0.209 -1.6 4.011
 0.235 -1.61 4.033
 0.258 -1.604 4.017
 0.288 -1.633 4.087
 0.311 -1.624 4.063
 0.335 -1.622 4.058
 0.356 -1.608 4.019
 0.38 -1.603 4.006
 0.408 -1.62 4.045
 0.431 -1.614 4.028
 0.459 -1.626 4.055
 0.482 -1.622 4.042
 0.5 -1.601 3.986
 0.532 -1.623 4.038
 0.56 -1.632 4.059
 0.576 -1.609 3.997
 0.601 -1.61 3.996
 0.631 -1.626 4.033
 0.649 -1.609 3.987
 0.688 -1.643 4.068
 0.695 -1.603 3.964
 0.727 -1.621 4.004
 0.751 -1.619 3.995
 0.779 -1.625 4.007
 0.798 -1.616 3.978
 0.819 -1.608 3.955
 0.853 -1.626 3.994
 0.876 -1.625 3.986
 0.896 -1.615 3.958
 0.934 -1.64 4.014
 0.948 -1.621 3.962
 0.981 -1.635 3.989
 1.009 -1.641 3.999
 1.025 -1.627 3.959
 1.056 -1.637 3.978
 1.082 -1.638 3.975
 1.118 -1.655 4.009
 1.133 -1.641 3.97
 1.157 -1.64 3.959
 1.187 -1.648 3.972
 1.193 -1.622 3.902
 1.242 -1.654 3.972
 1.252 -1.635 3.92
 1.284 -1.644 3.934
 1.329 -1.669 3.987
 1.324 -1.633 3.891
 1.347 -1.63 3.878
 1.373 -1.632 3.874
 1.403 -1.639 3.882
 1.433 -1.645 3.889
 1.473 -1.662 3.92
 1.497 -1.661 3.91
 1.51 -1.648 3.869
 1.529 -1.642 3.847
 1.54 -1.627 3.802
 1.579 -1.642 3.829
 1.593 -1.632 3.795
 1.616 -1.63 3.781
 1.656 -1.645 3.805
 1.684 -1.648 3.804
 1.7 -1.639 3.773
 1.724 -1.639 3.763
 1.755 -1.646 3.767
 1.781 -1.646 3.758
 1.825 -1.664 3.787
 1.816 -1.633 3.706
 1.768 -1.569 3.549
 1.797 -1.574 3.549
 1.775 -1.534 3.449
 1.81 -1.544 3.461
 1.801 -1.518 3.39
 1.778 -1.479 3.293
 1.83 -1.504 3.338
 1.769 -1.437 3.177
 1.775 -1.424 3.137
 1.789 -1.418 3.113
 1.767 -1.384 3.028
 1.783 -1.381 3.01
 1.749 -1.339 2.907
 1.742 -1.319 2.852
 1.776 -1.329 2.865
 -2.172 -1.618 3.636
 -2.136 -1.61 3.63
 -2.128 -1.623 3.673
 -2.103 -1.624 3.685
 -2.081 -1.626 3.704
 -2.056 -1.627 3.717
 -2.031 -1.627 3.729
 -2.004 -1.626 3.738
 -1.978 -1.625 3.748
 -1.953 -1.625 3.76
 -1.93 -1.628 3.776
 -1.908 -1.631 3.794
 -1.884 -1.632 3.809
 -1.859 -1.633 3.819
 -1.83 -1.63 3.823
 -1.802 -1.627 3.827
 -1.775 -1.626 3.834
 -1.746 -1.622 3.835
 -1.719 -1.621 3.843
 -1.693 -1.62 3.851
 -1.669 -1.622 3.863
 -1.643 -1.62 3.869
 -1.618 -1.621 3.879
 -1.592 -1.62 3.887
 -1.568 -1.622 3.899
 -1.54 -1.619 3.9
 -1.513 -1.617 3.904
 -1.488 -1.617 3.912
 -1.463 -1.617 3.921
 -1.438 -1.618 3.93
 -1.414 -1.619 3.941
 -1.389 -1.619 3.948
 -1.364 -1.619 3.956
 -1.338 -1.618 3.96
 -1.313 -1.618 3.967
 -1.288 -1.619 3.977
 -1.264 -1.62 3.986
 -1.239 -1.62 3.993
 -1.213 -1.62 3.999
 -1.186 -1.617 3.999
 -1.161 -1.616 4.003
 -1.133 -1.614 4.002
 -1.107 -1.612 4.003
 -1.081 -1.61 4.004
 -1.056 -1.611 4.012
 -1.031 -1.61 4.015
 -1.006 -1.611 4.021
 -0.979 -1.608 4.019
 -0.954 -1.608 4.025
 -0.929 -1.607 4.027
 -0.904 -1.607 4.03
 -0.879 -1.607 4.037
 -0.856 -1.61 4.049
 -0.831 -1.61 4.051
 -0.806 -1.61 4.055
 -0.781 -1.61 4.061
 -0.756 -1.609 4.062
 -0.731 -1.61 4.067
 -0.706 -1.611 4.073
 -0.681 -1.611 4.077
 -0.657 -1.611 4.081
 -0.633 -1.616 4.094
 -0.608 -1.616 4.098
 -0.583 -1.616 4.101
 -0.559 -1.617 4.106
 -0.533 -1.614 4.102
 -0.507 -1.612 4.098
 -0.481 -1.61 4.095
 -0.457 -1.61 4.098
 -0.431 -1.608 4.095
 -0.407 -1.611 4.103
 -0.383 -1.613 4.111
 -0.358 -1.614 4.115
 -0.333 -1.614 4.118
 -0.308 -1.616 4.123
 -0.283 -1.616 4.124
 -0.258 -1.613 4.118
 -0.233 -1.612 4.116
 -0.208 -1.612 4.117
 -0.183 -1.612 4.119
 -0.158 -1.612 4.119
 -0.133 -1.612 4.118
 -0.108 -1.614 4.124
 -0.083 -1.613 4.121
 -0.058 -1.612 4.12
 -0.034 -1.614 4.124
 -0.009 -1.617 4.132
 0.015 -1.618 4.133
 0.04 -1.618 4.134
 0.065 -1.618 4.134
 0.09 -1.616 4.125
 0.115 -1.614 4.121
 0.14 -1.612 4.115
 0.164 -1.612 4.113
 0.189 -1.613 4.114
 0.214 -1.612 4.11
 0.239 -1.611 4.108
 0.263 -1.611 4.105
 0.289 -1.612 4.106
 0.313 -1.611 4.103
 0.339 -1.614 4.107
 0.363 -1.613 4.104
 0.389 -1.615 4.106
 0.414 -1.616 4.106
 0.438 -1.616 4.103
 0.463 -1.614 4.097
 0.489 -1.617 4.101
 0.513 -1.617 4.098
 0.538 -1.615 4.09
 0.562 -1.615 4.086
 0.588 -1.617 4.088
 0.612 -1.615 4.08
 0.638 -1.618 4.084
 0.664 -1.619 4.083
 0.689 -1.622 4.086
 0.715 -1.623 4.085
 0.74 -1.623 4.08
 0.763 -1.62 4.07
 0.789 -1.622 4.069
 0.814 -1.622 4.064
 0.838 -1.621 4.058
 0.864 -1.623 4.058
 0.89 -1.625 4.057
 0.915 -1.624 4.049
 0.94 -1.624 4.046
 0.965 -1.625 4.041
 0.99 -1.625 4.036
 1.016 -1.626 4.034
 1.043 -1.63 4.036
 1.069 -1.631 4.033
 1.094 -1.631 4.029
 1.12 -1.633 4.025
 1.146 -1.634 4.022
 1.169 -1.632 4.01
 1.195 -1.633 4.006
 1.221 -1.634 4.001
 1.247 -1.636 3.999
 1.272 -1.635 3.99
 1.301 -1.64 3.994
 1.325 -1.639 3.985
 1.35 -1.639 3.977
 1.374 -1.637 3.964
 1.398 -1.637 3.955
 1.423 -1.637 3.947
 1.45 -1.638 3.942
 1.475 -1.639 3.936
 1.501 -1.64 3.928
 1.525 -1.638 3.915
 1.548 -1.636 3.901
 1.571 -1.634 3.888
 1.596 -1.634 3.878
 1.622 -1.635 3.872
 1.65 -1.638 3.868
 1.674 -1.638 3.858
 1.701 -1.639 3.851
 1.725 -1.638 3.838
 1.748 -1.637 3.825
 1.77 -1.634 3.807
 1.79 -1.629 3.786
 1.801 -1.617 3.745
 1.811 -1.604 3.706
 1.815 -1.586 3.653
 1.815 -1.565 3.594
 1.816 -1.546 3.538
 1.817 -1.527 3.483
 1.817 -1.508 3.428
 1.808 -1.482 3.358
 1.782 -1.442 3.258
 1.775 -1.419 3.195
 1.772 -1.4 3.14
 1.772 -1.383 3.092
 1.77 -1.366 3.042
 1.766 -1.347 2.989
 1.765 -1.33 2.941
 1.762 -1.314 2.893
 1.768 -1.303 2.86
 -2.228 -1.634 3.74
 -2.175 -1.614 3.708
 -2.161 -1.623 3.741
 -2.136 -1.624 3.754
 -2.112 -1.625 3.769
 -2.085 -1.624 3.78
 -2.059 -1.624 3.791
 -2.031 -1.622 3.799
 -2.004 -1.621 3.808
 -1.978 -1.621 3.818
 -1.956 -1.624 3.836
 -1.933 -1.626 3.854
 -1.909 -1.628 3.868
 -1.885 -1.629 3.882
 -1.858 -1.628 3.891
 -1.829 -1.626 3.894
 -1.802 -1.625 3.902
 -1.773 -1.622 3.906
 -1.746 -1.621 3.913
 -1.719 -1.619 3.918
 -1.693 -1.619 3.928
 -1.666 -1.618 3.933
 -1.64 -1.618 3.943
 -1.614 -1.617 3.95
 -1.59 -1.619 3.963
 -1.563 -1.618 3.969
 -1.536 -1.616 3.973
 -1.51 -1.615 3.979
 -1.484 -1.615 3.987
 -1.458 -1.615 3.994
 -1.433 -1.615 4.002
 -1.407 -1.614 4.008
 -1.382 -1.615 4.017
 -1.355 -1.613 4.02
 -1.329 -1.613 4.028
 -1.305 -1.615 4.038
 -1.281 -1.616 4.049
 -1.256 -1.617 4.058
 -1.231 -1.618 4.067
 -1.204 -1.616 4.068
 -1.177 -1.614 4.069
 -1.15 -1.612 4.069
 -1.122 -1.609 4.067
 -1.095 -1.606 4.066
 -1.07 -1.607 4.074
 -1.045 -1.607 4.081
 -1.019 -1.606 4.083
 -0.993 -1.605 4.086
 -0.969 -1.606 4.093
 -0.942 -1.605 4.094
 -0.917 -1.605 4.099
 -0.893 -1.606 4.107
 -0.869 -1.609 4.118
 -0.843 -1.608 4.12
 -0.818 -1.61 4.129
 -0.792 -1.609 4.129
 -0.766 -1.607 4.129
 -0.74 -1.606 4.129
 -0.715 -1.607 4.135
 -0.69 -1.605 4.135
 -0.665 -1.606 4.14
 -0.64 -1.609 4.15
 -0.615 -1.609 4.154
 -0.59 -1.609 4.156
 -0.565 -1.61 4.162
 -0.539 -1.608 4.16
 -0.513 -1.606 4.157
 -0.487 -1.605 4.156
 -0.462 -1.606 4.161
 -0.437 -1.604 4.157
 -0.412 -1.606 4.165
 -0.387 -1.609 4.173
 -0.362 -1.609 4.177
 -0.337 -1.609 4.178
 -0.312 -1.611 4.183
 -0.287 -1.61 4.182
 -0.261 -1.608 4.177
 -0.235 -1.605 4.171
 -0.21 -1.604 4.169
 -0.185 -1.603 4.168
 -0.159 -1.603 4.168
 -0.134 -1.602 4.165
 -0.109 -1.605 4.172
 -0.084 -1.605 4.173
 -0.059 -1.604 4.171
 -0.034 -1.605 4.174
 -0.009 -1.608 4.183
 0.016 -1.61 4.185
 0.041 -1.608 4.181
 0.066 -1.608 4.181
 0.091 -1.606 4.173
 0.116 -1.604 4.169
 0.141 -1.603 4.164
 0.166 -1.603 4.164
 0.191 -1.604 4.165
 0.217 -1.604 4.164
 0.242 -1.605 4.163
 0.267 -1.603 4.159
 0.292 -1.606 4.163
 0.317 -1.607 4.164
 0.343 -1.608 4.164
 0.368 -1.607 4.16
 0.393 -1.609 4.162
 0.418 -1.608 4.159
 0.444 -1.609 4.157
 0.469 -1.609 4.155
 0.495 -1.611 4.159
 0.52 -1.612 4.157
 0.545 -1.61 4.15
 0.569 -1.609 4.143
 0.595 -1.61 4.144
 0.619 -1.609 4.136
 0.646 -1.611 4.139
 0.671 -1.612 4.138
 0.697 -1.614 4.14
 0.723 -1.615 4.136
 0.748 -1.615 4.133
 0.772 -1.613 4.124
 0.798 -1.614 4.123
 0.823 -1.615 4.119
 0.848 -1.615 4.114
 0.874 -1.616 4.111
 0.901 -1.618 4.113
 0.926 -1.618 4.107
 0.952 -1.619 4.106
 0.977 -1.62 4.101
 1.003 -1.62 4.096
 1.028 -1.62 4.09
 1.055 -1.622 4.091
 1.08 -1.623 4.086
 1.107 -1.625 4.084
 1.134 -1.627 4.084
 1.16 -1.629 4.081
 1.185 -1.628 4.073
 1.212 -1.63 4.071
 1.238 -1.632 4.067
 1.265 -1.634 4.066
 1.291 -1.634 4.059
 1.319 -1.637 4.058
 1.343 -1.636 4.049
 1.368 -1.635 4.039
 1.391 -1.633 4.025
 1.416 -1.632 4.015
 1.443 -1.634 4.011
 1.47 -1.636 4.007
 1.496 -1.636 3.998
 1.521 -1.636 3.99
 1.545 -1.635 3.978
 1.568 -1.632 3.962
 1.592 -1.631 3.95
 1.618 -1.631 3.941
 1.645 -1.633 3.936
 1.672 -1.634 3.929
 1.697 -1.634 3.919
 1.722 -1.634 3.908
 1.746 -1.633 3.895
 1.769 -1.63 3.878
 1.789 -1.626 3.857
 1.805 -1.618 3.828
 1.813 -1.603 3.781
 1.822 -1.588 3.736
 1.822 -1.568 3.676
 1.823 -1.548 3.618
 1.825 -1.529 3.564
 1.827 -1.511 3.511
 1.827 -1.493 3.456
 1.813 -1.462 3.375
 1.769 -1.409 3.241
 1.764 -1.388 3.182
 1.765 -1.373 3.136
 1.77 -1.36 3.096
 1.772 -1.346 3.052
 1.772 -1.33 3.006
 1.77 -1.313 2.957
 1.757 -1.289 2.891
 1.777 -1.29 2.882
 -2.258 -1.63 3.802
 -2.239 -1.636 3.827
 -2.197 -1.624 3.814
 -2.17 -1.624 3.824
 -2.144 -1.624 3.838
 -2.117 -1.623 3.847
 -2.09 -1.622 3.858
 -2.06 -1.619 3.863
 -2.033 -1.619 3.873
 -2.006 -1.618 3.884
 -1.981 -1.619 3.897
 -1.957 -1.621 3.913
 -1.934 -1.623 3.929
 -1.907 -1.623 3.939
 -1.881 -1.623 3.95
 -1.856 -1.623 3.962
 -1.828 -1.623 3.97
 -1.801 -1.622 3.978
 -1.775 -1.621 3.986
 -1.747 -1.62 3.993
 -1.72 -1.619 4.001
 -1.693 -1.618 4.006
 -1.665 -1.616 4.013
 -1.639 -1.616 4.02
 -1.612 -1.616 4.028
 -1.585 -1.615 4.035
 -1.558 -1.614 4.041
 -1.532 -1.613 4.047
 -1.506 -1.613 4.055
 -1.479 -1.612 4.062
 -1.454 -1.613 4.071
 -1.426 -1.61 4.072
 -1.4 -1.611 4.081
 -1.372 -1.608 4.083
 -1.347 -1.609 4.09
 -1.322 -1.61 4.099
 -1.298 -1.612 4.112
 -1.273 -1.613 4.121
 -1.247 -1.614 4.13
 -1.22 -1.612 4.132
 -1.193 -1.61 4.134
 -1.164 -1.607 4.13
 -1.136 -1.603 4.127
 -1.11 -1.602 4.131
 -1.085 -1.603 4.138
 -1.058 -1.602 4.142
 -1.033 -1.603 4.149
 -1.006 -1.601 4.149
 -0.981 -1.601 4.153
 -0.954 -1.599 4.153
 -0.928 -1.599 4.159
 -0.903 -1.6 4.165
 -0.879 -1.603 4.178
 -0.853 -1.602 4.179
 -0.828 -1.603 4.187
 -0.801 -1.601 4.185
 -0.775 -1.6 4.185
 -0.748 -1.598 4.184
 -0.723 -1.599 4.191
 -0.698 -1.599 4.193
 -0.672 -1.599 4.198
 -0.648 -1.602 4.207
 -0.622 -1.601 4.209
 -0.596 -1.601 4.21
 -0.57 -1.601 4.212
 -0.545 -1.6 4.212
 -0.518 -1.598 4.209
 -0.493 -1.597 4.211
 -0.467 -1.598 4.214
 -0.441 -1.597 4.213
 -0.416 -1.598 4.219
 -0.391 -1.6 4.225
 -0.366 -1.6 4.226
 -0.34 -1.599 4.227
 -0.315 -1.6 4.229
 -0.289 -1.599 4.228
 -0.263 -1.596 4.222
 -0.237 -1.595 4.219
 -0.212 -1.593 4.216
 -0.186 -1.593 4.215
 -0.161 -1.592 4.215
 -0.135 -1.591 4.212
 -0.11 -1.592 4.215
 -0.085 -1.592 4.215
 -0.059 -1.592 4.216
 -0.034 -1.593 4.217
 -0.009 -1.596 4.224
 0.016 -1.597 4.227
 0.041 -1.596 4.225
 0.067 -1.595 4.22
 0.092 -1.593 4.214
 0.117 -1.592 4.21
 0.142 -1.591 4.207
 0.168 -1.591 4.207
 0.193 -1.593 4.21
 0.219 -1.593 4.209
 0.244 -1.593 4.207
 0.269 -1.591 4.201
 0.295 -1.593 4.204
 0.32 -1.593 4.203
 0.346 -1.595 4.205
 0.371 -1.594 4.202
 0.397 -1.596 4.205
 0.422 -1.596 4.203
 0.448 -1.597 4.201
 0.473 -1.597 4.199
 0.499 -1.6 4.205
 0.525 -1.6 4.201
 0.55 -1.599 4.196
 0.575 -1.598 4.19
 0.601 -1.6 4.19
 0.626 -1.598 4.184
 0.652 -1.601 4.188
 0.678 -1.603 4.189
 0.705 -1.605 4.191
 0.73 -1.606 4.189
 0.756 -1.606 4.184
 0.781 -1.605 4.178
 0.807 -1.606 4.175
 0.832 -1.606 4.17
 0.857 -1.606 4.166
 0.883 -1.607 4.163
 0.91 -1.609 4.164
 0.936 -1.609 4.159
 0.962 -1.611 4.158
 0.987 -1.61 4.151
 1.013 -1.611 4.147
 1.038 -1.611 4.14
 1.065 -1.613 4.14
 1.09 -1.612 4.132
 1.117 -1.614 4.131
 1.145 -1.617 4.131
 1.171 -1.618 4.129
 1.197 -1.619 4.123
 1.225 -1.621 4.123
 1.252 -1.624 4.122
 1.28 -1.626 4.12
 1.305 -1.626 4.112
 1.333 -1.628 4.111
 1.359 -1.629 4.105
 1.385 -1.629 4.097
 1.408 -1.627 4.083
 1.435 -1.627 4.076
 1.461 -1.627 4.068
 1.488 -1.629 4.063
 1.513 -1.629 4.054
 1.539 -1.629 4.047
 1.565 -1.629 4.037
 1.59 -1.628 4.026
 1.615 -1.628 4.015
 1.641 -1.628 4.007
 1.669 -1.63 4.002
 1.695 -1.631 3.993
 1.72 -1.63 3.98
 1.745 -1.629 3.969
 1.766 -1.626 3.95
 1.786 -1.62 3.925
 1.803 -1.613 3.898
 1.817 -1.602 3.861
 1.822 -1.585 3.808
 1.83 -1.57 3.761
 1.832 -1.552 3.706
 1.834 -1.533 3.65
 1.839 -1.517 3.6
 1.842 -1.5 3.55
 1.843 -1.482 3.494
 1.824 -1.449 3.405
 1.751 -1.373 3.216
 1.75 -1.356 3.165
 1.757 -1.345 3.129
 1.767 -1.336 3.098
 1.771 -1.324 3.06
 1.772 -1.309 3.014
 1.771 -1.293 2.966
 1.748 -1.262 2.884
 1.765 -1.261 2.869
 -2.282 -1.621 3.852
 -2.235 -1.607 3.83
 -2.232 -1.624 3.885
 -2.203 -1.622 3.893
 -2.174 -1.62 3.9
 -2.148 -1.62 3.914
 -2.12 -1.619 3.923
 -2.088 -1.615 3.926
 -2.061 -1.615 3.938
 -2.035 -1.615 3.949
 -2.007 -1.614 3.958
 -1.982 -1.615 3.973
 -1.959 -1.618 3.989
 -1.932 -1.618 4.001
 -1.907 -1.619 4.015
 -1.882 -1.62 4.027
 -1.855 -1.62 4.038
 -1.829 -1.62 4.049
 -1.802 -1.619 4.057
 -1.774 -1.619 4.065
 -1.747 -1.618 4.072
 -1.718 -1.616 4.078
 -1.689 -1.614 4.081
 -1.662 -1.613 4.087
 -1.635 -1.612 4.094
 -1.609 -1.612 4.104
 -1.581 -1.611 4.11
 -1.554 -1.61 4.115
 -1.527 -1.609 4.122
 -1.5 -1.608 4.127
 -1.472 -1.607 4.133
 -1.444 -1.604 4.133
 -1.418 -1.605 4.141
 -1.39 -1.603 4.144
 -1.363 -1.602 4.15
 -1.338 -1.603 4.159
 -1.313 -1.605 4.17
 -1.288 -1.606 4.181
 -1.262 -1.607 4.189
 -1.235 -1.606 4.194
 -1.208 -1.604 4.194
 -1.18 -1.602 4.194
 -1.151 -1.599 4.192
 -1.125 -1.598 4.196
 -1.098 -1.597 4.198
 -1.071 -1.596 4.202
 -1.045 -1.596 4.206
 -1.018 -1.595 4.208
 -0.992 -1.594 4.213
 -0.966 -1.593 4.214
 -0.94 -1.593 4.218
 -0.914 -1.593 4.224
 -0.889 -1.595 4.233
 -0.861 -1.592 4.23
 -0.836 -1.593 4.237
 -0.809 -1.592 4.236
 -0.782 -1.59 4.235
 -0.756 -1.588 4.234
 -0.731 -1.59 4.242
 -0.704 -1.588 4.242
 -0.678 -1.588 4.243
 -0.653 -1.589 4.249
 -0.626 -1.588 4.249
 -0.6 -1.587 4.25
 -0.575 -1.587 4.252
 -0.548 -1.586 4.252
 -0.522 -1.584 4.25
 -0.496 -1.584 4.251
 -0.47 -1.584 4.253
 -0.445 -1.583 4.253
 -0.419 -1.583 4.256
 -0.394 -1.584 4.26
 -0.368 -1.585 4.263
 -0.342 -1.583 4.259
 -0.316 -1.582 4.259
 -0.29 -1.582 4.261
 -0.264 -1.581 4.257
 -0.239 -1.579 4.254
 -0.213 -1.578 4.251
 -0.187 -1.577 4.249
 -0.162 -1.576 4.248
 -0.136 -1.575 4.245
 -0.11 -1.575 4.245
 -0.085 -1.575 4.247
 -0.059 -1.576 4.248
 -0.034 -1.576 4.247
 -0.008 -1.577 4.25
 0.016 -1.578 4.252
 0.042 -1.577 4.25
 0.067 -1.576 4.247
 0.092 -1.574 4.242
 0.118 -1.574 4.24
 0.143 -1.574 4.239
 0.169 -1.574 4.239
 0.195 -1.576 4.242
 0.22 -1.576 4.241
 0.245 -1.576 4.238
 0.271 -1.575 4.235
 0.297 -1.577 4.239
 0.322 -1.577 4.237
 0.348 -1.579 4.239
 0.374 -1.58 4.239
 0.399 -1.58 4.238
 0.425 -1.58 4.234
 0.45 -1.58 4.232
 0.475 -1.579 4.229
 0.502 -1.581 4.23
 0.527 -1.581 4.228
 0.553 -1.581 4.224
 0.578 -1.581 4.22
 0.604 -1.582 4.22
 0.629 -1.581 4.214
 0.655 -1.583 4.216
 0.682 -1.585 4.218
 0.708 -1.588 4.22
 0.735 -1.589 4.22
 0.761 -1.591 4.221
 0.787 -1.592 4.219
 0.813 -1.592 4.213
 0.838 -1.591 4.208
 0.864 -1.591 4.203
 0.89 -1.592 4.201
 0.917 -1.595 4.202
 0.943 -1.595 4.198
 0.97 -1.598 4.201
 0.996 -1.598 4.196
 1.022 -1.599 4.192
 1.048 -1.599 4.185
 1.074 -1.6 4.183
 1.1 -1.6 4.175
 1.127 -1.601 4.174
 1.154 -1.603 4.172
 1.18 -1.605 4.169
 1.208 -1.607 4.167
 1.235 -1.609 4.166
 1.263 -1.611 4.164
 1.29 -1.613 4.163
 1.316 -1.613 4.155
 1.345 -1.616 4.156
 1.372 -1.618 4.152
 1.398 -1.618 4.145
 1.424 -1.618 4.136
 1.451 -1.619 4.131
 1.477 -1.619 4.122
 1.505 -1.621 4.119
 1.531 -1.622 4.112
 1.558 -1.623 4.105
 1.586 -1.624 4.1
 1.611 -1.624 4.089
 1.638 -1.624 4.08
 1.663 -1.624 4.07
 1.691 -1.625 4.063
 1.715 -1.624 4.05
 1.739 -1.622 4.035
 1.763 -1.62 4.02
 1.784 -1.615 3.998
 1.8 -1.607 3.966
 1.814 -1.597 3.93
 1.825 -1.584 3.887
 1.828 -1.565 3.829
 1.835 -1.549 3.781
 1.839 -1.532 3.727
 1.843 -1.515 3.675
 1.852 -1.503 3.635
 1.861 -1.491 3.594
 1.863 -1.474 3.542
 0 0 0
 1.714 -1.323 3.157
 1.735 -1.323 3.147
 1.752 -1.32 3.128
 1.763 -1.312 3.099
 1.772 -1.304 3.068
 1.774 -1.29 3.025
 1.774 -1.275 2.979
 1.782 -1.267 2.949
 1.765 -1.241 2.876
 -2.343 -1.638 3.966
 -2.308 -1.632 3.966
 -2.265 -1.62 3.951
 -2.236 -1.619 3.96
 -2.205 -1.616 3.967
 -2.177 -1.616 3.977
 -2.149 -1.614 3.987
 -2.119 -1.613 3.995
 -2.091 -1.611 4.004
 -2.063 -1.611 4.014
 -2.036 -1.611 4.025
 -2.01 -1.612 4.039
 -1.984 -1.612 4.051
 -1.959 -1.613 4.066
 -1.934 -1.615 4.081
 -1.906 -1.614 4.09
 -1.879 -1.614 4.1
 -1.854 -1.615 4.113
 -1.825 -1.614 4.121
 -1.799 -1.614 4.131
 -1.773 -1.615 4.143
 -1.744 -1.614 4.148
 -1.715 -1.612 4.153
 -1.687 -1.61 4.158
 -1.658 -1.608 4.162
 -1.629 -1.606 4.166
 -1.602 -1.606 4.173
 -1.574 -1.604 4.178
 -1.546 -1.603 4.183
 -1.519 -1.602 4.19
 -1.492 -1.602 4.197
 -1.462 -1.599 4.196
 -1.435 -1.598 4.203
 -1.408 -1.597 4.207
 -1.38 -1.596 4.212
 -1.354 -1.596 4.218
 -1.327 -1.596 4.225
 -1.301 -1.596 4.232
 -1.275 -1.597 4.241
 -1.248 -1.597 4.247
 -1.221 -1.595 4.249
 -1.193 -1.593 4.251
 -1.165 -1.591 4.25
 -1.137 -1.589 4.251
 -1.109 -1.586 4.249
 -1.081 -1.584 4.249
 -1.054 -1.583 4.251
 -1.027 -1.582 4.252
 -1 -1.581 4.257
 -0.974 -1.58 4.258
 -0.947 -1.58 4.262
 -0.921 -1.58 4.267
 -0.895 -1.58 4.271
 -0.867 -1.577 4.268
 -0.842 -1.578 4.274
 -0.815 -1.577 4.274
 -0.788 -1.575 4.272
 -0.761 -1.573 4.271
 -0.734 -1.572 4.273
 -0.707 -1.57 4.27
 -0.681 -1.569 4.271
 -0.655 -1.569 4.275
 -0.629 -1.568 4.275
 -0.603 -1.568 4.278
 -0.577 -1.568 4.28
 -0.551 -1.567 4.28
 -0.525 -1.566 4.279
 -0.499 -1.566 4.282
 -0.473 -1.566 4.282
 -0.447 -1.564 4.281
 -0.421 -1.565 4.283
 -0.395 -1.565 4.287
 -0.369 -1.566 4.289
 -0.343 -1.564 4.287
 -0.317 -1.563 4.285
 -0.291 -1.562 4.283
 -0.265 -1.56 4.279
 -0.239 -1.558 4.273
 -0.213 -1.557 4.272
 -0.188 -1.556 4.27
 -0.162 -1.556 4.27
 -0.136 -1.554 4.267
 -0.111 -1.555 4.267
 -0.085 -1.555 4.268
 -0.059 -1.555 4.27
 -0.034 -1.554 4.267
 -0.008 -1.556 4.27
 0.016 -1.556 4.27
 0.042 -1.555 4.267
 0.067 -1.554 4.264
 0.093 -1.554 4.263
 0.118 -1.552 4.258
 0.144 -1.553 4.26
 0.17 -1.554 4.261
 0.195 -1.556 4.265
 0.221 -1.556 4.263
 0.247 -1.557 4.265
 0.272 -1.556 4.26
 0.298 -1.557 4.262
 0.323 -1.557 4.261
 0.349 -1.558 4.261
 0.375 -1.558 4.259
 0.401 -1.559 4.258
 0.426 -1.559 4.255
 0.452 -1.559 4.252
 0.477 -1.559 4.252
 0.503 -1.561 4.253
 0.529 -1.561 4.249
 0.555 -1.561 4.246
 0.58 -1.56 4.242
 0.606 -1.561 4.24
 0.631 -1.561 4.236
 0.658 -1.563 4.238
 0.684 -1.565 4.241
 0.711 -1.568 4.246
 0.738 -1.57 4.247
 0.764 -1.572 4.247
 0.791 -1.573 4.246
 0.817 -1.573 4.241
 0.842 -1.573 4.236
 0.868 -1.572 4.23
 0.894 -1.574 4.229
 0.921 -1.576 4.229
 0.947 -1.576 4.226
 0.975 -1.58 4.229
 1.001 -1.581 4.226
 1.027 -1.581 4.22
 1.054 -1.582 4.217
 1.081 -1.583 4.216
 1.106 -1.582 4.206
 1.133 -1.585 4.206
 1.161 -1.588 4.208
 1.188 -1.588 4.204
 1.216 -1.591 4.203
 1.244 -1.594 4.203
 1.271 -1.595 4.2
 1.298 -1.596 4.196
 1.325 -1.597 4.19
 1.353 -1.6 4.19
 1.381 -1.601 4.186
 1.408 -1.603 4.182
 1.434 -1.603 4.175
 1.462 -1.605 4.171
 1.489 -1.605 4.164
 1.517 -1.607 4.16
 1.544 -1.609 4.155
 1.573 -1.611 4.153
 1.601 -1.613 4.149
 1.628 -1.614 4.141
 1.656 -1.615 4.134
 1.681 -1.615 4.123
 1.708 -1.615 4.115
 1.733 -1.614 4.102
 1.755 -1.61 4.081
 1.778 -1.608 4.064
 1.798 -1.601 4.038
 1.811 -1.591 4
 1.824 -1.579 3.96
 1.836 -1.567 3.919
 1.839 -1.549 3.862
 1.846 -1.533 3.812
 1.85 -1.516 3.759
 1.855 -1.5 3.708
 1.859 -1.485 3.658
 1.865 -1.47 3.61
 0 0 0
 0 0 0
 1.716 -1.303 3.168
 1.737 -1.303 3.157
 1.753 -1.3 3.138
 1.763 -1.291 3.107
 1.772 -1.283 3.076
 1.776 -1.271 3.036
 1.778 -1.258 2.994
 1.758 -1.229 2.916
 1.776 -1.228 2.901
 -2.348 -1.613 3.984
 -2.338 -1.626 4.028
 -2.203 -1.55 3.852
 -2.175 -1.549 3.862
 -2.238 -1.613 4.036
 -2.21 -1.613 4.048
 -2.179 -1.61 4.053
 -2.149 -1.608 4.061
 -2.12 -1.607 4.071
 -2.093 -1.607 4.081
 -2.063 -1.605 4.089
 -2.037 -1.606 4.102
 -2.01 -1.606 4.114
 -1.984 -1.607 4.128
 -1.958 -1.608 4.142
 -1.932 -1.609 4.155
 -1.904 -1.609 4.165
 -1.879 -1.61 4.179
 -1.85 -1.609 4.187
 -1.823 -1.609 4.196
 -1.796 -1.609 4.206
 -1.767 -1.608 4.214
 -1.738 -1.606 4.219
 -1.709 -1.604 4.222
 -1.679 -1.602 4.225
 -1.649 -1.599 4.227
 -1.621 -1.598 4.233
 -1.592 -1.596 4.236
 -1.564 -1.595 4.241
 -1.537 -1.595 4.249
 -1.51 -1.594 4.257
 -1.479 -1.59 4.254
 -1.452 -1.59 4.261
 -1.423 -1.588 4.262
 -1.394 -1.586 4.264
 -1.366 -1.584 4.266
 -1.339 -1.584 4.273
 -1.311 -1.583 4.276
 -1.285 -1.583 4.283
 -1.257 -1.581 4.286
 -1.23 -1.58 4.289
 -1.202 -1.579 4.291
 -1.173 -1.576 4.291
 -1.145 -1.575 4.292
 -1.117 -1.572 4.29
 -1.089 -1.569 4.289
 -1.061 -1.567 4.288
 -1.033 -1.565 4.288
 -1.007 -1.565 4.292
 -0.979 -1.563 4.292
 -0.953 -1.563 4.295
 -0.926 -1.563 4.3
 -0.9 -1.563 4.306
 -0.872 -1.56 4.299
 -0.846 -1.56 4.304
 -0.818 -1.557 4.301
 -0.791 -1.555 4.298
 -0.763 -1.552 4.293
 -0.737 -1.552 4.296
 -0.71 -1.55 4.295
 -0.684 -1.549 4.296
 -0.657 -1.549 4.297
 -0.631 -1.548 4.298
 -0.605 -1.548 4.301
 -0.578 -1.546 4.3
 -0.553 -1.547 4.303
 -0.526 -1.545 4.3
 -0.5 -1.543 4.299
 -0.473 -1.542 4.297
 -0.447 -1.541 4.297
 -0.421 -1.54 4.295
 -0.395 -1.541 4.3
 -0.37 -1.541 4.3
 -0.343 -1.539 4.296
 -0.317 -1.537 4.293
 -0.291 -1.536 4.291
 -0.265 -1.534 4.287
 -0.239 -1.534 4.286
 -0.213 -1.533 4.284
 -0.188 -1.532 4.282
 -0.162 -1.532 4.282
 -0.136 -1.53 4.279
 -0.111 -1.53 4.277
 -0.085 -1.53 4.278
 -0.059 -1.53 4.278
 -0.034 -1.529 4.275
 -0.008 -1.53 4.277
 0.016 -1.53 4.278
 0.042 -1.529 4.275
 0.068 -1.53 4.276
 0.093 -1.53 4.276
 0.119 -1.529 4.271
 0.144 -1.529 4.271
 0.17 -1.53 4.273
 0.196 -1.53 4.273
 0.221 -1.53 4.27
 0.247 -1.531 4.271
 0.272 -1.53 4.268
 0.298 -1.531 4.268
 0.323 -1.531 4.265
 0.349 -1.531 4.263
 0.375 -1.531 4.262
 0.4 -1.532 4.263
 0.426 -1.532 4.26
 0.452 -1.533 4.261
 0.478 -1.535 4.263
 0.504 -1.537 4.266
 0.53 -1.537 4.263
 0.555 -1.537 4.26
 0.581 -1.537 4.256
 0.607 -1.538 4.255
 0.632 -1.537 4.25
 0.659 -1.539 4.252
 0.685 -1.542 4.255
 0.713 -1.545 4.26
 0.739 -1.546 4.261
 0.766 -1.549 4.263
 0.792 -1.549 4.26
 0.817 -1.548 4.253
 0.843 -1.548 4.247
 0.868 -1.547 4.241
 0.894 -1.548 4.237
 0.922 -1.55 4.239
 0.948 -1.552 4.238
 0.976 -1.556 4.243
 1.004 -1.558 4.244
 1.03 -1.559 4.24
 1.056 -1.559 4.235
 1.083 -1.561 4.234
 1.109 -1.56 4.225
 1.136 -1.562 4.224
 1.164 -1.564 4.225
 1.19 -1.565 4.22
 1.219 -1.568 4.222
 1.247 -1.571 4.222
 1.274 -1.573 4.219
 1.302 -1.575 4.218
 1.33 -1.577 4.216
 1.359 -1.58 4.216
 1.387 -1.582 4.214
 1.416 -1.585 4.214
 1.443 -1.586 4.209
 1.471 -1.588 4.205
 1.498 -1.589 4.198
 1.526 -1.59 4.193
 1.553 -1.591 4.187
 1.582 -1.594 4.185
 1.611 -1.597 4.183
 1.639 -1.598 4.178
 1.668 -1.6 4.173
 1.695 -1.601 4.165
 1.722 -1.601 4.156
 1.747 -1.6 4.142
 1.768 -1.595 4.12
 1.79 -1.591 4.099
 1.808 -1.584 4.069
 1.82 -1.572 4.028
 1.832 -1.56 3.987
 1.843 -1.547 3.943
 1.847 -1.529 3.886
 1.852 -1.513 3.834
 1.857 -1.497 3.781
 1.866 -1.485 3.74
 1.871 -1.469 3.688
 0 0 0
 0 0 0
 0 0 0
 0 0 0
 1.737 -1.282 3.165
 1.756 -1.28 3.15
 1.765 -1.272 3.119
 1.775 -1.264 3.088
 1.783 -1.254 3.054
 1.785 -1.241 3.012
 1.776 -1.222 2.953
 1.796 -1.221 2.942
 -2.395 -1.618 4.074
 -2.356 -1.611 4.069
 -1.859 -1.287 3.258
 -1.837 -1.286 3.268
 -1.902 -1.348 3.437
 -1.879 -1.348 3.448
 -1.849 -1.344 3.447
 -1.734 -1.276 3.283
 -1.71 -1.274 3.288
 -1.688 -1.275 3.298
 -1.749 -1.338 3.472
 -1.726 -1.338 3.482
 -1.787 -1.404 3.666
 -1.845 -1.469 3.847
 -1.902 -1.535 4.031
 -1.876 -1.536 4.043
 -1.927 -1.601 4.225
 -1.901 -1.601 4.237
 -1.873 -1.601 4.247
 -1.843 -1.599 4.252
 -1.817 -1.601 4.266
 -1.788 -1.6 4.273
 -1.758 -1.597 4.276
 -1.728 -1.595 4.279
 -1.698 -1.593 4.282
 -1.666 -1.588 4.279
 -1.637 -1.587 4.284
 -1.607 -1.584 4.286
 -1.579 -1.583 4.291
 -1.551 -1.582 4.298
 -1.524 -1.582 4.305
 -1.492 -1.578 4.302
 -1.464 -1.577 4.306
 -1.434 -1.573 4.304
 -1.404 -1.57 4.304
 -1.375 -1.568 4.305
 -1.348 -1.568 4.311
 -1.319 -1.565 4.311
 -1.292 -1.565 4.316
 -1.264 -1.564 4.319
 -1.236 -1.562 4.32
 -1.207 -1.559 4.319
 -1.179 -1.558 4.322
 -1.151 -1.556 4.323
 -1.122 -1.553 4.319
 -1.094 -1.55 4.317
 -1.066 -1.548 4.317
 -1.037 -1.545 4.312
 -1.01 -1.544 4.316
 -0.982 -1.542 4.314
 -0.955 -1.541 4.315
 -0.928 -1.54 4.318
 -0.902 -1.54 4.323
 -0.873 -1.536 4.315
 -0.846 -1.535 4.317
 -0.819 -1.534 4.317
 -0.792 -1.531 4.312
 -0.764 -1.528 4.308
 -0.737 -1.527 4.308
 -0.711 -1.526 4.308
 -0.684 -1.523 4.305
 -0.657 -1.523 4.306
 -0.631 -1.522 4.307
 -0.605 -1.522 4.31
 -0.578 -1.521 4.309
 -0.553 -1.521 4.313
 -0.526 -1.52 4.311
 -0.5 -1.518 4.309
 -0.474 -1.517 4.308
 -0.447 -1.516 4.307
 -0.421 -1.514 4.301
 -0.395 -1.515 4.306
 -0.369 -1.514 4.305
 -0.343 -1.512 4.301
 -0.317 -1.511 4.299
 -0.291 -1.51 4.299
 -0.265 -1.509 4.295
 -0.239 -1.509 4.297
 -0.214 -1.51 4.299
 -0.188 -1.509 4.297
 -0.162 -1.509 4.299
 -0.136 -1.508 4.297
 -0.111 -1.506 4.292
 -0.085 -1.505 4.287
 -0.059 -1.505 4.287
 -0.034 -1.503 4.282
 -0.008 -1.503 4.282
 0.017 -1.503 4.282
 0.042 -1.503 4.281
 0.068 -1.504 4.283
 0.093 -1.505 4.284
 0.119 -1.504 4.282
 0.145 -1.504 4.281
 0.17 -1.505 4.282
 0.196 -1.505 4.281
 0.221 -1.504 4.278
 0.247 -1.505 4.277
 0.272 -1.504 4.274
 0.298 -1.505 4.275
 0.323 -1.504 4.269
 0.349 -1.505 4.271
 0.375 -1.506 4.27
 0.401 -1.507 4.272
 0.426 -1.507 4.271
 0.452 -1.508 4.27
 0.478 -1.508 4.267
 0.504 -1.509 4.267
 0.529 -1.509 4.263
 0.554 -1.508 4.259
 0.58 -1.509 4.258
 0.606 -1.51 4.259
 0.632 -1.511 4.257
 0.659 -1.513 4.259
 0.685 -1.515 4.262
 0.712 -1.518 4.265
 0.739 -1.52 4.268
 0.766 -1.522 4.269
 0.792 -1.523 4.266
 0.817 -1.522 4.26
 0.843 -1.522 4.255
 0.869 -1.522 4.252
 0.895 -1.523 4.249
 0.923 -1.526 4.251
 0.949 -1.527 4.25
 0.978 -1.531 4.255
 1.005 -1.533 4.255
 1.031 -1.534 4.253
 1.058 -1.535 4.249
 1.085 -1.537 4.249
 1.111 -1.537 4.242
 1.139 -1.539 4.242
 1.166 -1.541 4.241
 1.193 -1.542 4.237
 1.221 -1.545 4.239
 1.249 -1.548 4.238
 1.276 -1.549 4.234
 1.304 -1.551 4.233
 1.333 -1.553 4.232
 1.361 -1.556 4.232
 1.39 -1.559 4.231
 1.419 -1.562 4.231
 1.448 -1.564 4.23
 1.476 -1.567 4.229
 1.504 -1.568 4.223
 1.532 -1.57 4.219
 1.56 -1.571 4.214
 1.589 -1.574 4.212
 1.618 -1.576 4.209
 1.646 -1.578 4.204
 1.675 -1.58 4.199
 1.702 -1.58 4.19
 1.728 -1.58 4.18
 1.754 -1.579 4.168
 1.776 -1.575 4.146
 1.798 -1.572 4.127
 1.815 -1.563 4.094
 1.828 -1.552 4.054
 1.841 -1.541 4.014
 1.852 -1.529 3.971
 1.856 -1.511 3.915
 1.863 -1.497 3.866
 1.869 -1.481 3.814
 1.877 -1.468 3.769
 0 0 0
 0 0 0
 0 0 0
 0 0 0
 0 0 0
 1.75 -1.269 3.195
 1.763 -1.263 3.169
 1.773 -1.255 3.139
 1.784 -1.249 3.111
 1.793 -1.24 3.079
 1.794 -1.227 3.036
 1.788 -1.209 2.98
 1.852 -1.238 3.041
 -2.397 -1.592 4.088
 -0.006 -0.005 -0.002
 -1.416 -0.963 2.483
 -1.398 -0.963 2.491
 -1.47 -1.024 2.659
 -1.45 -1.023 2.665
 -1.515 -1.082 2.827
 -1.406 -1.017 2.664
 -1.386 -1.015 2.668
 -1.366 -1.014 2.673
 -1.432 -1.077 2.847
 -1.328 -1.012 2.683
 -1.477 -1.14 3.033
 -1.62 -1.268 3.384
 -1.761 -1.397 3.74
 -1.816 -1.462 3.922
 -1.869 -1.526 4.106
 -1.841 -1.525 4.113
 -1.813 -1.524 4.121
 -1.784 -1.522 4.125
 -1.757 -1.521 4.134
 -1.802 -1.584 4.315
 -1.772 -1.583 4.321
 -1.742 -1.58 4.323
 -1.712 -1.578 4.327
 -1.681 -1.575 4.326
 -1.65 -1.572 4.328
 -1.618 -1.568 4.324
 -1.588 -1.565 4.326
 -1.559 -1.563 4.329
 -1.53 -1.561 4.332
 -1.499 -1.558 4.329
 -1.47 -1.556 4.333
 -1.44 -1.553 4.331
 -1.41 -1.549 4.329
 -1.38 -1.547 4.329
 -1.352 -1.545 4.331
 -1.323 -1.543 4.331
 -1.295 -1.542 4.336
 -1.267 -1.541 4.338
 -1.238 -1.538 4.337
 -1.21 -1.536 4.339
 -1.182 -1.535 4.34
 -1.153 -1.532 4.338
 -1.124 -1.528 4.333
 -1.095 -1.526 4.333
 -1.067 -1.524 4.33
 -1.038 -1.52 4.326
 -1.011 -1.519 4.326
 -0.983 -1.517 4.325
 -0.955 -1.514 4.324
 -0.928 -1.513 4.324
 -0.901 -1.512 4.326
 -0.873 -1.509 4.321
 -0.846 -1.508 4.324
 -0.819 -1.507 4.324
 -0.792 -1.505 4.32
 -0.764 -1.502 4.317
 -0.737 -1.501 4.315
 -0.71 -1.498 4.312
 -0.683 -1.496 4.307
 -0.656 -1.495 4.309
 -0.63 -1.494 4.309
 -0.604 -1.493 4.31
 -0.578 -1.493 4.312
 -0.552 -1.494 4.316
 -0.525 -1.492 4.314
 -0.499 -1.491 4.312
 -0.473 -1.491 4.314
 -0.447 -1.489 4.311
 -0.42 -1.487 4.306
 -0.395 -1.487 4.309
 -0.369 -1.487 4.309
 -0.342 -1.485 4.306
 -0.317 -1.485 4.306
 -0.291 -1.483 4.303
 -0.265 -1.482 4.299
 -0.239 -1.481 4.299
 -0.213 -1.482 4.302
 -0.188 -1.482 4.301
 -0.162 -1.483 4.305
 -0.136 -1.482 4.303
 -0.11 -1.48 4.298
 -0.085 -1.479 4.294
 -0.059 -1.478 4.29
 -0.033 -1.476 4.285
 -0.008 -1.475 4.282
 0.017 -1.475 4.283
 0.042 -1.474 4.279
 0.068 -1.477 4.286
 0.093 -1.478 4.287
 0.119 -1.477 4.286
 0.145 -1.477 4.285
 0.17 -1.478 4.286
 0.196 -1.477 4.282
 0.221 -1.477 4.281
 0.247 -1.478 4.282
 0.272 -1.478 4.28
 0.298 -1.479 4.282
 0.324 -1.479 4.279
 0.349 -1.479 4.278
 0.375 -1.479 4.276
 0.401 -1.48 4.277
 0.426 -1.48 4.273
 0.452 -1.48 4.271
 0.477 -1.48 4.269
 0.503 -1.481 4.269
 0.529 -1.482 4.267
 0.554 -1.482 4.265
 0.58 -1.482 4.261
 0.606 -1.482 4.259
 0.632 -1.483 4.258
 0.658 -1.485 4.26
 0.684 -1.487 4.261
 0.711 -1.49 4.267
 0.738 -1.492 4.27
 0.765 -1.494 4.271
 0.791 -1.495 4.268
 0.817 -1.495 4.264
 0.842 -1.495 4.258
 0.869 -1.495 4.256
 0.895 -1.497 4.255
 0.922 -1.499 4.256
 0.948 -1.5 4.253
 0.977 -1.504 4.26
 1.004 -1.506 4.261
 1.031 -1.508 4.259
 1.058 -1.509 4.257
 1.085 -1.511 4.257
 1.112 -1.512 4.252
 1.139 -1.513 4.25
 1.166 -1.515 4.249
 1.194 -1.516 4.247
 1.222 -1.519 4.247
 1.25 -1.522 4.247
 1.276 -1.522 4.241
 1.304 -1.524 4.239
 1.332 -1.526 4.238
 1.362 -1.53 4.241
 1.389 -1.532 4.238
 1.419 -1.536 4.241
 1.449 -1.539 4.242
 1.478 -1.541 4.24
 1.505 -1.543 4.236
 1.533 -1.544 4.23
 1.561 -1.546 4.226
 1.59 -1.548 4.223
 1.619 -1.551 4.221
 1.647 -1.551 4.214
 1.676 -1.554 4.212
 1.704 -1.555 4.205
 1.732 -1.556 4.197
 1.758 -1.556 4.185
 1.781 -1.553 4.167
 1.803 -1.549 4.145
 1.821 -1.541 4.115
 1.835 -1.531 4.078
 1.849 -1.521 4.04
 1.861 -1.51 3.998
 1.869 -1.496 3.951
 1.877 -1.482 3.903
 1.882 -1.466 3.849
 0 0 0
 0 0 0
 0 0 0
 0 0 0
 0 0 0
 0 0 0
 1.824 -1.301 3.339
 1.809 -1.274 3.26
 1.777 -1.237 3.154
 1.791 -1.232 3.13
 1.804 -1.227 3.106
 1.808 -1.216 3.066
 1.804 -1.199 3.013
 1.774 -1.166 2.919
 -0.028 -0.02 0.035
 -0.041 -0.029 0.059
 -0.974 -0.652 1.709
 -0.961 -0.65 1.711
 -1.038 -0.711 1.878
 -1.021 -0.708 1.876
 -1.091 -0.766 2.038
 -0.989 -0.703 1.874
 -0.972 -0.7 1.872
 -0.957 -0.699 1.873
 -1.029 -0.76 2.046
 -0.929 -0.696 1.876
 -1.08 -0.82 2.219
 -1.311 -1.009 2.742
 -1.534 -1.197 3.265
 -1.671 -1.322 3.617
 -1.803 -1.446 3.969
 -1.853 -1.508 4.149
 -1.823 -1.506 4.153
 -1.793 -1.503 4.156
 -1.765 -1.502 4.162
 -1.811 -1.564 4.345
 -1.78 -1.562 4.35
 -1.749 -1.559 4.351
 -1.72 -1.558 4.355
 -1.687 -1.553 4.352
 -1.656 -1.55 4.351
 -1.624 -1.546 4.349
 -1.593 -1.542 4.348
 -1.563 -1.54 4.348
 -1.533 -1.538 4.351
 -1.503 -1.535 4.351
 -1.474 -1.533 4.352
 -1.444 -1.53 4.351
 -1.414 -1.527 4.351
 -1.384 -1.524 4.35
 -1.355 -1.522 4.351
 -1.325 -1.519 4.349
 -1.297 -1.518 4.352
 -1.268 -1.515 4.349
 -1.238 -1.511 4.345
 -1.208 -1.508 4.342
 -1.18 -1.506 4.342
 -1.151 -1.503 4.34
 -1.123 -1.5 4.338
 -1.095 -1.499 4.339
 -1.067 -1.498 4.34
 -1.038 -1.494 4.336
 -1.011 -1.493 4.335
 -0.982 -1.49 4.331
 -0.955 -1.488 4.331
 -0.927 -1.486 4.33
 -0.9 -1.485 4.332
 -0.873 -1.483 4.329
 -0.846 -1.483 4.334
 -0.82 -1.482 4.334
 -0.792 -1.479 4.329
 -0.764 -1.476 4.326
 -0.737 -1.474 4.322
 -0.71 -1.472 4.318
 -0.682 -1.469 4.313
 -0.656 -1.469 4.316
 -0.63 -1.467 4.314
 -0.603 -1.467 4.315
 -0.577 -1.465 4.314
 -0.551 -1.466 4.319
 -0.525 -1.464 4.315
 -0.498 -1.463 4.315
 -0.472 -1.463 4.316
 -0.446 -1.462 4.315
 -0.42 -1.459 4.308
 -0.394 -1.46 4.313
 -0.368 -1.459 4.311
 -0.342 -1.457 4.307
 -0.316 -1.457 4.308
 -0.29 -1.456 4.305
 -0.264 -1.455 4.303
 -0.239 -1.455 4.304
 -0.213 -1.456 4.307
 -0.187 -1.455 4.305
 -0.162 -1.455 4.306
 -0.136 -1.454 4.303
 -0.11 -1.453 4.3
 -0.084 -1.451 4.295
 -0.059 -1.45 4.292
 -0.033 -1.449 4.289
 -0.008 -1.449 4.287
 0.017 -1.448 4.287
 0.042 -1.447 4.283
 0.068 -1.449 4.286
 0.093 -1.449 4.287
 0.119 -1.448 4.283
 0.144 -1.448 4.281
 0.17 -1.449 4.282
 0.195 -1.448 4.28
 0.221 -1.449 4.281
 0.247 -1.451 4.284
 0.272 -1.451 4.283
 0.298 -1.452 4.285
 0.324 -1.452 4.283
 0.349 -1.453 4.283
 0.375 -1.453 4.28
 0.4 -1.453 4.279
 0.426 -1.452 4.274
 0.451 -1.452 4.273
 0.477 -1.453 4.272
 0.503 -1.454 4.272
 0.529 -1.455 4.272
 0.555 -1.456 4.272
 0.58 -1.455 4.266
 0.605 -1.455 4.262
 0.631 -1.456 4.26
 0.657 -1.457 4.26
 0.683 -1.459 4.262
 0.71 -1.461 4.267
 0.737 -1.464 4.27
 0.764 -1.466 4.273
 0.79 -1.467 4.271
 0.816 -1.468 4.268
 0.842 -1.467 4.262
 0.868 -1.468 4.26
 0.894 -1.469 4.258
 0.921 -1.471 4.257
 0.947 -1.471 4.254
 0.975 -1.475 4.259
 1.003 -1.477 4.261
 1.03 -1.479 4.26
 1.056 -1.48 4.258
 1.084 -1.483 4.259
 1.111 -1.484 4.257
 1.138 -1.486 4.255
 1.166 -1.488 4.255
 1.193 -1.49 4.254
 1.221 -1.492 4.253
 1.25 -1.495 4.254
 1.276 -1.495 4.247
 1.304 -1.497 4.246
 1.332 -1.499 4.246
 1.362 -1.503 4.249
 1.389 -1.505 4.245
 1.419 -1.509 4.248
 1.448 -1.512 4.248
 1.477 -1.514 4.248
 1.505 -1.516 4.244
 1.533 -1.517 4.237
 1.561 -1.518 4.232
 1.589 -1.52 4.229
 1.617 -1.522 4.224
 1.645 -1.523 4.218
 1.675 -1.526 4.216
 1.704 -1.528 4.212
 1.731 -1.529 4.205
 1.759 -1.53 4.197
 1.783 -1.527 4.179
 1.805 -1.523 4.158
 1.823 -1.517 4.13
 1.839 -1.508 4.095
 1.856 -1.5 4.063
 1.87 -1.491 4.027
 1.884 -1.482 3.991
 1.896 -1.471 3.95
 0 0 0
 0 0 0
 0 0 0
 0 0 0
 0 0 0
 0 0 0
 0 0 0
 1.916 -1.342 3.514
 1.825 -1.263 3.297
 1.79 -1.224 3.183
 1.802 -1.218 3.157
 1.816 -1.214 3.133
 1.819 -1.202 3.091
 0 0 0
 0 0 0
 -0.058 -0.039 0.087
 -0.042 -0.029 0.06
 -0.528 -0.347 0.922
 -0.517 -0.345 0.917
 -0.598 -0.403 1.08
 -0.587 -0.401 1.077
 -0.662 -0.457 1.235
 -0.564 -0.394 1.066
 -0.552 -0.391 1.059
 -0.541 -0.388 1.055
 -0.616 -0.448 1.222
 -0.52 -0.383 1.046
 -0.759 -0.567 1.56
 -1.075 -0.813 2.252
 -1.382 -1.059 2.947
 -1.522 -1.183 3.301
 -1.734 -1.366 3.824
 -1.783 -1.426 4.002
 -1.755 -1.424 4.006
 -1.726 -1.421 4.007
 -1.771 -1.48 4.184
 -1.815 -1.54 4.365
 -1.784 -1.537 4.367
 -1.752 -1.534 4.366
 -1.722 -1.532 4.369
 -1.69 -1.528 4.368
 -1.658 -1.525 4.367
 -1.626 -1.52 4.363
 -1.595 -1.517 4.363
 -1.564 -1.514 4.36
 -1.533 -1.511 4.36
 -1.503 -1.508 4.36
 -1.474 -1.506 4.363
 -1.444 -1.503 4.36
 -1.414 -1.5 4.359
 -1.385 -1.498 4.36
 -1.355 -1.495 4.359
 -1.325 -1.492 4.357
 -1.297 -1.491 4.359
 -1.268 -1.488 4.357
 -1.237 -1.483 4.351
 -1.208 -1.481 4.348
 -1.179 -1.478 4.348
 -1.15 -1.475 4.345
 -1.122 -1.473 4.343
 -1.094 -1.472 4.344
 -1.067 -1.471 4.347
 -1.038 -1.467 4.342
 -1.01 -1.465 4.339
 -0.982 -1.462 4.337
 -0.954 -1.461 4.336
 -0.926 -1.458 4.333
 -0.899 -1.457 4.334
 -0.872 -1.455 4.332
 -0.845 -1.455 4.335
 -0.818 -1.453 4.333
 -0.79 -1.451 4.33
 -0.763 -1.449 4.33
 -0.737 -1.448 4.33
 -0.709 -1.445 4.324
 -0.682 -1.443 4.321
 -0.656 -1.442 4.321
 -0.629 -1.44 4.319
 -0.602 -1.439 4.317
 -0.576 -1.438 4.318
 -0.551 -1.439 4.323
 -0.524 -1.437 4.32
 -0.498 -1.436 4.318
 -0.472 -1.436 4.319
 -0.446 -1.435 4.318
 -0.419 -1.431 4.308
 -0.393 -1.431 4.309
 -0.367 -1.43 4.309
 -0.341 -1.428 4.304
 -0.315 -1.428 4.306
 -0.289 -1.428 4.305
 -0.264 -1.427 4.304
 -0.238 -1.427 4.304
 -0.212 -1.427 4.307
 -0.187 -1.427 4.305
 -0.161 -1.426 4.305
 -0.135 -1.426 4.304
 -0.11 -1.425 4.302
 -0.084 -1.424 4.298
 -0.059 -1.423 4.295
 -0.033 -1.422 4.291
 -0.007 -1.421 4.288
 0.017 -1.42 4.285
 0.042 -1.418 4.278
 0.068 -1.419 4.28
 0.093 -1.42 4.284
 0.119 -1.421 4.284
 0.144 -1.42 4.281
 0.17 -1.422 4.287
 0.195 -1.422 4.286
 0.221 -1.422 4.282
 0.246 -1.422 4.281
 0.272 -1.424 4.285
 0.298 -1.425 4.288
 0.323 -1.425 4.286
 0.349 -1.426 4.286
 0.375 -1.427 4.287
 0.4 -1.426 4.283
 0.425 -1.425 4.278
 0.451 -1.426 4.277
 0.477 -1.427 4.279
 0.502 -1.427 4.275
 0.528 -1.429 4.277
 0.554 -1.429 4.274
 0.579 -1.427 4.266
 0.604 -1.427 4.261
 0.631 -1.429 4.264
 0.657 -1.43 4.266
 0.684 -1.433 4.271
 0.711 -1.436 4.276
 0.737 -1.438 4.277
 0.764 -1.439 4.277
 0.789 -1.439 4.272
 0.815 -1.439 4.267
 0.841 -1.44 4.265
 0.867 -1.44 4.262
 0.893 -1.441 4.26
 0.919 -1.442 4.257
 0.946 -1.443 4.256
 0.973 -1.446 4.258
 1.001 -1.449 4.262
 1.028 -1.451 4.261
 1.055 -1.452 4.259
 1.083 -1.455 4.26
 1.11 -1.456 4.26
 1.137 -1.457 4.256
 1.164 -1.459 4.256
 1.192 -1.462 4.257
 1.22 -1.464 4.255
 1.248 -1.466 4.255
 1.275 -1.467 4.251
 1.303 -1.47 4.251
 1.331 -1.472 4.25
 1.361 -1.476 4.254
 1.389 -1.477 4.251
 1.418 -1.481 4.253
 1.447 -1.483 4.251
 1.476 -1.486 4.251
 1.504 -1.488 4.248
 1.531 -1.489 4.241
 1.559 -1.49 4.237
 1.588 -1.492 4.233
 1.616 -1.494 4.229
 1.643 -1.494 4.221
 1.673 -1.497 4.219
 1.702 -1.499 4.216
 1.73 -1.501 4.209
 1.757 -1.501 4.2
 1.783 -1.501 4.189
 1.806 -1.498 4.169
 1.826 -1.492 4.145
 1.845 -1.486 4.116
 1.864 -1.481 4.09
 1.88 -1.472 4.056
 1.898 -1.466 4.028
 0 0 0
 0 0 0
 0 0 0
 0 0 0
 0 0 0
 0 0 0
 0 0 0
 0 0 0
 1.677 -1.154 3.081
 1.674 -1.139 3.03
 1.798 -1.208 3.205
 1.812 -1.204 3.182
 1.829 -1.201 3.162
 1.735 -1.126 2.955
 0 0 0
 0 0 0
 -0.123 -0.079 0.2
 -0.094 -0.062 0.152
 -0.174 -0.113 0.296
 -0.167 -0.11 0.288
 -0.159 -0.106 0.278
 -0.151 -0.102 0.268
 -0.23 -0.157 0.422
 -0.135 -0.094 0.246
 -0.125 -0.088 0.23
 -0.118 -0.084 0.22
 -0.196 -0.141 0.382
 -0.104 -0.077 0.2
 -0.433 -0.318 0.886
 -0.836 -0.621 1.751
 -1.228 -0.924 2.621
 -1.369 -1.045 2.974
 -1.662 -1.286 3.673
 -1.711 -1.343 3.846
 -1.682 -1.34 3.846
 -1.653 -1.336 3.846
 -1.773 -1.455 4.199
 -1.816 -1.514 4.377
 -1.785 -1.511 4.379
 -1.754 -1.508 4.38
 -1.723 -1.505 4.382
 -1.691 -1.501 4.379
 -1.659 -1.498 4.379
 -1.626 -1.493 4.373
 -1.595 -1.489 4.37
 -1.562 -1.485 4.364
 -1.531 -1.481 4.362
 -1.501 -1.478 4.362
 -1.472 -1.476 4.363
 -1.442 -1.474 4.363
 -1.413 -1.472 4.365
 -1.383 -1.47 4.365
 -1.353 -1.467 4.362
 -1.324 -1.464 4.362
 -1.296 -1.463 4.364
 -1.266 -1.459 4.36
 -1.236 -1.456 4.356
 -1.207 -1.453 4.354
 -1.178 -1.451 4.352
 -1.15 -1.448 4.35
 -1.121 -1.446 4.349
 -1.093 -1.444 4.349
 -1.065 -1.442 4.349
 -1.037 -1.439 4.345
 -1.008 -1.436 4.34
 -0.98 -1.434 4.338
 -0.953 -1.432 4.338
 -0.925 -1.43 4.336
 -0.898 -1.429 4.336
 -0.87 -1.427 4.334
 -0.844 -1.426 4.336
 -0.817 -1.425 4.335
 -0.789 -1.422 4.331
 -0.762 -1.421 4.332
 -0.736 -1.42 4.333
 -0.708 -1.418 4.327
 -0.681 -1.415 4.323
 -0.655 -1.415 4.326
 -0.628 -1.413 4.322
 -0.602 -1.411 4.32
 -0.576 -1.412 4.322
 -0.55 -1.412 4.327
 -0.524 -1.411 4.326
 -0.498 -1.411 4.327
 -0.472 -1.41 4.327
 -0.446 -1.409 4.324
 -0.418 -1.405 4.314
 -0.392 -1.403 4.309
 -0.366 -1.402 4.308
 -0.34 -1.4 4.304
 -0.315 -1.401 4.306
 -0.289 -1.4 4.306
 -0.263 -1.401 4.308
 -0.238 -1.4 4.307
 -0.212 -1.401 4.31
 -0.186 -1.399 4.305
 -0.161 -1.398 4.304
 -0.135 -1.399 4.306
 -0.11 -1.398 4.304
 -0.084 -1.397 4.3
 -0.058 -1.397 4.3
 -0.033 -1.396 4.297
 -0.007 -1.394 4.29
 0.017 -1.393 4.288
 0.042 -1.391 4.279
 0.068 -1.391 4.28
 0.093 -1.393 4.286
 0.119 -1.394 4.286
 0.144 -1.393 4.284
 0.17 -1.395 4.289
 0.196 -1.396 4.291
 0.221 -1.395 4.286
 0.246 -1.395 4.286
 0.272 -1.397 4.29
 0.298 -1.399 4.294
 0.324 -1.4 4.293
 0.349 -1.401 4.295
 0.375 -1.402 4.295
 0.4 -1.4 4.29
 0.425 -1.399 4.284
 0.451 -1.399 4.281
 0.477 -1.401 4.283
 0.502 -1.4 4.277
 0.528 -1.402 4.281
 0.554 -1.402 4.278
 0.578 -1.4 4.269
 0.603 -1.399 4.262
 0.63 -1.402 4.268
 0.656 -1.403 4.268
 0.683 -1.406 4.273
 0.71 -1.409 4.279
 0.737 -1.411 4.28
 0.763 -1.412 4.279
 0.789 -1.413 4.277
 0.815 -1.413 4.273
 0.841 -1.414 4.273
 0.868 -1.415 4.271
 0.894 -1.416 4.269
 0.918 -1.414 4.259
 0.945 -1.415 4.257
 0.971 -1.417 4.256
 0.999 -1.419 4.258
 1.026 -1.421 4.258
 1.054 -1.424 4.262
 1.082 -1.427 4.263
 1.109 -1.429 4.263
 1.135 -1.429 4.259
 1.163 -1.431 4.258
 1.191 -1.434 4.258
 1.218 -1.436 4.257
 1.247 -1.438 4.258
 1.274 -1.44 4.255
 1.302 -1.442 4.255
 1.33 -1.444 4.253
 1.359 -1.448 4.256
 1.387 -1.449 4.253
 1.416 -1.452 4.255
 1.444 -1.454 4.252
 1.474 -1.457 4.252
 1.501 -1.458 4.248
 1.529 -1.459 4.242
 1.557 -1.461 4.238
 1.586 -1.464 4.236
 1.614 -1.465 4.232
 1.641 -1.466 4.224
 1.671 -1.469 4.223
 1.7 -1.471 4.218
 1.728 -1.471 4.211
 1.755 -1.473 4.204
 1.783 -1.473 4.196
 1.806 -1.471 4.178
 1.829 -1.468 4.16
 1.85 -1.464 4.137
 1.869 -1.458 4.108
 1.884 -1.449 4.074
 0 0 0
 0 0 0
 0 0 0
 0 0 0
 0 0 0
 0 0 0
 0.931 -0.655 1.794
 0.943 -0.655 1.788
 1.167 -0.8 2.181
 1.437 -0.972 2.645
 1.495 -0.999 2.711
 1.803 -1.19 3.221
 1.82 -1.187 3.203
 1.841 -1.187 3.191
 1.574 -1.003 2.685
 0 0 0
 0 0 0
 -0.126 -0.079 0.205
 -0.114 -0.072 0.187
 -0.094 -0.061 0.154
 -0.085 -0.056 0.14
 -0.076 -0.051 0.126
 -0.067 -0.045 0.112
 -0.15 -0.101 0.27
 -0.144 -0.098 0.263
 -0.134 -0.093 0.249
 -0.127 -0.089 0.238
 -0.117 -0.083 0.223
 -0.024 -0.018 0.036
 -0.269 -0.194 0.547
 -0.674 -0.492 1.412
 -1.066 -0.788 2.278
 -1.29 -0.966 2.806
 -1.583 -1.203 3.506
 -1.71 -1.318 3.853
 -1.68 -1.314 3.85
 -1.652 -1.311 3.85
 -1.771 -1.427 4.203
 -1.814 -1.484 4.381
 -1.783 -1.482 4.384
 -1.752 -1.479 4.384
 -1.721 -1.476 4.386
 -1.689 -1.472 4.383
 -1.657 -1.469 4.381
 -1.624 -1.464 4.376
 -1.593 -1.46 4.374
 -1.561 -1.457 4.37
 -1.53 -1.453 4.368
 -1.5 -1.45 4.367
 -1.471 -1.448 4.369
 -1.441 -1.446 4.368
 -1.411 -1.443 4.368
 -1.381 -1.44 4.366
 -1.351 -1.437 4.361
 -1.321 -1.434 4.361
 -1.293 -1.433 4.363
 -1.264 -1.43 4.36
 -1.236 -1.428 4.362
 -1.208 -1.427 4.364
 -1.179 -1.425 4.363
 -1.151 -1.423 4.363
 -1.122 -1.421 4.362
 -1.094 -1.418 4.359
 -1.065 -1.416 4.356
 -1.037 -1.413 4.353
 -1.007 -1.409 4.346
 -0.979 -1.407 4.343
 -0.952 -1.406 4.344
 -0.924 -1.403 4.342
 -0.897 -1.402 4.341
 -0.87 -1.4 4.339
 -0.843 -1.399 4.341
 -0.816 -1.398 4.341
 -0.788 -1.395 4.336
 -0.762 -1.395 4.338
 -0.736 -1.395 4.341
 -0.708 -1.392 4.336
 -0.681 -1.39 4.331
 -0.656 -1.39 4.336
 -0.629 -1.388 4.332
 -0.602 -1.387 4.33
 -0.576 -1.387 4.333
 -0.55 -1.387 4.336
 -0.524 -1.385 4.333
 -0.497 -1.384 4.331
 -0.471 -1.383 4.33
 -0.445 -1.381 4.326
 -0.418 -1.378 4.316
 -0.392 -1.375 4.311
 -0.366 -1.375 4.31
 -0.34 -1.373 4.306
 -0.314 -1.374 4.309
 -0.288 -1.372 4.306
 -0.263 -1.372 4.305
 -0.237 -1.37 4.301
 -0.211 -1.37 4.301
 -0.185 -1.368 4.296
 -0.16 -1.368 4.295
 -0.135 -1.369 4.301
 -0.109 -1.37 4.302
 -0.084 -1.369 4.301
 -0.058 -1.37 4.302
 -0.033 -1.37 4.302
 -0.007 -1.367 4.294
 0.017 -1.367 4.291
 0.043 -1.364 4.282
 0.068 -1.364 4.281
 0.093 -1.366 4.288
 0.119 -1.366 4.288
 0.144 -1.366 4.285
 0.17 -1.368 4.291
 0.195 -1.369 4.292
 0.221 -1.367 4.286
 0.246 -1.368 4.286
 0.272 -1.371 4.294
 0.298 -1.373 4.299
 0.324 -1.375 4.302
 0.35 -1.376 4.303
 0.375 -1.376 4.303
 0.4 -1.374 4.294
 0.425 -1.373 4.287
 0.45 -1.372 4.282
 0.477 -1.374 4.287
 0.502 -1.374 4.283
 0.528 -1.376 4.288
 0.554 -1.377 4.286
 0.578 -1.374 4.275
 0.603 -1.372 4.266
 0.63 -1.376 4.273
 0.656 -1.378 4.275
 0.683 -1.381 4.281
 0.711 -1.384 4.288
 0.737 -1.385 4.288
 0.763 -1.386 4.286
 0.789 -1.386 4.282
 0.814 -1.386 4.278
 0.841 -1.387 4.277
 0.867 -1.388 4.274
 0.893 -1.389 4.273
 0.917 -1.387 4.261
 0.944 -1.388 4.26
 0.97 -1.389 4.257
 0.998 -1.391 4.259
 1.024 -1.393 4.258
 1.052 -1.395 4.259
 1.079 -1.397 4.26
 1.107 -1.4 4.262
 1.133 -1.401 4.258
 1.161 -1.403 4.258
 1.189 -1.405 4.26
 1.217 -1.407 4.258
 1.244 -1.409 4.258
 1.272 -1.411 4.256
 1.3 -1.413 4.255
 1.328 -1.415 4.254
 1.357 -1.418 4.255
 1.384 -1.42 4.252
 1.414 -1.423 4.255
 1.442 -1.425 4.252
 1.471 -1.428 4.251
 1.499 -1.43 4.249
 1.527 -1.431 4.244
 1.555 -1.432 4.24
 1.584 -1.435 4.238
 1.612 -1.436 4.233
 1.639 -1.437 4.226
 1.668 -1.439 4.224
 1.696 -1.441 4.217
 1.725 -1.443 4.213
 1.754 -1.444 4.209
 1.782 -1.446 4.202
 1.807 -1.445 4.189
 1.834 -1.444 4.177
 1.857 -1.442 4.159
 1.876 -1.436 4.132
 0 0 0
 0 0 0
 0 0 0
 0 0 0
 0 0 0
 0 0 0
 0 0 0
 0.931 -0.643 1.798
 0.943 -0.643 1.792
 1.167 -0.785 2.186
 1.378 -0.915 2.543
 1.453 -0.953 2.64
 1.791 -1.161 3.206
 1.81 -1.159 3.191
 1.831 -1.159 3.18
 1.495 -0.936 2.556
 0 0 0
 0.479 -0.295 0.789
 -0.134 -0.083 0.219
 -0.119 -0.074 0.196
 -0.103 -0.065 0.171
 -0.092 -0.059 0.153
 -0.083 -0.054 0.139
 -0.073 -0.048 0.123
 -0.066 -0.044 0.112
 -0.059 -0.04 0.101
 -0.05 -0.035 0.085
 -0.129 -0.089 0.243
 -0.119 -0.083 0.227
 -0.108 -0.077 0.209
 -0.352 -0.249 0.72
 -0.755 -0.54 1.586
 -1.065 -0.772 2.281
 -1.288 -0.947 2.807
 -1.66 -1.237 3.684
 -1.786 -1.351 4.033
 -1.755 -1.347 4.031
 -1.726 -1.344 4.031
 -1.845 -1.459 4.387
 -1.814 -1.456 4.388
 -1.782 -1.453 4.389
 -1.751 -1.45 4.39
 -1.719 -1.447 4.389
 -1.686 -1.442 4.384
 -1.654 -1.438 4.381
 -1.622 -1.435 4.378
 -1.59 -1.431 4.375
 -1.559 -1.427 4.373
 -1.528 -1.424 4.371
 -1.498 -1.422 4.37
 -1.468 -1.419 4.369
 -1.438 -1.416 4.369
 -1.41 -1.415 4.371
 -1.38 -1.413 4.371
 -1.35 -1.409 4.368
 -1.322 -1.408 4.369
 -1.293 -1.406 4.37
 -1.263 -1.402 4.365
 -1.235 -1.401 4.368
 -1.207 -1.4 4.371
 -1.178 -1.398 4.369
 -1.15 -1.396 4.369
 -1.122 -1.394 4.367
 -1.093 -1.391 4.363
 -1.064 -1.387 4.358
 -1.036 -1.385 4.357
 -1.007 -1.382 4.35
 -0.979 -1.38 4.349
 -0.952 -1.379 4.351
 -0.924 -1.377 4.349
 -0.897 -1.376 4.349
 -0.869 -1.373 4.345
 -0.843 -1.373 4.348
 -0.816 -1.371 4.345
 -0.788 -1.368 4.339
 -0.761 -1.368 4.341
 -0.736 -1.368 4.347
 -0.708 -1.365 4.341
 -0.681 -1.363 4.336
 -0.655 -1.363 4.34
 -0.628 -1.361 4.336
 -0.602 -1.361 4.336
 -0.575 -1.36 4.336
 -0.55 -1.361 4.343
 -0.524 -1.36 4.342
 -0.497 -1.358 4.337
 -0.471 -1.356 4.334
 -0.445 -1.355 4.332
 -0.417 -1.351 4.319
 -0.391 -1.348 4.312
 -0.365 -1.347 4.312
 -0.339 -1.345 4.307
 -0.314 -1.346 4.309
 -0.288 -1.345 4.306
 -0.262 -1.344 4.305
 -0.236 -1.343 4.301
 -0.211 -1.342 4.3
 -0.185 -1.34 4.294
 -0.159 -1.34 4.294
 -0.134 -1.341 4.299
 -0.109 -1.342 4.301
 -0.083 -1.342 4.303
 -0.058 -1.343 4.305
 -0.032 -1.344 4.307
 -0.007 -1.342 4.301
 0.017 -1.341 4.298
 0.043 -1.337 4.284
 0.068 -1.336 4.279
 0.093 -1.339 4.288
 0.119 -1.338 4.286
 0.144 -1.337 4.282
 0.17 -1.341 4.292
 0.196 -1.343 4.299
 0.22 -1.34 4.287
 0.246 -1.341 4.288
 0.272 -1.345 4.299
 0.298 -1.347 4.303
 0.324 -1.348 4.305
 0.35 -1.351 4.312
 0.376 -1.352 4.315
 0.401 -1.351 4.307
 0.426 -1.349 4.299
 0.451 -1.347 4.292
 0.477 -1.35 4.297
 0.502 -1.348 4.289
 0.528 -1.35 4.292
 0.554 -1.35 4.288
 0.578 -1.348 4.279
 0.603 -1.346 4.271
 0.63 -1.35 4.279
 0.656 -1.351 4.281
 0.684 -1.355 4.289
 0.711 -1.359 4.296
 0.737 -1.359 4.294
 0.763 -1.359 4.29
 0.789 -1.36 4.288
 0.814 -1.36 4.282
 0.841 -1.362 4.285
 0.867 -1.362 4.279
 0.893 -1.363 4.278
 0.916 -1.359 4.261
 0.942 -1.36 4.258
 0.968 -1.36 4.255
 0.995 -1.362 4.256
 1.022 -1.363 4.254
 1.05 -1.366 4.258
 1.077 -1.369 4.26
 1.105 -1.371 4.261
 1.132 -1.373 4.26
 1.16 -1.375 4.259
 1.187 -1.377 4.258
 1.214 -1.378 4.257
 1.242 -1.38 4.256
 1.27 -1.383 4.257
 1.298 -1.385 4.257
 1.326 -1.387 4.256
 1.355 -1.389 4.256
 1.382 -1.391 4.253
 1.411 -1.394 4.253
 1.439 -1.395 4.25
 1.468 -1.398 4.25
 1.497 -1.401 4.25
 1.526 -1.403 4.248
 1.554 -1.405 4.245
 1.584 -1.408 4.245
 1.611 -1.409 4.239
 1.638 -1.409 4.231
 1.667 -1.411 4.228
 1.695 -1.413 4.222
 1.723 -1.413 4.214
 1.752 -1.416 4.212
 1.78 -1.417 4.205
 1.806 -1.417 4.194
 1.834 -1.418 4.185
 1.86 -1.417 4.173
 0 0 0
 0 0 0
 0 0 0
 0 0 0
 0 0 0
 0 0 0
 0 0 0
 0 0 0
 0.613 -0.417 1.184
 0.621 -0.417 1.18
 0 0 0
 1.063 -0.694 1.964
 1.207 -0.778 2.196
 1.795 -1.141 3.22
 1.816 -1.141 3.208
 1.56 -0.97 2.714
 1.146 -0.705 1.961
 0 0 0
 0.445 -0.269 0.734
 -0.116 -0.07 0.188
 -0.136 -0.083 0.226
 -0.106 -0.066 0.177
 -0.094 -0.059 0.157
 -0.084 -0.054 0.142
 -0.075 -0.048 0.126
 -0.068 -0.045 0.117
 -0.059 -0.04 0.101
 -0.051 -0.035 0.086
 -0.129 -0.087 0.243
 -0.118 -0.081 0.225
 -0.191 -0.132 0.38
 -0.434 -0.301 0.893
 -0.835 -0.586 1.761
 -1.145 -0.814 2.458
 -1.367 -0.986 2.988
 -1.66 -1.214 3.692
 -1.786 -1.325 4.041
 -1.755 -1.321 4.039
 -1.726 -1.319 4.04
 -1.844 -1.43 4.393
 -1.811 -1.426 4.391
 -1.781 -1.424 4.394
 -1.749 -1.421 4.394
 -1.716 -1.417 4.391
 -1.684 -1.413 4.387
 -1.652 -1.41 4.385
