-1.884 -1.626 3.956
-1.854 -1.622 3.958
-1.828 -1.622 3.968
-1.802 -1.623 3.98
-1.777 -1.623 3.991
-1.75 -1.622 3.999
-1.722 -1.621 4.006
-1.696 -1.621 4.016
-1.671 -1.622 4.027
-1.645 -1.622 4.035
-1.619 -1.622 4.045
-1.591 -1.62 4.049
-1.562 -1.617 4.05
-1.534 -1.616 4.054
-1.508 -1.615 4.062
-1.48 -1.613 4.065
-1.457 -1.617 4.081
-1.431 -1.616 4.087
-1.407 -1.619 4.102
-1.382 -1.62 4.112
-1.358 -1.622 4.125
-1.331 -1.621 4.128
-1.307 -1.624 4.143
-1.279 -1.621 4.143
-1.251 -1.618 4.142
-1.225 -1.619 4.149
-1.198 -1.617 4.152
-1.17 -1.614 4.15
-1.143 -1.613 4.153
-1.119 -1.615 4.164
-1.09 -1.611 4.159
-1.064 -1.611 4.164
-1.039 -1.612 4.172
-1.013 -1.612 4.177
-0.987 -1.612 4.182
-0.962 -1.612 4.189
-0.936 -1.613 4.194
-0.91 -1.612 4.197
-0.884 -1.612 4.2
-0.857 -1.61 4.2
-0.831 -1.61 4.204
-0.806 -1.611 4.21
-0.779 -1.609 4.209
-0.754 -1.609 4.214
-0.728 -1.609 4.216
-0.702 -1.608 4.218
-0.676 -1.609 4.223
-0.651 -1.61 4.228
-0.625 -1.61 4.232
-0.6 -1.612 4.238
-0.574 -1.609 4.235
-0.547 -1.607 4.233
-0.521 -1.606 4.23
-0.496 -1.608 4.238
-0.47 -1.606 4.237
-0.444 -1.607 4.242
-0.419 -1.607 4.242
-0.393 -1.607 4.245
-0.367 -1.604 4.237
-0.341 -1.602 4.233
-0.315 -1.603 4.239
-0.289 -1.602 4.236
-0.264 -1.601 4.234
-0.238 -1.6 4.233
-0.213 -1.6 4.233
-0.187 -1.597 4.228
-0.161 -1.598 4.231
-0.136 -1.6 4.234
-0.111 -1.6 4.237
-0.085 -1.6 4.237
-0.06 -1.601 4.238
-0.034 -1.601 4.24
-0.009 -1.6 4.237
0.016 -1.6 4.235
0.041 -1.6 4.235
0.067 -1.599 4.231
0.092 -1.597 4.226
0.118 -1.598 4.227
0.143 -1.596 4.221
0.168 -1.596 4.219
0.194 -1.597 4.22
0.219 -1.597 4.22
0.245 -1.597 4.218
0.27 -1.598 4.22
0.296 -1.598 4.218
0.321 -1.598 4.217
0.346 -1.597 4.212
0.371 -1.597 4.209
0.397 -1.598 4.209
0.422 -1.598 4.206
0.448 -1.597 4.202
0.473 -1.598 4.202
0.499 -1.599 4.201
0.524 -1.599 4.198
0.55 -1.599 4.195
0.576 -1.601 4.197
0.601 -1.601 4.194
0.627 -1.601 4.191
0.652 -1.601 4.187
0.678 -1.603 4.188
0.703 -1.603 4.184
0.729 -1.604 4.183
0.756 -1.606 4.184
0.782 -1.607 4.181
0.807 -1.606 4.175
0.832 -1.606 4.171
0.858 -1.606 4.167
0.883 -1.606 4.162
0.909 -1.607 4.158
0.935 -1.608 4.156
0.961 -1.61 4.155
0.988 -1.611 4.153
1.013 -1.611 4.146
1.04 -1.613 4.147
1.066 -1.614 4.144
1.093 -1.616 4.141
1.119 -1.616 4.136
1.146 -1.618 4.135
1.173 -1.62 4.133
1.2 -1.623 4.134
1.227 -1.624 4.129
1.254 -1.626 4.127
1.281 -1.628 4.125
1.307 -1.629 4.119
1.332 -1.627 4.108
1.358 -1.628 4.103
1.385 -1.629 4.098
1.41 -1.628 4.087
1.437 -1.629 4.082
1.463 -1.631 4.076
1.489 -1.63 4.067
1.515 -1.63 4.058
1.541 -1.631 4.05
1.566 -1.63 4.039
1.592 -1.63 4.031
1.619 -1.632 4.025
1.646 -1.633 4.019
1.674 -1.635 4.014
1.697 -1.632 3.997
1.721 -1.631 3.983
1.739 -1.624 3.955
1.752 -1.612 3.917
1.76 -1.597 3.868
1.769 -1.582 3.822
1.774 -1.565 3.771
1.78 -1.548 3.72
1.782 -1.529 3.663
1.79 -1.516 3.619
1.784 -1.491 3.55
0 0 0
0 0 0
1.647 -1.325 3.123
1.669 -1.326 3.114
1.675 -1.314 3.078
1.681 -1.302 3.04
1.684 -1.289 2.999
1.68 -1.271 2.946
1.672 -1.25 2.887
1.668 -1.233 2.837
1.667 -1.218 2.792
1.667 -1.204 2.75
1.672 -1.195 2.718
-2.22 -1.577 3.747
-2.253 -1.62 3.862
-2.226 -1.619 3.873
-2.198 -1.618 3.884
-2.172 -1.619 3.898
-2.145 -1.618 3.908
-2.119 -1.619 3.923
-2.09 -1.617 3.93
-2.067 -1.619 3.947
-2.04 -1.619 3.959
-2.017 -1.622 3.977
-1.993 -1.624 3.994
-1.965 -1.623 4.003
-1.938 -1.623 4.013
-1.912 -1.623 4.024
-1.881 -1.62 4.027
-1.854 -1.619 4.036
-1.83 -1.621 4.051
-1.803 -1.621 4.061
-1.775 -1.619 4.066
-1.746 -1.617 4.07
-1.721 -1.618 4.084
-1.695 -1.619 4.095
-1.668 -1.618 4.102
-1.642 -1.619 4.112
-1.615 -1.618 4.119
-1.585 -1.615 4.119
-1.556 -1.612 4.12
-1.529 -1.611 4.127
-1.5 -1.609 4.129
-1.475 -1.61 4.139
-1.448 -1.609 4.146
-1.424 -1.612 4.16
-1.398 -1.613 4.169
-1.374 -1.616 4.184
-1.347 -1.615 4.189
-1.322 -1.616 4.199
-1.294 -1.614 4.202
-1.267 -1.613 4.204
-1.24 -1.612 4.209
-1.213 -1.612 4.214
-1.186 -1.61 4.215
-1.158 -1.607 4.215
-1.132 -1.609 4.224
-1.103 -1.605 4.219
-1.077 -1.604 4.222
-1.051 -1.604 4.228
-1.025 -1.605 4.237
-0.999 -1.605 4.241
-0.973 -1.605 4.247
-0.947 -1.606 4.253
-0.92 -1.605 4.254
-0.893 -1.603 4.253
-0.865 -1.599 4.249
-0.839 -1.599 4.253
-0.813 -1.599 4.256
-0.786 -1.597 4.255
-0.76 -1.597 4.259
-0.734 -1.596 4.26
-0.707 -1.595 4.26
-0.681 -1.596 4.264
-0.656 -1.596 4.267
-0.63 -1.596 4.272
-0.604 -1.597 4.278
-0.578 -1.596 4.276
-0.551 -1.594 4.274
-0.525 -1.592 4.271
-0.499 -1.592 4.273
-0.473 -1.591 4.272
-0.447 -1.59 4.273
-0.421 -1.59 4.273
-0.395 -1.59 4.276
-0.369 -1.588 4.272
-0.343 -1.587 4.27
-0.317 -1.588 4.274
-0.291 -1.585 4.268
-0.265 -1.584 4.267
-0.239 -1.583 4.264
-0.213 -1.582 4.262
-0.187 -1.58 4.257
-0.162 -1.582 4.262
-0.136 -1.581 4.262
-0.111 -1.581 4.263
-0.085 -1.581 4.261
-0.06 -1.582 4.265
-0.034 -1.582 4.264
-0.008 -1.581 4.262
0.016 -1.58 4.259
0.042 -1.582 4.262
0.067 -1.579 4.255
0.093 -1.579 4.253
0.118 -1.579 4.253
0.144 -1.578 4.248
0.169 -1.578 4.247
0.195 -1.579 4.25
0.22 -1.578 4.246
0.246 -1.58 4.248
0.272 -1.582 4.252
0.297 -1.581 4.25
0.323 -1.582 4.248
0.348 -1.581 4.244
0.374 -1.58 4.24
0.399 -1.58 4.238
0.424 -1.579 4.233
0.45 -1.579 4.23
0.476 -1.58 4.23
0.501 -1.58 4.228
0.527 -1.58 4.223
0.552 -1.579 4.219
0.578 -1.581 4.22
0.603 -1.58 4.215
0.629 -1.58 4.212
0.655 -1.581 4.211
0.681 -1.584 4.215
0.707 -1.585 4.212
0.734 -1.587 4.214
0.76 -1.588 4.213
0.785 -1.589 4.21
0.811 -1.588 4.205
0.837 -1.589 4.202
0.862 -1.589 4.197
0.888 -1.59 4.195
0.915 -1.591 4.193
0.941 -1.592 4.191
0.968 -1.594 4.189
0.994 -1.596 4.188
1.02 -1.596 4.184
1.046 -1.597 4.179
1.073 -1.598 4.176
1.099 -1.598 4.172
1.125 -1.599 4.168
1.152 -1.6 4.164
1.179 -1.602 4.163
1.207 -1.606 4.165
1.234 -1.607 4.161
1.26 -1.608 4.157
1.288 -1.61 4.156
1.315 -1.612 4.153
1.34 -1.611 4.142
1.367 -1.612 4.138
1.395 -1.615 4.136
1.421 -1.615 4.128
1.447 -1.615 4.121
1.475 -1.617 4.116
1.5 -1.616 4.107
1.526 -1.616 4.098
1.552 -1.617 4.09
1.579 -1.617 4.082
1.605 -1.618 4.074
1.634 -1.62 4.071
1.661 -1.621 4.064
1.69 -1.624 4.061
1.713 -1.621 4.044
1.736 -1.619 4.028
1.752 -1.61 3.995
1.763 -1.597 3.952
1.77 -1.58 3.9
1.778 -1.565 3.852
1.781 -1.546 3.793
1.785 -1.528 3.74
1.792 -1.514 3.693
1.801 -1.5 3.65
0 0 0
0 0 0
0 0 0
1.658 -1.312 3.151
1.674 -1.308 3.131
1.678 -1.295 3.09
1.683 -1.283 3.051
1.687 -1.271 3.012
1.682 -1.252 2.957
1.675 -1.233 2.9
1.672 -1.216 2.851
1.671 -1.202 2.807
1.659 -1.179 2.744
1.671 -1.175 2.723
-2.359 -1.648 3.993
-2.301 -1.627 3.953
-2.258 -1.616 3.94
-2.229 -1.614 3.949
-2.204 -1.615 3.964
-2.087 -1.549 3.813
-2.063 -1.55 3.828
-2.037 -1.55 3.838
-2.013 -1.552 3.855
-1.985 -1.55 3.862
-2.042 -1.615 4.036
-2.015 -1.615 4.048
-1.986 -1.614 4.056
-1.96 -1.614 4.068
-1.936 -1.617 4.086
-1.91 -1.617 4.097
-1.883 -1.618 4.109
-1.858 -1.619 4.123
-1.83 -1.618 4.131
-1.8 -1.616 4.135
-1.771 -1.613 4.138
-1.745 -1.615 4.151
-1.72 -1.616 4.164
-1.692 -1.615 4.17
-1.664 -1.614 4.177
-1.636 -1.613 4.184
-1.605 -1.609 4.181
-1.575 -1.605 4.18
-1.547 -1.604 4.186
-1.52 -1.603 4.192
-1.494 -1.605 4.203
-1.468 -1.605 4.212
-1.443 -1.607 4.226
-1.417 -1.608 4.235
-1.391 -1.609 4.246
-1.364 -1.608 4.249
-1.337 -1.608 4.258
-1.309 -1.606 4.26
-1.281 -1.605 4.262
-1.254 -1.604 4.266
-1.226 -1.603 4.269
-1.198 -1.6 4.269
-1.17 -1.598 4.268
-1.143 -1.598 4.275
-1.115 -1.596 4.274
-1.087 -1.594 4.274
-1.061 -1.594 4.281
-1.036 -1.595 4.289
-1.009 -1.594 4.291
-0.982 -1.594 4.296
-0.956 -1.594 4.301
-0.928 -1.593 4.301
-0.901 -1.59 4.299
-0.873 -1.587 4.295
-0.846 -1.586 4.297
-0.819 -1.586 4.299
-0.792 -1.584 4.298
-0.765 -1.583 4.298
-0.739 -1.581 4.298
-0.712 -1.579 4.295
-0.685 -1.578 4.297
-0.659 -1.577 4.297
-0.633 -1.578 4.302
-0.607 -1.578 4.305
-0.58 -1.577 4.304
-0.554 -1.577 4.307
-0.528 -1.575 4.304
-0.501 -1.574 4.303
-0.475 -1.573 4.302
-0.449 -1.572 4.302
-0.422 -1.57 4.297
-0.396 -1.57 4.299
-0.37 -1.569 4.297
-0.344 -1.567 4.295
-0.318 -1.567 4.296
-0.292 -1.564 4.29
-0.266 -1.563 4.288
-0.24 -1.561 4.283
-0.214 -1.559 4.278
-0.188 -1.557 4.274
-0.162 -1.558 4.277
-0.137 -1.558 4.278
-0.111 -1.559 4.279
-0.085 -1.559 4.28
-0.06 -1.56 4.283
-0.034 -1.56 4.283
-0.008 -1.559 4.28
0.016 -1.559 4.278
0.042 -1.56 4.28
0.068 -1.557 4.273
0.093 -1.557 4.272
0.119 -1.557 4.27
0.144 -1.556 4.267
0.17 -1.555 4.263
0.195 -1.556 4.265
0.221 -1.555 4.262
0.247 -1.557 4.264
0.272 -1.557 4.264
0.298 -1.558 4.263
0.324 -1.559 4.264
0.349 -1.558 4.259
0.374 -1.557 4.255
0.4 -1.557 4.253
0.425 -1.557 4.25
0.451 -1.556 4.246
0.476 -1.556 4.242
0.502 -1.556 4.239
0.527 -1.556 4.235
0.553 -1.556 4.232
0.579 -1.557 4.233
0.605 -1.559 4.234
0.63 -1.558 4.23
0.656 -1.56 4.23
0.683 -1.562 4.233
0.709 -1.562 4.23
0.735 -1.564 4.23
0.761 -1.566 4.23
0.787 -1.566 4.225
0.813 -1.566 4.221
0.839 -1.567 4.219
0.865 -1.567 4.216
0.891 -1.569 4.216
0.918 -1.571 4.216
0.944 -1.572 4.213
0.971 -1.573 4.212
0.998 -1.575 4.212
1.024 -1.576 4.208
1.051 -1.578 4.206
1.078 -1.579 4.204
1.104 -1.579 4.198
1.13 -1.579 4.193
1.156 -1.58 4.187
1.182 -1.581 4.183
1.21 -1.583 4.182
1.236 -1.584 4.178
1.264 -1.586 4.176
1.292 -1.588 4.175
1.319 -1.591 4.173
1.346 -1.591 4.168
1.374 -1.594 4.166
1.401 -1.596 4.163
1.428 -1.596 4.157
1.455 -1.597 4.151
1.483 -1.599 4.147
1.509 -1.599 4.138
1.535 -1.6 4.131
1.562 -1.6 4.123
1.588 -1.6 4.115
1.614 -1.601 4.106
1.643 -1.603 4.102
1.669 -1.603 4.092
1.697 -1.605 4.089
1.721 -1.603 4.073
1.744 -1.6 4.055
1.76 -1.591 4.021
1.773 -1.58 3.983
1.782 -1.565 3.934
1.791 -1.551 3.888
1.797 -1.534 3.836
1.808 -1.523 3.797
1.812 -1.505 3.741
1.823 -1.494 3.704
0 0 0
0 0 0
0 0 0
1.653 -1.287 3.15
1.667 -1.282 3.126
1.674 -1.272 3.091
1.68 -1.26 3.054
1.686 -1.25 3.018
1.683 -1.232 2.965
1.677 -1.214 2.91
1.672 -1.196 2.857
1.672 -1.182 2.814
1.662 -1.163 2.757
1.662 -1.149 2.714
-2.328 -1.6 3.951
-2.324 -1.616 4.003
-2.291 -1.612 4.007
-2.262 -1.611 4.017
-2.235 -1.611 4.031
-2.119 -1.547 3.881
-2.004 -1.481 3.727
-1.979 -1.481 3.739
-1.957 -1.483 3.756
-1.931 -1.483 3.766
-1.988 -1.547 3.939
-2.046 -1.613 4.121
-2.017 -1.612 4.13
-1.989 -1.611 4.139
-1.964 -1.613 4.155
-1.938 -1.614 4.169
-1.912 -1.615 4.181
-1.884 -1.615 4.19
-1.855 -1.613 4.197
-1.824 -1.61 4.199
-1.793 -1.607 4.2
-1.766 -1.607 4.211
-1.74 -1.608 4.224
-1.713 -1.608 4.232
-1.685 -1.607 4.24
-1.657 -1.607 4.248
-1.627 -1.603 4.247
-1.597 -1.601 4.249
-1.569 -1.6 4.255
-1.541 -1.599 4.26
-1.515 -1.6 4.271
-1.487 -1.599 4.278
-1.46 -1.599 4.286
-1.433 -1.599 4.292
-1.407 -1.6 4.301
-1.378 -1.597 4.302
-1.35 -1.597 4.308
-1.323 -1.596 4.313
-1.294 -1.594 4.314
-1.266 -1.593 4.317
-1.238 -1.591 4.319
-1.21 -1.589 4.32
-1.181 -1.586 4.317
-1.154 -1.586 4.322
-1.125 -1.583 4.321
-1.098 -1.582 4.324
-1.071 -1.582 4.329
-1.044 -1.582 4.334
-1.017 -1.581 4.336
-0.989 -1.579 4.335
-0.961 -1.577 4.334
-0.933 -1.574 4.331
-0.905 -1.571 4.328
-0.877 -1.569 4.325
-0.85 -1.569 4.329
-0.823 -1.567 4.327
-0.796 -1.565 4.327
-0.769 -1.564 4.326
-0.742 -1.562 4.325
-0.714 -1.559 4.321
-0.688 -1.559 4.322
-0.661 -1.557 4.321
-0.635 -1.557 4.324
-0.608 -1.556 4.325
-0.582 -1.556 4.327
-0.556 -1.556 4.328
-0.529 -1.555 4.327
-0.503 -1.553 4.325
-0.476 -1.551 4.323
-0.45 -1.549 4.319
-0.423 -1.548 4.316
-0.397 -1.546 4.313
-0.371 -1.545 4.312
-0.344 -1.543 4.308
-0.318 -1.543 4.308
-0.292 -1.541 4.304
-0.266 -1.539 4.3
-0.24 -1.537 4.295
-0.214 -1.535 4.291
-0.188 -1.533 4.285
-0.162 -1.533 4.285
-0.136 -1.533 4.288
-0.111 -1.534 4.29
-0.085 -1.534 4.289
-0.06 -1.535 4.293
-0.034 -1.534 4.29
-0.008 -1.533 4.286
0.016 -1.532 4.285
0.042 -1.533 4.286
0.068 -1.531 4.279
0.093 -1.532 4.28
0.119 -1.531 4.277
0.144 -1.53 4.275
0.17 -1.53 4.273
0.196 -1.531 4.276
0.221 -1.531 4.273
0.247 -1.533 4.277
0.273 -1.533 4.275
0.298 -1.533 4.273
0.324 -1.533 4.271
0.349 -1.533 4.268
0.375 -1.531 4.262
0.4 -1.531 4.259
0.425 -1.53 4.254
0.451 -1.53 4.252
0.476 -1.529 4.246
0.502 -1.53 4.247
0.527 -1.53 4.244
0.553 -1.531 4.244
0.579 -1.532 4.243
0.605 -1.533 4.243
0.63 -1.532 4.237
0.657 -1.535 4.24
0.683 -1.536 4.24
0.709 -1.537 4.238
0.735 -1.538 4.236
0.761 -1.539 4.237
0.787 -1.539 4.232
0.813 -1.541 4.232
0.839 -1.541 4.228
0.865 -1.541 4.224
0.892 -1.543 4.224
0.918 -1.544 4.223
0.944 -1.545 4.22
0.971 -1.548 4.221
0.999 -1.55 4.222
1.025 -1.551 4.218
1.052 -1.553 4.219
1.079 -1.554 4.216
1.105 -1.555 4.213
1.132 -1.557 4.21
1.159 -1.558 4.207
1.184 -1.557 4.199
1.212 -1.56 4.198
1.239 -1.56 4.194
1.265 -1.562 4.19
1.294 -1.564 4.19
1.322 -1.567 4.189
1.348 -1.567 4.182
1.376 -1.57 4.181
1.404 -1.572 4.18
1.432 -1.574 4.176
1.459 -1.575 4.171
1.488 -1.578 4.17
1.514 -1.578 4.162
1.542 -1.579 4.156
1.567 -1.579 4.146
1.594 -1.58 4.138
1.619 -1.579 4.127
1.648 -1.581 4.123
1.674 -1.581 4.113
1.702 -1.583 4.109
1.726 -1.581 4.093
1.75 -1.578 4.076
1.765 -1.569 4.042
1.779 -1.559 4.005
1.79 -1.546 3.96
1.799 -1.532 3.914
1.808 -1.519 3.869
1.817 -1.505 3.823
1.817 -1.484 3.761
0 0 0
0 0 0
0 0 0
0 0 0
1.647 -1.261 3.145
1.665 -1.259 3.129
1.675 -1.251 3.1
1.68 -1.239 3.06
1.687 -1.23 3.026
1.686 -1.215 2.978
1.68 -1.196 2.922
1.672 -1.177 2.865
1.673 -1.164 2.823
1.662 -1.143 2.762
1.687 -1.147 2.762
-2.42 -1.635 4.116
-2.347 -1.604 4.053
-1.944 -1.345 3.406
-1.919 -1.344 3.415
-1.806 -1.28 3.263
-1.786 -1.281 3.276
-1.676 -1.218 3.122
-1.744 -1.284 3.302
-1.811 -1.349 3.482
-1.872 -1.414 3.659
-1.845 -1.411 3.663
-1.988 -1.541 4.013
-1.961 -1.54 4.022
-1.934 -1.54 4.032
-1.829 -1.477 3.878
-1.885 -1.544 4.064
-1.781 -1.479 3.903
-1.753 -1.478 3.909
-1.726 -1.476 3.913
-1.771 -1.537 4.087
-1.742 -1.535 4.09
-1.716 -1.535 4.1
-1.69 -1.535 4.109
-1.662 -1.534 4.116
-1.635 -1.534 4.123
-1.607 -1.532 4.128
-1.644 -1.593 4.303
-1.615 -1.592 4.307
-1.587 -1.591 4.313
-1.558 -1.589 4.317
-1.53 -1.589 4.324
-1.503 -1.589 4.331
-1.474 -1.587 4.335
-1.446 -1.586 4.339
-1.418 -1.586 4.346
-1.389 -1.583 4.346
-1.359 -1.581 4.347
-1.332 -1.58 4.351
-1.302 -1.578 4.351
-1.273 -1.575 4.351
-1.245 -1.574 4.354
-1.216 -1.571 4.353
-1.187 -1.569 4.352
-1.16 -1.568 4.356
-1.131 -1.566 4.355
-1.103 -1.564 4.354
-1.077 -1.564 4.361
-1.049 -1.562 4.361
-1.02 -1.56 4.359
-0.992 -1.557 4.358
-0.964 -1.555 4.357
-0.936 -1.553 4.353
-0.908 -1.55 4.351
-0.88 -1.548 4.348
-0.852 -1.546 4.347
-0.825 -1.543 4.344
-0.797 -1.541 4.341
-0.769 -1.539 4.338
-0.742 -1.536 4.334
-0.714 -1.533 4.33
-0.688 -1.533 4.333
-0.661 -1.531 4.331
-0.635 -1.531 4.333
-0.609 -1.531 4.336
-0.583 -1.532 4.339
-0.556 -1.53 4.338
-0.53 -1.53 4.339
-0.503 -1.527 4.334
-0.476 -1.525 4.331
-0.449 -1.523 4.327
-0.423 -1.522 4.325
-0.396 -1.52 4.32
-0.37 -1.519 4.32
-0.344 -1.518 4.317
-0.318 -1.517 4.316
-0.292 -1.515 4.311
-0.266 -1.514 4.309
-0.24 -1.512 4.306
-0.214 -1.51 4.3
-0.188 -1.507 4.293
-0.162 -1.507 4.292
-0.136 -1.507 4.293
-0.111 -1.506 4.291
-0.085 -1.506 4.291
-0.059 -1.508 4.296
-0.034 -1.507 4.295
-0.008 -1.507 4.292
0.017 -1.506 4.291
0.042 -1.507 4.291
0.068 -1.504 4.284
0.093 -1.505 4.285
0.119 -1.504 4.281
0.144 -1.504 4.279
0.17 -1.504 4.28
0.196 -1.506 4.283
0.221 -1.505 4.281
0.247 -1.506 4.28
0.272 -1.505 4.278
0.298 -1.505 4.274
0.323 -1.505 4.272
0.349 -1.504 4.269
0.374 -1.504 4.267
0.4 -1.504 4.264
0.425 -1.504 4.261
0.451 -1.504 4.259
0.476 -1.504 4.255
0.502 -1.504 4.253
0.528 -1.505 4.254
0.554 -1.506 4.253
0.579 -1.507 4.252
0.605 -1.508 4.252
0.631 -1.508 4.247
0.657 -1.509 4.247
0.683 -1.51 4.248
0.709 -1.511 4.245
0.735 -1.511 4.241
0.761 -1.512 4.241
0.786 -1.512 4.236
0.813 -1.514 4.236
0.838 -1.513 4.23
0.864 -1.514 4.227
0.891 -1.516 4.227
0.917 -1.517 4.227
0.944 -1.518 4.225
0.971 -1.521 4.227
0.998 -1.523 4.228
1.025 -1.525 4.227
1.053 -1.527 4.228
1.078 -1.527 4.221
1.105 -1.529 4.22
1.132 -1.53 4.217
1.158 -1.531 4.212
1.183 -1.529 4.202
1.211 -1.533 4.204
1.239 -1.534 4.202
1.266 -1.536 4.199
1.294 -1.538 4.199
1.322 -1.541 4.199
1.35 -1.543 4.195
1.377 -1.544 4.191
1.405 -1.546 4.189
1.433 -1.549 4.187
1.46 -1.55 4.183
1.488 -1.552 4.179
1.515 -1.553 4.172
1.543 -1.554 4.167
1.569 -1.554 4.159
1.596 -1.555 4.152
1.622 -1.555 4.142
1.651 -1.557 4.139
1.677 -1.557 4.128
1.704 -1.558 4.122
1.728 -1.556 4.106
1.75 -1.552 4.086
1.767 -1.544 4.054
1.783 -1.536 4.022
1.797 -1.525 3.984
1.806 -1.512 3.939
1.816 -1.499 3.893
1.823 -1.484 3.844
0 0 0
0 0 0
0 0 0
0 0 0
0 0 0
1.656 -1.247 3.169
1.669 -1.241 3.144
1.681 -1.234 3.117
1.686 -1.223 3.078
1.693 -1.213 3.043
1.69 -1.197 2.993
1.684 -1.179 2.937
1.677 -1.16 2.879
1.676 -1.146 2.834
1.652 -1.117 2.752
1.688 -1.129 2.771
-2.396 -1.591 4.086
-2.366 -1.59 4.096
-1.505 -1.024 2.641
-1.487 -1.024 2.65
-1.38 -0.962 2.495
-1.364 -0.962 2.505
-1.258 -0.899 2.346
-1.332 -0.963 2.523
-1.401 -1.026 2.697
-1.466 -1.088 2.869
-1.443 -1.085 2.87
-1.592 -1.213 3.218
-1.57 -1.213 3.226
-1.549 -1.213 3.234
-1.528 -1.213 3.245
-1.588 -1.279 3.43
-1.566 -1.278 3.438
-1.54 -1.276 3.439
-1.515 -1.273 3.44
-1.565 -1.335 3.617
-1.613 -1.397 3.795
-1.589 -1.397 3.803
-1.636 -1.461 3.987
-1.681 -1.525 4.17
-1.652 -1.523 4.174
-1.623 -1.52 4.177
-1.659 -1.58 4.351
-1.63 -1.579 4.355
-1.6 -1.577 4.358
-1.57 -1.574 4.36
-1.541 -1.572 4.362
-1.512 -1.571 4.368
-1.482 -1.569 4.368
-1.453 -1.567 4.371
-1.425 -1.567 4.377
-1.396 -1.564 4.378
-1.366 -1.561 4.375
-1.337 -1.559 4.378
-1.307 -1.556 4.376
-1.277 -1.552 4.371
-1.248 -1.55 4.37
-1.219 -1.548 4.372
-1.19 -1.546 4.371
-1.162 -1.544 4.372
-1.134 -1.543 4.374
-1.105 -1.54 4.372
-1.078 -1.539 4.374
-1.049 -1.536 4.372
-1.021 -1.534 4.37
-0.992 -1.531 4.367
-0.964 -1.529 4.365
-0.936 -1.527 4.364
-0.908 -1.524 4.361
-0.88 -1.522 4.359
-0.853 -1.52 4.357
-0.825 -1.518 4.353
-0.796 -1.514 4.347
-0.769 -1.511 4.343
-0.742 -1.509 4.341
-0.714 -1.507 4.338
-0.687 -1.506 4.337
-0.661 -1.504 4.336
-0.634 -1.504 4.338
-0.607 -1.502 4.336
-0.581 -1.502 4.336
-0.555 -1.502 4.339
-0.529 -1.502 4.341
-0.502 -1.499 4.336
-0.476 -1.498 4.335
-0.449 -1.497 4.334
-0.423 -1.495 4.331
-0.396 -1.493 4.324
-0.37 -1.492 4.325
-0.344 -1.491 4.324
-0.318 -1.49 4.321
-0.292 -1.488 4.316
-0.265 -1.487 4.314
-0.24 -1.486 4.311
-0.213 -1.483 4.306
-0.187 -1.482 4.301
-0.162 -1.481 4.3
-0.136 -1.481 4.301
-0.11 -1.481 4.299
-0.085 -1.48 4.297
-0.059 -1.481 4.3
-0.033 -1.481 4.301
-0.008 -1.481 4.3
0.017 -1.48 4.297
0.042 -1.481 4.299
0.068 -1.479 4.291
0.093 -1.478 4.289
0.119 -1.477 4.284
0.145 -1.477 4.284
0.17 -1.477 4.283
0.196 -1.477 4.283
0.221 -1.477 4.28
0.247 -1.477 4.28
0.272 -1.476 4.275
0.297 -1.476 4.271
0.323 -1.476 4.271
0.348 -1.476 4.269
0.374 -1.477 4.269
0.4 -1.476 4.266
0.425 -1.477 4.266
0.451 -1.478 4.265
0.476 -1.477 4.26
0.501 -1.477 4.256
0.527 -1.478 4.256
0.553 -1.478 4.253
0.578 -1.478 4.251
0.605 -1.48 4.252
0.631 -1.481 4.251
0.657 -1.482 4.252
0.683 -1.484 4.252
0.708 -1.483 4.248
0.734 -1.483 4.243
0.76 -1.484 4.241
0.785 -1.484 4.236
0.812 -1.485 4.237
0.837 -1.485 4.231
0.863 -1.486 4.229
0.89 -1.488 4.229
0.917 -1.49 4.23
0.943 -1.491 4.228
0.97 -1.494 4.231
0.998 -1.496 4.233
1.025 -1.499 4.234
1.052 -1.501 4.234
1.078 -1.501 4.229
1.105 -1.502 4.227
1.132 -1.504 4.224
1.157 -1.503 4.217
1.183 -1.503 4.209
1.21 -1.505 4.207
1.238 -1.507 4.206
1.265 -1.508 4.203
1.293 -1.511 4.203
1.321 -1.513 4.201
1.349 -1.516 4.202
1.376 -1.517 4.198
1.404 -1.519 4.194
1.432 -1.521 4.192
1.459 -1.523 4.188
1.487 -1.524 4.184
1.514 -1.525 4.178
1.542 -1.527 4.174
1.569 -1.527 4.167
1.597 -1.53 4.163
1.623 -1.529 4.153
1.651 -1.531 4.149
1.677 -1.531 4.138
1.704 -1.532 4.13
1.729 -1.53 4.117
1.751 -1.527 4.097
1.77 -1.521 4.071
1.79 -1.515 4.045
1.809 -1.51 4.02
1.825 -1.502 3.988
1.836 -1.49 3.946
0 0 0
0 0 0
0 0 0
0 0 0
0 0 0
0 0 0
0 0 0
1.663 -1.216 3.14
1.677 -1.211 3.117
1.684 -1.201 3.081
1.691 -1.192 3.047
1.69 -1.177 2.999
1.686 -1.16 2.947
1.68 -1.142 2.891
1.679 -1.129 2.846
1.666 -1.107 2.782
1.683 -1.107 2.769
-0.009 -0.007 0.003
-2.378 -1.57 4.126
-1.108 -0.741 1.945
-1.096 -0.742 1.953
-0.989 -0.678 1.79
-0.944 -0.655 1.734
-0.844 -0.593 1.573
-0.921 -0.655 1.745
-0.994 -0.716 1.915
-1.064 -0.776 2.082
-1.044 -0.772 2.077
-1.194 -0.894 2.415
-1.177 -0.893 2.42
-1.158 -0.891 2.421
-1.143 -0.892 2.429
-1.206 -0.955 2.607
-1.188 -0.954 2.612
-1.167 -0.95 2.607
-1.224 -1.011 2.784
-1.354 -1.135 3.134
-1.48 -1.26 3.488
-1.53 -1.322 3.671
-1.65 -1.448 4.03
-1.693 -1.51 4.211
-1.664 -1.507 4.213
-1.633 -1.504 4.213
-1.669 -1.562 4.386
-1.64 -1.561 4.391
-1.609 -1.558 4.392
-1.578 -1.555 4.392
-1.549 -1.554 4.396
-1.52 -1.552 4.399
-1.489 -1.548 4.397
-1.459 -1.546 4.398
-1.43 -1.544 4.4
-1.4 -1.541 4.399
-1.37 -1.539 4.398
-1.341 -1.537 4.399
-1.31 -1.532 4.394
-1.279 -1.529 4.389
-1.249 -1.525 4.384
-1.219 -1.522 4.382
-1.19 -1.519 4.379
-1.162 -1.517 4.379
-1.134 -1.516 4.382
-1.105 -1.513 4.379
-1.077 -1.512 4.381
-1.049 -1.509 4.378
-1.02 -1.507 4.376
-0.991 -1.503 4.372
-0.963 -1.501 4.37
-0.936 -1.5 4.371
-0.908 -1.497 4.367
-0.88 -1.496 4.367
-0.853 -1.494 4.366
-0.825 -1.492 4.363
-0.796 -1.488 4.355
-0.769 -1.485 4.352
-0.741 -1.483 4.347
-0.714 -1.481 4.346
-0.687 -1.479 4.343
-0.66 -1.477 4.341
-0.633 -1.476 4.34
-0.607 -1.475 4.338
-0.58 -1.473 4.335
-0.554 -1.472 4.337
-0.528 -1.473 4.341
-0.501 -1.471 4.337
-0.475 -1.47 4.337
-0.449 -1.47 4.338
-0.422 -1.469 4.337
-0.396 -1.466 4.33
-0.37 -1.466 4.33
-0.343 -1.464 4.325
-0.317 -1.462 4.323
-0.291 -1.46 4.318
-0.265 -1.46 4.319
-0.239 -1.46 4.318
-0.213 -1.459 4.316
-0.187 -1.457 4.311
-0.162 -1.456 4.308
-0.136 -1.455 4.307
-0.11 -1.453 4.302
-0.084 -1.452 4.299
-0.059 -1.453 4.301
-0.033 -1.454 4.303
-0.008 -1.453 4.302
0.017 -1.453 4.301
0.043 -1.454 4.301
0.068 -1.452 4.296
0.094 -1.451 4.292
0.119 -1.449 4.286
0.145 -1.45 4.287
0.17 -1.45 4.285
0.196 -1.45 4.285
0.221 -1.451 4.285
0.247 -1.45 4.283
0.272 -1.449 4.279
0.297 -1.449 4.275
0.323 -1.448 4.271
0.348 -1.448 4.268
0.374 -1.449 4.269
0.399 -1.449 4.267
0.425 -1.45 4.268
0.451 -1.451 4.269
0.476 -1.45 4.263
0.501 -1.45 4.259
0.527 -1.45 4.258
0.553 -1.451 4.257
0.578 -1.452 4.256
0.605 -1.454 4.258
0.63 -1.454 4.256
0.657 -1.456 4.257
0.682 -1.456 4.255
0.707 -1.455 4.249
0.733 -1.455 4.244
0.759 -1.457 4.245
0.785 -1.457 4.24
0.811 -1.459 4.242
0.837 -1.459 4.239
0.863 -1.46 4.237
0.889 -1.461 4.233
0.916 -1.462 4.233
0.942 -1.463 4.231
0.969 -1.466 4.232
0.996 -1.468 4.233
1.023 -1.47 4.233
1.05 -1.472 4.233
1.077 -1.473 4.23
1.104 -1.475 4.229
1.131 -1.476 4.226
1.156 -1.476 4.22
1.182 -1.476 4.214
1.209 -1.477 4.209
1.235 -1.478 4.206
1.263 -1.479 4.203
1.29 -1.482 4.202
1.318 -1.483 4.2
1.347 -1.487 4.201
1.374 -1.488 4.199
1.402 -1.49 4.197
1.43 -1.493 4.195
1.458 -1.494 4.192
1.486 -1.496 4.188
1.513 -1.498 4.184
1.542 -1.5 4.181
1.568 -1.5 4.173
1.597 -1.502 4.17
1.623 -1.502 4.16
1.651 -1.504 4.155
1.676 -1.503 4.144
1.704 -1.505 4.137
1.729 -1.504 4.126
1.752 -1.501 4.108
1.773 -1.497 4.086
1.798 -1.496 4.072
1.818 -1.491 4.049
1.835 -1.484 4.019
0 0 0
0 0 0
0 0 0
0 0 0
0 0 0
0 0 0
0 0 0
0 0 0
1.657 -1.19 3.136
1.672 -1.186 3.114
1.682 -1.179 3.086
1.69 -1.17 3.052
1.691 -1.157 3.008
1.689 -1.142 2.958
1.683 -1.125 2.903
1.679 -1.109 2.852
1.688 -1.103 2.826
1.676 -1.082 2.763
-0.079 -0.052 0.123
-0.098 -0.065 0.159
-0.654 -0.43 1.146
-0.644 -0.429 1.145
-0.542 -0.365 0.977
-0.605 -0.413 1.11
-0.509 -0.352 0.945
-0.588 -0.412 1.113
-0.663 -0.47 1.276
-0.736 -0.528 1.44
-0.637 -0.463 1.266
-0.79 -0.581 1.597
-0.778 -0.581 1.599
-0.764 -0.578 1.595
-0.752 -0.577 1.596
-0.819 -0.637 1.77
-0.805 -0.635 1.769
-0.865 -0.692 1.933
-1.003 -0.814 2.284
-1.211 -0.998 2.809
-1.414 -1.182 3.339
-1.538 -1.306 3.698
-1.658 -1.429 4.058
-1.702 -1.49 4.242
-1.672 -1.488 4.243
-1.641 -1.484 4.242
-1.676 -1.541 4.414
-1.646 -1.539 4.417
-1.614 -1.535 4.414
-1.581 -1.531 4.41
-1.552 -1.529 4.412
-1.521 -1.526 4.412
-1.489 -1.522 4.408
-1.46 -1.519 4.408
-1.43 -1.517 4.409
-1.4 -1.514 4.408
-1.369 -1.511 4.404
-1.34 -1.509 4.407
-1.309 -1.504 4.399
-1.279 -1.501 4.397
-1.248 -1.497 4.39
-1.219 -1.495 4.39
-1.189 -1.491 4.384
-1.161 -1.489 4.384
-1.133 -1.487 4.386
-1.104 -1.484 4.382
-1.076 -1.483 4.384
-1.047 -1.481 4.382
-1.019 -1.479 4.381
-0.99 -1.475 4.376
-0.962 -1.473 4.373
-0.934 -1.471 4.371
-0.906 -1.468 4.368
-0.879 -1.467 4.369
-0.851 -1.465 4.366
-0.824 -1.463 4.364
-0.795 -1.46 4.359
-0.768 -1.458 4.356
-0.74 -1.455 4.351
-0.713 -1.453 4.347
-0.686 -1.451 4.344
-0.659 -1.449 4.342
-0.632 -1.447 4.338
-0.605 -1.445 4.335
-0.579 -1.444 4.335
-0.553 -1.444 4.338
-0.527 -1.444 4.341
-0.5 -1.444 4.34
-0.474 -1.444 4.343
-0.448 -1.443 4.342
-0.422 -1.442 4.34
-0.395 -1.438 4.332
-0.369 -1.438 4.333
-0.343 -1.436 4.327
-0.317 -1.434 4.323
-0.291 -1.433 4.321
-0.265 -1.433 4.322
-0.239 -1.432 4.32
-0.213 -1.432 4.321
-0.187 -1.431 4.319
-0.161 -1.43 4.314
-0.136 -1.429 4.313
-0.11 -1.428 4.31
-0.084 -1.428 4.309
-0.059 -1.427 4.309
-0.033 -1.428 4.311
-0.008 -1.427 4.307
0.017 -1.426 4.304
0.043 -1.426 4.302
0.068 -1.425 4.298
0.094 -1.424 4.296
0.119 -1.423 4.292
0.145 -1.424 4.293
0.17 -1.424 4.291
0.196 -1.425 4.293
0.221 -1.425 4.291
0.247 -1.425 4.291
0.272 -1.424 4.286
0.297 -1.423 4.282
0.322 -1.421 4.274
0.348 -1.421 4.272
0.374 -1.422 4.273
0.399 -1.423 4.273
0.425 -1.424 4.275
0.451 -1.426 4.276
0.476 -1.425 4.271
0.501 -1.424 4.266
0.527 -1.425 4.265
0.553 -1.425 4.263
0.578 -1.426 4.263
0.605 -1.428 4.265
0.63 -1.429 4.264
0.657 -1.43 4.264
0.682 -1.43 4.26
0.707 -1.429 4.254
0.732 -1.428 4.248
0.759 -1.43 4.249
0.783 -1.429 4.241
0.81 -1.431 4.243
0.836 -1.431 4.238
0.862 -1.433 4.239
0.888 -1.433 4.235
0.915 -1.436 4.238
0.942 -1.437 4.236
0.969 -1.439 4.238
0.995 -1.44 4.235
1.022 -1.442 4.235
1.048 -1.443 4.232
1.075 -1.444 4.23
1.102 -1.446 4.228
1.128 -1.447 4.225
1.154 -1.447 4.219
1.181 -1.448 4.216
1.207 -1.449 4.212
1.235 -1.451 4.211
1.262 -1.453 4.209
1.29 -1.455 4.208
1.317 -1.457 4.206
1.345 -1.459 4.204
1.372 -1.46 4.199
1.4 -1.462 4.199
1.428 -1.464 4.196
1.455 -1.465 4.192
1.484 -1.468 4.19
1.511 -1.469 4.186
1.539 -1.471 4.181
1.566 -1.472 4.176
1.595 -1.474 4.174
1.622 -1.475 4.166
1.65 -1.477 4.162
1.679 -1.479 4.158
1.706 -1.48 4.15
1.731 -1.479 4.138
1.755 -1.477 4.123
1.778 -1.474 4.105
1.8 -1.471 4.085
1.821 -1.467 4.062
1.836 -1.458 4.028
0 0 0
0 0 0
0 0 0
0 0 0
0 0 0
0 0 0
0 0 0
0 0 0
1.657 -1.169 3.142
1.675 -1.167 3.126
1.686 -1.161 3.099
1.691 -1.15 3.061
1.695 -1.139 3.021
1.693 -1.124 2.971
1.686 -1.107 2.916
1.68 -1.091 2.861
1.696 -1.088 2.845
1.688 -1.071 2.789
-0.082 -0.053 0.129
-0.089 -0.058 0.143
-0.197 -0.128 0.337
-0.189 -0.125 0.328
-0.088 -0.059 0.147
-0.172 -0.116 0.306
-0.17 -0.116 0.308
-0.252 -0.174 0.471
-0.329 -0.229 0.628
-0.404 -0.285 0.787
-0.309 -0.222 0.609
-0.381 -0.276 0.765
-0.373 -0.274 0.761
-0.362 -0.27 0.752
-0.356 -0.269 0.751
-0.428 -0.328 0.921
-0.496 -0.385 1.088
-0.639 -0.502 1.428
-0.858 -0.684 1.956
-1.144 -0.925 2.656
-1.421 -1.167 3.363
-1.545 -1.287 3.721
-1.663 -1.408 4.079
-1.705 -1.466 4.258
-1.674 -1.463 4.257
-1.642 -1.458 4.253
-1.677 -1.514 4.426
-1.646 -1.512 4.427
-1.613 -1.507 4.422
-1.581 -1.503 4.418
-1.551 -1.501 4.42
-1.521 -1.498 4.419
-1.49 -1.495 4.417
-1.46 -1.492 4.418
-1.429 -1.489 4.415
-1.399 -1.486 4.414
-1.368 -1.483 4.411
-1.339 -1.48 4.41
-1.307 -1.475 4.402
-1.278 -1.473 4.401
-1.246 -1.468 4.392
-1.217 -1.465 4.389
-1.187 -1.461 4.383
-1.158 -1.459 4.384
-1.131 -1.458 4.386
-1.101 -1.455 4.381
-1.073 -1.453 4.382
-1.045 -1.451 4.379
-1.016 -1.448 4.377
-0.987 -1.445 4.371
-0.96 -1.443 4.372
-0.932 -1.441 4.37
-0.904 -1.439 4.367
-0.877 -1.438 4.367
-0.849 -1.436 4.365
-0.822 -1.435 4.365
-0.794 -1.431 4.358
-0.767 -1.43 4.359
-0.74 -1.428 4.355
-0.713 -1.427 4.355
-0.685 -1.423 4.346
-0.658 -1.422 4.346
-0.631 -1.419 4.34
-0.604 -1.416 4.334
-0.577 -1.415 4.332
-0.551 -1.416 4.337
-0.525 -1.416 4.339
-0.499 -1.415 4.341
-0.474 -1.416 4.346
-0.448 -1.416 4.346
-0.421 -1.414 4.344
-0.395 -1.412 4.336
-0.369 -1.411 4.336
-0.342 -1.409 4.33
-0.316 -1.406 4.324
-0.29 -1.405 4.322
-0.264 -1.406 4.325
-0.239 -1.405 4.324
-0.213 -1.405 4.325
-0.187 -1.405 4.324
-0.161 -1.403 4.318
-0.135 -1.402 4.316
-0.11 -1.401 4.313
-0.084 -1.401 4.312
-0.059 -1.401 4.311
-0.033 -1.402 4.317
-0.007 -1.401 4.313
0.017 -1.4 4.31
0.043 -1.399 4.306
0.068 -1.398 4.303
0.094 -1.398 4.302
0.119 -1.398 4.299
0.145 -1.398 4.298
0.17 -1.398 4.299
0.196 -1.399 4.299
0.221 -1.398 4.295
0.247 -1.398 4.294
0.272 -1.397 4.29
0.297 -1.396 4.284
0.322 -1.394 4.276
0.348 -1.394 4.273
0.373 -1.396 4.277
0.399 -1.396 4.277
0.425 -1.398 4.28
0.451 -1.4 4.283
0.476 -1.399 4.278
0.501 -1.397 4.269
0.527 -1.397 4.267
0.552 -1.398 4.265
0.578 -1.398 4.263
0.604 -1.4 4.266
0.63 -1.402 4.268
0.656 -1.403 4.267
0.682 -1.403 4.263
0.707 -1.402 4.258
0.732 -1.402 4.252
0.758 -1.404 4.254
0.783 -1.402 4.245
0.81 -1.404 4.246
0.835 -1.404 4.243
0.862 -1.407 4.245
0.888 -1.407 4.24
0.915 -1.41 4.245
0.941 -1.411 4.242
0.968 -1.412 4.242
0.994 -1.412 4.236
1.021 -1.415 4.238
1.047 -1.415 4.233
1.073 -1.416 4.231
1.1 -1.418 4.229
1.127 -1.418 4.225
1.152 -1.418 4.219
1.179 -1.42 4.217
1.206 -1.421 4.213
1.233 -1.422 4.211
1.26 -1.424 4.209
1.287 -1.425 4.206
1.314 -1.427 4.204
1.342 -1.429 4.203
1.369 -1.431 4.199
1.398 -1.433 4.199
1.426 -1.436 4.198
1.453 -1.437 4.194
1.481 -1.439 4.19
1.509 -1.44 4.186
1.537 -1.442 4.183
1.564 -1.443 4.178
1.593 -1.446 4.177
1.621 -1.448 4.171
1.649 -1.449 4.167
1.677 -1.451 4.161
1.705 -1.452 4.156
1.732 -1.453 4.147
1.757 -1.452 4.134
1.783 -1.452 4.124
1.807 -1.45 4.109
1.83 -1.448 4.092
0 0 0
0 0 0
0 0 0
0 0 0
0 0 0
0 0 0
0 0 0
0 0 0
0 0 0
1.659 -1.15 3.152
1.675 -1.146 3.134
1.687 -1.14 3.107
1.692 -1.13 3.069
1.696 -1.119 3.029
1.692 -1.104 2.977
1.687 -1.088 2.924
1.68 -1.071 2.867
1.678 -1.058 2.822
1.652 -1.029 2.735
-0.252 -0.157 0.422
-0.115 -0.074 0.19
-0.13 -0.083 0.218
-0.117 -0.076 0.198
-0.109 -0.072 0.187
-0.099 -0.066 0.171
-0.093 -0.063 0.164
-0.088 -0.06 0.155
-0.079 -0.055 0.142
-0.07 -0.05 0.125
-0.064 -0.046 0.115
-0.054 -0.039 0.097
-0.048 -0.036 0.087
-0.04 -0.03 0.071
-0.197 -0.147 0.41
-0.19 -0.144 0.403
-0.418 -0.319 0.916
-0.562 -0.434 1.256
-0.858 -0.671 1.959
-1.067 -0.848 2.484
-1.42 -1.144 3.366
-1.544 -1.263 3.726
-1.735 -1.441 4.264
-1.776 -1.499 4.445
-1.744 -1.496 4.444
-1.711 -1.492 4.442
-1.677 -1.487 4.435
-1.645 -1.483 4.433
-1.612 -1.478 4.426
-1.58 -1.474 4.424
-1.551 -1.473 4.427
-1.52 -1.469 4.425
-1.488 -1.465 4.42
-1.458 -1.463 4.42
-1.426 -1.459 4.415
-1.395 -1.455 4.411
-1.365 -1.452 4.408
-1.335 -1.449 4.407
-1.304 -1.445 4.399
-1.275 -1.443 4.4
-1.244 -1.438 4.392
-1.215 -1.435 4.39
-1.185 -1.432 4.385
-1.156 -1.43 4.384
-1.128 -1.428 4.384
-1.099 -1.425 4.381
-1.071 -1.424 4.382
-1.043 -1.422 4.381
-1.016 -1.421 4.381
-0.987 -1.417 4.376
-0.959 -1.416 4.377
-0.931 -1.414 4.375
-0.903 -1.411 4.371
-0.876 -1.41 4.37
-0.848 -1.408 4.369
-0.822 -1.407 4.37
-0.793 -1.404 4.363
-0.767 -1.404 4.365
-0.74 -1.402 4.363
-0.713 -1.401 4.362
-0.684 -1.396 4.351
-0.658 -1.396 4.353
-0.63 -1.392 4.345
-0.603 -1.389 4.336
-0.576 -1.387 4.333
-0.551 -1.388 4.339
-0.525 -1.388 4.34
-0.499 -1.388 4.344
-0.473 -1.39 4.351
-0.447 -1.389 4.352
-0.421 -1.388 4.348
-0.394 -1.385 4.34
-0.368 -1.383 4.336
-0.342 -1.381 4.33
-0.315 -1.378 4.324
-0.289 -1.377 4.322
-0.264 -1.377 4.323
-0.238 -1.378 4.326
-0.212 -1.378 4.325
-0.187 -1.377 4.325
-0.161 -1.375 4.319
-0.135 -1.374 4.317
-0.109 -1.373 4.314
-0.084 -1.374 4.316
-0.058 -1.374 4.314
-0.033 -1.375 4.319
-0.007 -1.374 4.316
0.017 -1.373 4.31
0.043 -1.372 4.307
0.068 -1.372 4.307
0.094 -1.373 4.309
0.119 -1.373 4.307
0.145 -1.373 4.307
0.17 -1.372 4.303
0.196 -1.371 4.3
0.221 -1.371 4.298
0.247 -1.372 4.3
0.272 -1.372 4.299
0.298 -1.372 4.297
0.323 -1.37 4.286
0.348 -1.368 4.279
0.373 -1.369 4.282
0.399 -1.369 4.28
0.425 -1.371 4.282
0.451 -1.374 4.288
0.476 -1.372 4.279
0.501 -1.371 4.273
0.526 -1.369 4.266
0.551 -1.369 4.261
0.577 -1.37 4.261
0.603 -1.373 4.267
0.629 -1.374 4.266
0.655 -1.375 4.268
0.681 -1.375 4.265
0.705 -1.374 4.255
0.731 -1.374 4.253
0.758 -1.377 4.257
0.783 -1.376 4.25
0.81 -1.378 4.252
0.836 -1.379 4.25
0.862 -1.381 4.252
0.888 -1.381 4.247
0.915 -1.383 4.249
0.941 -1.384 4.246
0.967 -1.385 4.244
0.993 -1.385 4.239
1.019 -1.386 4.237
1.045 -1.387 4.233
1.072 -1.388 4.233
1.099 -1.39 4.23
1.125 -1.39 4.226
1.151 -1.391 4.222
1.178 -1.393 4.22
1.204 -1.392 4.213
1.23 -1.393 4.209
1.257 -1.395 4.207
1.284 -1.396 4.203
1.311 -1.398 4.201
1.339 -1.4 4.201
1.368 -1.403 4.201
1.396 -1.405 4.2
1.423 -1.407 4.197
1.451 -1.408 4.193
1.479 -1.41 4.192
1.506 -1.411 4.186
1.534 -1.413 4.183
1.561 -1.414 4.178
1.59 -1.416 4.175
1.618 -1.418 4.17
1.646 -1.42 4.166
1.674 -1.422 4.162
1.703 -1.424 4.159
1.731 -1.426 4.154
1.757 -1.426 4.144
1.786 -1.427 4.138
1.811 -1.427 4.126
0 0 0
0 0 0
0 0 0
0 0 0
0 0 0
0 0 0
0 0 0
0 0 0
0 0 0
0 0 0
1.653 -1.124 3.146
1.668 -1.121 3.127
1.681 -1.116 3.103
1.686 -1.106 3.064
1.693 -1.097 3.031
1.692 -1.084 2.983
1.688 -1.068 2.93
1.679 -1.051 2.872
1.685 -1.043 2.839
1.684 -1.03 2.795
-0.203 -0.124 0.339
-0.212 -0.132 0.36
-0.15 -0.094 0.254
-0.134 -0.086 0.23
-0.127 -0.082 0.221
-0.113 -0.074 0.198
-0.104 -0.069 0.184
-0.097 -0.065 0.173
-0.089 -0.061 0.16
-0.076 -0.053 0.139
-0.071 -0.05 0.13
-0.059 -0.043 0.109
-0.051 -0.037 0.093
-0.042 -0.031 0.076
-0.119 -0.087 0.243
-0.111 -0.083 0.229
-0.34 -0.255 0.745
-0.563 -0.427 1.262
-0.935 -0.718 2.141
-1.218 -0.949 2.843
-1.569 -1.24 3.728
-1.69 -1.357 4.088
-1.805 -1.472 4.447
-1.775 -1.47 4.451
-1.742 -1.466 4.449
-1.71 -1.463 4.447
-1.677 -1.458 4.442
-1.645 -1.455 4.441
-1.612 -1.451 4.436
-1.581 -1.447 4.434
-1.55 -1.445 4.434
-1.519 -1.441 4.43
-1.487 -1.437 4.425
-1.456 -1.433 4.422
-1.424 -1.43 4.417
-1.394 -1.427 4.415
-1.364 -1.424 4.413
-1.334 -1.421 4.411
-1.303 -1.417 4.404
-1.275 -1.416 4.407
-1.244 -1.411 4.4
-1.214 -1.408 4.396
-1.185 -1.405 4.393
-1.156 -1.403 4.39
-1.127 -1.4 4.387
-1.098 -1.398 4.385
-1.071 -1.397 4.388
-1.043 -1.395 4.386
-1.015 -1.394 4.388
-0.987 -1.391 4.384
-0.959 -1.39 4.385
-0.931 -1.388 4.382
-0.903 -1.385 4.377
-0.875 -1.383 4.375
-0.848 -1.381 4.373
-0.821 -1.38 4.373
-0.793 -1.377 4.367
-0.766 -1.377 4.37
-0.739 -1.374 4.366
-0.712 -1.373 4.364
-0.683 -1.368 4.353
-0.657 -1.367 4.353
-0.629 -1.364 4.345
-0.602 -1.361 4.338
-0.576 -1.361 4.34
-0.551 -1.362 4.346
-0.524 -1.362 4.347
-0.499 -1.363 4.354
-0.474 -1.364 4.36
-0.447 -1.363 4.356
-0.42 -1.359 4.346
-0.393 -1.356 4.339
-0.367 -1.354 4.334
-0.341 -1.352 4.329
-0.314 -1.35 4.322
-0.289 -1.35 4.322
-0.263 -1.35 4.325
-0.238 -1.35 4.326
-0.212 -1.35 4.324
-0.186 -1.349 4.324
-0.16 -1.346 4.315
-0.135 -1.344 4.308
-0.109 -1.343 4.307
-0.083 -1.344 4.309
-0.058 -1.343 4.305
-0.033 -1.345 4.311
-0.007 -1.346 4.314
0.017 -1.344 4.308
0.043 -1.341 4.298
0.068 -1.342 4.301
0.094 -1.345 4.308
0.119 -1.345 4.308
0.145 -1.346 4.31
0.171 -1.347 4.311
0.196 -1.348 4.314
0.222 -1.347 4.309
0.247 -1.349 4.314
0.273 -1.35 4.316
0.299 -1.349 4.311
0.323 -1.345 4.295
0.349 -1.346 4.296
0.374 -1.347 4.297
0.4 -1.348 4.298
0.425 -1.347 4.293
0.452 -1.351 4.303
0.477 -1.348 4.291
0.502 -1.348 4.289
0.526 -1.345 4.276
0.553 -1.347 4.281
0.578 -1.347 4.276
0.604 -1.349 4.28
0.629 -1.346 4.268
0.655 -1.349 4.274
0.68 -1.348 4.266
0.705 -1.347 4.259
0.731 -1.349 4.26
0.76 -1.354 4.272
0.783 -1.35 4.258
0.81 -1.352 4.258
0.836 -1.354 4.26
0.863 -1.356 4.262
0.89 -1.358 4.262
0.916 -1.358 4.259
0.941 -1.358 4.252
0.966 -1.358 4.247
0.991 -1.357 4.239
1.017 -1.357 4.234
1.043 -1.358 4.23
1.07 -1.36 4.232
1.097 -1.361 4.229
1.123 -1.362 4.226
1.15 -1.363 4.223
1.177 -1.365 4.221
1.202 -1.365 4.214
1.229 -1.366 4.213
1.256 -1.367 4.209
1.282 -1.368 4.205
1.31 -1.37 4.204
1.338 -1.372 4.202
1.365 -1.374 4.201
1.394 -1.377 4.2
1.421 -1.378 4.196
1.448 -1.379 4.193
1.477 -1.382 4.192
1.503 -1.382 4.186
1.531 -1.384 4.182
1.558 -1.385 4.177
1.586 -1.386 4.171
1.614 -1.388 4.168
1.643 -1.391 4.166
1.672 -1.393 4.163
1.702 -1.397 4.165
1.731 -1.399 4.161
1.758 -1.4 4.152
1.787 -1.402 4.149
1.817 -1.404 4.146
0 0 0
0 0 0
0 0 0
0 0 0
0 0 0
0 0 0
0 0 0
0 0 0
0 0 0
0 0 0
1.657 -1.106 3.161
1.67 -1.101 3.136
1.685 -1.097 3.115
1.69 -1.087 3.077
1.697 -1.079 3.043
1.695 -1.065 2.994
1.69 -1.05 2.94
1.679 -1.031 2.877
1.685 -1.023 2.845
1.654 -0.993 2.751
-0.213 -0.128 0.356
-0.175 -0.106 0.295
-0.158 -0.098 0.27
-0.141 -0.088 0.242
-0.131 -0.083 0.229
-0.116 -0.074 0.204
-0.104 -0.068 0.185
-0.095 -0.063 0.171
-0.087 -0.059 0.158
-0.074 -0.051 0.134
-0.069 -0.048 0.127
-0.059 -0.042 0.108
-0.051 -0.036 0.093
-0.041 -0.03 0.074
-0.199 -0.143 0.416
-0.19 -0.138 0.403
-0.418 -0.307 0.92
-0.718 -0.533 1.616
-1.087 -0.819 2.497
-1.293 -0.988 3.024
-1.642 -1.273 3.91
-1.761 -1.387 4.27
-1.802 -1.442 4.448
-1.771 -1.439 4.45
-1.739 -1.436 4.448
-1.707 -1.432 4.447
-1.673 -1.428 4.442
-1.642 -1.425 4.442
-1.61 -1.421 4.438
-1.578 -1.418 4.435
-1.548 -1.415 4.435
-1.516 -1.411 4.43
-1.482 -1.405 4.42
-1.452 -1.402 4.418
-1.421 -1.399 4.415
-1.39 -1.396 4.411
-1.361 -1.394 4.412
-1.333 -1.392 4.414
-1.302 -1.388 4.408
-1.273 -1.387 4.409
-1.243 -1.383 4.404
-1.214 -1.381 4.401
-1.185 -1.378 4.4
-1.156 -1.376 4.397
-1.127 -1.374 4.396
-1.098 -1.371 4.392
-1.071 -1.37 4.396
-1.041 -1.367 4.389
-1.014 -1.366 4.39
-0.985 -1.362 4.385
-0.958 -1.361 4.385
-0.929 -1.358 4.378
-0.901 -1.356 4.376
-0.873 -1.354 4.373
-0.845 -1.351 4.368
-0.819 -1.351 4.371
-0.791 -1.349 4.368
-0.765 -1.349 4.371
-0.739 -1.348 4.372
-0.712 -1.347 4.373
-0.683 -1.341 4.355
-0.657 -1.342 4.361
-0.629 -1.338 4.35
-0.601 -1.333 4.338
-0.576 -1.336 4.349
-0.552 -1.34 4.364
-0.525 -1.337 4.358
-0.5 -1.34 4.371
-0.475 -1.342 4.379
-0.447 -1.336 4.359
-0.419 -1.329 4.34
-0.392 -1.328 4.337
-0.366 -1.326 4.331
-0.34 -1.325 4.33
-0.314 -1.322 4.323
-0.288 -1.323 4.326
-0.263 -1.323 4.326
-0.237 -1.323 4.328
-0.211 -1.322 4.324
-0.186 -1.322 4.325
-0.16 -1.32 4.318
-0.134 -1.317 4.311
-0.109 -1.317 4.311
-0.083 -1.318 4.314
-0.058 -1.317 4.311
-0.032 -1.32 4.319
-0.007 -1.327 4.342
0 0 0
0 0 0
0 0 0
0 0 0
0 0 0
0 0 0
0 0 0
0 0 0
0 0 0
0 0 0
0 0 0
0 0 0
0 0 0
0 0 0
0 0 0
0 0 0
0 0 0
0 0 0
0 0 0
0 0 0
0 0 0
0 0 0
0 0 0
0 0 0
0 0 0
0 0 0
0 0 0
0 0 0
0 0 0
0 0 0
0 0 0
0 0 0
0 0 0
0.86 -1.326 4.255
0.889 -1.331 4.265
0.915 -1.331 4.261
0.94 -1.33 4.253
0.965 -1.33 4.247
0.99 -1.329 4.24
1.016 -1.329 4.235
1.042 -1.33 4.232
1.069 -1.332 4.232
1.095 -1.333 4.23
1.122 -1.335 4.228
1.148 -1.335 4.223
1.175 -1.336 4.221
1.2 -1.336 4.214
1.228 -1.338 4.214
1.254 -1.339 4.21
1.281 -1.341 4.207
1.309 -1.343 4.206
1.336 -1.344 4.204
1.364 -1.346 4.202
1.391 -1.348 4.2
1.418 -1.349 4.196
1.446 -1.351 4.192
1.474 -1.353 4.19
1.5 -1.353 4.183
1.527 -1.354 4.178
1.554 -1.355 4.172
1.582 -1.357 4.167
1.61 -1.359 4.166
1.64 -1.362 4.165
1.669 -1.365 4.164
1.699 -1.367 4.163
1.727 -1.369 4.158
1.754 -1.37 4.15
1.781 -1.37 4.142
0 0 0
0 0 0
0 0 0
0 0 0
0 0 0
0 0 0
0 0 0
0 0 0
0 0 0
0 0 0
0 0 0
0 0 0
1.672 -1.082 3.147
1.682 -1.075 3.116
1.688 -1.066 3.08
1.696 -1.058 3.047
1.696 -1.046 3.002
1.691 -1.03 2.947
1.682 -1.014 2.888
1.663 -0.991 2.813
1.659 -0.977 2.764
-0.187 -0.11 0.312
-0.146 -0.087 0.244
-0.16 -0.097 0.273
-0.144 -0.089 0.25
-0.135 -0.084 0.236
-0.12 -0.075 0.211
-0.105 -0.067 0.187
-0.095 -0.061 0.17
-0.088 -0.058 0.16
-0.074 -0.05 0.135
-0.069 -0.047 0.126
-0.06 -0.042 0.111
-0.05 -0.035 0.092
-0.041 -0.03 0.075
-0.199 -0.14 0.417
-0.269 -0.191 0.579
-0.575 -0.413 1.273
-0.875 -0.637 1.976
-1.241 -0.916 2.856
-1.444 -1.082 3.385
-1.716 -1.305 4.095
-1.76 -1.359 4.273
-1.799 -1.411 4.448
-1.767 -1.407 4.447
-1.734 -1.404 4.445
-1.701 -1.4 4.44
-1.669 -1.396 4.438
-1.639 -1.394 4.44
-1.607 -1.39 4.436
-1.575 -1.387 4.434
-1.544 -1.384 4.433
-1.513 -1.381 4.429
-1.479 -1.375 4.417
-1.449 -1.372 4.416
-1.418 -1.369 4.412
-1.388 -1.366 4.411
-1.358 -1.364 4.41
-1.331 -1.364 4.418
-1.301 -1.361 4.413
-1.272 -1.359 4.412
-1.242 -1.356 4.409
-1.212 -1.352 4.403
-1.184 -1.351 4.405
-1.154 -1.348 4.4
-1.125 -1.345 4.396
-1.096 -1.342 4.393
-1.069 -1.341 4.394
-1.038 -1.336 4.383
-1.01 -1.334 4.379
-0.979 -1.328 4.367
-0.954 -1.33 4.376
-0.927 -1.328 4.375
-0.899 -1.326 4.372
-0.871 -1.323 4.366
-0.844 -1.323 4.369
-0.818 -1.323 4.374
-0.789 -1.319 4.362
-0.764 -1.32 4.369
0 0 0
0 0 0
0 0 0
0 0 0
0 0 0
0 0 0
0 0 0
0 0 0
0 0 0
0 0 0
0 0 0
-0.443 -1.3 4.333
-0.416 -1.296 4.322
-0.39 -1.296 4.323
-0.365 -1.295 4.321
-0.339 -1.296 4.325
-0.313 -1.295 4.322
-0.288 -1.295 4.326
-0.262 -1.295 4.327
-0.237 -1.296 4.329
-0.211 -1.294 4.324
-0.185 -1.294 4.324
-0.16 -1.292 4.317
-0.134 -1.289 4.308
-0.108 -1.288 4.304
-0.083 -1.287 4.301
-0.057 -1.284 4.291
-0.032 -1.282 4.284
0 0 0
0 0 0
0 0 0
0 0 0
0 0 0
0 0 0
0 0 0
0 0 0
0 0 0
0 0 0
0 0 0
0 0 0
0 0 0
0 0 0
0 0 0
0 0 0
0 0 0
0 0 0
0 0 0
0 0 0
0 0 0
0 0 0
0 0 0
0 0 0
0 0 0
0 0 0
0 0 0
0 0 0
0 0 0
0 0 0
0 0 0
0 0 0
0 0 0
0 0 0
0 0 0
0.89 -1.307 4.277
0.913 -1.303 4.259
0.938 -1.302 4.251
0.963 -1.301 4.245
0.989 -1.302 4.24
1.014 -1.301 4.234
1.04 -1.302 4.23
1.067 -1.303 4.229
1.093 -1.305 4.227
1.12 -1.306 4.226
1.146 -1.307 4.222
1.172 -1.308 4.219
1.198 -1.308 4.213
1.225 -1.309 4.209
1.251 -1.31 4.206
1.278 -1.311 4.203
1.306 -1.313 4.202
1.334 -1.316 4.203
1.362 -1.318 4.204
1.39 -1.32 4.201
1.417 -1.322 4.199
1.444 -1.323 4.195
1.472 -1.325 4.191
1.498 -1.325 4.184
1.525 -1.326 4.18
1.552 -1.327 4.174
1.58 -1.329 4.171
1.609 -1.331 4.168
1.637 -1.333 4.166
1.665 -1.335 4.162
1.695 -1.338 4.162
1.723 -1.34 4.156
1.75 -1.34 4.148
1.778 -1.342 4.143
0 0 0
0 0 0
0 0 0
0 0 0
0 0 0
0 0 0
0 0 0
0 0 0
0 0 0
0 0 0
0 0 0
0 0 0
1.67 -1.059 3.149
1.681 -1.053 3.12
1.689 -1.045 3.087
1.696 -1.037 3.053
1.696 -1.026 3.008
1.691 -1.011 2.954
1.683 -0.994 2.895
1.665 -0.973 2.822
1.652 -0.955 2.759
-0.16 -0.093 0.266
-0.168 -0.098 0.283
-0.156 -0.093 0.267
-0.142 -0.085 0.245
-0.134 -0.082 0.235
-0.119 -0.074 0.211
-0.102 -0.064 0.182
-0.091 -0.058 0.163
-0.083 -0.054 0.151
-0.068 -0.045 0.123
-0.063 -0.042 0.115
-0.055 -0.038 0.101
-0.047 -0.032 0.085
-0.04 -0.028 0.071
-0.197 -0.136 0.414
-0.346 -0.241 0.749
-0.652 -0.459 1.448
-0.949 -0.677 2.149
-1.312 -0.95 3.027
-1.515 -1.112 3.558
-1.712 -1.276 4.093
-1.756 -1.329 4.272
-1.795 -1.38 4.447
-1.765 -1.378 4.45
-1.733 -1.375 4.45
-1.7 -1.371 4.445
-1.668 -1.368 4.443
-1.637 -1.366 4.445
-1.605 -1.362 4.44
-1.573 -1.358 4.436
-1.541 -1.354 4.433
-1.51 -1.351 4.428
-1.476 -1.345 4.417
-1.446 -1.342 4.416
-1.416 -1.34 4.414
-1.386 -1.337 4.412
-1.354 -1.333 4.404
-1.328 -1.334 4.413
-1.297 -1.33 4.407
-1.267 -1.327 4.404
-1.24 -1.326 4.408
-1.21 -1.324 4.404
-1.184 -1.325 4.414
-1.155 -1.322 4.41
-1.125 -1.318 4.402
-1.097 -1.317 4.404
0 0 0
0 0 0
0 0 0
0 0 0
0 0 0
0 0 0
0 0 0
0 0 0
0 0 0
0 0 0
0 0 0
0 0 0
0 0 0
0 0 0
0 0 0
0 0 0
0 0 0
0 0 0
0 0 0
0 0 0
0 0 0
0 0 0
0 0 0
-0.442 -1.273 4.334
-0.415 -1.269 4.323
-0.39 -1.269 4.325
-0.364 -1.268 4.322
-0.339 -1.268 4.325
-0.313 -1.267 4.323
-0.287 -1.268 4.326
-0.262 -1.268 4.325
-0.236 -1.268 4.329
-0.21 -1.267 4.323
-0.185 -1.266 4.323
-0.159 -1.265 4.318
-0.134 -1.262 4.31
-0.108 -1.261 4.306
-0.083 -1.261 4.305
-0.057 -1.258 4.295
-0.032 -1.255 4.285
0 0 0
0 0 0
0 0 0
0 0 0
0 0 0
0 0 0
0 0 0
0 0 0
0 0 0
0 0 0
0 0 0
0 0 0
0 0 0
0 0 0
0 0 0
0 0 0
0 0 0
0 0 0
0 0 0
0 0 0
0 0 0
0 0 0
0 0 0
0 0 0
0 0 0
0 0 0
0 0 0
0 0 0
0 0 0
0 0 0
0 0 0
0 0 0
0 0 0
0 0 0
0 0 0
0.884 -1.271 4.252
0.909 -1.27 4.243
0.934 -1.271 4.24
0.96 -1.271 4.236
0.986 -1.272 4.233
1.012 -1.273 4.232
1.038 -1.274 4.229
1.065 -1.275 4.227
1.091 -1.277 4.226
1.118 -1.278 4.224
1.144 -1.278 4.22
1.171 -1.28 4.219
1.196 -1.28 4.212
1.223 -1.281 4.21
1.25 -1.283 4.209
1.277 -1.285 4.207
1.305 -1.287 4.206
1.333 -1.289 4.208
1.361 -1.291 4.207
1.388 -1.292 4.202
1.414 -1.293 4.197
1.441 -1.294 4.193
1.468 -1.296 4.189
1.496 -1.297 4.184
1.523 -1.298 4.18
1.55 -1.299 4.175
1.577 -1.3 4.17
1.606 -1.303 4.169
1.634 -1.304 4.165
1.663 -1.307 4.163
1.693 -1.31 4.164
1.722 -1.312 4.16
1.749 -1.313 4.152
1.777 -1.314 4.147
1.807 -1.317 4.145
0 0 0
0 0 0
0 0 0
0 0 0
0 0 0
0 0 0
0 0 0
0 0 0
0 0 0
0 0 0
0 0 0
1.666 -1.036 3.147
1.681 -1.033 3.126
1.689 -1.025 3.093
1.693 -1.016 3.055
1.697 -1.006 3.015
1.694 -0.993 2.964
1.685 -0.976 2.905
1.679 -0.961 2.851
1.662 -0.942 2.782
-0.16 -0.091 0.266
-0.142 -0.082 0.239
-0.15 -0.088 0.258
-0.138 -0.082 0.239
-0.129 -0.077 0.226
-0.114 -0.069 0.202
-0.099 -0.061 0.175
-0.087 -0.055 0.156
-0.08 -0.051 0.144
-0.065 -0.042 0.118
-0.06 -0.039 0.108
-0.051 -0.034 0.093
-0.043 -0.03 0.078
-0.118 -0.079 0.239
-0.194 -0.131 0.407
-0.422 -0.288 0.919
-0.676 -0.466 1.503
-1.028 -0.719 2.334
-1.339 -0.949 3.095
-1.644 -1.182 3.869
-1.777 -1.298 4.257
-1.826 -1.354 4.451
-1.793 -1.35 4.448
-1.763 -1.349 4.453
-1.731 -1.346 4.452
-1.698 -1.341 4.447
-1.666 -1.338 4.445
-1.634 -1.336 4.444
-1.603 -1.332 4.442
-1.57 -1.328 4.435
-1.538 -1.324 4.43
-1.507 -1.321 4.427
-1.474 -1.316 4.42
-1.444 -1.314 4.418
-1.415 -1.312 4.419
-1.386 -1.31 4.42
-1.353 -1.305 4.407
0 0 0
0 0 0
0 0 0
0 0 0
0 0 0
0 0 0
0 0 0
0 0 0
0 0 0
0 0 0
0 0 0
0 0 0
0 0 0
0 0 0
0 0 0
0 0 0
0 0 0
0 0 0
0 0 0
0 0 0
0 0 0
0 0 0
0 0 0
0 0 0
0 0 0
0 0 0
0 0 0
0 0 0
0 0 0
0 0 0
0 0 0
0 0 0
-0.441 -1.244 4.331
-0.415 -1.241 4.322
-0.389 -1.242 4.325
-0.364 -1.241 4.324
-0.338 -1.242 4.327
-0.312 -1.24 4.324
-0.287 -1.241 4.327
-0.261 -1.241 4.328
-0.236 -1.241 4.327
-0.21 -1.239 4.323
-0.184 -1.239 4.322
-0.159 -1.237 4.317
-0.133 -1.233 4.304
-0.108 -1.232 4.301
-0.082 -1.231 4.296
-0.057 -1.228 4.286
-0.031 -1.223 4.268
0 0 0
0 0 0
0 0 0
0 0 0
0 0 0
0 0 0
0 0 0
0 0 0
0 0 0
0 0 0
0 0 0
0 0 0
0 0 0
0 0 0
0 0 0
0 0 0
0 0 0
0 0 0
0 0 0
0 0 0
0 0 0
0 0 0
0 0 0
0 0 0
0 0 0
0 0 0
0 0 0
0 0 0
0 0 0
0 0 0
0 0 0
0 0 0
0 0 0
0 0 0
0 0 0
0.882 -1.243 4.248
0.907 -1.243 4.243
0.933 -1.243 4.24
0.958 -1.243 4.235
0.984 -1.243 4.23
1.01 -1.245 4.23
1.036 -1.245 4.225
1.062 -1.247 4.225
1.09 -1.249 4.225
1.116 -1.251 4.225
1.143 -1.251 4.221
1.17 -1.253 4.222
1.195 -1.253 4.215
1.222 -1.254 4.212
1.249 -1.256 4.211
1.276 -1.257 4.209
1.304 -1.259 4.209
1.331 -1.262 4.209
1.359 -1.263 4.207
1.385 -1.264 4.202
1.412 -1.265 4.196
1.438 -1.266 4.191
1.466 -1.267 4.188
1.493 -1.268 4.184
1.521 -1.27 4.181
1.548 -1.271 4.176
1.576 -1.273 4.172
1.604 -1.275 4.17
1.632 -1.276 4.166
1.659 -1.278 4.161
1.69 -1.282 4.164
1.718 -1.283 4.158
1.745 -1.284 4.151
1.773 -1.285 4.144
1.804 -1.289 4.146
0 0 0
0 0 0
0 0 0
0 0 0
0 0 0
0 0 0
0 0 0
0 0 0
0 0 0
0 0 0
0 0 0
1.666 -1.015 3.152
1.683 -1.013 3.135
1.692 -1.006 3.105
1.695 -0.996 3.064
1.698 -0.986 3.022
1.696 -0.974 2.974
1.687 -0.958 2.914
1.688 -0.947 2.872
1.699 -0.943 2.848
-0.164 -0.091 0.274
-0.161 -0.091 0.273
-0.144 -0.082 0.246
-0.133 -0.077 0.231
-0.122 -0.071 0.213
-0.108 -0.064 0.191
-0.095 -0.057 0.168
-0.084 -0.052 0.15
-0.075 -0.047 0.136
-0.062 -0.04 0.112
-0.054 -0.035 0.097
-0.046 -0.03 0.082
-0.122 -0.079 0.243
-0.196 -0.128 0.406
-0.271 -0.179 0.575
-0.58 -0.386 1.269
-0.837 -0.565 1.869
-1.072 -0.734 2.437
-1.396 -0.969 3.233
-1.714 -1.207 4.042
-1.768 -1.264 4.241
-1.82 -1.321 4.444
-1.787 -1.318 4.442
-1.757 -1.317 4.446
-1.726 -1.314 4.449
-1.695 -1.311 4.447
-1.663 -1.309 4.446
-1.632 -1.306 4.444
-1.6 -1.302 4.441
-1.566 -1.297 4.432
-1.535 -1.294 4.429
-1.504 -1.291 4.426
-1.472 -1.287 4.42
-1.442 -1.285 4.419
-1.413 -1.283 4.42
-1.381 -1.279 4.412
0 0 0
0 0 0
0 0 0
0 0 0
0 0 0
0 0 0
0 0 0
0 0 0
0 0 0
0 0 0
0 0 0
0 0 0
0 0 0
0 0 0
0 0 0
0 0 0
0 0 0
0 0 0
0 0 0
0 0 0
0 0 0
0 0 0
0 0 0
0 0 0
0 0 0
0 0 0
0 0 0
-0.186 -0.38 1.336
-0.178 -0.38 1.337
0 0 0
0 0 0
0 0 0
0 0 0
-0.441 -1.217 4.331
-0.415 -1.216 4.327
-0.389 -1.215 4.328
-0.363 -1.215 4.327
-0.338 -1.215 4.329
-0.312 -1.214 4.328
-0.286 -1.214 4.327
-0.261 -1.214 4.328
-0.235 -1.214 4.329
-0.21 -1.212 4.323
-0.184 -1.211 4.321
-0.159 -1.211 4.318
-0.133 -1.206 4.304
-0.107 -1.205 4.298
-0.082 -1.204 4.296
-0.057 -1.201 4.283
-0.031 -1.193 4.257
0 0 0
0 0 0
0 0 0
0 0 0
0 0 0
0 0 0
0 0 0
0 0 0
0 0 0
0 0 0
0 0 0
0 0 0
0 0 0
0 0 0
0 0 0
0 0 0
0 0 0
0 0 0
0 0 0
0 0 0
0 0 0
0 0 0
0 0 0
0 0 0
0 0 0
0 0 0
0 0 0
0 0 0
0 0 0
0 0 0
0 0 0
0 0 0
0 0 0
0 0 0
0 0 0
0.875 -1.207 4.219
0.903 -1.211 4.228
0.93 -1.213 4.231
0.955 -1.214 4.227
0.98 -1.214 4.222
1.008 -1.217 4.226
1.034 -1.217 4.223
1.06 -1.218 4.22
1.087 -1.221 4.223
1.114 -1.222 4.222
1.14 -1.223 4.219
1.167 -1.225 4.219
1.193 -1.225 4.213
1.219 -1.226 4.209
1.247 -1.228 4.21
1.273 -1.229 4.206
1.301 -1.231 4.206
