 0.938 -1.614 4.171
 0.964 -1.614 4.167
 0.991 -1.616 4.165
 1.017 -1.616 4.161
 1.042 -1.615 4.153
 1.068 -1.617 4.151
 1.096 -1.62 4.152
 1.122 -1.621 4.148
 1.148 -1.622 4.144
 1.175 -1.624 4.143
 1.2 -1.623 4.133
 1.225 -1.622 4.125
 1.252 -1.624 4.122
 1.281 -1.627 4.124
 1.308 -1.629 4.121
 1.337 -1.633 4.122
 1.363 -1.634 4.117
 1.388 -1.633 4.106
 1.413 -1.632 4.095
 1.439 -1.632 4.089
 1.466 -1.633 4.083
 1.492 -1.634 4.075
 1.519 -1.634 4.068
 1.544 -1.634 4.058
 1.568 -1.632 4.045
 1.591 -1.63 4.029
 1.618 -1.631 4.022
 1.643 -1.631 4.012
 1.668 -1.63 4
 1.694 -1.629 3.99
 1.72 -1.63 3.982
 1.744 -1.629 3.968
 1.768 -1.627 3.953
 1.79 -1.623 3.934
 1.808 -1.617 3.907
 1.821 -1.606 3.871
 1.832 -1.593 3.828
 1.836 -1.576 3.775
 1.84 -1.558 3.722
 1.842 -1.539 3.664
 1.847 -1.524 3.617
 1.844 -1.501 3.552
 1.843 -1.482 3.495
 1.836 -1.458 3.427
 1.781 -1.397 3.272
 1.753 -1.358 3.17
 1.763 -1.35 3.14
 1.773 -1.341 3.109
 1.777 -1.329 3.07
 1.773 -1.311 3.017
 1.768 -1.292 2.962
 1.765 -1.275 2.913
 1.752 -1.251 2.847
 -2.291 -1.627 3.867
 -2.265 -1.628 3.882
 -2.225 -1.618 3.871
 -2.196 -1.617 3.88
 -2.168 -1.616 3.89
 -2.145 -1.618 3.909
 -2.119 -1.619 3.922
 -2.093 -1.619 3.935
 -2.069 -1.621 3.951
 -2.043 -1.622 3.965
 -2.017 -1.622 3.978
 -1.99 -1.622 3.988
 -1.965 -1.623 4.002
 -1.937 -1.622 4.01
 -1.911 -1.623 4.023
 -1.884 -1.622 4.033
 -1.86 -1.624 4.048
 -1.829 -1.621 4.05
 -1.804 -1.621 4.062
 -1.778 -1.622 4.074
 -1.75 -1.621 4.08
 -1.72 -1.618 4.082
 -1.694 -1.618 4.093
 -1.666 -1.616 4.096
 -1.638 -1.615 4.102
 -1.609 -1.613 4.106
 -1.583 -1.613 4.115
 -1.557 -1.613 4.123
 -1.53 -1.613 4.131
 -1.501 -1.61 4.132
 -1.474 -1.609 4.138
 -1.447 -1.609 4.144
 -1.419 -1.607 4.146
 -1.393 -1.607 4.153
 -1.368 -1.608 4.164
 -1.343 -1.609 4.175
 -1.316 -1.608 4.179
 -1.29 -1.609 4.189
 -1.263 -1.609 4.193
 -1.236 -1.607 4.194
 -1.208 -1.604 4.194
 -1.181 -1.603 4.198
 -1.154 -1.602 4.202
 -1.127 -1.601 4.205
 -1.102 -1.602 4.213
 -1.074 -1.601 4.214
 -1.047 -1.598 4.213
 -1.02 -1.597 4.215
 -0.994 -1.597 4.22
 -0.968 -1.596 4.223
 -0.942 -1.598 4.232
 -0.917 -1.599 4.24
 -0.891 -1.599 4.243
 -0.864 -1.597 4.243
 -0.837 -1.596 4.244
 -0.81 -1.594 4.242
 -0.784 -1.593 4.243
 -0.757 -1.591 4.241
 -0.73 -1.588 4.237
 -0.703 -1.587 4.237
 -0.678 -1.587 4.241
 -0.652 -1.587 4.243
 -0.626 -1.587 4.248
 -0.602 -1.59 4.259
 -0.576 -1.59 4.261
 -0.55 -1.589 4.261
 -0.524 -1.589 4.263
 -0.497 -1.587 4.261
 -0.471 -1.586 4.259
 -0.445 -1.585 4.259
 -0.42 -1.586 4.264
 -0.393 -1.583 4.258
 -0.368 -1.586 4.266
 -0.343 -1.587 4.27
 -0.317 -1.587 4.272
 -0.291 -1.586 4.271
 -0.266 -1.587 4.274
 -0.239 -1.584 4.266
 -0.214 -1.583 4.264
 -0.188 -1.582 4.263
 -0.162 -1.58 4.259
 -0.136 -1.58 4.259
 -0.111 -1.582 4.264
 -0.085 -1.581 4.262
 -0.06 -1.579 4.257
 -0.034 -1.579 4.257
 -0.008 -1.58 4.257
 0.016 -1.579 4.257
 0.042 -1.579 4.256
 0.067 -1.58 4.258
 0.093 -1.58 4.256
 0.118 -1.579 4.253
 0.144 -1.579 4.251
 0.169 -1.577 4.247
 0.195 -1.577 4.245
 0.22 -1.579 4.247
 0.246 -1.579 4.247
 0.272 -1.58 4.248
 0.297 -1.582 4.251
 0.323 -1.581 4.246
 0.348 -1.581 4.244
 0.374 -1.581 4.242
 0.399 -1.581 4.24
 0.425 -1.581 4.239
 0.451 -1.583 4.242
 0.477 -1.585 4.242
 0.503 -1.585 4.24
 0.528 -1.584 4.235
 0.553 -1.582 4.228
 0.579 -1.583 4.227
 0.605 -1.585 4.227
 0.631 -1.586 4.228
 0.658 -1.589 4.231
 0.685 -1.592 4.236
 0.711 -1.593 4.234
 0.737 -1.594 4.233
 0.763 -1.594 4.23
 0.788 -1.594 4.223
 0.814 -1.595 4.222
 0.84 -1.595 4.217
 0.866 -1.595 4.214
 0.893 -1.598 4.215
 0.919 -1.599 4.213
 0.945 -1.598 4.207
 0.971 -1.599 4.204
 0.997 -1.6 4.201
 1.024 -1.601 4.198
 1.049 -1.601 4.192
 1.076 -1.602 4.189
 1.104 -1.605 4.191
 1.13 -1.607 4.187
 1.156 -1.607 4.182
 1.185 -1.61 4.184
 1.21 -1.61 4.177
 1.237 -1.611 4.172
 1.264 -1.612 4.167
 1.293 -1.616 4.17
 1.32 -1.618 4.167
 1.348 -1.621 4.167
 1.375 -1.621 4.16
 1.4 -1.621 4.152
 1.426 -1.621 4.143
 1.453 -1.622 4.138
 1.481 -1.624 4.134
 1.508 -1.625 4.129
 1.536 -1.627 4.124
 1.561 -1.626 4.113
 1.586 -1.625 4.101
 1.611 -1.623 4.087
 1.637 -1.624 4.079
 1.663 -1.624 4.07
 1.689 -1.624 4.06
 1.716 -1.624 4.051
 1.741 -1.624 4.04
 1.765 -1.622 4.024
 1.787 -1.618 4.004
 1.806 -1.612 3.98
 1.819 -1.601 3.94
 1.831 -1.589 3.899
 1.838 -1.574 3.851
 1.845 -1.558 3.802
 1.85 -1.541 3.75
 1.854 -1.525 3.699
 1.863 -1.512 3.657
 1.867 -1.496 3.606
 1.865 -1.475 3.545
 0 0 0
 1.779 -1.373 3.277
 1.749 -1.333 3.171
 1.763 -1.329 3.149
 1.771 -1.319 3.114
 1.778 -1.308 3.079
 1.777 -1.293 3.031
 1.772 -1.274 2.976
 1.761 -1.252 2.913
 1.757 -1.235 2.864
 -2.307 -1.612 3.904
 -2.269 -1.604 3.898
 -2.258 -1.616 3.94
 -2.229 -1.614 3.949
 -2.201 -1.614 3.96
 -2.176 -1.615 3.976
 -2.15 -1.616 3.99
 -2.122 -1.615 3.999
 -2.096 -1.615 4.013
 -2.07 -1.616 4.028
 -2.044 -1.617 4.042
 -2.016 -1.616 4.051
 -1.989 -1.616 4.062
 -1.964 -1.618 4.077
 -1.938 -1.618 4.089
 -1.909 -1.617 4.097
 -1.885 -1.619 4.113
 -1.858 -1.619 4.122
 -1.829 -1.617 4.128
 -1.802 -1.617 4.138
 -1.774 -1.616 4.145
 -1.744 -1.613 4.147
 -1.716 -1.612 4.154
 -1.686 -1.609 4.156
 -1.658 -1.608 4.162
 -1.631 -1.608 4.169
 -1.604 -1.608 4.179
 -1.577 -1.608 4.187
 -1.551 -1.608 4.197
 -1.523 -1.607 4.201
 -1.495 -1.606 4.206
 -1.467 -1.604 4.21
 -1.439 -1.602 4.212
 -1.412 -1.602 4.218
 -1.384 -1.601 4.224
 -1.359 -1.602 4.234
 -1.332 -1.602 4.241
 -1.306 -1.603 4.25
 -1.279 -1.602 4.253
 -1.251 -1.6 4.255
 -1.221 -1.596 4.25
 -1.193 -1.593 4.25
 -1.165 -1.591 4.25
 -1.137 -1.589 4.251
 -1.111 -1.589 4.257
 -1.084 -1.589 4.261
 -1.056 -1.586 4.26
 -1.029 -1.586 4.263
 -1.003 -1.586 4.269
 -0.976 -1.585 4.27
 -0.95 -1.585 4.275
 -0.924 -1.586 4.282
 -0.897 -1.585 4.283
 -0.87 -1.582 4.28
 -0.843 -1.58 4.28
 -0.816 -1.579 4.281
 -0.789 -1.577 4.279
 -0.762 -1.576 4.279
 -0.736 -1.575 4.28
 -0.709 -1.573 4.28
 -0.682 -1.571 4.277
 -0.656 -1.571 4.278
 -0.63 -1.57 4.28
 -0.604 -1.571 4.285
 -0.578 -1.57 4.284
 -0.552 -1.57 4.287
 -0.525 -1.569 4.287
 -0.499 -1.567 4.285
 -0.473 -1.566 4.282
 -0.447 -1.566 4.285
 -0.421 -1.566 4.287
 -0.395 -1.564 4.282
 -0.369 -1.566 4.289
 -0.344 -1.567 4.294
 -0.318 -1.566 4.294
 -0.292 -1.566 4.293
 -0.266 -1.567 4.297
 -0.24 -1.563 4.289
 -0.214 -1.562 4.285
 -0.188 -1.562 4.286
 -0.162 -1.56 4.283
 -0.137 -1.56 4.282
 -0.111 -1.561 4.286
 -0.085 -1.561 4.286
 -0.06 -1.559 4.28
 -0.034 -1.56 4.283
 -0.008 -1.56 4.281
 0.016 -1.56 4.281
 0.042 -1.56 4.28
 0.068 -1.56 4.281
 0.093 -1.559 4.278
 0.119 -1.559 4.276
 0.145 -1.559 4.275
 0.17 -1.558 4.272
 0.196 -1.558 4.269
 0.221 -1.558 4.269
 0.247 -1.559 4.269
 0.273 -1.559 4.27
 0.299 -1.561 4.273
 0.324 -1.561 4.271
 0.35 -1.561 4.269
 0.376 -1.562 4.268
 0.401 -1.561 4.265
 0.427 -1.561 4.262
 0.453 -1.564 4.267
 0.479 -1.565 4.266
 0.505 -1.565 4.263
 0.53 -1.564 4.259
 0.555 -1.563 4.253
 0.581 -1.563 4.249
 0.607 -1.564 4.25
 0.633 -1.565 4.248
 0.66 -1.568 4.251
 0.687 -1.571 4.257
 0.713 -1.572 4.256
 0.739 -1.573 4.254
 0.766 -1.575 4.255
 0.791 -1.574 4.249
 0.817 -1.575 4.246
 0.844 -1.576 4.245
 0.87 -1.577 4.243
 0.896 -1.578 4.24
 0.923 -1.58 4.24
 0.949 -1.579 4.234
 0.975 -1.58 4.23
 1.002 -1.581 4.227
 1.029 -1.583 4.227
 1.054 -1.583 4.22
 1.081 -1.584 4.217
 1.109 -1.587 4.218
 1.136 -1.588 4.215
 1.162 -1.589 4.211
 1.191 -1.593 4.214
 1.218 -1.594 4.211
 1.245 -1.595 4.206
 1.271 -1.596 4.202
 1.3 -1.599 4.203
 1.328 -1.601 4.2
 1.356 -1.603 4.198
 1.382 -1.604 4.192
 1.409 -1.605 4.187
 1.437 -1.606 4.182
 1.464 -1.608 4.178
 1.493 -1.61 4.176
 1.522 -1.613 4.174
 1.55 -1.615 4.171
 1.575 -1.614 4.159
 1.601 -1.614 4.149
 1.626 -1.612 4.137
 1.653 -1.613 4.128
 1.68 -1.613 4.119
 1.708 -1.615 4.113
 1.734 -1.615 4.103
 1.759 -1.613 4.089
 1.781 -1.61 4.069
 1.801 -1.604 4.045
 1.816 -1.595 4.01
 1.828 -1.582 3.968
 1.839 -1.57 3.926
 1.847 -1.556 3.879
 1.854 -1.54 3.829
 1.863 -1.527 3.786
 1.87 -1.513 3.739
 1.876 -1.498 3.691
 1.876 -1.479 3.632
 0 0 0
 0 0 0
 0 0 0
 1.749 -1.312 3.179
 1.764 -1.307 3.157
 1.771 -1.297 3.121
 1.779 -1.287 3.087
 1.779 -1.272 3.04
 1.774 -1.254 2.986
 1.771 -1.238 2.937
 1.742 -1.204 2.846
 -2.362 -1.624 4.009
 -2.308 -1.605 3.976
 -2.291 -1.612 4.007
 -2.261 -1.61 4.015
 -2.235 -1.611 4.03
 -2.21 -1.613 4.048
 -2.182 -1.612 4.059
 -2.154 -1.612 4.071
 -2.128 -1.613 4.084
 -2.101 -1.613 4.097
 -2.071 -1.611 4.104
 -2.043 -1.611 4.115
 -2.015 -1.61 4.124
 -1.989 -1.611 4.138
 -1.96 -1.61 4.146
 -1.933 -1.61 4.157
 -1.907 -1.611 4.172
 -1.881 -1.612 4.183
 -1.851 -1.61 4.189
 -1.825 -1.611 4.202
 -1.799 -1.612 4.214
 -1.769 -1.61 4.218
 -1.74 -1.608 4.223
 -1.71 -1.605 4.226
 -1.681 -1.603 4.229
 -1.651 -1.6 4.23
 -1.623 -1.6 4.237
 -1.595 -1.598 4.242
 -1.568 -1.598 4.251
 -1.539 -1.597 4.255
 -1.511 -1.595 4.259
 -1.481 -1.593 4.26
 -1.452 -1.59 4.261
 -1.424 -1.589 4.265
 -1.395 -1.587 4.266
 -1.369 -1.588 4.276
 -1.343 -1.588 4.284
 -1.316 -1.588 4.292
 -1.288 -1.586 4.292
 -1.259 -1.584 4.293
 -1.229 -1.579 4.287
 -1.199 -1.576 4.283
 -1.172 -1.575 4.286
 -1.145 -1.574 4.289
 -1.118 -1.573 4.294
 -1.091 -1.573 4.298
 -1.064 -1.571 4.299
 -1.036 -1.57 4.3
 -1.009 -1.569 4.303
 -0.982 -1.567 4.303
 -0.954 -1.566 4.303
 -0.928 -1.566 4.309
 -0.901 -1.564 4.307
 -0.873 -1.562 4.306
 -0.846 -1.561 4.308
 -0.82 -1.56 4.31
 -0.792 -1.558 4.308
 -0.766 -1.557 4.308
 -0.739 -1.556 4.308
 -0.711 -1.553 4.303
 -0.684 -1.551 4.3
 -0.658 -1.55 4.301
 -0.631 -1.549 4.301
 -0.606 -1.55 4.307
 -0.58 -1.55 4.308
 -0.554 -1.549 4.311
 -0.527 -1.548 4.31
 -0.501 -1.547 4.307
 -0.474 -1.544 4.302
 -0.448 -1.544 4.303
 -0.422 -1.543 4.303
 -0.396 -1.541 4.3
 -0.37 -1.542 4.304
 -0.344 -1.543 4.307
 -0.318 -1.541 4.304
 -0.292 -1.54 4.302
 -0.266 -1.54 4.302
 -0.24 -1.537 4.295
 -0.214 -1.535 4.291
 -0.188 -1.536 4.293
 -0.162 -1.535 4.291
 -0.137 -1.535 4.293
 -0.111 -1.537 4.299
 -0.085 -1.537 4.298
 -0.06 -1.535 4.293
 -0.034 -1.536 4.294
 -0.008 -1.535 4.293
 0.017 -1.534 4.288
 0.042 -1.534 4.288
 0.068 -1.534 4.289
 0.093 -1.533 4.285
 0.119 -1.533 4.284
 0.145 -1.533 4.282
 0.17 -1.533 4.281
 0.196 -1.532 4.278
 0.221 -1.533 4.278
 0.247 -1.533 4.277
 0.273 -1.534 4.279
 0.299 -1.535 4.28
 0.324 -1.536 4.279
 0.35 -1.536 4.278
 0.376 -1.536 4.277
 0.401 -1.536 4.273
 0.427 -1.536 4.271
 0.453 -1.537 4.272
 0.479 -1.538 4.273
 0.505 -1.539 4.271
 0.53 -1.539 4.268
 0.556 -1.538 4.262
 0.582 -1.538 4.26
 0.608 -1.539 4.26
 0.633 -1.54 4.258
 0.66 -1.542 4.26
 0.687 -1.545 4.266
 0.714 -1.547 4.266
 0.74 -1.548 4.265
 0.766 -1.549 4.264
 0.792 -1.55 4.261
 0.818 -1.55 4.256
 0.845 -1.552 4.257
 0.871 -1.553 4.255
 0.897 -1.553 4.252
 0.925 -1.556 4.254
 0.951 -1.557 4.252
 0.977 -1.557 4.246
 1.004 -1.558 4.243
 1.031 -1.561 4.245
 1.057 -1.56 4.237
 1.084 -1.562 4.236
 1.112 -1.565 4.238
 1.139 -1.566 4.236
 1.166 -1.567 4.233
 1.195 -1.571 4.235
 1.221 -1.572 4.23
 1.248 -1.573 4.227
 1.276 -1.574 4.224
 1.305 -1.578 4.226
 1.333 -1.58 4.224
 1.36 -1.582 4.221
 1.388 -1.583 4.216
 1.415 -1.584 4.212
 1.443 -1.586 4.207
 1.471 -1.588 4.204
 1.5 -1.591 4.204
 1.528 -1.593 4.2
 1.557 -1.595 4.197
 1.583 -1.594 4.187
 1.609 -1.594 4.178
 1.636 -1.595 4.169
 1.663 -1.596 4.162
 1.691 -1.597 4.155
 1.719 -1.599 4.15
 1.746 -1.599 4.141
 1.77 -1.597 4.124
 1.792 -1.593 4.104
 1.812 -1.587 4.078
 1.824 -1.575 4.036
 1.833 -1.56 3.987
 1.844 -1.548 3.946
 1.852 -1.534 3.897
 1.858 -1.518 3.847
 1.874 -1.511 3.817
 1.889 -1.502 3.784
 1.898 -1.49 3.742
 0 0 0
 0 0 0
 0 0 0
 0 0 0
 1.755 -1.295 3.197
 1.768 -1.289 3.171
 1.774 -1.277 3.133
 1.781 -1.268 3.098
 1.781 -1.253 3.052
 1.776 -1.235 2.997
 1.778 -1.223 2.956
 1.771 -1.204 2.9
 -2.392 -1.616 4.07
 -2.369 -1.62 4.092
 -1.851 -1.281 3.243
 -1.826 -1.279 3.249
 -1.806 -1.28 3.263
 -1.876 -1.346 3.442
 -1.851 -1.345 3.45
 -1.828 -1.345 3.46
 -1.892 -1.41 3.639
 -1.953 -1.474 3.817
 -1.84 -1.407 3.653
 -1.899 -1.472 3.832
 -1.955 -1.536 4.011
 -1.931 -1.538 4.026
 -1.903 -1.537 4.034
 -1.955 -1.601 4.214
 -1.929 -1.602 4.228
 -1.902 -1.603 4.24
 -1.871 -1.6 4.244
 -1.844 -1.601 4.256
 -1.819 -1.602 4.27
 -1.788 -1.6 4.273
 -1.758 -1.597 4.276
 -1.727 -1.594 4.278
 -1.697 -1.591 4.279
 -1.666 -1.589 4.28
 -1.638 -1.587 4.285
 -1.608 -1.585 4.288
 -1.58 -1.584 4.295
 -1.552 -1.583 4.3
 -1.522 -1.58 4.3
 -1.492 -1.578 4.302
 -1.463 -1.576 4.304
 -1.435 -1.574 4.307
 -1.405 -1.572 4.307
 -1.379 -1.572 4.316
 -1.352 -1.572 4.323
 -1.324 -1.571 4.327
 -1.295 -1.569 4.327
 -1.266 -1.566 4.327
 -1.235 -1.56 4.316
 -1.205 -1.556 4.311
 -1.177 -1.555 4.314
 -1.15 -1.554 4.317
 -1.122 -1.553 4.319
 -1.095 -1.552 4.323
 -1.067 -1.55 4.321
 -1.038 -1.547 4.319
 -1.01 -1.545 4.317
 -0.983 -1.543 4.318
 -0.956 -1.542 4.318
 -0.929 -1.541 4.322
 -0.902 -1.54 4.323
 -0.874 -1.538 4.321
 -0.847 -1.537 4.322
 -0.82 -1.536 4.322
 -0.793 -1.533 4.319
 -0.766 -1.532 4.32
 -0.739 -1.531 4.319
 -0.712 -1.528 4.316
 -0.685 -1.527 4.314
 -0.659 -1.526 4.314
 -0.631 -1.523 4.31
 -0.606 -1.524 4.315
 -0.579 -1.522 4.313
 -0.553 -1.522 4.314
 -0.526 -1.52 4.311
 -0.5 -1.519 4.309
 -0.473 -1.516 4.305
 -0.447 -1.517 4.308
 -0.421 -1.516 4.307
 -0.395 -1.515 4.307
 -0.369 -1.515 4.309
 -0.344 -1.516 4.312
 -0.317 -1.514 4.308
 -0.291 -1.513 4.305
 -0.265 -1.512 4.304
 -0.239 -1.51 4.299
 -0.213 -1.507 4.292
 -0.188 -1.507 4.293
 -0.162 -1.508 4.295
 -0.136 -1.508 4.297
 -0.111 -1.509 4.298
 -0.085 -1.509 4.3
 -0.059 -1.508 4.297
 -0.034 -1.508 4.296
 -0.008 -1.508 4.296
 0.017 -1.507 4.294
 0.042 -1.508 4.296
 0.068 -1.508 4.296
 0.094 -1.508 4.293
 0.119 -1.507 4.29
 0.145 -1.507 4.288
 0.17 -1.506 4.285
 0.196 -1.505 4.281
 0.221 -1.505 4.281
 0.247 -1.505 4.279
 0.273 -1.507 4.283
 0.299 -1.509 4.285
 0.324 -1.509 4.285
 0.35 -1.51 4.284
 0.376 -1.511 4.286
 0.401 -1.51 4.281
 0.427 -1.51 4.277
 0.453 -1.51 4.276
 0.478 -1.511 4.275
 0.504 -1.512 4.275
 0.53 -1.511 4.271
 0.555 -1.51 4.265
 0.581 -1.511 4.265
 0.607 -1.513 4.265
 0.633 -1.512 4.261
 0.659 -1.514 4.263
 0.687 -1.518 4.269
 0.713 -1.519 4.268
 0.739 -1.52 4.268
 0.765 -1.521 4.267
 0.792 -1.522 4.264
 0.817 -1.522 4.26
 0.844 -1.524 4.26
 0.87 -1.525 4.258
 0.897 -1.526 4.256
 0.924 -1.528 4.258
 0.951 -1.53 4.257
 0.977 -1.531 4.254
 1.004 -1.532 4.252
 1.031 -1.534 4.253
 1.057 -1.534 4.246
 1.084 -1.535 4.244
 1.112 -1.538 4.246
 1.14 -1.54 4.245
 1.167 -1.542 4.243
 1.196 -1.546 4.248
 1.223 -1.547 4.244
 1.25 -1.549 4.241
 1.278 -1.55 4.238
 1.307 -1.554 4.24
 1.334 -1.555 4.237
 1.362 -1.557 4.235
 1.39 -1.559 4.231
 1.418 -1.561 4.228
 1.446 -1.563 4.225
 1.474 -1.565 4.223
 1.504 -1.569 4.225
 1.533 -1.571 4.222
 1.562 -1.573 4.219
 1.589 -1.573 4.211
 1.617 -1.575 4.206
 1.644 -1.576 4.199
 1.673 -1.578 4.194
 1.702 -1.58 4.19
 1.73 -1.581 4.183
 1.757 -1.582 4.175
 1.78 -1.579 4.156
 1.801 -1.574 4.133
 1.819 -1.566 4.102
 1.832 -1.556 4.063
 1.841 -1.542 4.015
 1.853 -1.53 3.974
 1.863 -1.517 3.929
 1.868 -1.5 3.874
 1.877 -1.488 3.831
 1.887 -1.476 3.79
 0 0 0
 0 0 0
 0 0 0
 0 0 0
 0 0 0
 1.756 -1.274 3.207
 1.77 -1.268 3.182
 1.776 -1.258 3.145
 1.784 -1.249 3.111
 1.785 -1.235 3.065
 1.779 -1.217 3.01
 1.753 -1.186 2.922
 1.758 -1.175 2.886
 -2.417 -1.605 4.122
 -2.361 -1.586 4.087
 -1.411 -0.96 2.476
 -1.394 -0.959 2.482
 -1.376 -0.959 2.488
 -1.448 -1.021 2.66
 -1.519 -1.085 2.835
 -1.499 -1.084 2.842
 -1.565 -1.147 3.015
 -1.718 -1.275 3.363
 -1.607 -1.209 3.198
 -1.586 -1.208 3.206
 -1.644 -1.27 3.379
 -1.624 -1.271 3.392
 -1.6 -1.27 3.398
 -1.736 -1.397 3.749
 -1.79 -1.461 3.931
 -1.842 -1.526 4.116
 -1.888 -1.587 4.292
 -1.859 -1.586 4.3
 -1.831 -1.586 4.31
 -1.8 -1.583 4.312
 -1.769 -1.58 4.313
 -1.739 -1.578 4.317
 -1.709 -1.576 4.32
 -1.68 -1.574 4.324
 -1.65 -1.572 4.328
 -1.62 -1.57 4.33
 -1.59 -1.567 4.332
 -1.56 -1.565 4.333
 -1.53 -1.562 4.333
 -1.501 -1.56 4.335
 -1.471 -1.557 4.335
 -1.443 -1.556 4.339
 -1.413 -1.553 4.338
 -1.384 -1.551 4.34
 -1.356 -1.55 4.345
 -1.328 -1.549 4.349
 -1.298 -1.546 4.346
 -1.269 -1.543 4.346
 -1.238 -1.538 4.338
 -1.207 -1.533 4.33
 -1.178 -1.53 4.327
 -1.151 -1.529 4.329
 -1.122 -1.527 4.329
 -1.096 -1.527 4.334
 -1.068 -1.524 4.333
 -1.039 -1.522 4.33
 -1.011 -1.519 4.327
 -0.983 -1.518 4.328
 -0.955 -1.515 4.324
 -0.928 -1.514 4.327
 -0.902 -1.513 4.33
 -0.874 -1.511 4.328
 -0.847 -1.509 4.326
 -0.819 -1.507 4.322
 -0.792 -1.505 4.322
 -0.765 -1.504 4.323
 -0.738 -1.503 4.323
 -0.712 -1.502 4.322
 -0.685 -1.501 4.324
 -0.659 -1.5 4.323
 -0.632 -1.498 4.32
 -0.606 -1.498 4.322
 -0.579 -1.496 4.321
 -0.553 -1.496 4.322
 -0.526 -1.494 4.318
 -0.499 -1.492 4.315
 -0.473 -1.49 4.31
 -0.447 -1.49 4.313
 -0.421 -1.489 4.312
 -0.395 -1.488 4.312
 -0.369 -1.488 4.313
 -0.343 -1.489 4.315
 -0.317 -1.487 4.311
 -0.291 -1.485 4.309
 -0.265 -1.485 4.31
 -0.239 -1.484 4.307
 -0.213 -1.482 4.302
 -0.187 -1.482 4.301
 -0.162 -1.481 4.299
 -0.136 -1.482 4.303
 -0.11 -1.482 4.303
 -0.085 -1.482 4.304
 -0.059 -1.482 4.303
 -0.033 -1.482 4.302
 -0.008 -1.48 4.298
 0.017 -1.481 4.299
 0.042 -1.482 4.302
 0.068 -1.482 4.301
 0.094 -1.482 4.301
 0.119 -1.482 4.3
 0.145 -1.481 4.296
 0.17 -1.48 4.292
 0.196 -1.48 4.29
 0.222 -1.48 4.29
 0.247 -1.481 4.29
 0.273 -1.482 4.293
 0.299 -1.484 4.295
 0.325 -1.484 4.294
 0.35 -1.484 4.292
 0.376 -1.485 4.293
 0.402 -1.484 4.288
 0.427 -1.484 4.285
 0.453 -1.484 4.281
 0.478 -1.484 4.279
 0.504 -1.485 4.279
 0.53 -1.485 4.278
 0.555 -1.485 4.273
 0.581 -1.485 4.272
 0.607 -1.486 4.271
 0.633 -1.486 4.266
 0.659 -1.486 4.264
 0.686 -1.49 4.27
 0.712 -1.491 4.271
 0.738 -1.493 4.27
 0.765 -1.494 4.27
 0.791 -1.495 4.268
 0.817 -1.495 4.263
 0.843 -1.496 4.264
 0.87 -1.497 4.262
 0.896 -1.498 4.258
 0.923 -1.5 4.26
 0.95 -1.502 4.259
 0.976 -1.503 4.257
 1.003 -1.504 4.256
 1.031 -1.507 4.257
 1.057 -1.507 4.252
 1.084 -1.509 4.251
 1.112 -1.512 4.253
 1.14 -1.514 4.253
 1.167 -1.516 4.253
 1.197 -1.52 4.257
 1.224 -1.522 4.255
 1.251 -1.523 4.253
 1.278 -1.524 4.248
 1.306 -1.527 4.247
 1.334 -1.528 4.245
 1.362 -1.53 4.242
 1.39 -1.532 4.238
 1.418 -1.534 4.236
 1.446 -1.536 4.233
 1.474 -1.538 4.23
 1.504 -1.542 4.232
 1.533 -1.544 4.23
 1.563 -1.547 4.23
 1.591 -1.549 4.226
 1.62 -1.551 4.222
 1.648 -1.552 4.216
 1.676 -1.554 4.21
 1.704 -1.555 4.205
 1.732 -1.557 4.198
 1.759 -1.557 4.189
 1.783 -1.555 4.172
 1.804 -1.55 4.148
 1.822 -1.543 4.119
 1.836 -1.532 4.081
 1.847 -1.52 4.036
 1.86 -1.509 3.997
 1.872 -1.498 3.956
 1.88 -1.485 3.909
 1.893 -1.475 3.872
 0 0 0
 0 0 0
 0 0 0
 0 0 0
 0 0 0
 0 0 0
 1.745 -1.244 3.193
 1.761 -1.24 3.173
 1.77 -1.232 3.142
 1.781 -1.225 3.112
 1.786 -1.214 3.074
 1.782 -1.198 3.022
 1.759 -1.169 2.938
 1.769 -1.163 2.911
 -0.031 -0.022 0.041
 -0.023 -0.017 0.027
 -0.969 -0.648 1.7
 -0.958 -0.648 1.705
 -0.944 -0.647 1.708
 -1.021 -0.708 1.876
 -1.095 -0.769 2.044
 -1.078 -0.767 2.046
 -1.147 -0.826 2.212
 -1.305 -0.952 2.558
 -1.199 -0.886 2.386
 -1.182 -0.886 2.392
 -1.246 -0.946 2.562
 -1.23 -0.947 2.572
 -1.291 -1.007 2.745
 -1.512 -1.196 3.271
 -1.646 -1.321 3.624
 -1.777 -1.446 3.979
 -1.9 -1.569 4.329
 -1.871 -1.568 4.336
 -1.84 -1.566 4.34
 -1.809 -1.563 4.343
 -1.778 -1.56 4.344
 -1.748 -1.558 4.347
 -1.718 -1.556 4.35
 -1.688 -1.554 4.354
 -1.657 -1.551 4.355
 -1.626 -1.548 4.355
 -1.595 -1.545 4.354
 -1.565 -1.542 4.354
 -1.533 -1.538 4.351
 -1.503 -1.535 4.35
 -1.472 -1.531 4.348
 -1.444 -1.53 4.351
 -1.413 -1.527 4.349
 -1.384 -1.524 4.35
 -1.356 -1.523 4.353
 -1.327 -1.521 4.355
 -1.297 -1.518 4.351
 -1.268 -1.515 4.351
 -1.237 -1.51 4.343
 -1.207 -1.506 4.336
 -1.178 -1.504 4.336
 -1.15 -1.502 4.335
 -1.121 -1.498 4.331
 -1.095 -1.499 4.338
 -1.066 -1.496 4.336
 -1.038 -1.493 4.333
 -1.009 -1.491 4.329
 -0.982 -1.49 4.332
 -0.954 -1.487 4.328
 -0.927 -1.485 4.328
 -0.9 -1.484 4.328
 -0.872 -1.483 4.329
 -0.845 -1.48 4.325
 -0.817 -1.478 4.323
 -0.791 -1.477 4.323
 -0.765 -1.477 4.328
 -0.737 -1.475 4.326
 -0.711 -1.475 4.328
 -0.685 -1.474 4.329
 -0.658 -1.474 4.33
 -0.631 -1.471 4.325
 -0.605 -1.471 4.327
 -0.578 -1.468 4.322
 -0.552 -1.467 4.321
 -0.525 -1.464 4.315
 -0.498 -1.463 4.315
 -0.472 -1.461 4.309
 -0.446 -1.461 4.312
 -0.42 -1.46 4.312
 -0.394 -1.46 4.312
 -0.368 -1.459 4.31
 -0.342 -1.459 4.312
 -0.316 -1.458 4.309
 -0.29 -1.457 4.307
 -0.265 -1.457 4.308
 -0.239 -1.456 4.308
 -0.213 -1.455 4.305
 -0.187 -1.454 4.303
 -0.161 -1.453 4.301
 -0.136 -1.453 4.302
 -0.11 -1.453 4.3
 -0.084 -1.453 4.3
 -0.059 -1.453 4.299
 -0.033 -1.453 4.3
 -0.008 -1.451 4.295
 0.017 -1.452 4.297
 0.043 -1.454 4.301
 0.068 -1.454 4.301
 0.094 -1.454 4.3
 0.119 -1.454 4.301
 0.145 -1.453 4.297
 0.17 -1.452 4.293
 0.196 -1.452 4.29
 0.221 -1.452 4.289
 0.247 -1.453 4.29
 0.273 -1.454 4.293
 0.299 -1.456 4.296
 0.325 -1.457 4.297
 0.35 -1.458 4.298
 0.376 -1.459 4.299
 0.402 -1.458 4.294
 0.427 -1.457 4.29
 0.453 -1.457 4.287
 0.478 -1.457 4.284
 0.504 -1.457 4.281
 0.53 -1.458 4.28
 0.555 -1.458 4.276
 0.581 -1.459 4.277
 0.607 -1.46 4.276
 0.633 -1.46 4.273
 0.659 -1.461 4.272
 0.686 -1.463 4.276
 0.712 -1.464 4.275
 0.738 -1.465 4.273
 0.764 -1.467 4.274
 0.791 -1.468 4.273
 0.816 -1.468 4.268
 0.843 -1.47 4.27
 0.869 -1.471 4.268
 0.895 -1.471 4.263
 0.922 -1.473 4.263
 0.949 -1.475 4.264
 0.975 -1.475 4.26
 1.003 -1.477 4.261
 1.03 -1.48 4.263
 1.057 -1.481 4.26
 1.084 -1.483 4.26
 1.112 -1.486 4.262
 1.14 -1.488 4.261
 1.167 -1.49 4.261
 1.196 -1.493 4.263
 1.223 -1.494 4.258
 1.25 -1.495 4.255
 1.277 -1.497 4.253
 1.305 -1.499 4.251
 1.333 -1.501 4.249
 1.361 -1.503 4.247
 1.389 -1.505 4.245
 1.417 -1.506 4.241
 1.445 -1.508 4.238
 1.473 -1.51 4.235
 1.503 -1.513 4.235
 1.531 -1.515 4.232
 1.561 -1.518 4.233
 1.59 -1.521 4.23
 1.618 -1.523 4.226
 1.646 -1.524 4.22
 1.674 -1.525 4.214
 1.703 -1.527 4.21
 1.731 -1.529 4.204
 1.758 -1.529 4.195
 1.783 -1.527 4.18
 1.804 -1.523 4.157
 1.824 -1.517 4.131
 1.839 -1.508 4.094
 1.852 -1.497 4.054
 1.868 -1.49 4.023
 1.885 -1.483 3.993
 1.893 -1.469 3.944
 0 0 0
 0 0 0
 0 0 0
 0 0 0
 0 0 0
 0 0 0
 0 0 0
 1.738 -1.218 3.188
 1.759 -1.217 3.176
 1.77 -1.211 3.148
 1.782 -1.205 3.121
 1.787 -1.194 3.083
 1.784 -1.179 3.033
 1.757 -1.148 2.942
 1.758 -1.135 2.899
 -0.034 -0.023 0.046
 -0.056 -0.038 0.085
 -0.522 -0.344 0.912
 -0.516 -0.344 0.915
 -0.506 -0.342 0.912
 -0.588 -0.401 1.078
 -0.667 -0.46 1.243
 -0.654 -0.458 1.239
 -0.727 -0.515 1.4
 -0.888 -0.637 1.74
 -0.786 -0.571 1.563
 -0.858 -0.632 1.736
 -0.927 -0.691 1.907
 -0.996 -0.753 2.085
 -1.14 -0.874 2.429
 -1.443 -1.121 3.128
 -1.577 -1.243 3.478
 -1.785 -1.427 4.005
 -1.909 -1.548 4.357
 -1.878 -1.546 4.361
 -1.846 -1.543 4.363
 -1.815 -1.54 4.365
 -1.783 -1.537 4.365
 -1.752 -1.534 4.367
 -1.721 -1.532 4.369
 -1.69 -1.529 4.37
 -1.658 -1.525 4.367
 -1.627 -1.522 4.367
 -1.596 -1.518 4.364
 -1.565 -1.515 4.364
 -1.534 -1.511 4.362
 -1.504 -1.509 4.363
 -1.473 -1.505 4.358
 -1.444 -1.503 4.361
 -1.413 -1.5 4.358
 -1.384 -1.497 4.358
 -1.355 -1.495 4.359
 -1.326 -1.493 4.361
 -1.296 -1.49 4.356
 -1.267 -1.487 4.355
 -1.236 -1.483 4.348
 -1.206 -1.479 4.343
 -1.178 -1.477 4.343
 -1.15 -1.475 4.343
 -1.121 -1.472 4.34
 -1.094 -1.471 4.344
 -1.066 -1.47 4.344
 -1.038 -1.468 4.343
 -1.009 -1.464 4.337
 -0.982 -1.463 4.34
 -0.954 -1.461 4.338
 -0.927 -1.459 4.336
 -0.899 -1.457 4.333
 -0.872 -1.456 4.334
 -0.844 -1.452 4.328
 -0.816 -1.45 4.324
 -0.789 -1.448 4.322
 -0.763 -1.448 4.326
 -0.736 -1.446 4.324
 -0.709 -1.446 4.326
 -0.683 -1.445 4.328
 -0.657 -1.445 4.331
 -0.63 -1.444 4.328
 -0.605 -1.444 4.333
 -0.577 -1.441 4.327
 -0.551 -1.44 4.324
 -0.524 -1.436 4.317
 -0.498 -1.435 4.315
 -0.471 -1.433 4.309
 -0.445 -1.434 4.314
 -0.42 -1.434 4.316
 -0.394 -1.433 4.317
 -0.368 -1.432 4.314
 -0.342 -1.432 4.315
 -0.316 -1.43 4.31
 -0.29 -1.429 4.307
 -0.264 -1.429 4.309
 -0.238 -1.429 4.31
 -0.213 -1.428 4.309
 -0.187 -1.428 4.309
 -0.161 -1.427 4.308
 -0.135 -1.427 4.306
 -0.11 -1.426 4.303
 -0.084 -1.426 4.303
 -0.059 -1.425 4.301
 -0.033 -1.424 4.299
 -0.007 -1.423 4.296
 0.017 -1.424 4.298
 0.043 -1.427 4.305
 0.068 -1.427 4.305
 0.094 -1.427 4.305
 0.119 -1.428 4.306
 0.145 -1.428 4.304
 0.17 -1.425 4.296
 0.196 -1.425 4.294
 0.221 -1.426 4.295
 0.247 -1.427 4.296
 0.273 -1.427 4.296
 0.299 -1.429 4.3
 0.325 -1.431 4.303
 0.35 -1.43 4.3
 0.376 -1.431 4.299
 0.401 -1.43 4.293
 0.426 -1.427 4.284
 0.451 -1.426 4.278
 0.477 -1.427 4.277
 0.502 -1.427 4.275
 0.528 -1.428 4.276
 0.554 -1.429 4.276
 0.581 -1.432 4.28
 0.607 -1.433 4.281
 0.633 -1.434 4.279
 0.659 -1.435 4.279
 0.686 -1.438 4.285
 0.712 -1.438 4.281
 0.737 -1.438 4.277
 0.763 -1.439 4.275
 0.79 -1.44 4.274
 0.815 -1.439 4.267
 0.842 -1.442 4.27
 0.869 -1.443 4.271
 0.895 -1.445 4.269
 0.922 -1.446 4.269
 0.949 -1.448 4.269
 0.975 -1.448 4.265
 1.002 -1.45 4.265
 1.029 -1.452 4.266
 1.056 -1.454 4.264
 1.084 -1.457 4.266
 1.112 -1.459 4.268
 1.14 -1.461 4.268
 1.168 -1.464 4.269
 1.196 -1.466 4.269
 1.222 -1.466 4.262
 1.248 -1.467 4.257
 1.276 -1.469 4.256
 1.304 -1.47 4.253
 1.332 -1.473 4.253
 1.36 -1.475 4.252
 1.388 -1.477 4.25
 1.415 -1.478 4.244
 1.443 -1.479 4.24
 1.471 -1.481 4.238
 1.501 -1.485 4.238
 1.529 -1.486 4.235
 1.559 -1.49 4.236
 1.588 -1.492 4.234
 1.617 -1.494 4.23
 1.645 -1.496 4.225
 1.673 -1.498 4.221
 1.702 -1.499 4.215
 1.73 -1.501 4.21
 1.758 -1.502 4.202
 1.782 -1.499 4.185
 1.805 -1.496 4.166
 1.826 -1.492 4.143
 1.842 -1.484 4.11
 1.855 -1.473 4.07
 1.872 -1.466 4.039
 1.889 -1.459 4.008
 0 0 0
 0 0 0
 0 0 0
 0 0 0
 0 0 0
 0 0 0
 0 0 0
 0 0 0
 1.469 -1.011 2.698
 1.759 -1.196 3.184
 1.773 -1.191 3.16
 1.783 -1.184 3.13
 1.788 -1.174 3.092
 1.786 -1.159 3.041
 1.774 -1.138 2.976
 1.786 -1.134 2.953
 -0.084 -0.054 0.132
 -0.066 -0.044 0.103
 -0.073 -0.049 0.117
 -0.07 -0.047 0.114
 -0.063 -0.043 0.103
 -0.148 -0.1 0.262
 -0.231 -0.158 0.424
 -0.223 -0.154 0.415
 -0.301 -0.21 0.574
 -0.467 -0.33 0.912
 -0.372 -0.266 0.734
 -0.447 -0.324 0.9
 -0.518 -0.38 1.063
 -0.674 -0.501 1.41
 -0.904 -0.681 1.926
 -1.287 -0.982 2.794
 -1.502 -1.163 3.319
 -1.789 -1.404 4.022
 -1.912 -1.523 4.375
 -1.88 -1.52 4.376
 -1.847 -1.516 4.374
 -1.815 -1.512 4.373
 -1.782 -1.508 4.372
 -1.75 -1.505 4.372
 -1.719 -1.502 4.373
 -1.69 -1.501 4.377
 -1.658 -1.497 4.376
 -1.627 -1.494 4.375
 -1.595 -1.49 4.372
 -1.565 -1.487 4.371
 -1.533 -1.483 4.367
 -1.503 -1.481 4.368
 -1.473 -1.478 4.366
 -1.443 -1.475 4.367
 -1.412 -1.472 4.364
 -1.383 -1.469 4.364
 -1.355 -1.468 4.366
 -1.326 -1.466 4.367
 -1.296 -1.463 4.364
 -1.267 -1.46 4.364
 -1.237 -1.457 4.359
 -1.206 -1.452 4.351
 -1.177 -1.449 4.348
 -1.149 -1.447 4.347
 -1.119 -1.443 4.342
 -1.092 -1.443 4.346
 -1.064 -1.441 4.345
 -1.037 -1.44 4.346
 -1.008 -1.436 4.341
 -0.982 -1.436 4.346
 -0.953 -1.434 4.342
 -0.926 -1.432 4.342
 -0.898 -1.43 4.338
 -0.871 -1.429 4.339
 -0.843 -1.425 4.332
 -0.815 -1.422 4.327
 -0.788 -1.421 4.327
 -0.762 -1.421 4.331
 -0.735 -1.419 4.328
 -0.709 -1.419 4.332
 -0.683 -1.42 4.336
 -0.657 -1.419 4.337
 -0.63 -1.417 4.334
 -0.604 -1.417 4.337
 -0.577 -1.414 4.329
 -0.55 -1.412 4.326
 -0.523 -1.409 4.318
 -0.497 -1.408 4.317
 -0.47 -1.405 4.311
 -0.445 -1.406 4.316
 -0.419 -1.407 4.319
 -0.393 -1.406 4.321
 -0.367 -1.404 4.314
 -0.341 -1.404 4.316
 -0.315 -1.403 4.313
 -0.289 -1.402 4.312
 -0.264 -1.402 4.313
 -0.238 -1.403 4.315
 -0.212 -1.402 4.314
 -0.187 -1.402 4.314
 -0.161 -1.4 4.311
 -0.135 -1.399 4.307
 -0.11 -1.398 4.305
 -0.084 -1.398 4.304
 -0.058 -1.397 4.301
 -0.033 -1.397 4.301
 -0.007 -1.396 4.297
 0.017 -1.398 4.302
 0.043 -1.401 4.312
 0.068 -1.401 4.312
 0.094 -1.402 4.312
 0.12 -1.402 4.314
 0.145 -1.402 4.313
 0.17 -1.399 4.302
 0.196 -1.4 4.302
 0.222 -1.4 4.302
 0.247 -1.402 4.306
 0.273 -1.402 4.303
 0.299 -1.404 4.308
 0.325 -1.405 4.311
 0.35 -1.405 4.308
 0.376 -1.405 4.306
 0.401 -1.404 4.301
 0.426 -1.401 4.29
 0.451 -1.4 4.283
 0.477 -1.4 4.282
 0.502 -1.4 4.279
 0.528 -1.402 4.28
 0.554 -1.403 4.282
 0.581 -1.405 4.285
 0.607 -1.407 4.287
 0.633 -1.408 4.287
 0.659 -1.409 4.287
 0.686 -1.413 4.293
 0.712 -1.412 4.288
 0.737 -1.412 4.283
 0.763 -1.413 4.281
 0.789 -1.413 4.279
 0.815 -1.412 4.272
 0.842 -1.415 4.275
 0.869 -1.417 4.276
 0.895 -1.418 4.275
 0.92 -1.418 4.269
 0.947 -1.419 4.268
 0.973 -1.42 4.265
 1 -1.422 4.265
 1.027 -1.423 4.263
 1.055 -1.426 4.267
 1.083 -1.429 4.269
 1.111 -1.431 4.27
 1.138 -1.433 4.27
 1.166 -1.435 4.27
 1.194 -1.437 4.268
 1.22 -1.437 4.262
 1.246 -1.438 4.257
 1.274 -1.439 4.254
 1.301 -1.441 4.252
 1.329 -1.443 4.252
 1.358 -1.446 4.252
 1.386 -1.448 4.25
 1.413 -1.449 4.245
 1.441 -1.451 4.243
 1.47 -1.453 4.242
 1.499 -1.456 4.241
 1.528 -1.459 4.24
 1.558 -1.462 4.242
 1.588 -1.465 4.24
 1.616 -1.467 4.237
 1.644 -1.468 4.231
 1.673 -1.47 4.227
 1.7 -1.471 4.22
 1.729 -1.473 4.215
 1.757 -1.474 4.208
 1.782 -1.473 4.195
 1.806 -1.47 4.177
 1.829 -1.468 4.159
 1.85 -1.463 4.136
 1.867 -1.456 4.105
 1.888 -1.452 4.081
 0 0 0
 0 0 0
 0 0 0
 0 0 0
 0 0 0
 0 0 0
 0 0 0
 0 0 0
 0 0 0
 1.465 -0.991 2.697
 1.754 -1.172 3.182
 1.772 -1.17 3.166
 1.783 -1.163 3.137
 1.789 -1.154 3.101
 1.787 -1.139 3.051
 1.779 -1.121 2.991
 1.764 -1.099 2.922
 -0.094 -0.06 0.15
 -0.147 -0.093 0.245
 -0.091 -0.059 0.149
 -0.086 -0.057 0.143
 -0.077 -0.052 0.129
 -0.069 -0.047 0.116
 -0.151 -0.102 0.273
 -0.141 -0.096 0.258
 -0.131 -0.091 0.243
 -0.212 -0.147 0.407
 -0.203 -0.143 0.396
 -0.196 -0.14 0.389
 -0.272 -0.196 0.552
 -0.43 -0.314 0.896
 -0.743 -0.549 1.583
 -1.129 -0.846 2.456
 -1.425 -1.082 3.153
 -1.712 -1.319 3.857
 -1.913 -1.496 4.386
 -1.881 -1.492 4.386
 -1.846 -1.487 4.381
 -1.814 -1.484 4.38
 -1.781 -1.48 4.378
 -1.748 -1.476 4.375
 -1.718 -1.473 4.378
 -1.687 -1.471 4.38
 -1.656 -1.468 4.379
 -1.625 -1.464 4.377
 -1.594 -1.461 4.376
 -1.563 -1.458 4.376
 -1.532 -1.455 4.372
 -1.501 -1.452 4.371
 -1.47 -1.448 4.368
 -1.441 -1.446 4.368
 -1.409 -1.442 4.363
 -1.38 -1.439 4.362
 -1.352 -1.438 4.366
 -1.323 -1.436 4.367
 -1.293 -1.433 4.363
 -1.264 -1.431 4.363
 -1.237 -1.43 4.366
 -1.206 -1.426 4.359
 -1.178 -1.423 4.357
 -1.149 -1.421 4.357
 -1.12 -1.418 4.352
 -1.091 -1.414 4.346
 -1.063 -1.413 4.348
 -1.036 -1.412 4.348
 -1.007 -1.409 4.345
 -0.981 -1.41 4.352
 -0.953 -1.407 4.348
 -0.926 -1.405 4.347
 -0.898 -1.403 4.343
 -0.871 -1.402 4.345
 -0.842 -1.398 4.337
 -0.815 -1.396 4.333
 -0.788 -1.394 4.333
 -0.762 -1.394 4.336
 -0.735 -1.392 4.333
 -0.709 -1.393 4.339
 -0.683 -1.393 4.341
 -0.657 -1.393 4.343
 -0.63 -1.392 4.344
 -0.604 -1.391 4.345
 -0.576 -1.387 4.334
 -0.55 -1.386 4.332
 -0.523 -1.383 4.324
 -0.496 -1.381 4.321
 -0.47 -1.378 4.315
 -0.444 -1.38 4.322
 -0.419 -1.38 4.325
 -0.393 -1.379 4.322
 -0.366 -1.377 4.316
 -0.341 -1.377 4.318
 -0.315 -1.375 4.314
 -0.289 -1.374 4.311
 -0.263 -1.374 4.312
 -0.237 -1.373 4.311
 -0.212 -1.373 4.312
 -0.186 -1.374 4.313
 -0.161 -1.373 4.312
 -0.135 -1.372 4.31
 -0.109 -1.372 4.311
 -0.084 -1.372 4.31
 -0.058 -1.37 4.304
 -0.033 -1.37 4.304
 -0.007 -1.37 4.302
 0.017 -1.371 4.306
 0.043 -1.374 4.316
 0.069 -1.376 4.32
 0.094 -1.376 4.32
 0.12 -1.378 4.323
 0.145 -1.377 4.322
 0.171 -1.374 4.311
 0.196 -1.374 4.309
 0.222 -1.375 4.309
 0.248 -1.377 4.315
 0.273 -1.376 4.31
 0.299 -1.378 4.315
 0.325 -1.38 4.319
 0.351 -1.38 4.316
 0.376 -1.379 4.312
 0.402 -1.379 4.309
 0.426 -1.375 4.296
 0.451 -1.374 4.29
 0.477 -1.375 4.288
 0.502 -1.374 4.283
 0.528 -1.376 4.287
 0.554 -1.378 4.289
 0.581 -1.379 4.292
 0.607 -1.381 4.295
 0.633 -1.383 4.295
 0.659 -1.383 4.293
 0.686 -1.386 4.299
 0.712 -1.386 4.294
 0.737 -1.385 4.288
 0.763 -1.387 4.288
 0.789 -1.387 4.286
 0.814 -1.386 4.277
 0.842 -1.389 4.281
 0.869 -1.391 4.282
 0.895 -1.392 4.28
 0.92 -1.391 4.272
 0.947 -1.392 4.272
 0.972 -1.392 4.266
 0.999 -1.394 4.267
 1.026 -1.395 4.265
 1.054 -1.399 4.27
 1.082 -1.401 4.272
 1.11 -1.403 4.272
 1.137 -1.406 4.273
 1.165 -1.407 4.272
 1.191 -1.408 4.268
 1.218 -1.409 4.263
 1.244 -1.409 4.258
 1.272 -1.411 4.255
 1.299 -1.412 4.252
 1.327 -1.414 4.25
 1.355 -1.417 4.251
 1.384 -1.419 4.25
 1.411 -1.42 4.245
 1.439 -1.422 4.244
 1.468 -1.425 4.244
 1.497 -1.427 4.242
 1.525 -1.429 4.24
 1.555 -1.433 4.24
 1.584 -1.435 4.239
 1.613 -1.437 4.235
 1.641 -1.439 4.231
 1.67 -1.44 4.226
 1.697 -1.441 4.218
 1.725 -1.443 4.214
 1.754 -1.444 4.208
 1.779 -1.443 4.194
 1.804 -1.442 4.181
 1.829 -1.441 4.167
 1.851 -1.437 4.145
 1.865 -1.428 4.108
 0 0 0
 0 0 0
 0 0 0
 0 0 0
 0 0 0
 0 0 0
 0 0 0
 0 0 0
 0 0 0
 0 0 0
 1.408 -0.935 2.598
 1.75 -1.147 3.18
 1.768 -1.146 3.165
 1.777 -1.138 3.133
 1.786 -1.13 3.101
 1.786 -1.118 3.056
 1.769 -1.095 2.981
 1.774 -1.085 2.944
 -0.116 -0.072 0.189
 -0.113 -0.07 0.185
 -0.101 -0.064 0.167
 -0.094 -0.06 0.157
 -0.086 -0.056 0.144
 -0.078 -0.052 0.133
 -0.067 -0.045 0.114
 -0.057 -0.039 0.097
 -0.048 -0.033 0.08
 -0.042 -0.03 0.07
 -0.033 -0.024 0.054
 -0.112 -0.079 0.217
 -0.189 -0.134 0.38
 -0.429 -0.307 0.895
 -0.741 -0.538 1.583
 -1.128 -0.829 2.457
 -1.423 -1.061 3.156
 -1.71 -1.293 3.859
 -1.835 -1.408 4.214
 -1.879 -1.463 4.391
 -1.845 -1.459 4.387
 -1.813 -1.455 4.386
 -1.779 -1.451 4.382
 -1.746 -1.446 4.377
 -1.714 -1.443 4.377
 -1.683 -1.439 4.376
 -1.653 -1.438 4.379
 -1.621 -1.434 4.377
 -1.592 -1.432 4.379
 -1.562 -1.43 4.38
 -1.531 -1.426 4.377
 -1.498 -1.422 4.371
 -1.468 -1.419 4.37
 -1.437 -1.415 4.366
 -1.407 -1.412 4.362
 -1.378 -1.41 4.364
 -1.351 -1.41 4.37
 -1.321 -1.407 4.369
 -1.292 -1.405 4.367
 -1.263 -1.403 4.366
 -1.236 -1.402 4.371
 -1.206 -1.398 4.365
 -1.178 -1.397 4.366
 -1.15 -1.396 4.368
 -1.121 -1.392 4.362
 -1.091 -1.388 4.354
 -1.064 -1.387 4.358
 -1.036 -1.386 4.36
 -1.008 -1.383 4.355
 -0.982 -1.384 4.362
 -0.954 -1.382 4.358
 -0.926 -1.379 4.356
 -0.898 -1.376 4.351
 -0.871 -1.376 4.354
 -0.842 -1.372 4.345
 -0.815 -1.37 4.342
 -0.788 -1.368 4.339
 -0.761 -1.368 4.342
 -0.734 -1.365 4.338
 -0.708 -1.366 4.344
 -0.682 -1.366 4.345
 -0.656 -1.366 4.348
 -0.63 -1.365 4.348
 -0.604 -1.365 4.349
 -0.575 -1.359 4.334
 -0.548 -1.356 4.327
 -0.521 -1.353 4.321
 -0.495 -1.352 4.319
 -0.469 -1.35 4.314
 -0.444 -1.354 4.327
 -0.419 -1.355 4.334
 -0.392 -1.352 4.325
 -0.366 -1.349 4.316
 -0.34 -1.348 4.315
 -0.314 -1.346 4.311
 -0.288 -1.345 4.308
 -0.262 -1.345 4.307
 -0.237 -1.344 4.306
 -0.211 -1.344 4.307
 -0.186 -1.345 4.31
 -0.16 -1.345 4.312
 -0.135 -1.345 4.31
 -0.109 -1.345 4.31
 -0.083 -1.344 4.308
 -0.058 -1.342 4.302
 -0.032 -1.342 4.3
 -0.007 -1.341 4.299
 0.017 -1.343 4.303
 0.043 -1.347 4.317
 0.069 -1.349 4.322
 0.094 -1.349 4.323
 0.12 -1.35 4.325
 0.146 -1.351 4.327
 0.171 -1.348 4.315
 0.196 -1.348 4.315
 0.222 -1.348 4.313
 0.248 -1.351 4.319
 0.273 -1.349 4.312
 0.299 -1.35 4.314
 0.325 -1.352 4.319
 0.35 -1.353 4.318
 0.376 -1.351 4.313
 0.401 -1.351 4.309
 0.425 -1.347 4.294
 0.451 -1.346 4.289
 0.476 -1.347 4.288
 0.501 -1.345 4.28
 0.527 -1.347 4.283
 0.554 -1.35 4.289
 0.58 -1.352 4.294
 0.607 -1.356 4.301
 0.634 -1.358 4.305
 0.661 -1.36 4.308
 0.688 -1.364 4.316
 0.713 -1.361 4.304
 0.737 -1.359 4.293
 0.763 -1.36 4.291
 0.789 -1.36 4.287
 0.813 -1.358 4.276
 0.841 -1.361 4.282
 0.868 -1.363 4.285
 0.895 -1.365 4.286
 0.919 -1.363 4.275
 0.947 -1.366 4.278
 0.972 -1.366 4.273
 0.999 -1.368 4.273
 1.026 -1.368 4.27
 1.053 -1.371 4.271
 1.081 -1.373 4.272
 1.108 -1.375 4.272
 1.136 -1.377 4.273
 1.162 -1.378 4.27
 1.19 -1.38 4.268
 1.216 -1.38 4.263
 1.243 -1.381 4.259
 1.269 -1.382 4.254
 1.297 -1.384 4.253
 1.325 -1.385 4.251
 1.353 -1.388 4.252
 1.382 -1.391 4.252
 1.409 -1.392 4.247
 1.438 -1.395 4.248
 1.467 -1.397 4.246
 1.495 -1.398 4.243
 1.523 -1.401 4.241
 1.552 -1.403 4.241
 1.58 -1.405 4.236
 1.609 -1.407 4.233
 1.637 -1.409 4.229
 1.665 -1.41 4.222
 1.693 -1.411 4.216
 1.723 -1.414 4.215
 1.751 -1.415 4.21
 1.777 -1.414 4.197
 1.804 -1.415 4.188
 1.831 -1.415 4.179
 1.852 -1.412 4.156
 0 0 0
 0 0 0
 0 0 0
 0 0 0
 0 0 0
 0 0 0
 0 0 0
 0 0 0
 0 0 0
 0 0 0
 0 0 0
 1.404 -0.915 2.596
 1.743 -1.122 3.175
 1.764 -1.121 3.163
 1.776 -1.116 3.137
 1.785 -1.108 3.105
 1.786 -1.096 3.06
 1.787 -1.085 3.017
 1.765 -1.06 2.936
 -0.138 -0.083 0.226
 -0.115 -0.071 0.189
 -0.106 -0.066 0.177
 -0.095 -0.06 0.16
 -0.083 -0.053 0.141
 -0.074 -0.048 0.126
 -0.064 -0.042 0.108
 -0.053 -0.036 0.09
 -0.045 -0.031 0.075
 -0.038 -0.027 0.063
 -0.03 -0.022 0.048
 -0.193 -0.133 0.383
 -0.352 -0.245 0.723
 -0.672 -0.472 1.413
 -0.982 -0.698 2.106
 -1.364 -0.984 2.981
 -1.577 -1.153 3.506
 -1.783 -1.322 4.033
 -1.831 -1.378 4.213
 -1.875 -1.432 4.39
 -1.842 -1.428 4.388
 -1.81 -1.425 4.388
 -1.777 -1.421 4.386
 -1.744 -1.417 4.382
 -1.713 -1.414 4.382
 -1.681 -1.411 4.381
 -1.651 -1.409 4.383
 -1.62 -1.405 4.38
 -1.59 -1.403 4.382
 -1.559 -1.401 4.382
 -1.528 -1.397 4.378
 -1.496 -1.393 4.373
 -1.466 -1.39 4.372
 -1.435 -1.386 4.367
 -1.405 -1.383 4.364
 -1.377 -1.382 4.368
 -1.349 -1.382 4.373
 -1.321 -1.38 4.375
 -1.292 -1.379 4.377
 -1.263 -1.376 4.376
 -1.237 -1.376 4.382
 -1.207 -1.373 4.377
 -1.179 -1.372 4.378
 -1.152 -1.372 4.383
 -1.123 -1.369 4.38
 -1.091 -1.362 4.365
 -1.064 -1.361 4.365
 -1.037 -1.361 4.37
 -1.008 -1.357 4.363
 -0.982 -1.358 4.371
 -0.955 -1.357 4.37
 -0.927 -1.355 4.37
 -0.898 -1.351 4.362
 -0.872 -1.351 4.365
 -0.843 -1.347 4.354
 -0.815 -1.345 4.351
 -0.787 -1.342 4.346
 -0.761 -1.342 4.35
 -0.734 -1.34 4.346
 -0.709 -1.341 4.353
 -0.682 -1.34 4.351
 -0.656 -1.339 4.352
 -0.63 -1.34 4.357
 -0.604 -1.339 4.358
 -0.576 -1.335 4.346
 -0.549 -1.332 4.34
 -0.522 -1.329 4.333
 -0.495 -1.326 4.322
 -0.468 -1.324 4.32
 -0.445 -1.329 4.339
 -0.42 -1.332 4.35
 -0.393 -1.328 4.338
 -0.366 -1.325 4.33
 -0.34 -1.323 4.325
 -0.314 -1.321 4.319
 -0.288 -1.32 4.316
 -0.262 -1.318 4.31
 -0.236 -1.317 4.308
 -0.211 -1.317 4.308
 -0.185 -1.318 4.312
 -0.16 -1.318 4.313
 -0.134 -1.319 4.316
 -0.109 -1.319 4.316
 -0.083 -1.319 4.317
 -0.058 -1.318 4.312
 -0.032 -1.318 4.312
 -0.007 -1.317 4.311
 0.018 -1.319 4.315
 0.043 -1.325 4.336
 0.069 -1.329 4.348
 0.095 -1.329 4.345
 0.121 -1.33 4.35
 0.147 -1.332 4.356
 0.172 -1.328 4.339
 0.197 -1.328 4.338
 0.223 -1.328 4.337
 0.249 -1.329 4.34
 0.274 -1.325 4.325
 0.299 -1.327 4.328
 0.325 -1.328 4.332
 0.35 -1.326 4.322
 0.375 -1.324 4.314
 0.401 -1.323 4.309
 0.423 -1.314 4.277
 0.448 -1.313 4.271
 0.475 -1.316 4.278
 0.5 -1.316 4.274
 0.526 -1.318 4.279
 0.553 -1.323 4.292
 0.581 -1.328 4.304
 0.608 -1.331 4.311
 0.634 -1.333 4.314
 0.662 -1.336 4.322
 0.69 -1.342 4.336
 0.713 -1.336 4.314
 0.737 -1.333 4.299
 0.763 -1.333 4.296
 0.787 -1.331 4.286
 0.811 -1.329 4.274
 0.84 -1.334 4.284
 0.869 -1.34 4.299
 0.896 -1.341 4.299
 0.92 -1.339 4.287
 0.947 -1.34 4.285
 0.972 -1.339 4.277
 0.998 -1.339 4.272
 1.024 -1.34 4.27
 1.051 -1.342 4.269
 1.079 -1.344 4.271
 1.105 -1.346 4.269
 1.134 -1.349 4.273
 1.16 -1.35 4.269
 1.188 -1.351 4.268
 1.214 -1.352 4.264
 1.242 -1.354 4.264
 1.269 -1.355 4.259
 1.297 -1.357 4.259
 1.324 -1.358 4.256
 1.353 -1.361 4.256
 1.38 -1.363 4.254
 1.407 -1.364 4.249
 1.436 -1.366 4.248
 1.465 -1.369 4.249
 1.493 -1.37 4.246
 1.522 -1.373 4.245
 1.551 -1.375 4.244
 1.579 -1.377 4.24
 1.607 -1.379 4.235
 1.636 -1.38 4.232
 1.663 -1.381 4.224
 1.691 -1.382 4.218
 1.72 -1.385 4.216
 1.751 -1.388 4.215
 1.777 -1.388 4.205
 1.806 -1.39 4.202
 1.837 -1.393 4.199
 1.864 -1.394 4.191
 0 0 0
 0 0 0
 0 0 0
 0 0 0
 0 0 0
 0 0 0
 0 0 0
 0 0 0
 0 0 0
 0 0 0
 0 0 0
 1.325 -0.848 2.454
 1.74 -1.099 3.176
 1.763 -1.1 3.168
 1.774 -1.093 3.139
 1.783 -1.086 3.108
 1.785 -1.076 3.066
 1.788 -1.065 3.026
 1.78 -1.048 2.967
 -0.115 -0.068 0.187
 -0.088 -0.053 0.142
 -0.107 -0.065 0.178
 -0.095 -0.059 0.16
 -0.084 -0.053 0.142
 -0.074 -0.047 0.126
 -0.062 -0.04 0.105
 -0.052 -0.034 0.087
 -0.131 -0.085 0.244
 -0.124 -0.082 0.235
 -0.2 -0.133 0.391
 -0.361 -0.242 0.73
 -0.516 -0.351 1.067
 -0.753 -0.518 1.588
 -1.062 -0.741 2.284
 -1.364 -0.964 2.986
 -1.576 -1.13 3.512
 -1.782 -1.296 4.04
 -1.829 -1.35 4.218
 -1.873 -1.403 4.394
 -1.84 -1.399 4.392
 -1.807 -1.396 4.39
 -1.774 -1.392 4.387
 -1.741 -1.387 4.383
 -1.71 -1.385 4.384
 -1.679 -1.381 4.381
 -1.648 -1.379 4.383
 -1.617 -1.376 4.382
 -1.588 -1.374 4.384
 -1.556 -1.37 4.38
 -1.526 -1.368 4.379
 -1.494 -1.363 4.373
 -1.463 -1.361 4.371
 -1.431 -1.356 4.363
 -1.401 -1.353 4.362
 -1.373 -1.351 4.363
 -1.346 -1.352 4.37
 -1.318 -1.35 4.373
 -1.291 -1.35 4.378
 -1.262 -1.348 4.379
 -1.237 -1.35 4.39
 -1.207 -1.346 4.384
 -1.179 -1.345 4.386
 -1.154 -1.347 4.399
 -1.125 -1.344 4.394
 -1.09 -1.334 4.365
 -1.061 -1.331 4.363
 -1.034 -1.331 4.366
 -1.005 -1.328 4.36
 -0.981 -1.331 4.374
 -0.952 -1.327 4.366
 -0.926 -1.328 4.374
 -0.898 -1.324 4.366
 -0.871 -1.324 4.368
 -0.841 -1.319 4.355
 -0.815 -1.318 4.356
 -0.788 -1.318 4.359
 -0.762 -1.318 4.363
 0 0 0
 0 0 0
 0 0 0
 0 0 0
 0 0 0
 0 0 0
 0 0 0
 0 0 0
 0 0 0
 0 0 0
 0 0 0
 0 0 0
 0 0 0
 -0.39 -1.295 4.319
 -0.364 -1.293 4.313
 -0.338 -1.292 4.313
 -0.313 -1.292 4.315
 -0.287 -1.292 4.316
 -0.261 -1.291 4.311
 -0.236 -1.291 4.311
 -0.21 -1.29 4.311
 -0.185 -1.29 4.31
 -0.159 -1.29 4.31
 -0.134 -1.29 4.313
 -0.108 -1.291 4.313
 -0.083 -1.289 4.307
 -0.057 -1.288 4.306
 -0.032 -1.287 4.301
 -0.007 -1.286 4.297
 0.018 -1.28 4.278
 0 0 0
 0 0 0
 0 0 0
 0 0 0
 0 0 0
 0 0 0
 0 0 0
 0 0 0
 0 0 0
 0 0 0
 0 0 0
 0 0 0
 0 0 0
 0 0 0
 0 0 0
 0 0 0
 0 0 0
 0 0 0
 0 0 0
 0 0 0
 0 0 0
 0 0 0
 0 0 0
 0 0 0
 0 0 0
 0 0 0
 0 0 0
 0 0 0
 0 0 0
 0 0 0
 0 0 0
 0 0 0
 0 0 0
 0 0 0
 0 0 0
 0.944 -1.31 4.277
 0.969 -1.31 4.272
 0.996 -1.311 4.271
 1.023 -1.313 4.271
 1.05 -1.314 4.271
 1.077 -1.316 4.269
 1.104 -1.317 4.268
 1.132 -1.32 4.272
 1.158 -1.32 4.266
 1.185 -1.322 4.265
 1.212 -1.324 4.263
 1.241 -1.326 4.265
 1.267 -1.326 4.258
 1.294 -1.328 4.257
 1.322 -1.33 4.255
 1.35 -1.332 4.254
 1.377 -1.333 4.251
 1.405 -1.335 4.248
 1.434 -1.338 4.25
 1.462 -1.34 4.248
 1.491 -1.342 4.246
 1.52 -1.344 4.245
 1.549 -1.347 4.244
 1.576 -1.348 4.238
 1.604 -1.349 4.235
 1.633 -1.351 4.232
 1.66 -1.352 4.224
 1.688 -1.353 4.218
 1.717 -1.355 4.214
 1.748 -1.359 4.217
 1.775 -1.36 4.209
 1.806 -1.363 4.208
 1.838 -1.367 4.209
 1.873 -1.373 4.219
 0 0 0
 0 0 0
 0 0 0
 0 0 0
 0 0 0
 0 0 0
 0 0 0
 0 0 0
 0 0 0
 0 0 0
 0 0 0
 0 0 0
 1.737 -1.076 3.176
 1.756 -1.074 3.161
 1.767 -1.068 3.134
 1.777 -1.062 3.105
 1.784 -1.054 3.07
 1.777 -1.038 3.012
 1.775 -1.025 2.965
 -0.129 -0.075 0.213
 -0.14 -0.082 0.234
 -0.104 -0.062 0.173
 -0.092 -0.056 0.155
 -0.081 -0.05 0.137
 -0.07 -0.044 0.119
 -0.057 -0.036 0.096
 -0.046 -0.03 0.077
 -0.126 -0.081 0.235
 -0.119 -0.077 0.224
 -0.28 -0.183 0.556
 -0.442 -0.291 0.899
 -0.682 -0.454 1.416
 -0.833 -0.562 1.763
 -1.141 -0.78 2.46
 -1.362 -0.944 2.988
 -1.574 -1.106 3.512
 -1.692 -1.206 3.842
 -1.823 -1.318 4.21
 -1.87 -1.373 4.395
 -1.837 -1.369 4.392
 -1.804 -1.365 4.391
 -1.771 -1.361 4.387
 -1.739 -1.358 4.384
 -1.707 -1.355 4.383
 -1.675 -1.351 4.379
 -1.645 -1.349 4.382
 -1.615 -1.347 4.383
 -1.584 -1.344 4.382
 -1.554 -1.341 4.382
 -1.524 -1.339 4.383
 -1.492 -1.335 4.377
 -1.461 -1.331 4.371
 -1.429 -1.327 4.365
 -1.4 -1.325 4.365
 -1.37 -1.322 4.362
 -1.343 -1.321 4.366
 -1.315 -1.321 4.371
 -1.288 -1.321 4.378
 -1.26 -1.319 4.379
 -1.24 -1.326 4.408
 -1.211 -1.325 4.408
 0 0 0
 0 0 0
 0 0 0
 0 0 0
 0 0 0
 0 0 0
 0 0 0
 0 0 0
 0 0 0
 0 0 0
 0 0 0
 0 0 0
 0 0 0
 0 0 0
 0 0 0
 0 0 0
 0 0 0
 0 0 0
 0 0 0
 0 0 0
 0 0 0
 0 0 0
 0 0 0
 0 0 0
 0 0 0
 0 0 0
 0 0 0
 0 0 0
 0 0 0
 -0.388 -1.264 4.307
 -0.363 -1.264 4.307
 -0.337 -1.264 4.31
 -0.312 -1.264 4.312
 -0.287 -1.265 4.314
 -0.261 -1.264 4.312
 -0.236 -1.264 4.314
 -0.21 -1.264 4.313
 -0.184 -1.263 4.311
 -0.159 -1.263 4.311
 -0.134 -1.263 4.313
 -0.108 -1.263 4.311
 -0.083 -1.26 4.303
 -0.057 -1.26 4.302
 -0.032 -1.259 4.297
 -0.007 -1.257 4.29
 0.018 -1.252 4.274
 0 0 0
 0 0 0
 0 0 0
 0 0 0
 0 0 0
 0 0 0
 0 0 0
 0 0 0
 0 0 0
 0 0 0
 0 0 0
 0 0 0
 0 0 0
 0 0 0
 0 0 0
 0 0 0
 0 0 0
 0 0 0
 0 0 0
 0 0 0
 0 0 0
 0 0 0
 0 0 0
 0 0 0
 0 0 0
 0 0 0
 0 0 0
 0 0 0
 0 0 0
 0 0 0
 0 0 0
 0 0 0
 0 0 0
 0 0 0
 0 0 0
 0.946 -1.287 4.293
 0.97 -1.285 4.281
 0.997 -1.286 4.281
 1.024 -1.288 4.281
 1.049 -1.288 4.275
 1.076 -1.288 4.272
 1.103 -1.29 4.27
 1.13 -1.292 4.271
 1.156 -1.292 4.266
 1.184 -1.294 4.266
 1.211 -1.295 4.263
 1.239 -1.298 4.266
 1.265 -1.298 4.26
 1.293 -1.3 4.259
 1.32 -1.302 4.257
 1.349 -1.304 4.257
 1.376 -1.305 4.253
 1.404 -1.307 4.251
 1.433 -1.31 4.252
 1.46 -1.311 4.249
 1.489 -1.313 4.246
 1.517 -1.315 4.244
 1.545 -1.317 4.242
 1.573 -1.318 4.236
 1.601 -1.32 4.233
 1.63 -1.322 4.231
 1.657 -1.323 4.223
 1.685 -1.324 4.217
 1.714 -1.326 4.216
 1.746 -1.331 4.219
 1.773 -1.331 4.211
 1.805 -1.335 4.212
 1.836 -1.338 4.212
 1.87 -1.344 4.218
 0 0 0
 0 0 0
 0 0 0
 0 0 0
 0 0 0
 0 0 0
 0 0 0
 0 0 0
 0 0 0
 0 0 0
 0 0 0
 0 0 0
 1.74 -1.056 3.187
 1.755 -1.052 3.166
 1.768 -1.048 3.141
 1.777 -1.041 3.11
 1.784 -1.033 3.077
 1.79 -1.025 3.04
 1.784 -1.01 2.985
 -0.113 -0.065 0.184
 -0.089 -0.052 0.144
 -0.096 -0.057 0.16
 -0.088 -0.053 0.148
 -0.077 -0.047 0.13
 -0.067 -0.042 0.114
 -0.054 -0.034 0.091
 -0.045 -0.029 0.074
 -0.124 -0.078 0.231
 -0.117 -0.075 0.221
 -0.278 -0.178 0.553
 -0.524 -0.338 1.071
 -0.763 -0.498 1.59
 -0.995 -0.657 2.112
 -1.301 -0.871 2.812
 -1.52 -1.032 3.342
 -1.638 -1.128 3.663
 -1.757 -1.227 3.997
 -1.81 -1.282 4.188
 -1.868 -1.344 4.399
 -1.834 -1.339 4.392
 -1.801 -1.336 4.392
 -1.769 -1.332 4.39
 -1.737 -1.329 4.387
 -1.704 -1.325 4.384
 -1.674 -1.323 4.385
 -1.643 -1.32 4.386
 -1.614 -1.319 4.388
 -1.583 -1.315 4.386
 -1.552 -1.313 4.386
 -1.522 -1.31 4.385
 -1.491 -1.307 4.38
 -1.459 -1.303 4.373
 -1.428 -1.299 4.367
 -1.398 -1.297 4.367
 -1.368 -1.293 4.362
 -1.338 -1.29 4.359
 -1.308 -1.287 4.355
 0 0 0
 0 0 0
 0 0 0
 0 0 0
 0 0 0
 0 0 0
 0 0 0
 0 0 0
 0 0 0
 0 0 0
 0 0 0
 0 0 0
 0 0 0
 0 0 0
 0 0 0
 0 0 0
 0 0 0
 0 0 0
 0 0 0
 0 0 0
 0 0 0
 0 0 0
 0 0 0
 0 0 0
 0 0 0
 0 0 0
 0 0 0
 0 0 0
 0 0 0
 0 0 0
 0 0 0
 0 0 0
 0 0 0
 -0.388 -1.239 4.316
 -0.363 -1.238 4.312
 -0.337 -1.237 4.31
 -0.311 -1.237 4.313
 -0.286 -1.238 4.316
 -0.261 -1.237 4.314
 -0.235 -1.237 4.315
 -0.21 -1.237 4.316
 -0.184 -1.236 4.312
 -0.159 -1.235 4.31
 -0.133 -1.235 4.311
 -0.108 -1.235 4.311
 -0.082 -1.234 4.306
 -0.057 -1.234 4.308
 -0.032 -1.234 4.306
 -0.006 -1.233 4.3
 0.018 -1.229 4.288
 0 0 0
 0 0 0
 0 0 0
 0 0 0
 0 0 0
 0 0 0
 0 0 0
 0 0 0
 0 0 0
 0 0 0
 0 0 0
 0 0 0
 0 0 0
 0 0 0
 0 0 0
 0 0 0
 0 0 0
 0 0 0
 0 0 0
 0 0 0
 0 0 0
 0 0 0
 0 0 0
 0 0 0
 0 0 0
 0 0 0
 0 0 0
 0 0 0
 0 0 0
 0 0 0
 0 0 0
 0 0 0
 0 0 0
 0 0 0
 0 0 0
 0.941 -1.253 4.274
 0.967 -1.255 4.274
 0.994 -1.257 4.276
 1.021 -1.259 4.276
 1.047 -1.259 4.27
 1.074 -1.26 4.27
 1.101 -1.261 4.268
 1.128 -1.263 4.269
 1.155 -1.264 4.266
 1.182 -1.267 4.267
 1.209 -1.268 4.264
 1.237 -1.27 4.264
 1.263 -1.27 4.258
 1.29 -1.272 4.257
 1.318 -1.274 4.256
 1.347 -1.276 4.258
 1.374 -1.277 4.254
 1.403 -1.28 4.254
 1.431 -1.282 4.253
 1.458 -1.283 4.249
 1.486 -1.284 4.244
 1.515 -1.287 4.245
 1.544 -1.289 4.244
 1.571 -1.29 4.238
 1.599 -1.291 4.233
 1.627 -1.293 4.231
 1.654 -1.294 4.223
 1.682 -1.296 4.218
 1.712 -1.298 4.217
 1.745 -1.303 4.224
 1.774 -1.305 4.218
 1.805 -1.308 4.22
 1.836 -1.311 4.219
 1.871 -1.317 4.228
 0 0 0
 0 0 0
 0 0 0
 0 0 0
 0 0 0
 0 0 0
 0 0 0
 0 0 0
 0 0 0
 0 0 0
 0 0 0
 0 0 0
 1.738 -1.034 3.19
 1.755 -1.031 3.172
 1.768 -1.027 3.148
 1.777 -1.02 3.116
 1.784 -1.013 3.082
 1.771 -0.994 3.015
 1.788 -0.992 2.997
 -0.1 -0.056 0.163
 -0.106 -0.06 0.175
 -0.092 -0.053 0.153
 -0.085 -0.05 0.143
 -0.073 -0.043 0.123
 -0.063 -0.038 0.105
 -0.051 -0.032 0.085
 -0.042 -0.026 0.069
 -0.119 -0.073 0.222
 -0.199 -0.123 0.386
 -0.36 -0.225 0.722
 -0.689 -0.435 1.415
 -1.009 -0.644 2.111
 -1.24 -0.802 2.639
 -1.542 -1.011 3.341
 -1.756 -1.167 3.869
 -1.791 -1.208 4.014
 -1.835 -1.255 4.182
 -1.894 -1.314 4.391
 -1.861 -1.311 4.39
 -1.827 -1.307 4.385
 -1.796 -1.304 4.387
 -1.768 -1.304 4.394
 -1.735 -1.3 4.392
 -1.703 -1.297 4.389
 -1.673 -1.295 4.391
 -1.643 -1.293 4.391
 -1.612 -1.29 4.392
 -1.581 -1.287 4.388
 -1.55 -1.284 4.386
 -1.519 -1.281 4.383
 -1.488 -1.278 4.379
 -1.456 -1.273 4.371
 -1.424 -1.269 4.363
 -1.395 -1.267 4.364
 -1.365 -1.264 4.36
 -1.333 -1.259 4.35
 -1.303 -1.256 4.346
 0 0 0
 0 0 0
 0 0 0
 0 0 0
 0 0 0
 0 0 0
 0 0 0
 0 0 0
 0 0 0
 0 0 0
 0 0 0
 0 0 0
 0 0 0
 0 0 0
 0 0 0
 0 0 0
 0 0 0
 0 0 0
 0 0 0
 0 0 0
 0 0 0
 0 0 0
 0 0 0
 0 0 0
 -0.179 -0.352 1.236
 -0.175 -0.359 1.26
 -0.168 -0.359 1.261
 -0.16 -0.359 1.263
