 1.846 -1.556 3.475
 1.84 -1.531 3.409
 1.863 -1.531 3.398
 1.87 -1.518 3.358
 1.857 -1.49 3.283
 1.846 -1.464 3.214
 1.866 -1.461 3.198
 1.84 -1.425 3.106
 1.86 -1.424 3.092
 1.835 -1.389 3.005
 1.803 -1.349 2.908
 -2.188 -1.63 3.664
 -2.135 -1.61 3.63
 -2.137 -1.631 3.689
 -2.111 -1.63 3.701
 -2.086 -1.631 3.713
 -2.061 -1.631 3.726
 -2.035 -1.63 3.736
 -2.01 -1.63 3.749
 -1.985 -1.631 3.761
 -1.961 -1.633 3.776
 -1.937 -1.633 3.789
 -1.914 -1.636 3.805
 -1.888 -1.636 3.816
 -1.863 -1.636 3.828
 -1.837 -1.635 3.837
 -1.812 -1.636 3.849
 -1.786 -1.636 3.859
 -1.759 -1.634 3.865
 -1.733 -1.634 3.873
 -1.708 -1.634 3.884
 -1.681 -1.633 3.89
 -1.654 -1.632 3.896
 -1.631 -1.633 3.91
 -1.605 -1.633 3.919
 -1.579 -1.633 3.926
 -1.552 -1.631 3.931
 -1.525 -1.629 3.934
 -1.497 -1.627 3.937
 -1.47 -1.625 3.94
 -1.445 -1.625 3.947
 -1.42 -1.626 3.957
 -1.395 -1.626 3.966
 -1.37 -1.627 3.974
 -1.345 -1.627 3.982
 -1.319 -1.626 3.987
 -1.292 -1.624 3.989
 -1.267 -1.624 3.997
 -1.241 -1.623 4.001
 -1.216 -1.623 4.007
 -1.191 -1.624 4.016
 -1.167 -1.626 4.026
 -1.142 -1.625 4.031
 -1.116 -1.625 4.036
 -1.091 -1.625 4.042
 -1.065 -1.624 4.044
 -1.04 -1.624 4.049
 -1.014 -1.623 4.052
 -0.988 -1.621 4.053
 -0.962 -1.621 4.056
 -0.936 -1.619 4.058
 -0.91 -1.618 4.058
 -0.885 -1.617 4.062
 -0.86 -1.617 4.066
 -0.835 -1.618 4.073
 -0.811 -1.621 4.083
 -0.786 -1.621 4.089
 -0.762 -1.623 4.095
 -0.737 -1.624 4.104
 -0.712 -1.624 4.107
 -0.686 -1.621 4.103
 -0.661 -1.621 4.106
 -0.636 -1.621 4.109
 -0.61 -1.621 4.112
 -0.585 -1.621 4.114
 -0.56 -1.621 4.118
 -0.534 -1.619 4.114
 -0.509 -1.619 4.116
 -0.484 -1.618 4.117
 -0.459 -1.618 4.118
 -0.434 -1.619 4.123
 -0.41 -1.621 4.131
 -0.384 -1.62 4.128
 -0.359 -1.619 4.127
 -0.334 -1.619 4.129
 -0.309 -1.619 4.13
 -0.284 -1.619 4.133
 -0.259 -1.621 4.138
 -0.234 -1.62 4.137
 -0.209 -1.62 4.136
 -0.184 -1.617 4.131
 -0.158 -1.616 4.129
 -0.133 -1.615 4.127
 -0.109 -1.616 4.13
 -0.084 -1.616 4.129
 -0.059 -1.618 4.135
 -0.034 -1.619 4.137
 -0.009 -1.619 4.137
 0.015 -1.619 4.137
 0.04 -1.619 4.136
 0.065 -1.62 4.137
 0.09 -1.619 4.134
 0.115 -1.619 4.132
 0.14 -1.617 4.127
 0.165 -1.616 4.124
 0.19 -1.616 4.122
 0.215 -1.616 4.12
 0.24 -1.617 4.122
 0.265 -1.617 4.122
 0.289 -1.616 4.118
 0.314 -1.615 4.113
 0.339 -1.615 4.111
 0.364 -1.615 4.107
 0.389 -1.617 4.11
 0.414 -1.619 4.113
 0.439 -1.619 4.112
 0.465 -1.62 4.112
 0.49 -1.62 4.109
 0.514 -1.619 4.103
 0.539 -1.619 4.099
 0.564 -1.62 4.099
 0.589 -1.619 4.093
 0.615 -1.622 4.096
 0.64 -1.623 4.096
 0.666 -1.626 4.1
 0.692 -1.627 4.099
 0.718 -1.629 4.101
 0.743 -1.629 4.096
 0.768 -1.629 4.092
 0.793 -1.629 4.088
 0.817 -1.628 4.081
 0.842 -1.629 4.077
 0.867 -1.627 4.069
 0.892 -1.628 4.066
 0.916 -1.626 4.055
 0.941 -1.626 4.051
 0.967 -1.628 4.049
 0.993 -1.63 4.049
 1.019 -1.631 4.045
 1.045 -1.633 4.046
 1.07 -1.634 4.04
 1.096 -1.634 4.035
 1.121 -1.634 4.028
 1.147 -1.635 4.025
 1.172 -1.636 4.019
 1.198 -1.637 4.015
 1.223 -1.637 4.009
 1.249 -1.639 4.006
 1.275 -1.64 4.001
 1.302 -1.642 3.999
 1.329 -1.644 3.997
 1.356 -1.646 3.995
 1.381 -1.646 3.985
 1.405 -1.645 3.974
 1.429 -1.643 3.961
 1.453 -1.643 3.953
 1.476 -1.639 3.936
 1.501 -1.64 3.929
 1.526 -1.64 3.919
 1.551 -1.639 3.909
 1.575 -1.638 3.897
 1.601 -1.639 3.89
 1.625 -1.639 3.88
 1.65 -1.638 3.869
 1.674 -1.638 3.857
 1.698 -1.637 3.845
 1.721 -1.634 3.829
 1.745 -1.634 3.817
 1.77 -1.634 3.806
 1.794 -1.633 3.794
 1.815 -1.63 3.776
 1.834 -1.625 3.753
 1.849 -1.616 3.721
 1.859 -1.603 3.68
 1.865 -1.588 3.635
 1.873 -1.574 3.592
 1.874 -1.555 3.536
 1.878 -1.539 3.489
 1.881 -1.523 3.44
 1.877 -1.5 3.378
 1.856 -1.466 3.29
 1.846 -1.441 3.222
 1.842 -1.421 3.166
 1.839 -1.402 3.113
 1.838 -1.386 3.065
 1.835 -1.368 3.014
 1.81 -1.334 2.927
 -2.208 -1.62 3.708
 -2.233 -1.657 3.806
 -2.167 -1.628 3.751
 -2.142 -1.628 3.765
 -2.115 -1.628 3.776
 -2.088 -1.627 3.786
 -2.063 -1.627 3.799
 -2.038 -1.628 3.812
 -2.013 -1.628 3.825
 -1.99 -1.631 3.842
 -1.965 -1.632 3.855
 -1.941 -1.634 3.871
 -1.914 -1.632 3.878
 -1.889 -1.633 3.891
 -1.861 -1.631 3.897
 -1.836 -1.632 3.91
 -1.811 -1.633 3.921
 -1.785 -1.633 3.932
 -1.758 -1.632 3.94
 -1.733 -1.633 3.951
 -1.706 -1.632 3.958
 -1.678 -1.63 3.963
 -1.653 -1.631 3.974
 -1.628 -1.631 3.983
 -1.6 -1.629 3.989
 -1.573 -1.627 3.993
 -1.546 -1.626 3.997
 -1.518 -1.624 4
 -1.49 -1.622 4.004
 -1.465 -1.622 4.013
 -1.44 -1.623 4.022
 -1.414 -1.622 4.029
 -1.389 -1.623 4.038
 -1.363 -1.623 4.044
 -1.335 -1.621 4.046
 -1.308 -1.619 4.049
 -1.282 -1.618 4.055
 -1.256 -1.617 4.059
 -1.23 -1.617 4.064
 -1.206 -1.618 4.074
 -1.182 -1.621 4.086
 -1.156 -1.62 4.091
 -1.13 -1.62 4.097
 -1.105 -1.62 4.103
 -1.078 -1.619 4.105
 -1.053 -1.619 4.11
 -1.027 -1.618 4.113
 -1 -1.616 4.112
 -0.973 -1.614 4.114
 -0.947 -1.614 4.116
 -0.92 -1.611 4.114
 -0.895 -1.61 4.117
 -0.869 -1.61 4.122
 -0.844 -1.611 4.126
 -0.82 -1.613 4.138
 -0.795 -1.615 4.145
 -0.771 -1.616 4.152
 -0.746 -1.617 4.158
 -0.72 -1.618 4.163
 -0.693 -1.614 4.157
 -0.668 -1.614 4.16
 -0.642 -1.613 4.162
 -0.617 -1.613 4.165
 -0.591 -1.613 4.166
 -0.566 -1.613 4.17
 -0.54 -1.611 4.166
 -0.514 -1.61 4.167
 -0.489 -1.61 4.168
 -0.463 -1.609 4.169
 -0.438 -1.611 4.174
 -0.414 -1.612 4.18
 -0.388 -1.611 4.18
 -0.363 -1.611 4.18
 -0.337 -1.61 4.18
 -0.312 -1.609 4.178
 -0.286 -1.609 4.181
 -0.261 -1.61 4.184
 -0.236 -1.61 4.183
 -0.211 -1.61 4.186
 -0.185 -1.608 4.182
 -0.16 -1.607 4.179
 -0.135 -1.606 4.176
 -0.109 -1.606 4.176
 -0.084 -1.605 4.174
 -0.059 -1.606 4.177
 -0.034 -1.608 4.181
 -0.009 -1.608 4.181
 0.016 -1.607 4.18
 0.041 -1.607 4.178
 0.066 -1.608 4.179
 0.091 -1.606 4.175
 0.116 -1.606 4.173
 0.141 -1.605 4.17
 0.166 -1.606 4.171
 0.192 -1.606 4.17
 0.217 -1.607 4.17
 0.242 -1.608 4.172
 0.267 -1.608 4.171
 0.292 -1.608 4.168
 0.317 -1.606 4.163
 0.343 -1.607 4.162
 0.368 -1.606 4.158
 0.393 -1.608 4.161
 0.419 -1.61 4.163
 0.444 -1.61 4.162
 0.469 -1.611 4.161
 0.495 -1.612 4.16
 0.52 -1.61 4.154
 0.545 -1.61 4.15
 0.57 -1.611 4.15
 0.595 -1.61 4.144
 0.621 -1.612 4.146
 0.647 -1.615 4.148
 0.673 -1.618 4.152
 0.699 -1.619 4.15
 0.725 -1.62 4.151
 0.751 -1.621 4.148
 0.776 -1.62 4.142
 0.801 -1.62 4.138
 0.826 -1.62 4.132
 0.852 -1.621 4.131
 0.876 -1.62 4.123
 0.902 -1.62 4.119
 0.926 -1.619 4.11
 0.952 -1.62 4.106
 0.978 -1.62 4.103
 1.004 -1.623 4.103
 1.031 -1.625 4.102
 1.058 -1.627 4.102
 1.083 -1.627 4.097
 1.109 -1.629 4.094
 1.136 -1.63 4.091
 1.162 -1.631 4.088
 1.188 -1.632 4.083
 1.215 -1.634 4.08
 1.24 -1.633 4.072
 1.266 -1.634 4.068
 1.292 -1.635 4.063
 1.319 -1.638 4.061
 1.346 -1.639 4.057
 1.373 -1.64 4.052
 1.397 -1.639 4.042
 1.422 -1.639 4.031
 1.446 -1.638 4.02
 1.472 -1.638 4.013
 1.496 -1.637 4.001
 1.523 -1.638 3.995
 1.548 -1.637 3.984
 1.572 -1.636 3.972
 1.596 -1.635 3.96
 1.622 -1.635 3.95
 1.646 -1.633 3.937
 1.671 -1.633 3.926
 1.696 -1.633 3.917
 1.721 -1.633 3.907
 1.745 -1.632 3.892
 1.77 -1.631 3.882
 1.796 -1.632 3.872
 1.817 -1.628 3.851
 1.834 -1.621 3.825
 1.85 -1.613 3.794
 1.862 -1.602 3.756
 1.868 -1.586 3.708
 1.874 -1.571 3.661
 1.882 -1.557 3.618
 1.884 -1.539 3.564
 1.887 -1.522 3.514
 1.889 -1.505 3.464
 1.882 -1.481 3.396
 1.852 -1.44 3.291
 1.838 -1.413 3.216
 1.837 -1.395 3.165
 1.836 -1.379 3.116
 1.838 -1.364 3.072
 1.833 -1.345 3.017
 1.823 -1.323 2.956
 -2.24 -1.618 3.772
 -2.211 -1.615 3.779
 -2.198 -1.625 3.815
 -2.172 -1.625 3.828
 -2.145 -1.624 3.838
 -2.118 -1.624 3.849
 -2.091 -1.623 3.861
 -2.066 -1.624 3.874
 -2.041 -1.625 3.888
 -2.016 -1.626 3.902
 -1.991 -1.627 3.916
 -1.967 -1.629 3.933
 -1.94 -1.629 3.943
 -1.914 -1.629 3.953
 -1.887 -1.628 3.963
 -1.862 -1.629 3.975
 -1.836 -1.629 3.986
 -1.809 -1.629 3.996
 -1.784 -1.629 4.007
 -1.757 -1.629 4.015
 -1.728 -1.627 4.02
 -1.701 -1.625 4.025
 -1.675 -1.626 4.036
 -1.647 -1.625 4.042
 -1.62 -1.623 4.048
 -1.593 -1.622 4.053
 -1.565 -1.62 4.058
 -1.537 -1.618 4.061
 -1.51 -1.617 4.066
 -1.484 -1.617 4.075
 -1.459 -1.618 4.085
 -1.432 -1.618 4.091
 -1.407 -1.618 4.1
 -1.38 -1.617 4.104
 -1.352 -1.615 4.108
 -1.324 -1.613 4.108
 -1.298 -1.613 4.114
 -1.271 -1.611 4.117
 -1.245 -1.611 4.124
 -1.22 -1.612 4.132
 -1.196 -1.614 4.144
 -1.169 -1.613 4.146
 -1.143 -1.613 4.154
 -1.117 -1.613 4.159
 -1.09 -1.611 4.16
 -1.063 -1.61 4.162
 -1.037 -1.609 4.164
 -1.01 -1.607 4.165
 -0.983 -1.605 4.164
 -0.957 -1.604 4.166
 -0.93 -1.601 4.164
 -0.904 -1.601 4.169
 -0.878 -1.6 4.171
 -0.852 -1.601 4.176
 -0.828 -1.603 4.185
 -0.802 -1.604 4.192
 -0.777 -1.605 4.198
 -0.752 -1.605 4.203
 -0.726 -1.606 4.208
 -0.7 -1.603 4.205
 -0.674 -1.603 4.208
 -0.648 -1.602 4.208
 -0.622 -1.602 4.21
 -0.596 -1.601 4.21
 -0.571 -1.601 4.213
 -0.544 -1.599 4.21
 -0.519 -1.598 4.211
 -0.493 -1.598 4.211
 -0.467 -1.597 4.212
 -0.442 -1.598 4.216
 -0.416 -1.598 4.219
 -0.391 -1.597 4.219
 -0.365 -1.597 4.22
 -0.339 -1.596 4.217
 -0.313 -1.594 4.214
 -0.288 -1.594 4.216
 -0.263 -1.595 4.218
 -0.237 -1.594 4.217
 -0.212 -1.595 4.22
 -0.186 -1.594 4.219
 -0.161 -1.593 4.216
 -0.135 -1.592 4.214
 -0.11 -1.592 4.214
 -0.085 -1.591 4.212
 -0.059 -1.592 4.214
 -0.034 -1.593 4.216
 -0.009 -1.593 4.218
 0.016 -1.593 4.216
 0.041 -1.592 4.214
 0.067 -1.593 4.216
 0.092 -1.592 4.213
 0.117 -1.591 4.209
 0.142 -1.591 4.209
 0.168 -1.592 4.209
 0.193 -1.592 4.208
 0.218 -1.592 4.206
 0.244 -1.593 4.208
 0.269 -1.593 4.205
 0.294 -1.592 4.203
 0.32 -1.592 4.2
 0.345 -1.593 4.2
 0.37 -1.592 4.196
 0.396 -1.595 4.2
 0.422 -1.597 4.204
 0.448 -1.598 4.203
 0.473 -1.599 4.204
 0.499 -1.6 4.204
 0.524 -1.599 4.199
 0.549 -1.598 4.194
 0.575 -1.599 4.192
 0.6 -1.598 4.187
 0.626 -1.6 4.189
 0.652 -1.602 4.189
 0.679 -1.604 4.191
 0.704 -1.604 4.188
 0.73 -1.606 4.187
 0.756 -1.606 4.185
 0.781 -1.607 4.181
 0.807 -1.608 4.18
 0.833 -1.609 4.178
 0.859 -1.609 4.174
 0.884 -1.608 4.167
 0.91 -1.609 4.163
 0.935 -1.607 4.154
 0.961 -1.608 4.151
 0.987 -1.611 4.152
 1.014 -1.613 4.152
 1.041 -1.615 4.151
 1.068 -1.617 4.151
 1.094 -1.618 4.146
 1.121 -1.619 4.143
 1.147 -1.62 4.139
 1.174 -1.622 4.138
 1.2 -1.623 4.133
 1.227 -1.624 4.13
 1.253 -1.625 4.125
 1.28 -1.627 4.122
 1.306 -1.627 4.116
 1.334 -1.63 4.114
 1.36 -1.63 4.108
 1.387 -1.631 4.102
 1.411 -1.63 4.091
 1.438 -1.63 4.084
 1.462 -1.629 4.073
 1.49 -1.631 4.069
 1.515 -1.631 4.059
 1.542 -1.632 4.053
 1.567 -1.632 4.043
 1.593 -1.631 4.034
 1.617 -1.63 4.021
 1.643 -1.63 4.012
 1.668 -1.629 3.999
 1.693 -1.629 3.989
 1.719 -1.629 3.979
 1.745 -1.629 3.968
 1.769 -1.628 3.955
 1.793 -1.627 3.941
 1.816 -1.624 3.925
 1.835 -1.619 3.9
 1.851 -1.61 3.868
 1.862 -1.598 3.829
 1.871 -1.584 3.785
 1.877 -1.569 3.736
 1.884 -1.554 3.69
 1.894 -1.542 3.65
 1.896 -1.525 3.597
 1.902 -1.51 3.55
 1.904 -1.493 3.498
 1.896 -1.469 3.43
 1.846 -1.413 3.288
 1.83 -1.384 3.209
 1.832 -1.369 3.164
 1.834 -1.355 3.12
 1.839 -1.344 3.082
 1.828 -1.32 3.017
 1.818 -1.298 2.956
 -2.283 -1.622 3.854
 -2.257 -1.623 3.869
 -2.229 -1.621 3.879
 -2.202 -1.621 3.891
 -2.174 -1.62 3.901
 -2.147 -1.619 3.912
 -2.12 -1.619 3.924
 -2.094 -1.62 3.938
 -2.069 -1.621 3.952
 -2.043 -1.622 3.965
 -2.018 -1.623 3.979
 -1.993 -1.624 3.994
 -1.966 -1.624 4.004
 -1.938 -1.623 4.013
 -1.911 -1.622 4.022
 -1.885 -1.623 4.035
 -1.858 -1.623 4.045
 -1.831 -1.622 4.054
 -1.806 -1.623 4.067
 -1.779 -1.624 4.077
 -1.75 -1.621 4.08
 -1.722 -1.619 4.086
 -1.696 -1.62 4.098
 -1.668 -1.619 4.103
 -1.64 -1.617 4.108
 -1.613 -1.616 4.114
 -1.585 -1.615 4.12
 -1.557 -1.613 4.123
 -1.529 -1.612 4.129
 -1.503 -1.612 4.137
 -1.476 -1.611 4.143
 -1.449 -1.61 4.148
 -1.423 -1.61 4.156
 -1.394 -1.608 4.158
 -1.367 -1.607 4.163
 -1.34 -1.606 4.166
 -1.313 -1.606 4.172
 -1.286 -1.604 4.174
 -1.26 -1.604 4.181
 -1.233 -1.603 4.185
 -1.207 -1.604 4.193
 -1.18 -1.602 4.195
 -1.154 -1.602 4.201
 -1.127 -1.601 4.205
 -1.1 -1.6 4.206
 -1.073 -1.598 4.208
 -1.046 -1.597 4.208
 -1.018 -1.595 4.209
 -0.991 -1.593 4.208
 -0.964 -1.59 4.207
 -0.937 -1.589 4.207
 -0.911 -1.588 4.21
 -0.885 -1.587 4.212
 -0.859 -1.588 4.217
 -0.834 -1.589 4.226
 -0.808 -1.59 4.232
 -0.782 -1.59 4.235
 -0.757 -1.59 4.239
 -0.731 -1.59 4.243
 -0.704 -1.589 4.242
 -0.678 -1.588 4.243
 -0.652 -1.587 4.243
 -0.626 -1.586 4.245
 -0.6 -1.585 4.245
 -0.574 -1.584 4.245
 -0.547 -1.582 4.243
 -0.521 -1.582 4.244
 -0.495 -1.581 4.243
 -0.469 -1.58 4.243
 -0.444 -1.58 4.245
 -0.418 -1.58 4.247
 -0.392 -1.58 4.248
 -0.367 -1.58 4.249
 -0.341 -1.578 4.246
 -0.315 -1.576 4.243
 -0.289 -1.576 4.242
 -0.264 -1.576 4.244
 -0.238 -1.575 4.244
 -0.213 -1.576 4.246
 -0.187 -1.575 4.244
 -0.161 -1.574 4.241
 -0.136 -1.572 4.237
 -0.11 -1.572 4.237
 -0.085 -1.571 4.235
 -0.059 -1.572 4.238
 -0.034 -1.573 4.241
 -0.008 -1.574 4.243
 0.016 -1.573 4.24
 0.041 -1.572 4.237
 0.067 -1.572 4.236
 0.092 -1.572 4.235
 0.118 -1.571 4.232
 0.143 -1.572 4.233
 0.169 -1.574 4.236
 0.194 -1.574 4.236
 0.22 -1.574 4.235
 0.245 -1.575 4.237
 0.271 -1.576 4.237
 0.296 -1.576 4.234
 0.322 -1.576 4.232
 0.347 -1.576 4.232
 0.373 -1.576 4.229
 0.398 -1.577 4.229
 0.424 -1.579 4.231
 0.45 -1.579 4.231
 0.476 -1.581 4.233
 0.502 -1.582 4.233
 0.527 -1.582 4.23
 0.553 -1.582 4.227
 0.578 -1.582 4.224
 0.603 -1.581 4.217
 0.629 -1.582 4.218
 0.656 -1.584 4.218
 0.682 -1.586 4.219
 0.708 -1.586 4.216
 0.734 -1.588 4.216
 0.76 -1.589 4.215
 0.786 -1.589 4.211
 0.811 -1.589 4.207
 0.838 -1.591 4.207
 0.864 -1.592 4.204
 0.889 -1.591 4.198
 0.916 -1.593 4.197
 0.941 -1.593 4.191
 0.967 -1.594 4.189
 0.995 -1.596 4.19
 1.021 -1.598 4.189
 1.048 -1.6 4.188
 1.076 -1.603 4.189
 1.102 -1.603 4.185
 1.129 -1.605 4.184
 1.156 -1.607 4.182
 1.183 -1.609 4.18
 1.21 -1.61 4.175
 1.238 -1.612 4.174
 1.264 -1.612 4.168
 1.291 -1.614 4.165
 1.318 -1.615 4.16
 1.345 -1.616 4.156
 1.371 -1.617 4.15
 1.398 -1.618 4.144
 1.423 -1.617 4.134
 1.45 -1.618 4.129
 1.476 -1.618 4.119
 1.504 -1.62 4.116
 1.53 -1.62 4.107
 1.557 -1.621 4.102
 1.583 -1.622 4.093
 1.61 -1.623 4.087
 1.635 -1.622 4.074
 1.662 -1.623 4.068
 1.688 -1.622 4.057
 1.713 -1.622 4.046
 1.74 -1.622 4.036
 1.766 -1.623 4.027
 1.79 -1.621 4.011
 1.814 -1.619 3.996
 1.835 -1.615 3.974
 1.851 -1.606 3.943
 1.863 -1.595 3.904
 1.872 -1.581 3.857
 1.879 -1.566 3.809
 1.886 -1.551 3.762
 1.893 -1.536 3.715
 1.904 -1.525 3.677
 1.909 -1.51 3.628
 1.916 -1.497 3.586
 1.923 -1.484 3.543
 1.938 -1.477 3.515
 1.834 -1.382 3.275
 1.808 -1.346 3.179
 1.819 -1.338 3.149
 1.828 -1.329 3.118
 1.837 -1.32 3.086
 1.846 -1.312 3.054
 1.844 -1.296 3.005
 -2.328 -1.627 3.94
 -2.293 -1.622 3.941
 -2.261 -1.618 3.944
 -2.233 -1.617 3.956
 -2.205 -1.616 3.966
 -2.177 -1.616 3.977
 -2.149 -1.615 3.987
 -2.123 -1.615 4.002
 -2.098 -1.617 4.017
 -2.072 -1.618 4.032
 -2.047 -1.619 4.046
 -2.022 -1.621 4.062
 -1.993 -1.619 4.07
 -1.965 -1.618 4.078
 -1.937 -1.617 4.086
 -1.909 -1.616 4.095
 -1.88 -1.615 4.102
 -1.854 -1.616 4.114
 -1.829 -1.617 4.128
 -1.802 -1.618 4.139
 -1.775 -1.617 4.148
 -1.746 -1.615 4.153
 -1.718 -1.615 4.16
 -1.689 -1.612 4.163
 -1.66 -1.61 4.166
 -1.63 -1.607 4.167
 -1.602 -1.606 4.174
 -1.573 -1.604 4.176
 -1.546 -1.603 4.182
 -1.518 -1.602 4.188
 -1.491 -1.601 4.195
 -1.463 -1.6 4.199
 -1.437 -1.6 4.206
 -1.408 -1.597 4.208
 -1.381 -1.597 4.213
 -1.353 -1.595 4.215
 -1.326 -1.594 4.22
 -1.298 -1.592 4.222
 -1.271 -1.592 4.229
 -1.244 -1.591 4.231
 -1.217 -1.59 4.236
 -1.189 -1.588 4.237
 -1.162 -1.588 4.241
 -1.135 -1.586 4.243
 -1.107 -1.584 4.243
 -1.08 -1.583 4.244
 -1.052 -1.58 4.242
 -1.024 -1.578 4.242
 -0.997 -1.575 4.241
 -0.969 -1.574 4.241
 -0.943 -1.573 4.242
 -0.917 -1.572 4.246
 -0.89 -1.571 4.248
 -0.864 -1.571 4.252
 -0.838 -1.572 4.257
 -0.812 -1.572 4.261
 -0.786 -1.572 4.265
 -0.759 -1.57 4.264
 -0.733 -1.57 4.267
 -0.707 -1.569 4.267
 -0.68 -1.567 4.265
 -0.653 -1.565 4.262
 -0.627 -1.565 4.265
 -0.601 -1.563 4.265
 -0.575 -1.562 4.264
 -0.549 -1.562 4.264
 -0.523 -1.561 4.265
 -0.497 -1.56 4.264
 -0.47 -1.558 4.262
 -0.445 -1.558 4.262
 -0.419 -1.557 4.261
 -0.393 -1.557 4.263
 -0.367 -1.557 4.266
 -0.342 -1.556 4.265
 -0.316 -1.555 4.263
 -0.29 -1.555 4.264
 -0.264 -1.555 4.264
 -0.238 -1.553 4.26
 -0.213 -1.552 4.26
 -0.187 -1.553 4.261
 -0.162 -1.552 4.259
 -0.136 -1.551 4.257
 -0.11 -1.551 4.257
 -0.085 -1.55 4.255
 -0.059 -1.55 4.255
 -0.034 -1.55 4.255
 -0.008 -1.55 4.255
 0.016 -1.55 4.254
 0.042 -1.549 4.252
 0.067 -1.55 4.252
 0.093 -1.55 4.252
 0.118 -1.55 4.251
 0.144 -1.551 4.253
 0.169 -1.552 4.255
 0.195 -1.552 4.253
 0.22 -1.552 4.253
 0.246 -1.553 4.253
 0.272 -1.553 4.253
 0.297 -1.553 4.252
 0.323 -1.554 4.25
 0.348 -1.554 4.249
 0.374 -1.554 4.248
 0.4 -1.555 4.248
 0.425 -1.557 4.25
 0.452 -1.558 4.252
 0.477 -1.56 4.253
 0.503 -1.56 4.252
 0.529 -1.56 4.248
 0.554 -1.56 4.245
 0.58 -1.56 4.242
 0.605 -1.56 4.238
 0.631 -1.561 4.237
 0.657 -1.562 4.237
 0.684 -1.563 4.236
 0.709 -1.564 4.233
 0.736 -1.565 4.233
 0.762 -1.566 4.232
 0.788 -1.567 4.231
 0.814 -1.569 4.229
 0.841 -1.571 4.23
 0.867 -1.571 4.226
 0.893 -1.571 4.222
 0.919 -1.572 4.22
 0.945 -1.573 4.216
 0.972 -1.574 4.214
 0.999 -1.577 4.216
 1.026 -1.579 4.215
 1.053 -1.58 4.214
 1.081 -1.583 4.216
 1.107 -1.584 4.211
 1.134 -1.586 4.21
 1.162 -1.588 4.21
 1.189 -1.59 4.209
 1.216 -1.592 4.205
 1.244 -1.594 4.204
 1.271 -1.595 4.199
 1.298 -1.596 4.196
 1.325 -1.598 4.193
 1.353 -1.6 4.19
 1.379 -1.6 4.183
 1.407 -1.601 4.178
 1.433 -1.601 4.17
 1.46 -1.603 4.165
 1.486 -1.603 4.156
 1.515 -1.606 4.156
 1.542 -1.606 4.149
 1.57 -1.608 4.145
 1.597 -1.609 4.137
 1.625 -1.611 4.134
 1.652 -1.612 4.125
 1.68 -1.613 4.12
 1.706 -1.613 4.109
 1.733 -1.614 4.1
 1.759 -1.613 4.089
 1.785 -1.613 4.079
 1.807 -1.61 4.06
 1.83 -1.607 4.04
 1.847 -1.599 4.011
 1.861 -1.588 3.972
 1.87 -1.575 3.927
 1.877 -1.559 3.877
 1.885 -1.545 3.83
 1.893 -1.532 3.785
 1.902 -1.519 3.741
 1.914 -1.509 3.706
 1.92 -1.494 3.659
 1.929 -1.483 3.618
 1.934 -1.468 3.571
 0 0 0
 1.823 -1.351 3.263
 1.809 -1.325 3.188
 1.82 -1.317 3.159
 1.83 -1.309 3.128
 1.839 -1.3 3.096
 1.835 -1.283 3.044
 1.831 -1.266 2.992
 -2.345 -1.611 3.978
 -2.312 -1.608 3.983
 -2.291 -1.612 4.008
 -2.264 -1.612 4.021
 -2.236 -1.612 4.033
 -2.208 -1.611 4.044
 -2.18 -1.611 4.056
 -2.154 -1.612 4.071
 -2.128 -1.613 4.085
 -2.101 -1.613 4.097
 -2.074 -1.614 4.111
 -2.047 -1.614 4.124
 -2.018 -1.613 4.131
 -1.989 -1.611 4.138
 -1.96 -1.609 4.145
 -1.931 -1.608 4.153
 -1.903 -1.608 4.162
 -1.877 -1.608 4.175
 -1.85 -1.609 4.187
 -1.824 -1.61 4.198
 -1.795 -1.608 4.204
 -1.765 -1.606 4.208
 -1.736 -1.604 4.212
 -1.705 -1.601 4.214
 -1.676 -1.599 4.218
 -1.646 -1.596 4.22
 -1.619 -1.596 4.227
 -1.59 -1.594 4.23
 -1.561 -1.592 4.234
 -1.532 -1.59 4.236
 -1.504 -1.589 4.241
 -1.475 -1.586 4.241
 -1.447 -1.584 4.245
 -1.418 -1.582 4.247
 -1.39 -1.581 4.251
 -1.362 -1.579 4.253
 -1.335 -1.578 4.258
 -1.306 -1.576 4.259
 -1.279 -1.576 4.263
 -1.251 -1.573 4.264
 -1.222 -1.571 4.264
 -1.194 -1.569 4.265
 -1.167 -1.568 4.269
 -1.139 -1.566 4.269
 -1.112 -1.565 4.272
 -1.085 -1.565 4.275
 -1.057 -1.561 4.272
 -1.029 -1.559 4.271
 -1.001 -1.557 4.268
 -0.974 -1.555 4.268
 -0.947 -1.553 4.268
 -0.92 -1.553 4.272
 -0.894 -1.552 4.275
 -0.867 -1.551 4.276
 -0.84 -1.55 4.276
 -0.814 -1.55 4.28
 -0.788 -1.549 4.281
 -0.761 -1.548 4.281
 -0.735 -1.547 4.284
 -0.709 -1.548 4.288
 -0.682 -1.546 4.286
 -0.655 -1.543 4.282
 -0.629 -1.542 4.283
 -0.602 -1.541 4.282
 -0.576 -1.539 4.279
 -0.549 -1.538 4.278
 -0.524 -1.538 4.28
 -0.497 -1.536 4.277
 -0.471 -1.534 4.274
 -0.445 -1.532 4.271
 -0.419 -1.531 4.27
 -0.393 -1.531 4.27
 -0.367 -1.531 4.273
 -0.341 -1.531 4.273
 -0.316 -1.53 4.272
 -0.29 -1.529 4.272
 -0.264 -1.529 4.273
 -0.238 -1.528 4.269
 -0.213 -1.527 4.268
 -0.187 -1.527 4.268
 -0.161 -1.527 4.269
 -0.136 -1.526 4.266
 -0.11 -1.525 4.265
 -0.085 -1.525 4.263
 -0.059 -1.525 4.263
 -0.034 -1.524 4.262
 -0.008 -1.524 4.261
 0.016 -1.524 4.26
 0.042 -1.523 4.259
 0.067 -1.523 4.257
 0.093 -1.523 4.257
 0.118 -1.524 4.257
 0.144 -1.525 4.259
 0.17 -1.527 4.263
 0.195 -1.527 4.264
 0.221 -1.528 4.264
 0.246 -1.529 4.265
 0.272 -1.529 4.263
 0.297 -1.528 4.259
 0.323 -1.528 4.257
 0.348 -1.527 4.254
 0.374 -1.528 4.253
 0.4 -1.529 4.254
 0.425 -1.53 4.256
 0.452 -1.532 4.259
 0.477 -1.533 4.258
 0.503 -1.534 4.257
 0.529 -1.534 4.255
 0.555 -1.535 4.254
 0.58 -1.535 4.251
 0.606 -1.536 4.25
 0.632 -1.537 4.25
 0.658 -1.538 4.248
 0.684 -1.539 4.247
 0.71 -1.539 4.244
 0.736 -1.54 4.243
 0.762 -1.541 4.241
 0.788 -1.542 4.24
 0.815 -1.543 4.238
 0.842 -1.546 4.241
 0.867 -1.546 4.236
 0.894 -1.547 4.234
 0.92 -1.548 4.233
 0.947 -1.549 4.231
 0.973 -1.551 4.23
 1.001 -1.553 4.231
 1.028 -1.555 4.23
 1.055 -1.558 4.231
 1.083 -1.56 4.233
 1.109 -1.561 4.227
 1.137 -1.564 4.229
 1.165 -1.566 4.229
 1.192 -1.568 4.227
 1.219 -1.569 4.223
 1.247 -1.571 4.222
 1.274 -1.572 4.218
 1.302 -1.574 4.215
 1.329 -1.576 4.213
 1.356 -1.577 4.209
 1.384 -1.579 4.205
 1.411 -1.58 4.201
 1.439 -1.581 4.195
 1.466 -1.583 4.192
 1.494 -1.585 4.187
 1.523 -1.588 4.187
 1.552 -1.59 4.183
 1.58 -1.591 4.179
 1.607 -1.592 4.172
 1.636 -1.595 4.169
 1.663 -1.596 4.161
 1.691 -1.597 4.155
 1.718 -1.598 4.147
 1.746 -1.599 4.14
 1.772 -1.599 4.129
 1.797 -1.598 4.116
 1.819 -1.593 4.094
 1.839 -1.588 4.07
 1.854 -1.579 4.035
 1.866 -1.567 3.993
 1.873 -1.551 3.941
 1.882 -1.537 3.895
 1.89 -1.524 3.849
 1.901 -1.512 3.809
 1.91 -1.5 3.767
 1.926 -1.493 3.737
 1.942 -1.487 3.71
 0 0 0
 0 0 0
 0 0 0
 0 0 0
 1.813 -1.306 3.204
 1.824 -1.298 3.174
 1.834 -1.29 3.142
 1.842 -1.281 3.109
 1.85 -1.272 3.076
 1.839 -1.251 3.012
 -2.366 -1.599 4.025
 -2.372 -1.621 4.096
 -2.323 -1.607 4.074
 -2.295 -1.607 4.086
 -2.267 -1.607 4.099
 -2.239 -1.607 4.112
 -2.21 -1.606 4.122
 -2.183 -1.606 4.136
 -2.156 -1.607 4.15
 -2.127 -1.605 4.158
 -2.099 -1.605 4.169
 -2.07 -1.604 4.179
 -2.041 -1.604 4.188
 -2.011 -1.601 4.194
 -1.982 -1.601 4.203
 -1.953 -1.6 4.211
 -1.925 -1.598 4.219
 -1.896 -1.598 4.227
 -1.869 -1.598 4.238
 -1.84 -1.597 4.246
 -1.81 -1.594 4.249
 -1.78 -1.592 4.252
 -1.75 -1.59 4.256
 -1.717 -1.585 4.253
 -1.688 -1.583 4.257
 -1.658 -1.58 4.258
 -1.629 -1.579 4.263
 -1.599 -1.576 4.265
 -1.571 -1.575 4.27
 -1.541 -1.572 4.27
 -1.513 -1.571 4.274
 -1.483 -1.568 4.274
 -1.453 -1.565 4.274
 -1.424 -1.563 4.275
 -1.396 -1.561 4.279
 -1.367 -1.559 4.279
 -1.339 -1.558 4.282
 -1.311 -1.556 4.285
 -1.284 -1.555 4.288
 -1.255 -1.552 4.288
 -1.226 -1.55 4.287
 -1.198 -1.548 4.287
 -1.17 -1.546 4.288
 -1.142 -1.544 4.288
 -1.114 -1.542 4.289
 -1.087 -1.54 4.29
 -1.058 -1.537 4.285
 -1.031 -1.535 4.285
 -1.002 -1.532 4.282
 -0.975 -1.53 4.281
 -0.948 -1.529 4.283
 -0.922 -1.529 4.287
 -0.895 -1.528 4.289
 -0.868 -1.528 4.292
 -0.842 -1.526 4.292
 -0.815 -1.525 4.293
 -0.788 -1.524 4.293
 -0.761 -1.523 4.293
 -0.735 -1.521 4.292
 -0.709 -1.521 4.296
 -0.682 -1.519 4.293
 -0.655 -1.517 4.289
 -0.628 -1.515 4.288
 -0.602 -1.514 4.287
 -0.575 -1.512 4.284
 -0.549 -1.511 4.283
 -0.523 -1.511 4.286
 -0.497 -1.51 4.284
 -0.471 -1.508 4.282
 -0.444 -1.506 4.278
 -0.418 -1.505 4.277
 -0.392 -1.504 4.275
 -0.367 -1.504 4.278
 -0.341 -1.505 4.28
 -0.315 -1.504 4.279
 -0.289 -1.503 4.277
 -0.264 -1.503 4.279
 -0.238 -1.501 4.273
 -0.212 -1.5 4.271
 -0.187 -1.5 4.274
 -0.161 -1.501 4.277
 -0.136 -1.5 4.274
 -0.11 -1.5 4.274
 -0.085 -1.5 4.273
 -0.059 -1.499 4.271
 -0.033 -1.498 4.268
 -0.008 -1.498 4.268
 0.017 -1.498 4.267
 0.042 -1.498 4.266
 0.067 -1.498 4.265
 0.093 -1.498 4.265
 0.118 -1.498 4.264
 0.144 -1.499 4.265
 0.17 -1.5 4.268
 0.195 -1.5 4.268
 0.221 -1.501 4.268
 0.246 -1.502 4.269
 0.272 -1.502 4.268
 0.297 -1.501 4.264
 0.323 -1.501 4.262
 0.348 -1.501 4.26
 0.374 -1.501 4.257
 0.399 -1.502 4.257
 0.425 -1.504 4.26
 0.451 -1.505 4.261
 0.477 -1.506 4.261
 0.503 -1.507 4.26
 0.529 -1.507 4.26
 0.554 -1.508 4.259
 0.58 -1.508 4.256
 0.606 -1.51 4.258
 0.632 -1.511 4.258
 0.658 -1.512 4.256
 0.684 -1.512 4.254
 0.71 -1.514 4.254
 0.736 -1.514 4.25
 0.762 -1.515 4.249
 0.788 -1.516 4.248
 0.815 -1.518 4.248
 0.842 -1.519 4.247
 0.868 -1.52 4.244
 0.894 -1.521 4.242
 0.92 -1.522 4.24
 0.947 -1.523 4.239
 0.973 -1.525 4.237
 1 -1.527 4.237
 1.027 -1.528 4.236
 1.054 -1.53 4.235
 1.082 -1.533 4.237
 1.109 -1.534 4.234
 1.137 -1.537 4.236
 1.164 -1.539 4.235
 1.192 -1.541 4.234
 1.219 -1.542 4.231
 1.246 -1.544 4.228
 1.274 -1.546 4.226
 1.302 -1.548 4.225
 1.33 -1.55 4.224
 1.358 -1.552 4.221
 1.387 -1.555 4.221
 1.414 -1.557 4.217
 1.442 -1.558 4.214
 1.471 -1.561 4.212
 1.498 -1.562 4.208
 1.528 -1.565 4.207
 1.556 -1.568 4.204
 1.585 -1.57 4.2
 1.613 -1.571 4.195
 1.642 -1.574 4.194
 1.67 -1.576 4.188
 1.698 -1.577 4.182
 1.727 -1.579 4.177
 1.754 -1.58 4.169
 1.78 -1.579 4.157
 1.805 -1.578 4.142
 1.827 -1.573 4.12
 1.846 -1.567 4.093
 1.86 -1.557 4.055
 1.872 -1.546 4.015
 1.88 -1.531 3.965
 1.89 -1.518 3.921
 1.899 -1.505 3.876
 1.91 -1.494 3.836
 1.919 -1.481 3.791
 1.937 -1.476 3.767
 0 0 0
 0 0 0
 0 0 0
 0 0 0
 0 0 0
 1.81 -1.282 3.205
 1.824 -1.277 3.182
 1.835 -1.27 3.153
 1.843 -1.26 3.118
 1.853 -1.253 3.088
 1.845 -1.234 3.03
 -2.397 -1.592 4.087
 -2.373 -1.594 4.108
 -2.357 -1.602 4.143
 -2.328 -1.602 4.156
 -2.3 -1.602 4.169
 -2.271 -1.601 4.179
 -2.243 -1.601 4.193
 -2.214 -1.601 4.204
 -2.184 -1.6 4.213
 -2.154 -1.598 4.221
 -2.124 -1.597 4.229
 -2.092 -1.594 4.233
 -2.061 -1.591 4.239
 -2.029 -1.589 4.242
 -1.999 -1.587 4.248
 -1.969 -1.585 4.255
 -1.94 -1.583 4.261
 -1.91 -1.582 4.269
 -1.881 -1.581 4.277
 -1.852 -1.58 4.283
 -1.821 -1.577 4.285
 -1.79 -1.574 4.287
 -1.759 -1.571 4.289
 -1.727 -1.567 4.286
 -1.697 -1.565 4.29
 -1.666 -1.561 4.289
 -1.637 -1.559 4.293
 -1.606 -1.556 4.292
 -1.577 -1.554 4.296
 -1.546 -1.55 4.293
 -1.517 -1.548 4.296
 -1.487 -1.545 4.294
 -1.457 -1.543 4.295
 -1.428 -1.54 4.294
 -1.399 -1.538 4.297
 -1.37 -1.535 4.295
 -1.341 -1.533 4.297
 -1.312 -1.531 4.297
 -1.284 -1.529 4.3
 -1.255 -1.526 4.298
 -1.226 -1.523 4.296
 -1.198 -1.521 4.296
 -1.17 -1.519 4.297
 -1.142 -1.517 4.296
 -1.114 -1.515 4.296
 -1.087 -1.514 4.298
 -1.058 -1.511 4.296
 -1.03 -1.509 4.293
 -1.003 -1.507 4.292
 -0.975 -1.505 4.292
 -0.948 -1.504 4.293
 -0.922 -1.503 4.296
 -0.895 -1.503 4.299
 -0.868 -1.501 4.298
 -0.841 -1.5 4.298
 -0.815 -1.499 4.3
 -0.788 -1.497 4.298
 -0.761 -1.496 4.299
 -0.734 -1.494 4.297
 -0.708 -1.494 4.301
 -0.681 -1.492 4.296
 -0.654 -1.49 4.293
 -0.627 -1.488 4.291
 -0.601 -1.487 4.291
 -0.574 -1.485 4.287
 -0.548 -1.484 4.287
 -0.522 -1.483 4.288
 -0.496 -1.482 4.286
 -0.47 -1.481 4.284
 -0.444 -1.48 4.283
 -0.418 -1.479 4.282
 -0.392 -1.478 4.282
 -0.367 -1.479 4.286
 -0.341 -1.479 4.288
 -0.315 -1.478 4.286
 -0.289 -1.477 4.284
 -0.264 -1.477 4.285
 -0.238 -1.475 4.28
 -0.212 -1.474 4.277
 -0.186 -1.474 4.278
 -0.161 -1.474 4.28
 -0.135 -1.473 4.278
 -0.11 -1.473 4.278
 -0.084 -1.473 4.276
 -0.059 -1.472 4.275
 -0.033 -1.472 4.273
 -0.008 -1.471 4.272
 0.017 -1.471 4.271
 0.042 -1.471 4.27
 0.068 -1.471 4.268
 0.093 -1.47 4.266
 0.118 -1.47 4.266
 0.144 -1.471 4.266
 0.169 -1.472 4.268
 0.195 -1.473 4.269
 0.221 -1.474 4.271
 0.246 -1.474 4.271
 0.272 -1.475 4.271
 0.297 -1.474 4.267
 0.323 -1.474 4.265
 0.348 -1.474 4.262
 0.374 -1.474 4.262
 0.399 -1.474 4.26
 0.425 -1.476 4.261
 0.451 -1.477 4.263
 0.476 -1.478 4.262
 0.502 -1.478 4.26
 0.528 -1.479 4.26
 0.554 -1.48 4.26
 0.58 -1.481 4.259
 0.606 -1.483 4.261
 0.632 -1.484 4.26
 0.658 -1.485 4.261
 0.684 -1.486 4.26
 0.71 -1.488 4.26
 0.736 -1.488 4.258
 0.763 -1.489 4.257
 0.789 -1.49 4.255
 0.815 -1.492 4.254
 0.841 -1.492 4.252
 0.867 -1.493 4.249
 0.893 -1.494 4.246
 0.92 -1.495 4.246
 0.946 -1.496 4.244
 0.973 -1.498 4.243
 1 -1.5 4.242
 1.027 -1.502 4.243
 1.054 -1.503 4.241
 1.082 -1.507 4.244
 1.109 -1.508 4.242
 1.137 -1.51 4.243
 1.165 -1.513 4.243
 1.192 -1.515 4.241
 1.219 -1.516 4.239
 1.247 -1.518 4.237
 1.274 -1.519 4.234
 1.302 -1.521 4.232
 1.33 -1.524 4.231
 1.357 -1.525 4.227
 1.386 -1.528 4.227
 1.414 -1.53 4.225
 1.442 -1.532 4.223
 1.471 -1.534 4.221
 1.5 -1.537 4.219
 1.529 -1.54 4.219
 1.558 -1.542 4.216
 1.586 -1.544 4.212
 1.615 -1.546 4.208
 1.644 -1.549 4.207
 1.673 -1.551 4.202
 1.702 -1.553 4.198
 1.73 -1.555 4.194
 1.759 -1.557 4.188
 1.786 -1.557 4.178
 1.81 -1.555 4.163
 1.831 -1.55 4.139
 1.85 -1.544 4.112
 1.866 -1.535 4.076
 1.877 -1.523 4.033
 1.885 -1.508 3.983
 1.896 -1.497 3.941
 1.904 -1.484 3.895
 1.917 -1.474 3.859
 1.925 -1.461 3.813
 0 0 0
 0 0 0
 0 0 0
 0 0 0
 0 0 0
 0 0 0
 1.796 -1.25 3.187
 1.816 -1.249 3.174
 1.829 -1.244 3.148
 1.838 -1.236 3.117
 1.853 -1.232 3.096
 1.834 -1.205 3.018
 -2.454 -1.601 4.195
 -2.414 -1.593 4.189
 -2.387 -1.594 4.205
 -2.359 -1.595 4.221
 -2.33 -1.594 4.232
 -2.299 -1.593 4.241
 -2.268 -1.591 4.25
 -2.237 -1.589 4.258
 -2.206 -1.587 4.264
 -2.173 -1.584 4.269
 -2.141 -1.582 4.273
 -2.108 -1.578 4.276
 -2.077 -1.576 4.281
 -2.044 -1.572 4.282
 -2.013 -1.57 4.288
 -1.983 -1.568 4.293
 -1.952 -1.566 4.298
 -1.922 -1.564 4.304
 -1.89 -1.561 4.306
 -1.859 -1.558 4.309
 -1.827 -1.555 4.309
 -1.796 -1.552 4.311
 -1.764 -1.548 4.31
 -1.732 -1.544 4.308
 -1.702 -1.542 4.31
 -1.67 -1.538 4.309
 -1.64 -1.535 4.31
 -1.609 -1.532 4.308
 -1.579 -1.529 4.311
 -1.548 -1.525 4.306
 -1.518 -1.523 4.308
 -1.488 -1.52 4.307
 -1.458 -1.517 4.307
 -1.429 -1.514 4.306
 -1.4 -1.512 4.308
 -1.37 -1.508 4.305
 -1.341 -1.506 4.304
 -1.312 -1.504 4.304
 -1.284 -1.502 4.307
 -1.255 -1.5 4.306
 -1.227 -1.498 4.306
 -1.198 -1.495 4.305
 -1.17 -1.493 4.305
 -1.142 -1.49 4.303
 -1.114 -1.488 4.303
 -1.086 -1.487 4.303
 -1.058 -1.485 4.302
 -1.03 -1.482 4.299
 -1.002 -1.48 4.298
 -0.975 -1.478 4.298
 -0.948 -1.477 4.298
 -0.921 -1.476 4.301
 -0.894 -1.476 4.304
 -0.867 -1.474 4.302
 -0.84 -1.472 4.301
 -0.814 -1.472 4.304
 -0.787 -1.47 4.303
 -0.76 -1.469 4.303
 -0.733 -1.467 4.302
 -0.707 -1.467 4.305
 -0.68 -1.464 4.3
 -0.653 -1.462 4.296
 -0.627 -1.46 4.294
 -0.6 -1.46 4.294
 -0.574 -1.457 4.289
 -0.548 -1.456 4.289
 -0.522 -1.456 4.291
 -0.495 -1.455 4.289
 -0.469 -1.454 4.289
 -0.444 -1.453 4.288
 -0.418 -1.453 4.288
 -0.392 -1.452 4.288
 -0.366 -1.452 4.291
 -0.341 -1.452 4.293
 -0.315 -1.451 4.29
 -0.289 -1.45 4.288
 -0.263 -1.45 4.289
 -0.237 -1.448 4.284
 -0.212 -1.447 4.281
 -0.186 -1.447 4.281
 -0.161 -1.448 4.284
 -0.135 -1.447 4.283
 -0.11 -1.447 4.283
 -0.084 -1.447 4.283
 -0.059 -1.447 4.282
 -0.033 -1.446 4.279
 -0.008 -1.446 4.279
 0.017 -1.445 4.277
 0.042 -1.445 4.275
 0.068 -1.445 4.274
 0.093 -1.445 4.274
 0.119 -1.445 4.273
 0.144 -1.445 4.274
 0.17 -1.446 4.274
 0.195 -1.446 4.272
 0.22 -1.446 4.271
 0.246 -1.446 4.27
 0.271 -1.446 4.27
 0.297 -1.446 4.268
 0.322 -1.446 4.266
 0.348 -1.447 4.265
 0.373 -1.447 4.265
 0.399 -1.448 4.263
 0.424 -1.448 4.264
 0.45 -1.45 4.265
 0.476 -1.45 4.264
 0.502 -1.451 4.263
 0.527 -1.452 4.263
 0.553 -1.453 4.262
 0.579 -1.454 4.262
 0.605 -1.456 4.264
 0.631 -1.457 4.264
 0.658 -1.459 4.267
 0.684 -1.459 4.264
 0.71 -1.461 4.266
 0.736 -1.461 4.262
 0.762 -1.463 4.262
 0.788 -1.463 4.258
 0.815 -1.465 4.26
 0.84 -1.465 4.256
 0.867 -1.466 4.254
 0.893 -1.467 4.25
 0.919 -1.468 4.249
 0.946 -1.47 4.249
 0.973 -1.472 4.25
 1 -1.473 4.248
 1.027 -1.475 4.248
 1.054 -1.477 4.248
 1.081 -1.479 4.249
 1.108 -1.48 4.246
 1.136 -1.483 4.246
 1.164 -1.485 4.248
 1.191 -1.487 4.245
 1.218 -1.488 4.242
 1.246 -1.49 4.241
 1.273 -1.492 4.24
 1.301 -1.494 4.238
 1.33 -1.497 4.238
 1.357 -1.498 4.235
 1.386 -1.501 4.234
 1.414 -1.503 4.232
 1.442 -1.505 4.229
 1.47 -1.507 4.226
 1.499 -1.509 4.225
 1.528 -1.513 4.225
 1.557 -1.515 4.223
 1.586 -1.517 4.219
 1.614 -1.519 4.216
 1.643 -1.521 4.213
 1.672 -1.524 4.21
 1.7 -1.525 4.203
 1.73 -1.528 4.201
 1.759 -1.53 4.198
 1.787 -1.531 4.19
 1.811 -1.529 4.173
 1.833 -1.525 4.152
 1.852 -1.519 4.124
 1.868 -1.511 4.091
 1.881 -1.5 4.05
 1.89 -1.486 4.003
 1.903 -1.477 3.966
 1.911 -1.463 3.918
 1.925 -1.454 3.881
 0 0 0
 0 0 0
 0 0 0
 0 0 0
 0 0 0
 0 0 0
 0 0 0
 1.795 -1.228 3.193
 1.817 -1.228 3.183
 1.829 -1.222 3.156
 1.838 -1.214 3.124
 1.884 -1.23 3.154
 1.855 -1.198 3.06
 -2.523 -1.617 4.324
 -2.443 -1.584 4.25
 -2.409 -1.581 4.255
 -2.38 -1.58 4.267
 -2.349 -1.579 4.277
 -2.317 -1.577 4.284
 -2.285 -1.575 4.292
 -2.252 -1.572 4.297
 -2.22 -1.569 4.301
 -2.186 -1.565 4.303
 -2.152 -1.562 4.305
 -2.117 -1.557 4.304
 -2.085 -1.554 4.307
 -2.051 -1.549 4.306
 -2.019 -1.547 4.31
 -1.989 -1.545 4.316
 -1.958 -1.543 4.321
 -1.927 -1.54 4.325
 -1.894 -1.537 4.325
 -1.862 -1.533 4.325
 -1.829 -1.529 4.322
 -1.797 -1.525 4.323
 -1.765 -1.521 4.32
 -1.733 -1.518 4.321
 -1.703 -1.515 4.323
 -1.671 -1.512 4.321
 -1.641 -1.509 4.321
 -1.61 -1.506 4.321
 -1.58 -1.503 4.322
 -1.548 -1.499 4.317
 -1.519 -1.496 4.318
 -1.488 -1.493 4.316
 -1.458 -1.49 4.314
 -1.427 -1.486 4.311
 -1.398 -1.484 4.312
 -1.369 -1.481 4.31
 -1.339 -1.478 4.308
 -1.311 -1.476 4.308
 -1.282 -1.474 4.31
 -1.254 -1.471 4.309
 -1.225 -1.469 4.308
 -1.197 -1.467 4.308
 -1.168 -1.465 4.307
 -1.141 -1.463 4.308
 -1.112 -1.461 4.307
 -1.085 -1.459 4.307
 -1.057 -1.457 4.307
 -1.029 -1.454 4.304
 -1.001 -1.452 4.302
 -0.974 -1.451 4.302
 -0.946 -1.449 4.302
 -0.919 -1.447 4.301
 -0.893 -1.447 4.305
 -0.866 -1.446 4.304
 -0.839 -1.445 4.305
 -0.813 -1.444 4.308
 -0.786 -1.443 4.306
 -0.76 -1.442 4.307
 -0.732 -1.439 4.304
 -0.706 -1.439 4.305
 -0.679 -1.437 4.301
 -0.653 -1.436 4.301
 -0.626 -1.434 4.3
 -0.6 -1.434 4.302
 -0.574 -1.433 4.3
 -0.548 -1.432 4.3
 -0.522 -1.431 4.3
 -0.496 -1.43 4.3
 -0.47 -1.43 4.3
 -0.444 -1.429 4.299
 -0.418 -1.428 4.299
 -0.392 -1.427 4.297
 -0.366 -1.426 4.296
 -0.34 -1.425 4.296
 -0.314 -1.424 4.292
 -0.288 -1.422 4.288
 -0.263 -1.422 4.288
 -0.237 -1.421 4.286
 -0.211 -1.419 4.282
 -0.186 -1.419 4.283
 -0.16 -1.421 4.287
 -0.135 -1.42 4.285
 -0.109 -1.419 4.284
 -0.084 -1.42 4.287
 -0.058 -1.42 4.285
 -0.033 -1.419 4.283
 -0.007 -1.419 4.283
 0.017 -1.419 4.281
 0.042 -1.419 4.28
 0.068 -1.419 4.282
 0.093 -1.419 4.281
 0.119 -1.419 4.279
 0.144 -1.419 4.279
 0.17 -1.419 4.278
 0.195 -1.418 4.272
 0.22 -1.418 4.271
 0.246 -1.419 4.274
 0.271 -1.42 4.273
 0.297 -1.421 4.275
 0.322 -1.421 4.273
 0.348 -1.421 4.272
 0.373 -1.421 4.271
 0.399 -1.421 4.268
 0.424 -1.421 4.264
 0.45 -1.422 4.266
 0.475 -1.422 4.262
 0.501 -1.422 4.261
 0.527 -1.423 4.262
 0.552 -1.424 4.261
 0.579 -1.426 4.264
 0.605 -1.429 4.269
 0.631 -1.43 4.268
 0.658 -1.432 4.27
 0.683 -1.433 4.269
 0.709 -1.434 4.268
 0.735 -1.434 4.264
 0.761 -1.435 4.264
 0.787 -1.435 4.259
 0.814 -1.437 4.26
 0.84 -1.438 4.258
 0.866 -1.439 4.257
 0.892 -1.44 4.254
 0.919 -1.441 4.254
 0.946 -1.443 4.254
 0.972 -1.444 4.254
 0.999 -1.445 4.251
 1.026 -1.447 4.251
 1.054 -1.45 4.254
 1.081 -1.452 4.253
 1.107 -1.453 4.25
 1.135 -1.456 4.251
 1.163 -1.458 4.252
 1.19 -1.459 4.248
 1.217 -1.461 4.246
 1.246 -1.464 4.248
 1.273 -1.465 4.245
 1.3 -1.467 4.243
 1.329 -1.469 4.242
 1.356 -1.471 4.239
 1.384 -1.472 4.236
 1.413 -1.475 4.236
 1.44 -1.477 4.232
 1.469 -1.479 4.23
 1.498 -1.482 4.231
 1.528 -1.485 4.231
 1.556 -1.487 4.228
 1.585 -1.489 4.225
 1.614 -1.491 4.222
 1.642 -1.493 4.217
 1.671 -1.495 4.214
 1.699 -1.497 4.208
 1.728 -1.499 4.204
 1.758 -1.501 4.201
 1.787 -1.504 4.197
 1.811 -1.502 4.181
 1.834 -1.499 4.162
 1.854 -1.494 4.138
 1.873 -1.488 4.109
 1.886 -1.477 4.07
 1.898 -1.466 4.027
 1.911 -1.456 3.989
 1.917 -1.442 3.937
 0 0 0
 0 0 0
 0 0 0
 0 0 0
 0 0 0
 0 0 0
 0 0 0
 0 0 0
 1.791 -1.204 3.193
 1.816 -1.206 3.188
 1.83 -1.201 3.164
 1.838 -1.193 3.13
 1.833 -1.176 3.076
 1.843 -1.169 3.047
 -2.472 -1.555 4.245
 -2.479 -1.579 4.323
 -2.431 -1.566 4.303
 -2.4 -1.565 4.313
 -2.367 -1.562 4.319
 -2.332 -1.558 4.322
 -2.297 -1.554 4.323
 -2.261 -1.549 4.323
 -2.227 -1.546 4.325
 -2.193 -1.542 4.328
 -2.159 -1.538 4.327
 -2.124 -1.533 4.326
 -2.091 -1.53 4.33
 -2.056 -1.525 4.327
 -2.023 -1.522 4.328
 -1.992 -1.519 4.332
 -1.959 -1.516 4.333
 -1.927 -1.512 4.333
 -1.894 -1.509 4.333
 -1.861 -1.504 4.331
 -1.828 -1.5 4.328
 -1.797 -1.497 4.331
 -1.765 -1.494 4.329
 -1.733 -1.49 4.328
 -1.702 -1.487 4.327
 -1.67 -1.483 4.326
 -1.638 -1.479 4.323
 -1.608 -1.476 4.324
 -1.578 -1.474 4.324
 -1.547 -1.47 4.322
 -1.517 -1.468 4.323
 -1.488 -1.466 4.324
 -1.458 -1.462 4.322
 -1.427 -1.458 4.317
 -1.397 -1.456 4.317
 -1.368 -1.453 4.315
 -1.338 -1.45 4.312
 -1.31 -1.448 4.315
 -1.282 -1.447 4.318
 -1.254 -1.445 4.317
 -1.225 -1.442 4.315
 -1.196 -1.44 4.314
 -1.167 -1.436 4.309
 -1.139 -1.434 4.309
 -1.11 -1.431 4.305
 -1.082 -1.429 4.303
 -1.054 -1.428 4.304
 -1.026 -1.424 4.3
 -0.999 -1.423 4.3
 -0.972 -1.422 4.302
 -0.945 -1.421 4.305
 -0.918 -1.42 4.304
 -0.892 -1.42 4.31
 -0.865 -1.418 4.308
 -0.839 -1.418 4.311
 -0.813 -1.418 4.314
 -0.786 -1.416 4.313
 -0.759 -1.415 4.314
 -0.732 -1.412 4.308
 -0.705 -1.411 4.307
 -0.678 -1.409 4.304
 -0.652 -1.408 4.305
 -0.626 -1.407 4.303
 -0.6 -1.407 4.306
 -0.573 -1.406 4.304
 -0.547 -1.405 4.305
 -0.521 -1.404 4.305
 -0.495 -1.404 4.305
 -0.47 -1.404 4.307
 -0.444 -1.404 4.308
 -0.418 -1.403 4.308
 -0.392 -1.402 4.307
 -0.366 -1.401 4.304
 -0.34 -1.399 4.299
 -0.314 -1.396 4.292
 -0.288 -1.394 4.287
 -0.262 -1.393 4.286
 -0.236 -1.392 4.283
 -0.211 -1.391 4.281
 -0.185 -1.392 4.283
 -0.16 -1.393 4.287
 -0.135 -1.393 4.287
 -0.109 -1.393 4.287
 -0.084 -1.393 4.289
 -0.058 -1.393 4.287
 -0.033 -1.392 4.285
 -0.007 -1.393 4.286
 0.017 -1.392 4.284
 0.043 -1.392 4.285
 0.068 -1.394 4.289
 0.093 -1.394 4.289
 0.119 -1.394 4.287
 0.144 -1.394 4.288
 0.17 -1.394 4.285
 0.195 -1.392 4.277
 0.22 -1.391 4.273
 0.246 -1.393 4.277
 0.271 -1.393 4.277
 0.297 -1.395 4.281
 0.323 -1.395 4.28
 0.348 -1.396 4.281
 0.374 -1.397 4.28
 0.399 -1.396 4.276
 0.424 -1.395 4.271
 0.45 -1.397 4.273
 0.475 -1.396 4.269
 0.501 -1.396 4.266
 0.527 -1.397 4.267
 0.552 -1.398 4.266
 0.578 -1.4 4.269
 0.605 -1.403 4.274
 0.631 -1.404 4.273
 0.657 -1.406 4.275
 0.683 -1.406 4.275
 0.709 -1.407 4.273
 0.735 -1.407 4.27
 0.761 -1.409 4.27
 0.787 -1.409 4.266
 0.814 -1.411 4.267
 0.84 -1.412 4.265
 0.866 -1.413 4.264
 0.892 -1.414 4.262
 0.919 -1.415 4.261
 0.946 -1.417 4.261
 0.973 -1.419 4.261
 0.999 -1.419 4.257
 1.025 -1.42 4.255
 1.053 -1.423 4.257
 1.08 -1.425 4.256
 1.107 -1.426 4.254
 1.134 -1.428 4.255
 1.163 -1.431 4.257
 1.189 -1.432 4.252
 1.217 -1.433 4.251
 1.244 -1.436 4.25
 1.271 -1.437 4.247
 1.299 -1.439 4.245
 1.327 -1.441 4.245
 1.355 -1.443 4.243
 1.383 -1.445 4.241
 1.412 -1.448 4.241
 1.439 -1.449 4.236
 1.468 -1.451 4.235
 1.497 -1.454 4.234
 1.526 -1.456 4.233
 1.554 -1.458 4.229
 1.583 -1.461 4.228
 1.612 -1.463 4.225
 1.64 -1.464 4.22
 1.669 -1.466 4.216
 1.698 -1.469 4.213
 1.726 -1.471 4.208
 1.755 -1.473 4.204
 1.785 -1.475 4.202
 1.81 -1.474 4.187
 1.834 -1.472 4.171
 1.857 -1.469 4.151
 1.878 -1.465 4.128
 1.893 -1.456 4.093
 1.914 -1.452 4.07
 1.931 -1.445 4.039
 0 0 0
 0 0 0
 0 0 0
 0 0 0
 0 0 0
 0 0 0
 0 0 0
 0 0 0
 0 0 0
 0 0 0
 1.812 -1.182 3.187
 1.83 -1.179 3.17
 1.839 -1.172 3.139
 1.849 -1.165 3.109
 1.848 -1.152 3.062
 -2.516 -1.554 4.331
 -2.473 -1.546 4.321
 -2.445 -1.546 4.337
 -2.412 -1.544 4.345
 -2.378 -1.541 4.35
 -2.343 -1.537 4.352
 -2.306 -1.532 4.35
 -2.268 -1.525 4.345
 -2.231 -1.52 4.341
 -2.196 -1.516 4.342
 -2.16 -1.511 4.34
 -2.125 -1.506 4.338
 -2.093 -1.503 4.341
 -2.058 -1.499 4.34
 -2.024 -1.494 4.338
 -1.991 -1.491 4.339
 -1.958 -1.487 4.339
 -1.925 -1.483 4.338
 -1.891 -1.479 4.335
 -1.858 -1.475 4.334
 -1.826 -1.471 4.332
 -1.795 -1.468 4.335
 -1.763 -1.465 4.333
 -1.732 -1.462 4.334
 -1.7 -1.458 4.333
 -1.668 -1.454 4.33
 -1.637 -1.451 4.328
 -1.607 -1.448 4.329
 -1.576 -1.445 4.327
 -1.545 -1.442 4.325
 -1.515 -1.439 4.324
 -1.486 -1.436 4.325
 -1.455 -1.433 4.323
 -1.425 -1.43 4.319
 -1.396 -1.428 4.321
 -1.368 -1.426 4.323
 -1.338 -1.423 4.32
 -1.31 -1.421 4.322
 -1.282 -1.42 4.325
 -1.253 -1.418 4.323
 -1.224 -1.415 4.321
 -1.195 -1.412 4.319
 -1.166 -1.409 4.314
 -1.138 -1.407 4.314
 -1.109 -1.404 4.309
 -1.08 -1.401 4.306
 -1.054 -1.4 4.308
 -1.025 -1.397 4.304
 -0.998 -1.396 4.306
 -0.971 -1.396 4.308
 -0.945 -1.395 4.31
 -0.918 -1.393 4.31
 -0.892 -1.394 4.316
 -0.864 -1.391 4.31
 -0.838 -1.391 4.314
 -0.812 -1.39 4.317
 -0.784 -1.388 4.314
 -0.758 -1.388 4.315
 -0.731 -1.385 4.31
 -0.705 -1.384 4.312
 -0.678 -1.383 4.31
 -0.652 -1.383 4.312
 -0.625 -1.381 4.31
 -0.6 -1.382 4.315
 -0.573 -1.38 4.311
 -0.547 -1.379 4.312
 -0.521 -1.378 4.311
 -0.495 -1.378 4.313
 -0.47 -1.378 4.314
 -0.444 -1.378 4.316
 -0.418 -1.377 4.316
 -0.392 -1.377 4.316
 -0.366 -1.374 4.308
 -0.339 -1.371 4.301
 -0.313 -1.369 4.293
 -0.287 -1.367 4.288
 -0.262 -1.366 4.288
 -0.236 -1.366 4.286
 -0.21 -1.364 4.284
 -0.185 -1.365 4.285
 -0.16 -1.366 4.289
 -0.134 -1.366 4.289
 -0.109 -1.366 4.289
 -0.083 -1.366 4.29
 -0.058 -1.366 4.289
 -0.033 -1.365 4.288
 -0.007 -1.366 4.289
 0.017 -1.365 4.288
 0.043 -1.367 4.291
 0.068 -1.368 4.296
 0.094 -1.369 4.297
 0.119 -1.368 4.294
 0.145 -1.369 4.294
 0.17 -1.368 4.292
 0.195 -1.365 4.281
 0.22 -1.364 4.275
 0.246 -1.366 4.281
 0.271 -1.366 4.28
 0.297 -1.369 4.287
 0.323 -1.369 4.284
 0.348 -1.37 4.287
 0.374 -1.371 4.287
 0.399 -1.371 4.283
 0.424 -1.369 4.275
 0.45 -1.371 4.28
 0.475 -1.37 4.274
 0.5 -1.369 4.269
 0.526 -1.371 4.27
 0.552 -1.371 4.269
 0.578 -1.374 4.273
 0.605 -1.377 4.28
 0.631 -1.378 4.279
 0.657 -1.379 4.281
 0.683 -1.38 4.28
 0.709 -1.381 4.278
 0.735 -1.381 4.275
 0.761 -1.383 4.275
 0.787 -1.383 4.271
 0.813 -1.384 4.271
 0.839 -1.385 4.27
 0.866 -1.386 4.268
 0.892 -1.387 4.267
 0.919 -1.389 4.267
 0.946 -1.391 4.268
 0.973 -1.393 4.271
 0.999 -1.394 4.267
 1.026 -1.395 4.263
 1.053 -1.397 4.265
 1.08 -1.398 4.262
 1.106 -1.399 4.259
 1.133 -1.401 4.258
 1.162 -1.403 4.26
 1.188 -1.404 4.255
 1.215 -1.406 4.254
 1.243 -1.408 4.253
 1.271 -1.41 4.251
 1.298 -1.411 4.249
 1.326 -1.414 4.249
 1.354 -1.415 4.247
 1.382 -1.417 4.244
 1.41 -1.419 4.244
 1.438 -1.421 4.24
 1.466 -1.423 4.238
 1.495 -1.426 4.238
 1.524 -1.428 4.235
 1.552 -1.43 4.232
 1.58 -1.431 4.228
 1.609 -1.434 4.226
 1.637 -1.435 4.219
 1.666 -1.437 4.216
 1.695 -1.439 4.213
 1.723 -1.441 4.209
 1.753 -1.443 4.206
 1.784 -1.447 4.207
 1.81 -1.447 4.194
 1.835 -1.446 4.18
 1.859 -1.444 4.164
 1.883 -1.442 4.147
 1.897 -1.432 4.109
 1.918 -1.429 4.087
 0 0 0
 0 0 0
 0 0 0
 0 0 0
 0 0 0
 0 0 0
 0 0 0
 0 0 0
 0 0 0
 0 0 0
 0 0 0
 1.809 -1.158 3.189
 1.825 -1.155 3.169
 1.836 -1.149 3.14
 1.869 -1.156 3.15
 1.836 -1.123 3.048
 -2.513 -1.523 4.336
 -2.486 -1.524 4.353
 -2.448 -1.519 4.352
 -2.414 -1.516 4.358
 -2.379 -1.512 4.36
 -2.342 -1.508 4.36
 -2.304 -1.502 4.355
 -2.265 -1.495 4.349
 -2.229 -1.49 4.348
 -2.195 -1.487 4.349
 -2.159 -1.481 4.346
 -2.124 -1.477 4.345
 -2.092 -1.475 4.349
 -2.057 -1.47 4.346
 -2.022 -1.465 4.343
 -1.989 -1.461 4.343
 -1.956 -1.458 4.344
 -1.921 -1.453 4.339
 -1.888 -1.449 4.337
 -1.856 -1.445 4.337
 -1.824 -1.442 4.336
 -1.792 -1.439 4.337
 -1.761 -1.436 4.338
 -1.73 -1.433 4.339
 -1.699 -1.43 4.337
 -1.667 -1.426 4.335
 -1.635 -1.422 4.332
 -1.606 -1.42 4.335
 -1.574 -1.417 4.331
 -1.544 -1.413 4.329
 -1.513 -1.41 4.328
 -1.484 -1.408 4.328
 -1.454 -1.405 4.326
 -1.424 -1.402 4.324
 -1.395 -1.401 4.327
 -1.368 -1.4 4.331
 -1.338 -1.397 4.329
 -1.31 -1.395 4.331
 -1.282 -1.394 4.334
 -1.253 -1.392 4.333
 -1.224 -1.389 4.329
 -1.195 -1.386 4.326
 -1.165 -1.382 4.319
 -1.137 -1.38 4.319
 -1.108 -1.376 4.313
 -1.079 -1.374 4.309
 -1.053 -1.373 4.312
 -1.024 -1.37 4.309
 -0.997 -1.369 4.31
 -0.971 -1.368 4.312
 -0.945 -1.368 4.317
 -0.917 -1.366 4.314
 -0.891 -1.367 4.32
 -0.863 -1.363 4.313
 -0.837 -1.363 4.317
 -0.811 -1.363 4.319
 -0.784 -1.362 4.319
 -0.757 -1.361 4.319
 -0.73 -1.358 4.314
 -0.704 -1.358 4.316
 -0.678 -1.357 4.316
 -0.652 -1.357 4.321
 -0.626 -1.357 4.322
 -0.6 -1.357 4.325
 -0.574 -1.355 4.322
 -0.548 -1.355 4.323
 -0.521 -1.354 4.322
 -0.496 -1.354 4.325
 -0.47 -1.355 4.33
 -0.444 -1.355 4.33
 -0.419 -1.354 4.331
 -0.392 -1.352 4.326
 -0.365 -1.345 4.305
 -0.338 -1.342 4.297
 -0.312 -1.34 4.292
 -0.287 -1.339 4.289
 -0.261 -1.339 4.29
 -0.236 -1.339 4.288
 -0.21 -1.338 4.287
 -0.185 -1.338 4.289
 -0.159 -1.339 4.291
 -0.134 -1.339 4.291
 -0.109 -1.339 4.291
 -0.083 -1.339 4.292
 -0.058 -1.338 4.29
 -0.032 -1.338 4.289
 -0.007 -1.338 4.288
 0.017 -1.338 4.288
 0.043 -1.34 4.292
 0.068 -1.344 4.307
 0.094 -1.347 4.316
 0.12 -1.347 4.315
 0.145 -1.349 4.319
 0.171 -1.348 4.314
 0.195 -1.341 4.29
 0.22 -1.337 4.278
 0.246 -1.342 4.292
 0.271 -1.341 4.288
 0.298 -1.345 4.298
 0.323 -1.345 4.295
 0.349 -1.346 4.299
 0.374 -1.346 4.294
 0.4 -1.346 4.292
 0.424 -1.343 4.28
 0.45 -1.345 4.286
 0.475 -1.343 4.277
 0.5 -1.343 4.274
 0.526 -1.345 4.276
 0.552 -1.345 4.275
 0.579 -1.348 4.281
 0.606 -1.352 4.288
 0.631 -1.352 4.286
 0.657 -1.353 4.284
 0.683 -1.353 4.282
 0.708 -1.353 4.279
 0.734 -1.354 4.276
 0.76 -1.355 4.277
 0.786 -1.355 4.273
 0.813 -1.358 4.276
 0.839 -1.359 4.276
 0.866 -1.36 4.276
 0.892 -1.362 4.274
 0.919 -1.364 4.277
 0.947 -1.366 4.28
 0.974 -1.368 4.28
 0.999 -1.367 4.272
 1.025 -1.367 4.266
 1.052 -1.369 4.267
 1.078 -1.37 4.262
 1.105 -1.371 4.259
 1.132 -1.373 4.26
 1.16 -1.375 4.261
 1.186 -1.376 4.257
 1.214 -1.378 4.256
 1.241 -1.379 4.253
 1.268 -1.38 4.249
 1.296 -1.382 4.248
 1.324 -1.385 4.249
 1.352 -1.387 4.247
 1.38 -1.389 4.247
 1.409 -1.392 4.247
 1.437 -1.393 4.244
 1.464 -1.395 4.24
 1.493 -1.397 4.239
 1.521 -1.399 4.235
 1.55 -1.401 4.233
 1.578 -1.403 4.23
 1.607 -1.405 4.228
 1.635 -1.406 4.222
 1.664 -1.409 4.219
 1.692 -1.41 4.215
 1.721 -1.412 4.209
 1.749 -1.414 4.205
 1.781 -1.418 4.207
 1.808 -1.418 4.197
 1.833 -1.417 4.184
 1.859 -1.417 4.173
 1.885 -1.416 4.16
 1.896 -1.405 4.114
 0 0 0
 0 0 0
 0 0 0
 0 0 0
 0 0 0
 0 0 0
 0 0 0
 0 0 0
 0 0 0
 0 0 0
 0 0 0
 0 0 0
 1.81 -1.138 3.198
 1.831 -1.137 3.185
 1.84 -1.13 3.154
 1.896 -1.151 3.202
 1.865 -1.119 3.103
 -2.534 -1.506 4.381
 -2.484 -1.494 4.359
 -2.448 -1.49 4.362
 -2.413 -1.486 4.364
 -2.376 -1.482 4.365
 -2.34 -1.477 4.364
 -2.302 -1.472 4.361
 -2.264 -1.465 4.355
 -2.227 -1.461 4.353
 -2.193 -1.457 4.353
 -2.157 -1.452 4.35
 -2.121 -1.447 4.348
 -2.088 -1.444 4.35
 -2.053 -1.439 4.347
 -2.018 -1.434 4.344
 -1.985 -1.431 4.344
 -1.953 -1.428 4.346
 -1.919 -1.423 4.341
 -1.886 -1.419 4.34
 -1.854 -1.416 4.341
 -1.821 -1.412 4.339
 -1.79 -1.41 4.34
 -1.759 -1.407 4.341
 -1.729 -1.405 4.343
 -1.696 -1.4 4.338
 -1.664 -1.397 4.336
 -1.632 -1.393 4.332
 -1.602 -1.39 4.333
 -1.57 -1.386 4.328
 -1.54 -1.384 4.328
 -1.51 -1.381 4.328
 -1.48 -1.378 4.327
 -1.451 -1.375 4.325
 -1.421 -1.373 4.325
 -1.393 -1.372 4.328
 -1.366 -1.371 4.333
 -1.337 -1.369 4.333
 -1.31 -1.369 4.338
 -1.282 -1.368 4.341
 -1.253 -1.365 4.339
 -1.223 -1.361 4.332
 -1.194 -1.358 4.33
 -1.163 -1.354 4.32
 -1.136 -1.352 4.32
 -1.106 -1.348 4.315
 -1.078 -1.346 4.312
 -1.051 -1.345 4.313
 -1.022 -1.342 4.309
 -0.996 -1.341 4.311
 -0.969 -1.34 4.313
 -0.943 -1.341 4.319
 -0.916 -1.339 4.317
 -0.891 -1.341 4.327
 -0.862 -1.337 4.317
 -0.837 -1.338 4.326
 -0.81 -1.336 4.323
 -0.783 -1.335 4.324
 -0.756 -1.333 4.32
 -0.728 -1.329 4.311
 -0.702 -1.328 4.309
 -0.68 -1.336 4.339
 -0.655 -1.339 4.351
 -0.629 -1.338 4.353
 -0.604 -1.339 4.358
 -0.578 -1.34 4.364
 -0.549 -1.333 4.343
 -0.523 -1.332 4.34
 -0.497 -1.333 4.347
 -0.472 -1.335 4.355
 0 0 0
 0 0 0
 0 0 0
 -0.362 -1.312 4.287
 -0.337 -1.312 4.288
 -0.311 -1.31 4.284
 -0.286 -1.31 4.284
 -0.26 -1.311 4.286
 -0.235 -1.31 4.286
 -0.21 -1.31 4.286
 -0.184 -1.311 4.289
 -0.159 -1.311 4.29
 -0.134 -1.311 4.292
 -0.108 -1.311 4.291
 -0.083 -1.311 4.29
 -0.057 -1.31 4.286
 -0.032 -1.309 4.285
 -0.007 -1.308 4.28
 0.017 -1.307 4.276
 0.043 -1.308 4.281
 0 0 0
 0 0 0
 0 0 0
 0 0 0
 0 0 0
 0 0 0
 0 0 0
 0 0 0
 0 0 0
 0.298 -1.322 4.312
 0.324 -1.321 4.307
 0.35 -1.323 4.312
 0.375 -1.321 4.305
 0.4 -1.322 4.306
 0.424 -1.317 4.286
 0.45 -1.32 4.293
 0.474 -1.315 4.274
 0.499 -1.314 4.267
 0.525 -1.316 4.273
 0.551 -1.317 4.272
 0.579 -1.324 4.292
 0.606 -1.328 4.3
 0.632 -1.328 4.298
 0.657 -1.327 4.29
 0.683 -1.327 4.289
 0.707 -1.324 4.275
 0.734 -1.327 4.279
 0.76 -1.328 4.279
 0.785 -1.328 4.275
 0.811 -1.329 4.274
 0.839 -1.333 4.281
 0.865 -1.333 4.277
 0.892 -1.335 4.279
 0.92 -1.339 4.286
 0.947 -1.34 4.286
 0.972 -1.34 4.28
 0.998 -1.339 4.272
 1.023 -1.339 4.267
 1.05 -1.341 4.266
 1.076 -1.341 4.262
 1.103 -1.343 4.259
 1.131 -1.345 4.26
