 1.752 -1.357 2.957
 1.749 -1.339 2.907
 1.764 -1.335 2.888
 1.756 -1.314 2.832
 -2.218 -1.653 3.714
 -2.115 -1.595 3.596
 -2.131 -1.626 3.678
 -2.105 -1.626 3.69
 -2.078 -1.625 3.7
 -2.054 -1.626 3.714
 -2.031 -1.627 3.729
 -2.002 -1.624 3.734
 -1.976 -1.624 3.745
 -1.95 -1.623 3.754
 -1.927 -1.625 3.77
 -1.904 -1.628 3.787
 -1.881 -1.63 3.803
 -1.856 -1.63 3.814
 -1.831 -1.631 3.826
 -1.807 -1.632 3.839
 -1.777 -1.627 3.838
 -1.751 -1.627 3.846
 -1.723 -1.624 3.85
 -1.698 -1.624 3.86
 -1.669 -1.621 3.862
 -1.645 -1.623 3.875
 -1.62 -1.622 3.883
 -1.595 -1.624 3.895
 -1.569 -1.623 3.901
 -1.544 -1.623 3.911
 -1.516 -1.62 3.911
 -1.491 -1.62 3.92
 -1.467 -1.622 3.932
 -1.439 -1.618 3.932
 -1.413 -1.617 3.937
 -1.389 -1.619 3.948
 -1.361 -1.616 3.948
 -1.334 -1.613 3.948
 -1.31 -1.615 3.96
 -1.287 -1.617 3.972
 -1.262 -1.618 3.981
 -1.238 -1.619 3.991
 -1.213 -1.62 3.998
 -1.188 -1.62 4.006
 -1.161 -1.617 4.005
 -1.136 -1.617 4.01
 -1.111 -1.617 4.017
 -1.085 -1.616 4.019
 -1.059 -1.614 4.02
 -1.032 -1.612 4.021
 -1.007 -1.611 4.023
 -0.981 -1.611 4.027
 -0.956 -1.61 4.03
 -0.931 -1.61 4.034
 -0.907 -1.613 4.047
 -0.883 -1.614 4.054
 -0.859 -1.615 4.062
 -0.833 -1.615 4.064
 -0.808 -1.615 4.069
 -0.782 -1.612 4.066
 -0.755 -1.609 4.061
 -0.729 -1.605 4.054
 -0.703 -1.604 4.056
 -0.678 -1.604 4.058
 -0.654 -1.604 4.061
 -0.63 -1.608 4.076
 -0.607 -1.611 4.086
 -0.583 -1.614 4.097
 -0.558 -1.616 4.103
 -0.534 -1.618 4.111
 -0.508 -1.616 4.108
 -0.483 -1.616 4.111
 -0.458 -1.614 4.108
 -0.433 -1.614 4.111
 -0.408 -1.613 4.11
 -0.382 -1.612 4.109
 -0.358 -1.613 4.113
 -0.333 -1.614 4.116
 -0.308 -1.614 4.118
 -0.283 -1.615 4.122
 -0.258 -1.615 4.122
 -0.233 -1.614 4.122
 -0.208 -1.614 4.123
 -0.183 -1.613 4.12
 -0.158 -1.612 4.117
 -0.133 -1.614 4.123
 -0.108 -1.613 4.12
 -0.083 -1.613 4.121
 -0.059 -1.614 4.125
 -0.034 -1.615 4.128
 -0.009 -1.615 4.127
 0.015 -1.618 4.134
 0.04 -1.618 4.133
 0.065 -1.618 4.132
 0.09 -1.617 4.129
 0.115 -1.615 4.123
 0.139 -1.611 4.113
 0.164 -1.613 4.116
 0.189 -1.613 4.116
 0.214 -1.612 4.112
 0.239 -1.613 4.111
 0.264 -1.614 4.113
 0.289 -1.612 4.107
 0.313 -1.611 4.103
 0.338 -1.61 4.098
 0.363 -1.612 4.101
 0.387 -1.611 4.095
 0.412 -1.611 4.094
 0.437 -1.611 4.091
 0.463 -1.615 4.098
 0.488 -1.615 4.094
 0.514 -1.617 4.099
 0.539 -1.618 4.098
 0.563 -1.616 4.089
 0.587 -1.615 4.084
 0.613 -1.616 4.083
 0.638 -1.617 4.082
 0.663 -1.618 4.081
 0.689 -1.621 4.085
 0.716 -1.624 4.088
 0.741 -1.626 4.088
 0.766 -1.625 4.082
 0.791 -1.625 4.077
 0.815 -1.624 4.071
 0.84 -1.624 4.065
 0.865 -1.623 4.059
 0.889 -1.622 4.051
 0.913 -1.622 4.044
 0.94 -1.624 4.045
 0.965 -1.625 4.041
 0.99 -1.625 4.037
 1.018 -1.629 4.042
 1.043 -1.63 4.038
 1.069 -1.631 4.034
 1.093 -1.63 4.026
 1.12 -1.632 4.025
 1.144 -1.632 4.016
 1.17 -1.633 4.013
 1.197 -1.635 4.011
 1.222 -1.635 4.004
 1.248 -1.637 4.002
 1.274 -1.638 3.998
 1.301 -1.641 3.996
 1.326 -1.64 3.986
 1.351 -1.641 3.98
 1.375 -1.639 3.969
 1.399 -1.638 3.958
 1.426 -1.64 3.954
 1.451 -1.64 3.945
 1.477 -1.641 3.939
 1.5 -1.639 3.926
 1.525 -1.639 3.917
 1.547 -1.636 3.901
 1.574 -1.638 3.896
 1.599 -1.638 3.887
 1.627 -1.64 3.883
 1.652 -1.641 3.875
 1.678 -1.641 3.865
 1.701 -1.639 3.851
 1.727 -1.64 3.843
 1.75 -1.638 3.827
 1.767 -1.631 3.8
 1.784 -1.624 3.773
 1.8 -1.616 3.743
 1.808 -1.601 3.698
 1.811 -1.582 3.644
 1.818 -1.568 3.601
 1.824 -1.553 3.554
 1.82 -1.53 3.49
 1.819 -1.509 3.433
 1.808 -1.482 3.359
 1.781 -1.442 3.257
 1.77 -1.416 3.186
 1.769 -1.397 3.135
 1.77 -1.382 3.089
 1.766 -1.363 3.035
 1.762 -1.344 2.982
 1.759 -1.326 2.932
 1.741 -1.298 2.859
 1.733 -1.278 2.803
 -2.217 -1.627 3.723
 -2.235 -1.659 3.81
 -2.166 -1.627 3.749
 -2.138 -1.625 3.758
 -2.109 -1.623 3.764
 -2.084 -1.623 3.778
 -2.06 -1.625 3.793
 -2.032 -1.623 3.801
 -2.006 -1.623 3.812
 -1.98 -1.623 3.823
 -1.957 -1.625 3.839
 -1.934 -1.627 3.855
 -1.909 -1.628 3.869
 -1.883 -1.628 3.88
 -1.859 -1.629 3.893
 -1.834 -1.63 3.905
 -1.804 -1.627 3.907
 -1.777 -1.625 3.914
 -1.748 -1.622 3.917
 -1.722 -1.622 3.925
 -1.693 -1.619 3.927
 -1.669 -1.621 3.941
 -1.643 -1.62 3.949
 -1.618 -1.621 3.96
 -1.592 -1.621 3.968
 -1.567 -1.621 3.977
 -1.538 -1.618 3.978
 -1.514 -1.619 3.99
 -1.49 -1.621 4.002
 -1.461 -1.618 4.002
 -1.433 -1.615 4.003
 -1.407 -1.615 4.01
 -1.379 -1.612 4.01
 -1.352 -1.61 4.013
 -1.328 -1.612 4.024
 -1.304 -1.613 4.035
 -1.279 -1.614 4.044
 -1.254 -1.614 4.051
 -1.228 -1.615 4.058
 -1.203 -1.615 4.064
 -1.177 -1.614 4.069
 -1.151 -1.613 4.072
 -1.126 -1.614 4.08
 -1.099 -1.611 4.08
 -1.072 -1.61 4.082
 -1.045 -1.608 4.082
 -1.02 -1.607 4.086
 -0.994 -1.607 4.091
 -0.969 -1.607 4.094
 -0.943 -1.606 4.097
 -0.919 -1.608 4.108
 -0.894 -1.61 4.115
 -0.869 -1.609 4.118
 -0.843 -1.608 4.121
 -0.818 -1.609 4.127
 -0.792 -1.607 4.126
 -0.765 -1.604 4.122
 -0.738 -1.601 4.118
 -0.713 -1.601 4.121
 -0.688 -1.601 4.124
 -0.663 -1.602 4.129
 -0.638 -1.604 4.137
 -0.614 -1.606 4.145
 -0.589 -1.608 4.153
 -0.565 -1.609 4.159
 -0.54 -1.611 4.166
 -0.514 -1.61 4.165
 -0.489 -1.611 4.17
 -0.463 -1.609 4.167
 -0.438 -1.608 4.167
 -0.412 -1.605 4.163
 -0.387 -1.605 4.164
 -0.361 -1.606 4.167
 -0.337 -1.608 4.174
 -0.312 -1.609 4.178
 -0.287 -1.61 4.183
 -0.261 -1.61 4.182
 -0.236 -1.609 4.182
 -0.21 -1.608 4.181
 -0.185 -1.607 4.177
 -0.16 -1.605 4.173
 -0.135 -1.607 4.178
 -0.109 -1.605 4.175
 -0.084 -1.605 4.174
 -0.059 -1.605 4.175
 -0.034 -1.607 4.178
 -0.009 -1.605 4.174
 0.016 -1.607 4.178
 0.041 -1.607 4.177
 0.066 -1.607 4.178
 0.091 -1.606 4.173
 0.116 -1.605 4.172
 0.141 -1.603 4.166
 0.166 -1.605 4.168
 0.192 -1.605 4.168
 0.217 -1.605 4.166
 0.242 -1.605 4.165
 0.267 -1.607 4.168
 0.292 -1.606 4.165
 0.317 -1.605 4.16
 0.342 -1.604 4.155
 0.368 -1.607 4.159
 0.392 -1.605 4.153
 0.417 -1.605 4.151
 0.443 -1.606 4.15
 0.469 -1.61 4.159
 0.494 -1.609 4.153
 0.52 -1.612 4.159
 0.546 -1.613 4.158
 0.571 -1.612 4.152
 0.595 -1.61 4.144
 0.621 -1.612 4.145
 0.646 -1.613 4.143
 0.672 -1.614 4.141
 0.698 -1.615 4.141
 0.724 -1.618 4.146
 0.75 -1.619 4.143
 0.774 -1.618 4.135
 0.8 -1.618 4.132
 0.825 -1.618 4.126
 0.85 -1.618 4.122
 0.875 -1.618 4.116
 0.9 -1.616 4.108
 0.924 -1.615 4.1
 0.951 -1.618 4.102
 0.977 -1.619 4.098
 1.002 -1.619 4.093
 1.03 -1.623 4.098
 1.057 -1.626 4.1
 1.083 -1.627 4.095
 1.108 -1.626 4.087
 1.135 -1.629 4.088
 1.16 -1.629 4.081
 1.186 -1.63 4.076
 1.213 -1.631 4.074
 1.239 -1.632 4.069
 1.265 -1.633 4.065
 1.291 -1.633 4.058
 1.317 -1.634 4.052
 1.342 -1.634 4.044
 1.369 -1.636 4.04
 1.394 -1.635 4.031
 1.419 -1.636 4.024
 1.446 -1.637 4.018
 1.47 -1.636 4.008
 1.495 -1.635 3.998
 1.52 -1.634 3.986
 1.546 -1.635 3.979
 1.568 -1.632 3.962
 1.595 -1.633 3.956
 1.62 -1.633 3.947
 1.647 -1.635 3.941
 1.673 -1.635 3.931
 1.7 -1.637 3.925
 1.723 -1.635 3.91
 1.748 -1.635 3.899
 1.769 -1.631 3.88
 1.784 -1.621 3.845
 1.799 -1.612 3.813
 1.813 -1.602 3.78
 1.818 -1.585 3.728
 1.818 -1.564 3.668
 1.827 -1.551 3.627
 1.832 -1.535 3.578
 1.826 -1.51 3.509
 1.826 -1.492 3.455
 1.811 -1.461 3.373
 1.773 -1.413 3.249
 1.764 -1.389 3.183
 1.766 -1.374 3.138
 1.77 -1.36 3.096
 1.768 -1.343 3.047
 1.765 -1.325 2.994
 1.761 -1.307 2.943
 1.732 -1.271 2.85
 1.77 -1.284 2.87
 -2.26 -1.632 3.805
 -2.233 -1.631 3.816
 -2.197 -1.624 3.813
 -2.169 -1.623 3.822
 -2.141 -1.622 3.832
 -2.116 -1.622 3.846
 -2.092 -1.624 3.862
 -2.064 -1.623 3.871
 -2.038 -1.623 3.883
 -2.012 -1.623 3.894
 -1.986 -1.623 3.907
 -1.959 -1.623 3.917
 -1.933 -1.623 3.928
 -1.906 -1.622 3.937
 -1.881 -1.622 3.949
 -1.855 -1.623 3.961
 -1.829 -1.623 3.971
 -1.802 -1.622 3.979
 -1.773 -1.62 3.983
 -1.746 -1.619 3.992
 -1.719 -1.618 3.998
 -1.692 -1.617 4.006
 -1.666 -1.617 4.014
 -1.64 -1.617 4.023
 -1.613 -1.617 4.031
 -1.586 -1.615 4.037
 -1.559 -1.615 4.043
 -1.534 -1.616 4.054
 -1.508 -1.616 4.062
 -1.48 -1.613 4.063
 -1.453 -1.612 4.069
 -1.427 -1.611 4.075
 -1.398 -1.608 4.073
 -1.372 -1.608 4.081
 -1.348 -1.61 4.094
 -1.322 -1.61 4.101
 -1.296 -1.61 4.106
 -1.27 -1.609 4.112
 -1.244 -1.61 4.12
 -1.218 -1.609 4.125
 -1.191 -1.608 4.129
 -1.166 -1.608 4.135
 -1.141 -1.61 4.144
 -1.113 -1.607 4.144
 -1.086 -1.606 4.145
 -1.06 -1.604 4.147
 -1.033 -1.603 4.15
 -1.006 -1.601 4.149
 -0.981 -1.601 4.154
 -0.954 -1.6 4.155
 -0.93 -1.602 4.166
 -0.905 -1.603 4.172
 -0.879 -1.604 4.179
 -0.853 -1.603 4.181
 -0.827 -1.602 4.184
 -0.801 -1.6 4.182
 -0.774 -1.597 4.178
 -0.747 -1.594 4.174
 -0.72 -1.593 4.174
 -0.695 -1.594 4.18
 -0.67 -1.594 4.184
 -0.646 -1.596 4.193
 -0.62 -1.598 4.199
 -0.595 -1.599 4.205
 -0.57 -1.6 4.209
 -0.545 -1.601 4.216
 -0.519 -1.599 4.213
 -0.493 -1.599 4.216
 -0.467 -1.598 4.216
 -0.442 -1.597 4.215
 -0.416 -1.595 4.212
 -0.39 -1.596 4.215
 -0.365 -1.597 4.219
 -0.34 -1.599 4.225
 -0.315 -1.6 4.229
 -0.289 -1.6 4.232
 -0.264 -1.6 4.232
 -0.238 -1.599 4.23
 -0.212 -1.598 4.228
 -0.187 -1.596 4.223
 -0.161 -1.594 4.218
 -0.136 -1.594 4.221
 -0.11 -1.593 4.218
 -0.085 -1.593 4.216
 -0.059 -1.594 4.219
 -0.034 -1.594 4.22
 -0.009 -1.592 4.214
 0.016 -1.593 4.216
 0.041 -1.593 4.217
 0.067 -1.593 4.216
 0.092 -1.593 4.214
 0.117 -1.593 4.213
 0.142 -1.592 4.209
 0.168 -1.592 4.21
 0.193 -1.593 4.21
 0.219 -1.594 4.213
 0.244 -1.595 4.214
 0.27 -1.597 4.217
 0.295 -1.596 4.213
 0.32 -1.596 4.21
 0.345 -1.593 4.201
 0.371 -1.595 4.204
 0.396 -1.594 4.199
 0.421 -1.594 4.196
 0.447 -1.594 4.193
 0.473 -1.597 4.2
 0.498 -1.596 4.194
 0.524 -1.598 4.196
 0.55 -1.599 4.196
 0.575 -1.599 4.193
 0.6 -1.597 4.185
 0.626 -1.6 4.187
 0.651 -1.6 4.184
 0.677 -1.6 4.181
 0.703 -1.602 4.182
 0.73 -1.605 4.185
 0.756 -1.606 4.184
 0.781 -1.606 4.181
 0.808 -1.608 4.18
 0.833 -1.607 4.174
 0.859 -1.609 4.173
 0.884 -1.608 4.167
 0.909 -1.607 4.157
 0.933 -1.605 4.148
 0.96 -1.607 4.148
 0.985 -1.607 4.142
 1.011 -1.608 4.139
 1.04 -1.613 4.148
 1.068 -1.617 4.152
 1.095 -1.618 4.148
 1.12 -1.618 4.14
 1.147 -1.619 4.138
 1.172 -1.619 4.131
 1.199 -1.621 4.129
 1.227 -1.624 4.129
 1.254 -1.626 4.127
 1.281 -1.628 4.125
 1.307 -1.628 4.117
 1.333 -1.628 4.111
 1.357 -1.627 4.1
 1.385 -1.629 4.098
 1.41 -1.629 4.088
 1.437 -1.63 4.083
 1.463 -1.631 4.076
 1.49 -1.631 4.069
 1.515 -1.631 4.059
 1.541 -1.631 4.05
 1.566 -1.631 4.041
 1.589 -1.628 4.024
 1.615 -1.628 4.015
 1.64 -1.627 4.004
 1.666 -1.628 3.996
 1.693 -1.629 3.988
 1.721 -1.631 3.984
 1.744 -1.629 3.967
 1.769 -1.628 3.956
 1.788 -1.622 3.93
 1.799 -1.609 3.887
 1.811 -1.597 3.848
 1.823 -1.585 3.809
 1.825 -1.566 3.751
 1.826 -1.546 3.692
 1.836 -1.534 3.653
 1.841 -1.519 3.605
 1.836 -1.495 3.538
 1.836 -1.477 3.482
 1.82 -1.445 3.397
 1.756 -1.378 3.227
 1.754 -1.359 3.173
 1.761 -1.348 3.137
 1.77 -1.339 3.104
 1.771 -1.324 3.059
 1.768 -1.306 3.007
 1.763 -1.288 2.954
 1.758 -1.27 2.901
 1.76 -1.257 2.861
 -2.288 -1.626 3.863
 -2.257 -1.622 3.868
 -2.23 -1.622 3.881
 -2.203 -1.622 3.892
 -2.172 -1.619 3.898
 -2.146 -1.619 3.91
 -2.12 -1.619 3.923
 -2.093 -1.619 3.935
 -2.066 -1.619 3.947
 -2.04 -1.619 3.959
 -2.014 -1.619 3.971
 -1.988 -1.62 3.984
 -1.961 -1.62 3.994
 -1.934 -1.619 4.004
 -1.906 -1.618 4.013
 -1.88 -1.619 4.024
 -1.854 -1.619 4.035
 -1.826 -1.618 4.043
 -1.798 -1.616 4.048
 -1.771 -1.616 4.058
 -1.744 -1.615 4.066
 -1.715 -1.613 4.071
 -1.689 -1.613 4.08
 -1.663 -1.613 4.089
 -1.637 -1.614 4.099
 -1.609 -1.612 4.104
 -1.581 -1.61 4.108
 -1.555 -1.611 4.117
 -1.527 -1.61 4.122
 -1.498 -1.606 4.121
 -1.47 -1.605 4.127
 -1.444 -1.605 4.134
 -1.415 -1.601 4.133
 -1.388 -1.601 4.138
 -1.364 -1.603 4.151
 -1.337 -1.603 4.158
 -1.311 -1.602 4.163
 -1.284 -1.602 4.169
 -1.259 -1.603 4.178
 -1.233 -1.603 4.186
 -1.206 -1.602 4.189
 -1.179 -1.601 4.193
 -1.153 -1.601 4.199
 -1.127 -1.6 4.202
 -1.099 -1.598 4.201
 -1.072 -1.597 4.205
 -1.047 -1.599 4.214
 -1.02 -1.597 4.215
 -0.993 -1.595 4.215
 -0.966 -1.593 4.215
 -0.94 -1.593 4.22
 -0.913 -1.592 4.219
 -0.887 -1.592 4.225
 -0.861 -1.592 4.229
 -0.835 -1.591 4.231
 -0.808 -1.589 4.228
 -0.781 -1.587 4.227
 -0.754 -1.584 4.223
 -0.727 -1.582 4.222
 -0.702 -1.583 4.228
 -0.677 -1.584 4.234
 -0.651 -1.585 4.24
 -0.626 -1.586 4.244
 -0.6 -1.586 4.247
 -0.574 -1.586 4.251
 -0.549 -1.587 4.254
 -0.523 -1.586 4.254
 -0.497 -1.586 4.256
 -0.471 -1.585 4.256
 -0.445 -1.583 4.253
 -0.418 -1.581 4.25
 -0.393 -1.581 4.25
 -0.367 -1.581 4.253
 -0.342 -1.583 4.259
 -0.316 -1.584 4.264
 -0.291 -1.586 4.269
 -0.265 -1.585 4.269
 -0.239 -1.584 4.268
 -0.213 -1.582 4.263
 -0.187 -1.579 4.256
 -0.162 -1.578 4.252
 -0.136 -1.578 4.254
 -0.111 -1.577 4.251
 -0.085 -1.578 4.253
 -0.06 -1.579 4.255
 -0.034 -1.578 4.252
 -0.008 -1.576 4.248
 0.016 -1.578 4.253
 0.042 -1.578 4.251
 0.067 -1.577 4.249
 0.093 -1.577 4.248
 0.118 -1.577 4.246
 0.143 -1.575 4.24
 0.169 -1.575 4.241
 0.195 -1.576 4.242
 0.22 -1.578 4.246
 0.246 -1.579 4.247
 0.272 -1.581 4.251
 0.297 -1.581 4.248
 0.323 -1.581 4.247
 0.348 -1.579 4.239
 0.374 -1.58 4.241
 0.399 -1.58 4.237
 0.424 -1.579 4.232
 0.45 -1.578 4.228
 0.476 -1.582 4.234
 0.501 -1.581 4.229
 0.527 -1.581 4.228
 0.553 -1.583 4.23
 0.579 -1.585 4.231
 0.604 -1.583 4.223
 0.631 -1.585 4.225
 0.656 -1.586 4.223
 0.682 -1.586 4.219
 0.708 -1.587 4.218
 0.734 -1.589 4.219
 0.761 -1.59 4.219
 0.787 -1.592 4.218
 0.814 -1.593 4.218
 0.839 -1.593 4.213
 0.865 -1.594 4.211
 0.891 -1.594 4.205
 0.916 -1.592 4.196
 0.94 -1.591 4.186
 0.967 -1.593 4.186
 0.993 -1.594 4.183
 1.02 -1.595 4.182
 1.048 -1.6 4.188
 1.078 -1.605 4.195
 1.104 -1.606 4.193
 1.13 -1.606 4.186
 1.158 -1.609 4.187
 1.183 -1.608 4.179
 1.21 -1.61 4.175
 1.239 -1.613 4.177
 1.266 -1.615 4.174
 1.292 -1.616 4.169
 1.319 -1.616 4.163
 1.345 -1.617 4.158
 1.37 -1.616 4.146
 1.398 -1.618 4.146
 1.424 -1.619 4.138
 1.451 -1.619 4.131
 1.478 -1.62 4.125
 1.505 -1.621 4.12
 1.532 -1.622 4.113
 1.559 -1.623 4.106
 1.586 -1.624 4.1
 1.609 -1.622 4.084
 1.636 -1.622 4.076
 1.661 -1.621 4.063
 1.687 -1.621 4.054
 1.714 -1.622 4.046
 1.742 -1.624 4.041
 1.763 -1.62 4.021
 1.786 -1.617 4.002
 1.802 -1.608 3.969
 1.812 -1.594 3.924
 1.82 -1.58 3.877
 1.829 -1.566 3.831
 1.833 -1.548 3.776
 1.835 -1.529 3.719
 1.843 -1.516 3.677
 1.852 -1.503 3.634
 1.854 -1.485 3.58
 1.856 -1.469 3.529
 0 0 0
 1.742 -1.344 3.208
 1.75 -1.334 3.173
 1.759 -1.325 3.14
 1.765 -1.314 3.104
 1.771 -1.303 3.066
 1.769 -1.287 3.017
 1.767 -1.27 2.968
 1.764 -1.254 2.919
 1.764 -1.24 2.875
 -2.33 -1.628 3.944
 -2.285 -1.616 3.926
 -2.26 -1.617 3.942
 -2.233 -1.617 3.956
 -2.205 -1.616 3.967
 -2.179 -1.617 3.981
 -2.154 -1.618 3.996
 -2.127 -1.618 4.009
 -2.101 -1.619 4.023
 -2.073 -1.618 4.032
 -2.046 -1.619 4.046
 -2.019 -1.619 4.057
 -1.99 -1.617 4.063
 -1.962 -1.616 4.072
 -1.933 -1.615 4.08
 -1.906 -1.614 4.089
 -1.879 -1.614 4.099
 -1.853 -1.615 4.112
 -1.823 -1.612 4.116
 -1.797 -1.613 4.128
 -1.77 -1.613 4.137
 -1.741 -1.611 4.141
 -1.713 -1.61 4.149
 -1.687 -1.61 4.159
 -1.66 -1.61 4.168
 -1.63 -1.607 4.169
 -1.603 -1.606 4.175
 -1.575 -1.605 4.181
 -1.546 -1.603 4.183
 -1.515 -1.599 4.18
 -1.488 -1.598 4.186
 -1.461 -1.597 4.192
 -1.432 -1.594 4.192
 -1.405 -1.594 4.197
 -1.38 -1.596 4.211
 -1.353 -1.595 4.215
 -1.326 -1.594 4.221
 -1.299 -1.594 4.227
 -1.273 -1.594 4.234
 -1.247 -1.595 4.241
 -1.219 -1.593 4.244
 -1.191 -1.591 4.245
 -1.165 -1.591 4.25
 -1.138 -1.59 4.253
 -1.109 -1.587 4.25
 -1.082 -1.586 4.254
 -1.056 -1.587 4.26
 -1.029 -1.585 4.263
 -1.002 -1.583 4.262
 -0.974 -1.581 4.261
 -0.948 -1.581 4.265
 -0.92 -1.579 4.264
 -0.894 -1.579 4.267
 -0.868 -1.578 4.271
 -0.841 -1.577 4.271
 -0.814 -1.575 4.27
 -0.787 -1.574 4.271
 -0.76 -1.572 4.269
 -0.733 -1.569 4.264
 -0.707 -1.57 4.27
 -0.681 -1.57 4.273
 -0.655 -1.57 4.276
 -0.629 -1.568 4.274
 -0.603 -1.568 4.278
 -0.577 -1.568 4.279
 -0.551 -1.567 4.28
 -0.525 -1.566 4.279
 -0.499 -1.566 4.281
 -0.473 -1.565 4.281
 -0.446 -1.563 4.277
 -0.42 -1.561 4.274
 -0.394 -1.561 4.274
 -0.368 -1.562 4.278
 -0.343 -1.563 4.283
 -0.318 -1.564 4.289
 -0.292 -1.565 4.292
 -0.266 -1.565 4.292
 -0.24 -1.563 4.287
 -0.214 -1.562 4.286
 -0.188 -1.559 4.28
 -0.162 -1.558 4.277
 -0.137 -1.558 4.278
 -0.111 -1.557 4.274
 -0.085 -1.558 4.276
 -0.06 -1.558 4.276
 -0.034 -1.556 4.272
 -0.008 -1.555 4.269
 0.016 -1.557 4.274
 0.042 -1.556 4.27
 0.067 -1.555 4.268
 0.093 -1.556 4.269
 0.119 -1.556 4.268
 0.144 -1.554 4.263
 0.17 -1.555 4.263
 0.195 -1.556 4.264
 0.221 -1.557 4.267
 0.247 -1.559 4.27
 0.273 -1.56 4.272
 0.298 -1.56 4.271
 0.324 -1.561 4.27
 0.349 -1.56 4.264
 0.375 -1.56 4.262
 0.401 -1.56 4.262
 0.426 -1.559 4.255
 0.452 -1.559 4.254
 0.478 -1.561 4.256
 0.504 -1.562 4.255
 0.529 -1.562 4.253
 0.556 -1.564 4.256
 0.582 -1.566 4.259
 0.607 -1.565 4.252
 0.633 -1.566 4.251
 0.659 -1.566 4.248
 0.685 -1.566 4.244
 0.711 -1.567 4.242
 0.737 -1.568 4.242
 0.764 -1.57 4.243
 0.79 -1.571 4.241
 0.817 -1.574 4.243
 0.842 -1.573 4.238
 0.869 -1.575 4.237
 0.895 -1.574 4.231
 0.92 -1.574 4.225
 0.945 -1.573 4.216
 0.971 -1.574 4.213
 0.998 -1.575 4.211
 1.024 -1.576 4.209
 1.053 -1.58 4.213
 1.081 -1.584 4.218
 1.109 -1.586 4.218
 1.135 -1.587 4.214
 1.163 -1.59 4.214
 1.189 -1.59 4.209
 1.217 -1.592 4.208
 1.245 -1.595 4.207
 1.272 -1.596 4.204
 1.299 -1.598 4.2
 1.327 -1.599 4.197
 1.354 -1.601 4.192
 1.38 -1.601 4.184
 1.408 -1.603 4.183
 1.435 -1.604 4.177
 1.462 -1.605 4.172
 1.489 -1.606 4.165
 1.518 -1.608 4.163
 1.545 -1.61 4.158
 1.573 -1.611 4.153
 1.599 -1.612 4.144
 1.625 -1.611 4.132
 1.651 -1.61 4.122
 1.677 -1.61 4.112
 1.704 -1.611 4.103
 1.73 -1.611 4.093
 1.757 -1.612 4.085
 1.778 -1.607 4.062
 1.799 -1.602 4.04
 1.812 -1.591 4.001
 1.821 -1.577 3.954
 1.831 -1.563 3.908
 1.839 -1.549 3.862
 1.841 -1.53 3.803
 1.844 -1.512 3.747
 1.852 -1.498 3.702
 1.858 -1.484 3.655
 1.855 -1.463 3.592
 0 0 0
 0 0 0
 0 0 0
 1.747 -1.31 3.175
 1.758 -1.303 3.146
 1.765 -1.292 3.11
 1.774 -1.284 3.08
 1.776 -1.271 3.037
 1.774 -1.255 2.987
 1.75 -1.224 2.903
 1.76 -1.217 2.875
 -2.345 -1.612 3.98
 -2.33 -1.62 4.014
 -2.197 -1.546 3.842
 -2.171 -1.546 3.856
 -2.143 -1.545 3.864
 -2.117 -1.545 3.877
 -2.181 -1.612 4.058
 -2.155 -1.613 4.072
 -2.129 -1.614 4.087
 -2.102 -1.614 4.1
 -2.076 -1.615 4.114
 -2.047 -1.614 4.123
 -2.017 -1.612 4.128
 -1.99 -1.612 4.14
 -1.96 -1.61 4.145
 -1.931 -1.608 4.153
 -1.904 -1.608 4.163
 -1.877 -1.609 4.175
 -1.847 -1.606 4.178
 -1.82 -1.607 4.191
 -1.793 -1.607 4.201
 -1.765 -1.606 4.209
 -1.737 -1.605 4.215
 -1.709 -1.604 4.223
 -1.681 -1.603 4.229
 -1.65 -1.6 4.23
 -1.621 -1.598 4.232
 -1.593 -1.597 4.238
 -1.563 -1.594 4.24
 -1.534 -1.592 4.241
 -1.506 -1.59 4.245
 -1.477 -1.588 4.248
 -1.447 -1.585 4.247
 -1.419 -1.584 4.251
 -1.393 -1.584 4.259
 -1.365 -1.583 4.264
 -1.338 -1.582 4.268
 -1.31 -1.581 4.27
 -1.283 -1.58 4.277
 -1.255 -1.579 4.28
 -1.228 -1.578 4.283
 -1.2 -1.576 4.284
 -1.173 -1.577 4.291
 -1.146 -1.575 4.293
 -1.118 -1.573 4.292
 -1.09 -1.571 4.292
 -1.063 -1.571 4.298
 -1.036 -1.569 4.298
 -1.008 -1.568 4.299
 -0.981 -1.566 4.299
 -0.954 -1.565 4.302
 -0.926 -1.562 4.298
 -0.899 -1.561 4.299
 -0.872 -1.56 4.301
 -0.844 -1.557 4.297
 -0.817 -1.556 4.297
 -0.79 -1.554 4.296
 -0.763 -1.552 4.295
 -0.736 -1.55 4.291
 -0.71 -1.549 4.293
 -0.683 -1.548 4.294
 -0.657 -1.548 4.296
 -0.63 -1.546 4.294
 -0.604 -1.546 4.295
 -0.578 -1.545 4.296
 -0.552 -1.544 4.296
 -0.526 -1.544 4.298
 -0.5 -1.544 4.299
 -0.474 -1.543 4.299
 -0.447 -1.541 4.296
 -0.421 -1.54 4.294
 -0.394 -1.537 4.289
 -0.369 -1.537 4.291
 -0.343 -1.538 4.295
 -0.317 -1.539 4.298
 -0.292 -1.54 4.301
 -0.266 -1.54 4.303
 -0.24 -1.538 4.298
 -0.214 -1.537 4.295
 -0.188 -1.534 4.289
 -0.162 -1.533 4.287
 -0.136 -1.531 4.281
 -0.111 -1.53 4.28
 -0.085 -1.531 4.28
 -0.059 -1.53 4.279
 -0.034 -1.529 4.274
 -0.008 -1.53 4.277
 0.016 -1.53 4.279
 0.042 -1.53 4.277
 0.068 -1.53 4.276
 0.093 -1.53 4.276
 0.119 -1.529 4.273
 0.144 -1.529 4.271
 0.17 -1.529 4.269
 0.195 -1.529 4.269
 0.221 -1.53 4.271
 0.247 -1.532 4.276
 0.273 -1.534 4.278
 0.299 -1.536 4.281
 0.325 -1.536 4.281
 0.35 -1.536 4.277
 0.376 -1.536 4.275
 0.401 -1.536 4.274
 0.426 -1.534 4.265
 0.452 -1.534 4.263
 0.478 -1.535 4.263
 0.503 -1.535 4.26
 0.529 -1.535 4.257
 0.555 -1.537 4.26
 0.582 -1.541 4.267
 0.608 -1.54 4.261
 0.634 -1.541 4.261
 0.66 -1.542 4.26
 0.686 -1.543 4.258
 0.711 -1.542 4.253
 0.738 -1.543 4.252
 0.764 -1.545 4.252
 0.791 -1.546 4.252
 0.818 -1.549 4.255
 0.844 -1.55 4.252
 0.871 -1.552 4.254
 0.897 -1.552 4.249
 0.923 -1.553 4.246
 0.949 -1.552 4.239
 0.975 -1.553 4.235
 1.001 -1.554 4.233
 1.028 -1.556 4.233
 1.056 -1.558 4.233
 1.084 -1.562 4.236
 1.112 -1.564 4.237
 1.139 -1.566 4.235
 1.167 -1.568 4.235
 1.194 -1.57 4.234
 1.222 -1.573 4.234
 1.25 -1.575 4.232
 1.277 -1.576 4.229
 1.304 -1.577 4.224
 1.331 -1.579 4.22
 1.359 -1.58 4.216
 1.386 -1.581 4.211
 1.415 -1.584 4.212
 1.443 -1.586 4.209
 1.471 -1.588 4.206
 1.498 -1.589 4.199
 1.528 -1.592 4.198
 1.555 -1.593 4.192
 1.584 -1.596 4.19
 1.611 -1.597 4.183
 1.638 -1.597 4.174
 1.663 -1.596 4.163
 1.69 -1.596 4.154
 1.718 -1.598 4.147
 1.744 -1.598 4.137
 1.77 -1.597 4.125
 1.791 -1.592 4.102
 1.811 -1.587 4.077
 1.821 -1.572 4.029
 1.829 -1.557 3.979
 1.838 -1.543 3.932
 1.845 -1.528 3.883
 1.848 -1.51 3.825
 1.854 -1.494 3.775
 1.861 -1.481 3.729
 1.868 -1.467 3.684
 0 0 0
 0 0 0
 0 0 0
 0 0 0
 1.746 -1.288 3.181
 1.761 -1.284 3.16
 1.769 -1.274 3.125
 1.779 -1.266 3.094
 1.785 -1.256 3.058
 1.785 -1.241 3.012
 1.784 -1.227 2.966
 1.786 -1.214 2.925
 -2.354 -1.59 4.004
 -2.355 -1.61 4.066
 -1.944 -1.345 3.406
 -1.921 -1.345 3.417
 -1.986 -1.408 3.589
 -1.871 -1.343 3.433
 -1.939 -1.409 3.614
 -1.916 -1.41 3.628
 -1.98 -1.476 3.81
 -1.954 -1.475 3.819
 -2.014 -1.541 4.001
 -1.987 -1.54 4.01
 -2.04 -1.602 4.185
 -2.014 -1.603 4.199
 -1.983 -1.601 4.205
 -1.954 -1.6 4.213
 -1.926 -1.6 4.223
 -1.9 -1.601 4.235
 -1.869 -1.598 4.239
 -1.843 -1.599 4.253
 -1.815 -1.599 4.262
 -1.785 -1.597 4.266
 -1.756 -1.595 4.27
 -1.727 -1.594 4.276
 -1.698 -1.592 4.281
 -1.667 -1.589 4.281
 -1.636 -1.585 4.281
 -1.606 -1.583 4.283
 -1.576 -1.58 4.283
 -1.545 -1.577 4.282
 -1.517 -1.575 4.286
 -1.489 -1.574 4.291
 -1.459 -1.571 4.29
 -1.431 -1.569 4.294
 -1.404 -1.57 4.302
 -1.376 -1.568 4.305
 -1.347 -1.567 4.307
 -1.319 -1.565 4.311
 -1.291 -1.564 4.314
 -1.262 -1.561 4.313
 -1.233 -1.559 4.311
 -1.205 -1.556 4.311
 -1.178 -1.556 4.316
 -1.15 -1.554 4.317
 -1.122 -1.552 4.317
 -1.094 -1.55 4.317
 -1.067 -1.55 4.321
 -1.039 -1.547 4.32
 -1.011 -1.545 4.318
 -0.983 -1.543 4.317
 -0.956 -1.542 4.319
 -0.927 -1.539 4.314
 -0.901 -1.538 4.317
 -0.874 -1.537 4.318
 -0.846 -1.535 4.315
 -0.819 -1.533 4.314
 -0.792 -1.531 4.313
 -0.764 -1.529 4.31
 -0.737 -1.526 4.307
 -0.71 -1.525 4.306
 -0.684 -1.524 4.305
 -0.657 -1.523 4.307
 -0.631 -1.522 4.307
 -0.604 -1.52 4.305
 -0.578 -1.52 4.305
 -0.552 -1.519 4.305
 -0.526 -1.519 4.307
 -0.499 -1.516 4.303
 -0.473 -1.516 4.304
 -0.447 -1.514 4.302
 -0.421 -1.513 4.3
 -0.394 -1.511 4.295
 -0.369 -1.512 4.299
 -0.343 -1.512 4.301
 -0.317 -1.513 4.305
 -0.292 -1.513 4.307
 -0.266 -1.513 4.307
 -0.24 -1.511 4.302
 -0.214 -1.51 4.3
 -0.188 -1.508 4.295
 -0.162 -1.508 4.295
 -0.136 -1.506 4.289
 -0.11 -1.504 4.286
 -0.085 -1.504 4.286
 -0.059 -1.504 4.285
 -0.034 -1.502 4.279
 -0.008 -1.504 4.284
 0.017 -1.506 4.289
 0.042 -1.504 4.285
 0.068 -1.504 4.284
 0.093 -1.505 4.286
 0.119 -1.504 4.281
 0.144 -1.503 4.278
 0.17 -1.503 4.278
 0.196 -1.503 4.277
 0.221 -1.504 4.277
 0.247 -1.506 4.281
 0.273 -1.507 4.281
 0.299 -1.508 4.283
 0.324 -1.508 4.283
 0.35 -1.507 4.278
 0.375 -1.508 4.276
 0.401 -1.508 4.276
 0.426 -1.506 4.268
 0.452 -1.507 4.268
 0.478 -1.509 4.269
 0.504 -1.509 4.267
 0.529 -1.509 4.264
 0.555 -1.511 4.267
 0.582 -1.514 4.272
 0.608 -1.514 4.268
 0.634 -1.515 4.268
 0.66 -1.517 4.27
 0.686 -1.517 4.266
 0.712 -1.517 4.261
 0.738 -1.518 4.261
 0.764 -1.519 4.26
 0.791 -1.52 4.259
 0.818 -1.524 4.265
 0.844 -1.524 4.262
 0.871 -1.526 4.262
 0.898 -1.527 4.26
 0.924 -1.528 4.258
 0.95 -1.528 4.251
 0.975 -1.528 4.246
 1.002 -1.529 4.244
 1.029 -1.531 4.243
 1.056 -1.532 4.24
 1.083 -1.534 4.241
 1.112 -1.538 4.245
 1.139 -1.539 4.243
 1.166 -1.541 4.242
 1.194 -1.544 4.242
 1.223 -1.547 4.243
 1.251 -1.549 4.243
 1.278 -1.551 4.241
 1.306 -1.553 4.238
 1.334 -1.555 4.236
 1.362 -1.556 4.233
 1.389 -1.557 4.227
 1.418 -1.561 4.229
 1.446 -1.563 4.226
 1.474 -1.565 4.223
 1.502 -1.566 4.217
 1.532 -1.57 4.219
 1.56 -1.571 4.213
 1.589 -1.574 4.212
 1.617 -1.576 4.207
 1.645 -1.577 4.201
 1.671 -1.577 4.191
 1.699 -1.577 4.183
 1.727 -1.579 4.178
 1.754 -1.579 4.168
 1.778 -1.577 4.151
 1.798 -1.571 4.126
 1.817 -1.565 4.099
 1.828 -1.552 4.053
 1.837 -1.538 4.006
 1.849 -1.526 3.964
 1.856 -1.511 3.914
 1.859 -1.494 3.857
 1.866 -1.479 3.809
 1.869 -1.462 3.754
 0 0 0
 0 0 0
 0 0 0
 0 0 0
 0 0 0
 1.745 -1.266 3.186
 1.762 -1.263 3.169
 1.773 -1.256 3.139
 1.784 -1.249 3.111
 1.794 -1.241 3.082
 1.796 -1.228 3.038
 1.794 -1.213 2.99
 1.784 -1.193 2.928
 -2.385 -1.583 4.066
 -2.4 -1.612 4.155
 -1.502 -1.022 2.635
 -1.483 -1.021 2.642
 -1.553 -1.082 2.81
 -1.443 -1.018 2.651
 -1.517 -1.084 2.832
 -1.587 -1.148 3.009
 -1.654 -1.212 3.188
 -1.632 -1.211 3.195
 -1.695 -1.275 3.373
 -1.671 -1.273 3.379
 -1.729 -1.335 3.554
 -1.707 -1.336 3.566
 -1.681 -1.335 3.571
 -1.735 -1.397 3.748
 -1.789 -1.46 3.929
 -1.762 -1.46 3.937
 -1.81 -1.521 4.114
 -1.859 -1.586 4.299
 -1.83 -1.585 4.307
 -1.8 -1.583 4.312
 -1.77 -1.58 4.314
 -1.739 -1.578 4.316
 -1.709 -1.575 4.319
 -1.677 -1.572 4.318
 -1.646 -1.568 4.318
 -1.617 -1.566 4.321
 -1.588 -1.565 4.327
 -1.557 -1.562 4.324
 -1.527 -1.559 4.324
 -1.497 -1.556 4.324
 -1.466 -1.551 4.32
 -1.435 -1.548 4.317
 -1.408 -1.547 4.322
 -1.379 -1.546 4.325
 -1.351 -1.544 4.328
 -1.323 -1.543 4.332
 -1.294 -1.541 4.333
 -1.266 -1.539 4.333
 -1.236 -1.536 4.331
 -1.208 -1.534 4.332
 -1.18 -1.533 4.334
 -1.153 -1.531 4.336
 -1.124 -1.529 4.335
 -1.096 -1.527 4.335
 -1.068 -1.526 4.337
 -1.041 -1.525 4.338
 -1.012 -1.521 4.334
 -0.984 -1.519 4.333
 -0.957 -1.517 4.332
 -0.928 -1.514 4.327
 -0.901 -1.513 4.328
 -0.874 -1.512 4.33
 -0.847 -1.509 4.326
 -0.819 -1.507 4.324
 -0.792 -1.506 4.323
 -0.764 -1.503 4.319
 -0.737 -1.501 4.316
 -0.711 -1.5 4.317
 -0.684 -1.499 4.316
 -0.658 -1.498 4.317
 -0.631 -1.497 4.316
 -0.604 -1.495 4.314
 -0.578 -1.494 4.314
 -0.551 -1.492 4.312
 -0.526 -1.493 4.314
 -0.499 -1.491 4.311
 -0.473 -1.49 4.31
 -0.446 -1.488 4.308
 -0.42 -1.487 4.307
 -0.394 -1.484 4.301
 -0.368 -1.485 4.302
 -0.342 -1.485 4.305
 -0.317 -1.486 4.309
 -0.291 -1.487 4.312
 -0.265 -1.487 4.314
 -0.239 -1.485 4.308
 -0.213 -1.483 4.304
 -0.187 -1.481 4.299
 -0.162 -1.48 4.297
 -0.136 -1.478 4.291
 -0.11 -1.477 4.289
 -0.085 -1.478 4.293
 -0.059 -1.477 4.29
 -0.033 -1.476 4.286
 -0.008 -1.478 4.291
 0.017 -1.479 4.294
 0.042 -1.478 4.29
 0.068 -1.479 4.292
 0.094 -1.479 4.292
 0.119 -1.478 4.289
 0.145 -1.477 4.285
 0.17 -1.477 4.282
 0.196 -1.476 4.28
 0.221 -1.476 4.278
 0.247 -1.477 4.28
 0.272 -1.478 4.28
 0.298 -1.479 4.283
 0.324 -1.48 4.283
 0.349 -1.48 4.28
 0.375 -1.481 4.28
 0.401 -1.482 4.282
 0.426 -1.481 4.277
 0.452 -1.482 4.278
 0.478 -1.483 4.277
 0.504 -1.483 4.275
 0.529 -1.483 4.273
 0.556 -1.486 4.276
 0.582 -1.487 4.277
 0.608 -1.488 4.275
 0.634 -1.488 4.273
 0.66 -1.489 4.273
 0.685 -1.489 4.269
 0.711 -1.489 4.265
 0.737 -1.49 4.264
 0.763 -1.491 4.262
 0.789 -1.492 4.259
 0.817 -1.495 4.266
 0.843 -1.496 4.263
 0.87 -1.498 4.263
 0.897 -1.5 4.264
 0.924 -1.501 4.263
 0.95 -1.502 4.259
 0.976 -1.502 4.254
 1.003 -1.504 4.254
 1.029 -1.505 4.252
 1.056 -1.506 4.247
 1.083 -1.507 4.247
 1.111 -1.511 4.25
 1.138 -1.512 4.249
 1.165 -1.514 4.246
 1.194 -1.517 4.247
 1.221 -1.519 4.247
 1.249 -1.521 4.246
 1.276 -1.522 4.242
 1.305 -1.525 4.242
 1.333 -1.527 4.241
 1.361 -1.529 4.238
 1.388 -1.53 4.234
 1.418 -1.534 4.235
 1.446 -1.536 4.234
 1.475 -1.538 4.232
 1.503 -1.54 4.229
 1.532 -1.543 4.228
 1.561 -1.545 4.225
 1.59 -1.548 4.223
 1.619 -1.55 4.219
 1.647 -1.552 4.214
 1.675 -1.553 4.208
 1.703 -1.555 4.202
 1.732 -1.557 4.198
 1.758 -1.556 4.187
 1.781 -1.553 4.168
 1.802 -1.548 4.144
 1.821 -1.541 4.115
 1.832 -1.529 4.072
 1.843 -1.517 4.027
 1.858 -1.508 3.992
 1.867 -1.494 3.945
 1.873 -1.479 3.893
 1.881 -1.465 3.846
 0 0 0
 0 0 0
 0 0 0
 0 0 0
 0 0 0
 0 0 0
 1.736 -1.238 3.177
 1.763 -1.242 3.176
 1.781 -1.24 3.161
 1.793 -1.233 3.133
 1.806 -1.228 3.109
 1.815 -1.22 3.077
 1.817 -1.208 3.035
 0 0 0
 -0.01 -0.008 0.005
 -0.078 -0.053 0.124
 -1.058 -0.708 1.857
 -1.044 -0.706 1.86
 -1.116 -0.765 2.022
 -1.011 -0.701 1.859
 -1.088 -0.764 2.032
 -1.163 -0.827 2.208
 -1.237 -0.891 2.385
 -1.22 -0.89 2.39
 -1.373 -1.015 2.736
 -1.353 -1.013 2.738
 -1.498 -1.137 3.083
 -1.56 -1.2 3.265
 -1.617 -1.261 3.442
 -1.672 -1.322 3.618
 -1.804 -1.447 3.971
 -1.777 -1.446 3.978
 -1.824 -1.506 4.154
 -1.871 -1.568 4.337
 -1.842 -1.567 4.343
 -1.812 -1.565 4.348
 -1.78 -1.562 4.348
 -1.748 -1.558 4.347
 -1.717 -1.556 4.35
 -1.685 -1.552 4.347
 -1.655 -1.549 4.348
 -1.625 -1.547 4.353
 -1.596 -1.546 4.357
 -1.564 -1.542 4.353
 -1.535 -1.539 4.355
 -1.503 -1.535 4.351
 -1.471 -1.53 4.344
 -1.441 -1.527 4.342
 -1.412 -1.525 4.345
 -1.383 -1.523 4.345
 -1.354 -1.521 4.348
 -1.326 -1.52 4.351
 -1.296 -1.517 4.348
 -1.266 -1.513 4.344
 -1.237 -1.51 4.341
 -1.208 -1.507 4.339
 -1.18 -1.506 4.342
 -1.152 -1.504 4.342
 -1.124 -1.502 4.343
 -1.096 -1.5 4.343
 -1.068 -1.498 4.342
 -1.04 -1.496 4.342
 -1.011 -1.493 4.338
 -0.983 -1.491 4.336
 -0.956 -1.49 4.337
 -0.928 -1.488 4.335
 -0.901 -1.486 4.334
 -0.874 -1.485 4.336
 -0.846 -1.483 4.333
 -0.818 -1.48 4.329
 -0.791 -1.478 4.326
 -0.763 -1.475 4.322
 -0.736 -1.473 4.32
 -0.71 -1.473 4.322
 -0.684 -1.472 4.322
 -0.657 -1.47 4.32
 -0.63 -1.469 4.319
 -0.603 -1.467 4.316
 -0.577 -1.465 4.314
 -0.55 -1.464 4.312
 -0.525 -1.465 4.317
 -0.498 -1.463 4.314
 -0.472 -1.462 4.312
 -0.446 -1.461 4.311
 -0.42 -1.46 4.309
 -0.393 -1.457 4.304
 -0.368 -1.458 4.308
 -0.342 -1.458 4.309
 -0.316 -1.458 4.31
 -0.291 -1.458 4.312
 -0.265 -1.458 4.313
 -0.239 -1.456 4.308
 -0.213 -1.455 4.304
 -0.187 -1.453 4.301
 -0.161 -1.453 4.299
 -0.136 -1.451 4.295
 -0.11 -1.45 4.292
 -0.084 -1.451 4.295
 -0.059 -1.451 4.293
 -0.033 -1.449 4.29
 -0.008 -1.451 4.294
 0.017 -1.451 4.295
 0.042 -1.451 4.292
 0.068 -1.451 4.293
 0.094 -1.45 4.29
 0.119 -1.449 4.287
 0.144 -1.449 4.285
 0.17 -1.448 4.281
 0.195 -1.448 4.28
 0.221 -1.449 4.279
 0.246 -1.449 4.28
 0.272 -1.45 4.28
 0.298 -1.451 4.282
 0.323 -1.451 4.279
 0.348 -1.45 4.274
 0.374 -1.451 4.276
 0.4 -1.452 4.277
 0.426 -1.452 4.275
 0.452 -1.454 4.277
 0.478 -1.455 4.279
 0.503 -1.455 4.275
 0.529 -1.455 4.272
 0.554 -1.456 4.272
 0.581 -1.458 4.273
 0.607 -1.458 4.272
 0.633 -1.46 4.273
 0.659 -1.461 4.272
 0.685 -1.461 4.27
 0.71 -1.461 4.266
 0.737 -1.463 4.267
 0.763 -1.464 4.265
 0.789 -1.464 4.262
 0.816 -1.468 4.269
 0.843 -1.469 4.267
 0.869 -1.47 4.267
 0.896 -1.472 4.267
 0.923 -1.474 4.266
 0.949 -1.474 4.262
 0.975 -1.475 4.259
 1.002 -1.476 4.258
 1.029 -1.478 4.256
 1.055 -1.478 4.252
 1.082 -1.48 4.252
 1.111 -1.483 4.255
 1.138 -1.485 4.253
 1.164 -1.486 4.249
 1.193 -1.489 4.252
 1.22 -1.491 4.25
 1.248 -1.493 4.248
 1.276 -1.495 4.247
 1.304 -1.497 4.246
 1.332 -1.499 4.245
 1.36 -1.502 4.245
 1.389 -1.504 4.243
 1.418 -1.507 4.244
 1.447 -1.51 4.244
 1.476 -1.513 4.244
 1.504 -1.515 4.24
 1.533 -1.517 4.237
 1.561 -1.519 4.234
 1.589 -1.52 4.229
 1.617 -1.521 4.222
 1.645 -1.523 4.217
 1.673 -1.525 4.212
 1.702 -1.526 4.207
 1.731 -1.529 4.204
 1.758 -1.529 4.194
 1.781 -1.525 4.174
 1.802 -1.521 4.152
 1.822 -1.516 4.126
 1.837 -1.506 4.09
 1.848 -1.495 4.047
 1.868 -1.49 4.023
 1.882 -1.48 3.986
 1.888 -1.465 3.934
 0 0 0
 0 0 0
 0 0 0
 0 0 0
 0 0 0
 0 0 0
 0 0 0
 1.44 -1.01 2.64
 1.759 -1.217 3.176
 1.783 -1.22 3.172
 1.797 -1.215 3.148
 1.812 -1.211 3.127
 1.828 -1.208 3.108
 0 0 0
 0 0 0
 -0.076 -0.05 0.118
 -0.052 -0.035 0.077
 -0.616 -0.405 1.079
 -0.605 -0.403 1.076
 -0.685 -0.462 1.238
 -0.582 -0.397 1.066
 -0.66 -0.456 1.231
 -0.739 -0.517 1.401
 -0.815 -0.577 1.572
 -0.802 -0.575 1.57
 -0.959 -0.697 1.911
 -0.943 -0.694 1.909
 -1.177 -0.877 2.425
 -1.324 -1.001 2.776
 -1.465 -1.123 3.124
 -1.602 -1.245 3.474
 -1.814 -1.429 4.002
 -1.784 -1.426 4.003
 -1.831 -1.485 4.179
 -1.876 -1.545 4.358
 -1.847 -1.543 4.364
 -1.816 -1.541 4.367
 -1.785 -1.538 4.369
 -1.753 -1.535 4.369
 -1.722 -1.532 4.37
 -1.689 -1.527 4.365
 -1.657 -1.523 4.364
 -1.626 -1.521 4.365
 -1.597 -1.519 4.368
 -1.566 -1.515 4.366
 -1.536 -1.513 4.368
 -1.505 -1.51 4.365
 -1.473 -1.505 4.36
 -1.442 -1.501 4.356
 -1.413 -1.499 4.356
 -1.383 -1.496 4.356
 -1.355 -1.495 4.358
 -1.325 -1.492 4.357
 -1.296 -1.489 4.355
 -1.265 -1.485 4.35
 -1.236 -1.482 4.346
 -1.206 -1.478 4.342
 -1.179 -1.478 4.346
 -1.15 -1.475 4.345
 -1.123 -1.474 4.347
 -1.095 -1.473 4.347
 -1.067 -1.471 4.348
 -1.039 -1.469 4.347
 -1.011 -1.466 4.344
 -0.983 -1.464 4.342
 -0.956 -1.463 4.343
 -0.928 -1.461 4.341
 -0.9 -1.459 4.339
 -0.873 -1.458 4.341
 -0.846 -1.456 4.338
 -0.817 -1.452 4.331
 -0.79 -1.449 4.326
 -0.762 -1.446 4.321
 -0.735 -1.445 4.32
 -0.709 -1.444 4.322
 -0.682 -1.443 4.322
 -0.656 -1.442 4.322
 -0.63 -1.442 4.323
 -0.603 -1.44 4.32
 -0.576 -1.438 4.318
 -0.55 -1.438 4.319
 -0.524 -1.438 4.321
 -0.498 -1.435 4.316
 -0.471 -1.434 4.313
 -0.445 -1.433 4.313
 -0.419 -1.432 4.311
 -0.393 -1.43 4.308
 -0.367 -1.432 4.313
 -0.342 -1.432 4.315
 -0.316 -1.431 4.314
 -0.29 -1.431 4.314
 -0.264 -1.43 4.312
 -0.238 -1.428 4.308
 -0.212 -1.427 4.305
 -0.187 -1.425 4.3
 -0.161 -1.425 4.3
 -0.135 -1.424 4.298
 -0.11 -1.423 4.294
 -0.084 -1.423 4.296
 -0.059 -1.424 4.299
 -0.033 -1.424 4.298
 -0.007 -1.425 4.301
 0.017 -1.425 4.3
 0.043 -1.425 4.299
 0.068 -1.425 4.299
 0.094 -1.424 4.296
 0.119 -1.423 4.29
 0.144 -1.422 4.288
 0.17 -1.421 4.283
 0.195 -1.42 4.279
 0.221 -1.42 4.278
 0.246 -1.421 4.278
 0.272 -1.422 4.281
 0.297 -1.423 4.283
 0.323 -1.423 4.28
 0.348 -1.423 4.278
 0.374 -1.425 4.283
 0.4 -1.426 4.282
 0.426 -1.427 4.282
 0.452 -1.428 4.282
 0.477 -1.427 4.279
 0.502 -1.427 4.275
 0.528 -1.428 4.274
 0.554 -1.427 4.27
 0.58 -1.429 4.272
 0.606 -1.431 4.274
 0.632 -1.431 4.272
 0.657 -1.431 4.268
 0.683 -1.432 4.267
 0.709 -1.432 4.264
 0.735 -1.433 4.262
 0.761 -1.434 4.262
 0.788 -1.437 4.264
 0.815 -1.44 4.271
 0.842 -1.441 4.269
 0.869 -1.443 4.27
 0.895 -1.445 4.27
 0.922 -1.446 4.269
 0.948 -1.447 4.267
 0.975 -1.449 4.266
 1.002 -1.451 4.266
 1.029 -1.451 4.263
 1.056 -1.453 4.262
 1.083 -1.454 4.26
 1.11 -1.456 4.26
 1.137 -1.458 4.257
 1.164 -1.459 4.255
 1.192 -1.462 4.256
 1.219 -1.463 4.254
 1.247 -1.466 4.254
 1.275 -1.468 4.253
 1.304 -1.47 4.253
 1.331 -1.472 4.251
 1.36 -1.475 4.25
 1.388 -1.477 4.249
 1.417 -1.48 4.25
 1.446 -1.482 4.249
 1.475 -1.486 4.25
 1.503 -1.487 4.245
 1.531 -1.488 4.241
 1.56 -1.491 4.238
 1.588 -1.492 4.234
 1.616 -1.494 4.228
 1.645 -1.496 4.225
 1.674 -1.498 4.222
 1.703 -1.5 4.217
 1.732 -1.503 4.215
 1.76 -1.504 4.207
 1.785 -1.502 4.192
 1.807 -1.498 4.172
 1.828 -1.494 4.148
 1.845 -1.486 4.116
 1.859 -1.477 4.079
 1.877 -1.47 4.05
 1.893 -1.462 4.017
 0 0 0
 0 0 0
 0 0 0
 0 0 0
 0 0 0
 0 0 0
 0 0 0
 0 0 0
 1.252 -0.863 2.299
 1.576 -1.072 2.852
 1.79 -1.203 3.19
 1.804 -1.198 3.167
 1.821 -1.196 3.149
 1.71 -1.11 2.912
 0 0 0
 0 0 0
 -0.062 -0.04 0.093
 -0.105 -0.068 0.171
 -0.262 -0.17 0.452
 -0.253 -0.166 0.444
 -0.336 -0.223 0.603
 -0.235 -0.158 0.424
 -0.226 -0.154 0.413
 -0.307 -0.212 0.576
 -0.389 -0.271 0.745
 -0.38 -0.268 0.739
 -0.541 -0.386 1.074
 -0.529 -0.383 1.069
 -0.852 -0.624 1.756
 -1.083 -0.804 2.273
 -1.308 -0.984 2.794
 -1.528 -1.166 3.32
 -1.82 -1.408 4.023
 -1.79 -1.405 4.025
 -1.836 -1.463 4.2
 -1.881 -1.521 4.379
 -1.85 -1.518 4.381
 -1.816 -1.513 4.377
 -1.784 -1.51 4.377
 -1.753 -1.507 4.378
 -1.721 -1.504 4.378
 -1.688 -1.499 4.373
 -1.659 -1.498 4.377
 -1.628 -1.495 4.377
 -1.597 -1.492 4.377
 -1.565 -1.487 4.372
 -1.535 -1.485 4.373
 -1.504 -1.482 4.371
 -1.472 -1.476 4.363
 -1.441 -1.473 4.359
 -1.411 -1.47 4.358
 -1.381 -1.467 4.356
 -1.351 -1.464 4.354
 -1.322 -1.462 4.354
 -1.293 -1.459 4.354
 -1.264 -1.457 4.352
 -1.234 -1.453 4.349
 -1.205 -1.451 4.347
 -1.177 -1.449 4.348
 -1.148 -1.447 4.346
 -1.121 -1.445 4.348
 -1.093 -1.443 4.347
 -1.065 -1.442 4.347
 -1.037 -1.44 4.346
 -1.008 -1.437 4.342
 -0.98 -1.434 4.34
 -0.953 -1.433 4.341
 -0.926 -1.431 4.339
 -0.899 -1.43 4.34
 -0.872 -1.43 4.342
 -0.845 -1.428 4.342
 -0.816 -1.423 4.331
 -0.788 -1.42 4.326
 -0.76 -1.418 4.321
 -0.734 -1.416 4.32
 -0.707 -1.415 4.32
 -0.681 -1.416 4.324
 -0.656 -1.416 4.328
 -0.629 -1.415 4.328
 -0.602 -1.413 4.325
 -0.576 -1.412 4.323
 -0.55 -1.411 4.324
 -0.524 -1.41 4.324
 -0.497 -1.409 4.32
 -0.471 -1.408 4.319
 -0.445 -1.407 4.318
 -0.419 -1.406 4.318
 -0.393 -1.404 4.313
 -0.367 -1.404 4.315
 -0.341 -1.403 4.314
 -0.315 -1.402 4.31
 -0.289 -1.401 4.309
 -0.263 -1.401 4.309
 -0.238 -1.401 4.31
 -0.212 -1.4 4.308
 -0.186 -1.399 4.305
 -0.161 -1.398 4.305
 -0.135 -1.398 4.305
 -0.109 -1.396 4.298
 -0.084 -1.397 4.301
 -0.058 -1.398 4.305
 -0.033 -1.398 4.303
 -0.007 -1.399 4.305
 0.017 -1.399 4.307
 0.043 -1.399 4.305
 0.068 -1.399 4.305
 0.094 -1.399 4.304
 0.119 -1.398 4.299
 0.145 -1.397 4.297
 0.17 -1.396 4.291
 0.195 -1.395 4.286
 0.221 -1.394 4.283
 0.246 -1.394 4.282
 0.272 -1.395 4.283
 0.297 -1.396 4.284
 0.323 -1.395 4.281
 0.348 -1.396 4.279
 0.374 -1.398 4.283
 0.4 -1.399 4.285
 0.426 -1.4 4.286
 0.452 -1.401 4.288
 0.477 -1.401 4.285
 0.502 -1.401 4.281
 0.528 -1.402 4.28
 0.553 -1.401 4.275
 0.58 -1.403 4.277
 0.606 -1.405 4.279
 0.631 -1.405 4.276
 0.657 -1.404 4.271
 0.683 -1.405 4.271
 0.708 -1.405 4.267
 0.734 -1.406 4.265
 0.76 -1.407 4.265
 0.787 -1.41 4.268
 0.815 -1.413 4.275
 0.841 -1.414 4.274
 0.868 -1.416 4.274
 0.895 -1.418 4.276
 0.921 -1.418 4.269
 0.947 -1.418 4.266
 0.974 -1.421 4.267
 1.001 -1.423 4.268
 1.028 -1.424 4.265
 1.056 -1.427 4.269
 1.083 -1.428 4.267
 1.11 -1.43 4.267
 1.136 -1.43 4.261
 1.162 -1.431 4.256
 1.19 -1.432 4.254
 1.217 -1.434 4.253
 1.245 -1.436 4.251
 1.273 -1.439 4.253
 1.302 -1.442 4.256
 1.331 -1.445 4.256
 1.359 -1.447 4.256
 1.388 -1.45 4.255
 1.416 -1.452 4.253
 1.444 -1.453 4.25
 1.473 -1.457 4.251
 1.501 -1.458 4.247
 1.529 -1.459 4.241
 1.558 -1.462 4.241
 1.587 -1.464 4.238
 1.614 -1.465 4.231
 1.643 -1.467 4.227
 1.673 -1.47 4.226
 1.701 -1.471 4.22
 1.73 -1.473 4.217
 1.758 -1.475 4.211
 1.784 -1.474 4.198
 1.807 -1.471 4.18
 1.829 -1.468 4.159
 1.85 -1.464 4.136
 1.867 -1.456 4.104
 1.889 -1.453 4.085
 0 0 0
 0 0 0
 0 0 0
 0 0 0
 0 0 0
 0 0 0
 0 0 0
 0 0 0
 0 0 0
 1.171 -0.793 2.155
 1.556 -1.04 2.821
 1.795 -1.185 3.206
 1.812 -1.182 3.188
 1.833 -1.182 3.176
 1.518 -0.968 2.591
 0 0 0
 0 0 0
 -0.119 -0.075 0.192
 -0.062 -0.04 0.095
 -0.088 -0.057 0.144
 -0.079 -0.052 0.129
 -0.072 -0.048 0.119
 -0.064 -0.043 0.106
 -0.056 -0.039 0.093
 -0.138 -0.094 0.252
 -0.133 -0.092 0.247
 -0.126 -0.089 0.238
 -0.203 -0.143 0.395
 -0.194 -0.139 0.385
 -0.521 -0.375 1.072
 -0.837 -0.611 1.758
 -1.147 -0.847 2.453
 -1.449 -1.085 3.154
 -1.82 -1.383 4.033
 -1.789 -1.379 4.032
 -1.835 -1.435 4.207
 -1.879 -1.491 4.382
 -1.847 -1.488 4.383
 -1.814 -1.484 4.38
 -1.782 -1.481 4.381
 -1.751 -1.478 4.383
 -1.72 -1.475 4.384
 -1.688 -1.472 4.381
 -1.659 -1.47 4.386
 -1.628 -1.467 4.385
 -1.598 -1.465 4.387
 -1.565 -1.46 4.381
 -1.535 -1.458 4.381
 -1.503 -1.453 4.376
 -1.47 -1.448 4.368
 -1.439 -1.444 4.363
 -1.409 -1.441 4.36
 -1.378 -1.437 4.357
 -1.348 -1.434 4.353
 -1.319 -1.432 4.353
 -1.29 -1.429 4.352
 -1.26 -1.426 4.349
 -1.232 -1.424 4.35
 -1.205 -1.424 4.353
 -1.177 -1.423 4.356
 -1.149 -1.421 4.357
 -1.123 -1.421 4.363
 -1.094 -1.419 4.361
 -1.065 -1.416 4.356
 -1.037 -1.414 4.356
 -1.009 -1.411 4.351
 -0.981 -1.409 4.349
 -0.954 -1.408 4.351
 -0.926 -1.406 4.348
 -0.899 -1.405 4.35
 -0.872 -1.404 4.35
 -0.845 -1.402 4.349
 -0.815 -1.396 4.336
 -0.787 -1.393 4.33
 -0.76 -1.39 4.324
 -0.733 -1.389 4.323
 -0.706 -1.388 4.323
 -0.681 -1.389 4.329
 -0.655 -1.39 4.334
 -0.629 -1.389 4.335
 -0.603 -1.388 4.334
 -0.576 -1.387 4.332
 -0.55 -1.386 4.334
 -0.524 -1.385 4.333
 -0.497 -1.384 4.33
 -0.471 -1.382 4.328
 -0.445 -1.382 4.329
 -0.419 -1.382 4.329
 -0.392 -1.378 4.32
 -0.366 -1.377 4.318
 -0.341 -1.376 4.317
 -0.314 -1.374 4.311
 -0.289 -1.374 4.31
 -0.263 -1.373 4.31
 -0.237 -1.373 4.311
 -0.212 -1.372 4.308
 -0.186 -1.371 4.306
 -0.16 -1.37 4.303
 -0.135 -1.371 4.305
 -0.109 -1.369 4.299
 -0.084 -1.371 4.305
 -0.058 -1.372 4.309
 -0.033 -1.373 4.311
 -0.007 -1.374 4.314
 0.017 -1.375 4.316
 0.043 -1.373 4.312
 0.068 -1.373 4.311
 0.094 -1.373 4.309
 0.119 -1.372 4.306
 0.145 -1.372 4.304
 0.17 -1.37 4.296
 0.195 -1.369 4.293
 0.221 -1.369 4.291
 0.246 -1.368 4.286
 0.272 -1.369 4.288
 0.297 -1.37 4.29
 0.323 -1.37 4.287
 0.348 -1.371 4.288
 0.374 -1.372 4.291
 0.4 -1.374 4.292
 0.426 -1.375 4.294
 0.451 -1.375 4.291
 0.476 -1.373 4.284
 0.502 -1.373 4.281
 0.528 -1.374 4.281
 0.552 -1.373 4.273
 0.579 -1.375 4.276
 0.605 -1.377 4.282
 0.631 -1.377 4.278
 0.656 -1.376 4.272
 0.682 -1.378 4.273
 0.708 -1.379 4.271
 0.734 -1.38 4.27
 0.761 -1.381 4.272
 0.787 -1.384 4.275
 0.815 -1.387 4.28
 0.841 -1.388 4.279
 0.868 -1.389 4.278
 0.895 -1.391 4.279
 0.92 -1.39 4.271
 0.946 -1.391 4.268
 0.973 -1.393 4.269
 1 -1.395 4.269
 1.026 -1.395 4.266
 1.054 -1.399 4.27
 1.081 -1.4 4.269
 1.109 -1.402 4.269
 1.135 -1.403 4.265
 1.162 -1.404 4.261
 1.189 -1.405 4.259
 1.216 -1.407 4.258
 1.244 -1.408 4.255
 1.272 -1.411 4.256
 1.301 -1.415 4.259
 1.329 -1.417 4.259
 1.358 -1.42 4.259
 1.387 -1.422 4.259
 1.414 -1.423 4.255
 1.442 -1.425 4.252
 1.471 -1.427 4.251
 1.499 -1.43 4.249
 1.527 -1.431 4.244
 1.557 -1.434 4.245
 1.585 -1.436 4.242
 1.613 -1.437 4.235
 1.641 -1.438 4.23
 1.67 -1.441 4.228
 1.698 -1.442 4.222
 1.728 -1.445 4.22
 1.757 -1.447 4.217
 1.784 -1.447 4.206
 1.81 -1.447 4.194
 1.833 -1.444 4.177
 1.857 -1.442 4.16
 1.873 -1.434 4.126
 0 0 0
 0 0 0
 0 0 0
 0 0 0
 0 0 0
 0 0 0
 0 0 0
 0 0 0
 0 0 0
 0 0 0
 1.053 -0.7 1.941
 1.518 -0.996 2.757
 1.788 -1.158 3.2
 1.808 -1.158 3.188
 1.829 -1.158 3.177
 1.405 -0.88 2.402
 0 0 0
 0.492 -0.304 0.812
 -0.113 -0.07 0.182
 -0.108 -0.068 0.177
 -0.102 -0.065 0.169
 -0.091 -0.059 0.152
 -0.082 -0.054 0.139
 -0.071 -0.047 0.12
 -0.061 -0.041 0.102
 -0.052 -0.036 0.088
 -0.048 -0.034 0.081
 -0.04 -0.029 0.067
 -0.205 -0.142 0.4
 -0.196 -0.137 0.388
 -0.605 -0.427 1.248
 -1.002 -0.716 2.11
 -1.391 -1.008 2.983
 -1.609 -1.183 3.512
 -1.978 -1.474 4.392
 -1.944 -1.47 4.391
 -1.911 -1.466 4.39
 -1.878 -1.462 4.388
 -1.845 -1.459 4.387
 -1.812 -1.455 4.385
 -1.78 -1.451 4.385
 -1.75 -1.449 4.387
 -1.718 -1.446 4.386
 -1.685 -1.441 4.382
 -1.655 -1.44 4.386
 -1.625 -1.437 4.386
 -1.594 -1.434 4.384
 -1.562 -1.43 4.38
 -1.532 -1.428 4.381
 -1.5 -1.424 4.377
 -1.469 -1.419 4.371
 -1.438 -1.416 4.368
 -1.408 -1.413 4.367
 -1.378 -1.41 4.364
 -1.348 -1.407 4.36
 -1.318 -1.404 4.358
 -1.289 -1.401 4.357
 -1.259 -1.398 4.351
 -1.231 -1.396 4.352
 -1.203 -1.396 4.357
 -1.176 -1.395 4.359
 -1.148 -1.393 4.359
 -1.122 -1.394 4.368
 -1.094 -1.392 4.367
 -1.064 -1.388 4.361
 -1.036 -1.386 4.359
 -1.008 -1.384 4.358
 -0.98 -1.381 4.353
 -0.953 -1.381 4.357
 -0.925 -1.379 4.354
 -0.899 -1.378 4.356
 -0.871 -1.377 4.356
 -0.844 -1.376 4.356
 -0.815 -1.369 4.34
 -0.787 -1.367 4.334
 -0.759 -1.364 4.329
 -0.733 -1.363 4.329
 -0.705 -1.361 4.325
 -0.68 -1.361 4.33
 -0.654 -1.362 4.336
 -0.628 -1.361 4.336
 -0.602 -1.36 4.335
 -0.575 -1.359 4.333
 -0.549 -1.359 4.337
 -0.523 -1.359 4.337
 -0.497 -1.357 4.333
 -0.471 -1.356 4.332
 -0.445 -1.356 4.335
 -0.419 -1.355 4.333
 -0.391 -1.349 4.317
 -0.366 -1.349 4.316
 -0.34 -1.347 4.313
 -0.313 -1.345 4.307
 -0.288 -1.344 4.305
 -0.262 -1.344 4.306
 -0.237 -1.345 4.308
 -0.211 -1.344 4.307
 -0.186 -1.344 4.307
 -0.16 -1.344 4.308
 -0.135 -1.345 4.311
 -0.109 -1.342 4.303
 -0.083 -1.342 4.303
 -0.058 -1.343 4.306
 -0.032 -1.344 4.307
 -0.007 -1.344 4.308
 0.017 -1.346 4.315
 0.043 -1.348 4.318
 0.069 -1.348 4.318
 0.094 -1.346 4.312
 0.119 -1.345 4.307
 0.145 -1.345 4.306
 0.17 -1.343 4.299
 0.195 -1.342 4.294
 0.221 -1.342 4.295
 0.246 -1.342 4.291
 0.272 -1.343 4.294
 0.297 -1.344 4.296
 0.323 -1.343 4.291
 0.348 -1.345 4.294
 0.374 -1.347 4.297
 0.4 -1.347 4.295
 0.426 -1.348 4.297
 0.451 -1.348 4.294
 0.476 -1.346 4.285
 0.501 -1.345 4.281
 0.527 -1.346 4.281
 0.551 -1.344 4.269
 0.578 -1.347 4.278
 0.605 -1.35 4.283
 0.63 -1.35 4.281
 0.656 -1.35 4.276
 0.682 -1.352 4.279
 0.707 -1.352 4.273
 0.734 -1.353 4.274
 0.76 -1.355 4.277
 0.788 -1.359 4.284
 0.816 -1.362 4.29
 0.842 -1.364 4.292
 0.869 -1.365 4.289
 0.895 -1.366 4.288
 0.919 -1.363 4.273
 0.945 -1.363 4.27
 0.972 -1.365 4.27
 0.998 -1.366 4.268
 1.025 -1.367 4.266
 1.053 -1.37 4.269
 1.08 -1.372 4.269
 1.107 -1.374 4.269
 1.134 -1.375 4.267
 1.161 -1.376 4.264
 1.188 -1.378 4.262
 1.215 -1.379 4.259
 1.242 -1.38 4.255
 1.27 -1.382 4.256
 1.299 -1.386 4.258
 1.327 -1.388 4.259
 1.356 -1.391 4.261
 1.385 -1.394 4.263
 1.413 -1.396 4.259
 1.44 -1.397 4.254
 1.469 -1.399 4.254
 1.497 -1.401 4.251
 1.525 -1.402 4.246
 1.555 -1.406 4.247
 1.584 -1.408 4.245
 1.611 -1.409 4.239
 1.639 -1.41 4.233
 1.668 -1.412 4.23
 1.696 -1.413 4.224
 1.725 -1.416 4.221
 1.754 -1.418 4.217
 1.783 -1.419 4.211
 1.81 -1.42 4.202
 1.837 -1.42 4.192
 1.863 -1.42 4.181
 0 0 0
 0 0 0
 0 0 0
 0 0 0
 0 0 0
 0 0 0
 0 0 0
 0 0 0
 0 0 0
 0 0 0
 0 0 0
 0.891 -0.582 1.645
 1.422 -0.916 2.588
 1.775 -1.129 3.183
 1.796 -1.128 3.172
 1.54 -0.957 2.679
 1.014 -0.624 1.735
 0 0 0
 0.472 -0.286 0.779
 -0.143 -0.086 0.234
 -0.121 -0.074 0.201
 -0.107 -0.066 0.178
 -0.095 -0.06 0.16
 -0.088 -0.056 0.148
 -0.074 -0.048 0.126
 -0.064 -0.042 0.108
 -0.053 -0.036 0.089
 -0.046 -0.032 0.078
 -0.039 -0.027 0.064
 -0.203 -0.138 0.397
 -0.194 -0.134 0.386
 -0.603 -0.418 1.246
 -1 -0.701 2.11
 -1.388 -0.987 2.984
 -1.607 -1.158 3.513
 -1.976 -1.444 4.396
 -1.942 -1.441 4.395
 -1.909 -1.437 4.394
 -1.875 -1.432 4.39
 -1.842 -1.428 4.388
 -1.808 -1.424 4.385
 -1.777 -1.422 4.386
 -1.746 -1.419 4.386
 -1.714 -1.415 4.385
 -1.682 -1.412 4.384
 -1.652 -1.41 4.386
 -1.621 -1.406 4.384
 -1.59 -1.404 4.383
 -1.558 -1.4 4.379
 -1.528 -1.397 4.378
 -1.497 -1.393 4.375
 -1.466 -1.39 4.373
 -1.436 -1.387 4.369
 -1.407 -1.385 4.37
 -1.377 -1.382 4.367
 -1.346 -1.378 4.363
 -1.316 -1.375 4.358
 -1.287 -1.373 4.357
 -1.257 -1.369 4.352
 -1.229 -1.368 4.354
 -1.203 -1.369 4.365
 -1.176 -1.368 4.368
 -1.148 -1.366 4.367
 -1.123 -1.368 4.378
 -1.094 -1.366 4.377
 -1.064 -1.361 4.366
 -1.036 -1.359 4.364
 -1.008 -1.357 4.363
 -0.979 -1.354 4.358
 -0.952 -1.353 4.358
 -0.923 -1.349 4.35
 -0.897 -1.349 4.355
 -0.87 -1.348 4.354
 -0.843 -1.347 4.355
 -0.813 -1.341 4.339
 -0.785 -1.338 4.335
 -0.758 -1.336 4.329
 -0.731 -1.335 4.329
 -0.703 -1.331 4.319
 -0.678 -1.333 4.329
 -0.654 -1.336 4.344
 -0.628 -1.335 4.341
 -0.601 -1.333 4.339
 -0.575 -1.333 4.342
 -0.55 -1.335 4.349
 -0.523 -1.332 4.342
 -0.496 -1.329 4.335
 -0.47 -1.328 4.331
 -0.444 -1.329 4.336
 -0.418 -1.327 4.333
 -0.39 -1.318 4.305
 -0.364 -1.317 4.303
 -0.338 -1.318 4.306
 -0.313 -1.317 4.304
 -0.287 -1.316 4.302
 -0.262 -1.317 4.306
 -0.236 -1.317 4.309
 -0.211 -1.317 4.308
 -0.185 -1.317 4.308
 -0.16 -1.317 4.31
 -0.134 -1.318 4.312
 -0.109 -1.315 4.304
 -0.083 -1.316 4.306
 -0.058 -1.317 4.309
 -0.032 -1.317 4.31
 -0.007 -1.318 4.313
 0.018 -1.322 4.327
 0.043 -1.323 4.328
 0.069 -1.324 4.33
 0.094 -1.325 4.333
 0.12 -1.322 4.323
 0.145 -1.323 4.323
 0.171 -1.32 4.315
 0.196 -1.318 4.305
 0.221 -1.316 4.298
 0.246 -1.316 4.296
 0.272 -1.318 4.302
 0.298 -1.319 4.303
 0.323 -1.319 4.302
 0.35 -1.325 4.318
 0.376 -1.326 4.321
 0.402 -1.327 4.32
 0.428 -1.328 4.322
 0.453 -1.327 4.315
 0.476 -1.32 4.29
 0.501 -1.32 4.289
 0.527 -1.321 4.289
 0.552 -1.319 4.279
 0.579 -1.324 4.291
 0.606 -1.327 4.298
 0.63 -1.324 4.286
 0.654 -1.321 4.273
 0.682 -1.325 4.281
 0.706 -1.322 4.268
 0.731 -1.322 4.263
 0.759 -1.326 4.273
 0.788 -1.332 4.289
 0.814 -1.334 4.289
 0.842 -1.337 4.294
 0.869 -1.339 4.297
 0.895 -1.34 4.295
 0.916 -1.333 4.268
 0.943 -1.335 4.268
 0.969 -1.336 4.267
 0.996 -1.338 4.267
 1.023 -1.338 4.264
 1.05 -1.341 4.267
 1.078 -1.343 4.267
 1.105 -1.346 4.269
 1.132 -1.347 4.266
