 1.039 -1.636 3.907
 1.056 -1.624 3.873
 1.084 -1.631 3.881
 1.119 -1.646 3.912
 1.14 -1.641 3.893
 1.164 -1.641 3.886
 1.184 -1.634 3.862
 1.212 -1.64 3.87
 1.237 -1.64 3.865
 1.266 -1.646 3.871
 1.292 -1.648 3.867
 1.327 -1.661 3.891
 1.355 -1.665 3.892
 1.359 -1.64 3.827
 1.389 -1.647 3.835
 1.42 -1.655 3.844
 1.431 -1.639 3.798
 1.455 -1.639 3.791
 1.472 -1.631 3.762
 1.514 -1.65 3.798
 1.515 -1.625 3.732
 1.545 -1.632 3.738
 1.6 -1.663 3.8
 1.587 -1.625 3.703
 1.623 -1.637 3.721
 1.65 -1.64 3.717
 1.679 -1.645 3.719
 1.675 -1.617 3.645
 1.717 -1.634 3.674
 1.757 -1.649 3.698
 1.765 -1.634 3.653
 1.78 -1.626 3.624
 1.794 -1.617 3.593
 1.862 -1.656 3.669
 1.768 -1.552 3.426
 1.823 -1.579 3.477
 1.794 -1.535 3.368
 1.79 -1.513 3.308
 1.761 -1.47 3.203
 1.787 -1.473 3.2
 1.753 -1.428 3.091
 1.764 -1.42 3.062
 1.769 -1.407 3.023
 1.739 -1.368 2.928
 1.748 -1.359 2.898
 1.765 -1.357 2.883
 1.752 -1.331 2.818
 -2.131 -1.613 3.558
 -2.109 -1.615 3.574
 -2.115 -1.639 3.641
 -2.067 -1.621 3.612
 -2.061 -1.636 3.659
 -1.999 -1.607 3.604
 -1.987 -1.617 3.639
 -1.978 -1.63 3.68
 -1.951 -1.628 3.688
 -1.919 -1.623 3.685
 -1.89 -1.619 3.688
 -1.899 -1.648 3.766
 -1.87 -1.645 3.77
 -1.857 -1.656 3.806
 -1.841 -1.665 3.836
 -1.735 -1.591 3.674
 -1.741 -1.619 3.751
 -1.716 -1.619 3.76
 -1.702 -1.63 3.794
 -1.654 -1.607 3.751
 -1.663 -1.64 3.837
 -1.62 -1.623 3.806
 -1.616 -1.644 3.865
 -1.562 -1.615 3.804
 -1.527 -1.603 3.786
 -1.522 -1.624 3.844
 -1.489 -1.616 3.832
 -1.463 -1.614 3.837
 -1.453 -1.631 3.884
 -1.405 -1.604 3.828
 -1.411 -1.64 3.921
 -1.383 -1.637 3.923
 -1.34 -1.615 3.876
 -1.339 -1.645 3.955
 -1.281 -1.603 3.861
 -1.259 -1.606 3.876
 -1.261 -1.642 3.968
 -1.238 -1.644 3.981
 -1.202 -1.629 3.952
 -1.156 -1.6 3.887
 -1.141 -1.614 3.926
 -1.095 -1.583 3.858
 -1.087 -1.607 3.92
 -1.055 -1.596 3.901
 -1.03 -1.594 3.901
 -1.037 -1.644 4.029
 -1.007 -1.636 4.014
 -0.966 -1.611 3.956
 -0.934 -1.597 3.928
 -0.919 -1.614 3.974
 -0.887 -1.601 3.946
 -0.857 -1.591 3.926
 -0.86 -1.643 4.06
 -0.822 -1.617 3.998
 -0.79 -1.603 3.968
 -0.775 -1.623 4.021
 -0.749 -1.621 4.019
 -0.727 -1.625 4.033
 -0.694 -1.608 3.994
 -0.682 -1.638 4.072
 -0.642 -1.601 3.983
 -0.628 -1.627 4.051
 -0.607 -1.637 4.08
 -0.575 -1.617 4.032
 -0.553 -1.624 4.053
 -0.529 -1.627 4.063
 -0.506 -1.634 4.083
 -0.476 -1.617 4.042
 -0.454 -1.624 4.061
 -0.426 -1.611 4.032
 -0.399 -1.602 4.01
 -0.376 -1.61 4.032
 -0.351 -1.609 4.032
 -0.328 -1.617 4.052
 -0.302 -1.607 4.028
 -0.283 -1.639 4.11
 -0.252 -1.602 4.02
 -0.227 -1.597 4.008
 -0.204 -1.609 4.038
 -0.18 -1.613 4.049
 -0.157 -1.627 4.085
 -0.132 -1.615 4.056
 -0.105 -1.592 3.998
 -0.083 -1.621 4.069
 -0.057 -1.602 4.023
 -0.033 -1.616 4.058
 -0.009 -1.616 4.058
 0.015 -1.637 4.111
 0.039 -1.614 4.051
 0.064 -1.614 4.051
 0.089 -1.628 4.086
 0.113 -1.618 4.06
 0.138 -1.619 4.06
 0.161 -1.61 4.037
 0.187 -1.622 4.066
 0.21 -1.609 4.034
 0.239 -1.636 4.099
 0.261 -1.623 4.064
 0.283 -1.606 4.019
 0.309 -1.615 4.04
 0.335 -1.623 4.059
 0.358 -1.613 4.032
 0.379 -1.599 3.995
 0.41 -1.628 4.064
 0.431 -1.614 4.028
 0.454 -1.607 4.007
 0.477 -1.604 3.996
 0.505 -1.615 4.022
 0.527 -1.608 4.001
 0.562 -1.639 4.075
 0.585 -1.634 4.06
 0.608 -1.628 4.042
 0.625 -1.61 3.993
 0.661 -1.639 4.062
 0.682 -1.631 4.037
 0.709 -1.635 4.044
 0.725 -1.617 3.994
 0.751 -1.62 3.997
 0.765 -1.598 3.939
 0.799 -1.618 3.984
 0.828 -1.627 4.001
 0.86 -1.64 4.03
 0.879 -1.63 4
 0.904 -1.631 3.997
 0.928 -1.629 3.986
 0.958 -1.638 4.003
 0.983 -1.638 3.998
 1 -1.626 3.963
 1.027 -1.63 3.967
 1.054 -1.634 3.97
 1.085 -1.643 3.987
 1.097 -1.624 3.934
 1.127 -1.633 3.949
 1.162 -1.647 3.977
 1.193 -1.655 3.989
 1.19 -1.618 3.892
 1.227 -1.635 3.927
 1.267 -1.654 3.965
 1.274 -1.631 3.903
 1.31 -1.645 3.93
 1.342 -1.654 3.943
 1.351 -1.636 3.892
 1.383 -1.644 3.902
 1.406 -1.642 3.89
 1.429 -1.64 3.876
 1.451 -1.637 3.861
 1.474 -1.635 3.848
 1.493 -1.629 3.825
 1.526 -1.638 3.837
 1.563 -1.651 3.859
 1.575 -1.638 3.819
 1.608 -1.647 3.83
 1.635 -1.648 3.824
 1.648 -1.637 3.788
 1.685 -1.649 3.806
 1.69 -1.63 3.752
 1.719 -1.635 3.752
 1.753 -1.643 3.76
 1.782 -1.647 3.759
 1.785 -1.628 3.704
 1.8 -1.619 3.673
 1.825 -1.62 3.665
 1.819 -1.593 3.593
 1.831 -1.583 3.559
 1.816 -1.55 3.473
 1.781 -1.501 3.352
 1.804 -1.502 3.343
 1.785 -1.468 3.256
 1.809 -1.469 3.248
 1.784 -1.431 3.153
 1.774 -1.406 3.087
 1.77 -1.387 3.033
 1.766 -1.368 2.981
 1.753 -1.342 2.913
 1.765 -1.336 2.891
 1.752 -1.311 2.825
 -2.201 -1.64 3.685
 -2.176 -1.641 3.7
 -2.131 -1.626 3.679
 -2.103 -1.624 3.687
 -2.077 -1.623 3.697
 -2.053 -1.625 3.712
 -2.029 -1.626 3.726
 -2.002 -1.624 3.734
 -1.981 -1.628 3.755
 -1.96 -1.632 3.774
 -1.934 -1.631 3.784
 -1.911 -1.633 3.8
 -1.888 -1.635 3.816
 -1.858 -1.631 3.817
 -1.832 -1.631 3.827
 -1.804 -1.629 3.832
 -1.776 -1.626 3.835
 -1.748 -1.624 3.841
 -1.725 -1.627 3.856
 -1.698 -1.624 3.86
 -1.673 -1.626 3.872
 -1.645 -1.622 3.874
 -1.618 -1.621 3.879
 -1.591 -1.619 3.884
 -1.564 -1.618 3.889
 -1.537 -1.616 3.893
 -1.514 -1.618 3.906
 -1.488 -1.617 3.913
 -1.463 -1.617 3.922
 -1.438 -1.617 3.929
 -1.412 -1.617 3.935
 -1.387 -1.617 3.943
 -1.363 -1.618 3.952
 -1.337 -1.617 3.958
 -1.314 -1.619 3.971
 -1.291 -1.622 3.985
 -1.266 -1.622 3.991
 -1.239 -1.621 3.995
 -1.214 -1.621 4.001
 -1.186 -1.616 3.996
 -1.158 -1.613 3.993
 -1.131 -1.61 3.991
 -1.105 -1.608 3.995
 -1.08 -1.609 4.002
 -1.057 -1.612 4.015
 -1.033 -1.613 4.022
 -1.009 -1.615 4.031
 -0.984 -1.615 4.037
 -0.958 -1.615 4.041
 -0.932 -1.612 4.04
 -0.908 -1.614 4.049
 -0.882 -1.613 4.051
 -0.858 -1.614 4.057
 -0.832 -1.612 4.057
 -0.807 -1.613 4.064
 -0.781 -1.611 4.062
 -0.757 -1.613 4.07
 -0.732 -1.613 4.076
 -0.708 -1.615 4.082
 -0.683 -1.615 4.086
 -0.658 -1.614 4.088
 -0.632 -1.613 4.088
 -0.608 -1.614 4.093
 -0.582 -1.613 4.093
 -0.556 -1.61 4.088
 -0.532 -1.611 4.093
 -0.507 -1.612 4.1
 -0.482 -1.611 4.098
 -0.457 -1.61 4.099
 -0.432 -1.611 4.103
 -0.407 -1.611 4.104
 -0.382 -1.609 4.101
 -0.357 -1.61 4.104
 -0.332 -1.611 4.109
 -0.307 -1.612 4.112
 -0.282 -1.611 4.112
 -0.258 -1.612 4.116
 -0.233 -1.612 4.116
 -0.208 -1.611 4.115
 -0.183 -1.613 4.119
 -0.158 -1.613 4.12
 -0.133 -1.612 4.118
 -0.108 -1.613 4.121
 -0.083 -1.612 4.119
 -0.058 -1.61 4.114
 -0.034 -1.611 4.116
 -0.009 -1.614 4.123
 0.015 -1.614 4.124
 0.04 -1.615 4.126
 0.065 -1.616 4.127
 0.09 -1.615 4.125
 0.115 -1.615 4.123
 0.14 -1.614 4.12
 0.164 -1.612 4.114
 0.189 -1.613 4.115
 0.214 -1.613 4.114
 0.239 -1.612 4.11
 0.263 -1.61 4.104
 0.289 -1.612 4.106
 0.313 -1.613 4.106
 0.338 -1.612 4.101
 0.363 -1.611 4.098
 0.388 -1.612 4.099
 0.413 -1.614 4.102
 0.438 -1.614 4.097
 0.463 -1.616 4.1
 0.488 -1.616 4.098
 0.514 -1.618 4.099
 0.539 -1.618 4.096
 0.564 -1.619 4.097
 0.589 -1.619 4.093
 0.615 -1.623 4.1
 0.641 -1.624 4.099
 0.666 -1.624 4.096
 0.69 -1.622 4.087
 0.715 -1.624 4.087
 0.739 -1.621 4.077
 0.763 -1.619 4.067
 0.788 -1.619 4.062
 0.814 -1.622 4.066
 0.839 -1.623 4.062
 0.865 -1.623 4.059
 0.89 -1.624 4.056
 0.916 -1.625 4.054
 0.941 -1.626 4.051
 0.967 -1.628 4.05
 0.993 -1.63 4.048
 1.019 -1.632 4.047
 1.044 -1.631 4.04
 1.068 -1.63 4.032
 1.093 -1.63 4.025
 1.119 -1.631 4.021
 1.145 -1.633 4.019
 1.171 -1.634 4.015
 1.196 -1.635 4.011
 1.224 -1.638 4.011
 1.25 -1.639 4.006
 1.274 -1.637 3.996
 1.301 -1.64 3.994
 1.325 -1.639 3.985
 1.349 -1.638 3.974
 1.375 -1.639 3.968
 1.401 -1.64 3.962
 1.424 -1.638 3.949
 1.45 -1.639 3.944
 1.475 -1.638 3.934
 1.499 -1.637 3.922
 1.523 -1.636 3.911
 1.549 -1.637 3.904
 1.574 -1.637 3.895
 1.599 -1.637 3.886
 1.625 -1.638 3.879
 1.65 -1.638 3.869
 1.675 -1.639 3.86
 1.697 -1.636 3.843
 1.72 -1.634 3.829
 1.744 -1.633 3.815
 1.765 -1.629 3.796
 1.78 -1.62 3.764
 1.795 -1.612 3.734
 1.813 -1.605 3.709
 1.817 -1.588 3.657
 1.823 -1.572 3.609
 1.824 -1.553 3.554
 1.823 -1.532 3.496
 1.813 -1.504 3.421
 1.803 -1.478 3.349
 1.784 -1.444 3.261
 1.775 -1.42 3.195
 1.771 -1.399 3.139
 1.773 -1.384 3.095
 1.774 -1.368 3.048
 1.772 -1.351 2.998
 1.765 -1.33 2.942
 1.765 -1.315 2.897
 1.753 -1.292 2.834
 -2.214 -1.624 3.718
 -2.172 -1.612 3.703
 -2.163 -1.624 3.743
 -2.135 -1.623 3.752
 -2.109 -1.622 3.763
 -2.083 -1.623 3.777
 -2.059 -1.624 3.792
 -2.032 -1.623 3.801
 -2.01 -1.626 3.82
 -1.987 -1.629 3.837
 -1.961 -1.628 3.847
 -1.936 -1.629 3.86
 -1.913 -1.632 3.877
 -1.883 -1.628 3.88
 -1.858 -1.629 3.891
 -1.832 -1.628 3.901
 -1.803 -1.626 3.905
 -1.776 -1.624 3.911
 -1.752 -1.626 3.925
 -1.724 -1.624 3.93
 -1.698 -1.624 3.94
 -1.669 -1.621 3.942
 -1.64 -1.618 3.943
 -1.615 -1.618 3.952
 -1.588 -1.616 3.957
 -1.559 -1.613 3.959
 -1.536 -1.616 3.972
 -1.511 -1.616 3.982
 -1.484 -1.615 3.987
 -1.459 -1.615 3.996
 -1.433 -1.615 4.004
 -1.408 -1.615 4.011
 -1.381 -1.614 4.015
 -1.355 -1.613 4.02
 -1.33 -1.614 4.03
 -1.306 -1.616 4.042
 -1.28 -1.616 4.048
 -1.255 -1.616 4.056
 -1.23 -1.617 4.064
 -1.202 -1.614 4.062
 -1.175 -1.612 4.063
 -1.147 -1.608 4.06
 -1.121 -1.607 4.064
 -1.096 -1.607 4.07
 -1.073 -1.61 4.083
 -1.046 -1.609 4.085
 -1.022 -1.611 4.095
 -0.997 -1.611 4.1
 -0.972 -1.612 4.107
 -0.944 -1.608 4.103
 -0.92 -1.611 4.114
 -0.895 -1.611 4.119
 -0.87 -1.611 4.123
 -0.843 -1.609 4.121
 -0.818 -1.61 4.129
 -0.792 -1.608 4.128
 -0.767 -1.609 4.135
 -0.742 -1.61 4.14
 -0.717 -1.61 4.145
 -0.692 -1.611 4.151
 -0.666 -1.61 4.151
 -0.641 -1.61 4.152
 -0.615 -1.608 4.151
 -0.589 -1.608 4.153
 -0.563 -1.604 4.146
 -0.538 -1.605 4.151
 -0.513 -1.606 4.156
 -0.488 -1.606 4.159
 -0.463 -1.606 4.162
 -0.438 -1.607 4.166
 -0.412 -1.605 4.162
 -0.386 -1.603 4.158
 -0.361 -1.603 4.159
 -0.336 -1.603 4.162
 -0.31 -1.603 4.163
 -0.285 -1.603 4.164
 -0.26 -1.604 4.166
 -0.235 -1.604 4.167
 -0.21 -1.603 4.165
 -0.185 -1.604 4.17
 -0.16 -1.604 4.171
 -0.134 -1.604 4.172
 -0.109 -1.605 4.175
 -0.084 -1.605 4.174
 -0.059 -1.603 4.17
 -0.034 -1.604 4.172
 -0.009 -1.607 4.179
 0.016 -1.607 4.179
 0.041 -1.608 4.179
 0.066 -1.609 4.182
 0.091 -1.607 4.178
 0.116 -1.605 4.171
 0.141 -1.605 4.171
 0.166 -1.604 4.166
 0.192 -1.605 4.168
 0.217 -1.606 4.168
 0.242 -1.606 4.168
 0.267 -1.604 4.161
 0.292 -1.607 4.165
 0.317 -1.607 4.164
 0.342 -1.606 4.16
 0.367 -1.605 4.156
 0.393 -1.607 4.157
 0.418 -1.607 4.155
 0.443 -1.605 4.149
 0.469 -1.608 4.154
 0.494 -1.609 4.152
 0.52 -1.61 4.154
 0.545 -1.611 4.153
 0.571 -1.613 4.155
 0.595 -1.612 4.148
 0.622 -1.615 4.151
 0.647 -1.614 4.147
 0.672 -1.615 4.144
 0.697 -1.613 4.136
 0.723 -1.616 4.139
 0.748 -1.615 4.132
 0.773 -1.615 4.129
 0.798 -1.615 4.125
 0.825 -1.618 4.128
 0.851 -1.619 4.126
 0.876 -1.62 4.123
 0.902 -1.62 4.119
 0.928 -1.621 4.116
 0.954 -1.623 4.114
 0.978 -1.621 4.105
 1.005 -1.623 4.104
 1.031 -1.625 4.103
 1.057 -1.625 4.098
 1.081 -1.625 4.09
 1.108 -1.626 4.088
 1.134 -1.627 4.084
 1.16 -1.628 4.08
 1.185 -1.629 4.074
 1.212 -1.63 4.071
 1.239 -1.633 4.071
 1.264 -1.632 4.062
 1.289 -1.632 4.053
 1.316 -1.634 4.051
 1.34 -1.632 4.039
 1.365 -1.631 4.028
 1.391 -1.633 4.025
 1.418 -1.634 4.019
 1.442 -1.633 4.008
 1.47 -1.635 4.006
 1.495 -1.635 3.997
 1.519 -1.634 3.985
 1.545 -1.634 3.977
 1.571 -1.635 3.97
 1.596 -1.635 3.959
 1.622 -1.635 3.951
 1.649 -1.636 3.944
 1.673 -1.636 3.933
 1.698 -1.635 3.922
 1.722 -1.634 3.907
 1.744 -1.63 3.889
 1.765 -1.627 3.871
 1.786 -1.623 3.85
 1.799 -1.612 3.814
 1.812 -1.601 3.778
 1.824 -1.591 3.742
 1.829 -1.573 3.69
 1.833 -1.556 3.638
 1.835 -1.538 3.584
 1.834 -1.518 3.526
 1.828 -1.493 3.458
 1.808 -1.459 3.367
 1.781 -1.42 3.265
 1.772 -1.395 3.197
 1.769 -1.376 3.143
 1.775 -1.364 3.105
 1.778 -1.351 3.064
 1.775 -1.333 3.012
 1.767 -1.312 2.954
 1.763 -1.293 2.901
 1.753 -1.272 2.842
 -2.261 -1.633 3.807
 -2.224 -1.624 3.801
 -2.198 -1.625 3.815
 -2.169 -1.623 3.822
 -2.141 -1.622 3.832
 -2.116 -1.623 3.847
 -2.092 -1.624 3.861
 -2.064 -1.622 3.87
 -2.041 -1.625 3.888
 -2.015 -1.625 3.901
 -1.987 -1.624 3.908
 -1.962 -1.625 3.921
 -1.936 -1.625 3.933
 -1.907 -1.623 3.939
 -1.883 -1.625 3.955
 -1.859 -1.626 3.968
 -1.829 -1.623 3.971
 -1.804 -1.624 3.984
 -1.777 -1.623 3.992
 -1.749 -1.622 3.997
 -1.721 -1.62 4.003
 -1.693 -1.618 4.006
 -1.664 -1.615 4.008
 -1.638 -1.615 4.019
 -1.61 -1.613 4.023
 -1.582 -1.611 4.026
 -1.557 -1.612 4.037
 -1.532 -1.613 4.047
 -1.504 -1.611 4.051
 -1.479 -1.611 4.06
 -1.453 -1.611 4.068
 -1.426 -1.611 4.074
 -1.399 -1.61 4.078
 -1.374 -1.61 4.086
 -1.348 -1.611 4.095
 -1.323 -1.611 4.104
 -1.297 -1.611 4.111
 -1.271 -1.612 4.118
 -1.246 -1.612 4.125
 -1.219 -1.611 4.129
 -1.193 -1.61 4.133
 -1.166 -1.608 4.135
 -1.139 -1.607 4.138
 -1.113 -1.606 4.141
 -1.087 -1.607 4.148
 -1.06 -1.605 4.15
 -1.036 -1.607 4.16
 -1.01 -1.607 4.164
 -0.985 -1.608 4.173
 -0.957 -1.605 4.17
 -0.932 -1.606 4.177
 -0.906 -1.605 4.179
 -0.88 -1.605 4.184
 -0.853 -1.601 4.177
 -0.827 -1.602 4.184
 -0.802 -1.602 4.187
 -0.776 -1.602 4.192
 -0.75 -1.601 4.193
 -0.725 -1.603 4.2
 -0.7 -1.604 4.206
 -0.673 -1.602 4.203
 -0.647 -1.6 4.204
 -0.621 -1.599 4.203
 -0.595 -1.597 4.199
 -0.568 -1.593 4.192
 -0.542 -1.594 4.196
 -0.517 -1.594 4.2
 -0.492 -1.595 4.206
 -0.467 -1.597 4.213
 -0.442 -1.598 4.216
 -0.416 -1.597 4.215
 -0.39 -1.595 4.212
 -0.364 -1.593 4.21
 -0.339 -1.593 4.209
 -0.313 -1.593 4.21
 -0.288 -1.593 4.211
 -0.262 -1.593 4.213
 -0.237 -1.594 4.216
 -0.212 -1.592 4.214
 -0.186 -1.594 4.218
 -0.161 -1.594 4.22
 -0.135 -1.594 4.218
 -0.11 -1.594 4.221
 -0.085 -1.595 4.222
 -0.059 -1.594 4.219
 -0.034 -1.593 4.217
 -0.009 -1.596 4.224
 0.016 -1.595 4.223
 0.041 -1.595 4.222
 0.067 -1.596 4.222
 0.092 -1.595 4.219
 0.117 -1.592 4.211
 0.142 -1.592 4.209
 0.168 -1.591 4.205
 0.193 -1.591 4.205
 0.218 -1.591 4.205
 0.244 -1.593 4.208
 0.269 -1.592 4.202
 0.295 -1.593 4.205
 0.32 -1.595 4.207
 0.345 -1.593 4.202
 0.37 -1.592 4.195
 0.396 -1.594 4.199
 0.422 -1.596 4.201
 0.447 -1.595 4.195
 0.473 -1.599 4.203
 0.499 -1.6 4.204
 0.525 -1.6 4.202
 0.55 -1.6 4.198
 0.576 -1.601 4.198
 0.601 -1.6 4.192
 0.627 -1.602 4.193
 0.652 -1.602 4.189
 0.678 -1.602 4.187
 0.703 -1.601 4.179
 0.729 -1.603 4.18
 0.755 -1.603 4.177
 0.781 -1.605 4.177
 0.807 -1.606 4.176
 0.833 -1.608 4.177
 0.86 -1.61 4.176
 0.885 -1.61 4.171
 0.911 -1.61 4.167
 0.937 -1.611 4.164
 0.964 -1.613 4.164
 0.989 -1.613 4.157
 1.016 -1.615 4.157
 1.042 -1.616 4.155
 1.068 -1.616 4.15
 1.094 -1.617 4.144
 1.12 -1.619 4.143
 1.146 -1.619 4.137
 1.173 -1.621 4.134
 1.2 -1.622 4.131
 1.226 -1.623 4.128
 1.253 -1.625 4.125
 1.279 -1.625 4.117
 1.305 -1.625 4.111
 1.331 -1.626 4.106
 1.356 -1.625 4.095
 1.381 -1.625 4.087
 1.408 -1.626 4.081
 1.435 -1.627 4.077
 1.461 -1.627 4.068
 1.489 -1.63 4.067
 1.515 -1.631 4.06
 1.541 -1.63 4.05
 1.566 -1.63 4.039
 1.592 -1.631 4.032
 1.617 -1.63 4.02
 1.643 -1.63 4.01
 1.67 -1.632 4.005
 1.695 -1.631 3.992
 1.719 -1.629 3.98
 1.742 -1.627 3.963
 1.763 -1.622 3.941
 1.781 -1.615 3.914
 1.799 -1.609 3.887
 1.81 -1.597 3.847
 1.82 -1.584 3.805
 1.832 -1.572 3.766
 1.837 -1.555 3.715
 1.841 -1.539 3.663
 1.844 -1.521 3.61
 1.843 -1.501 3.552
 1.841 -1.48 3.491
 1.815 -1.441 3.388
 1.768 -1.387 3.249
 1.758 -1.362 3.181
 1.761 -1.348 3.137
 1.77 -1.339 3.104
 1.777 -1.329 3.07
 1.775 -1.311 3.018
 1.766 -1.291 2.959
 1.769 -1.278 2.919
 1.75 -1.25 2.844
 -2.273 -1.615 3.838
 -2.24 -1.61 3.839
 -2.23 -1.622 3.88
 -2.199 -1.619 3.886
 -2.171 -1.618 3.895
 -2.145 -1.618 3.908
 -2.12 -1.619 3.923
 -2.092 -1.619 3.934
 -2.069 -1.621 3.951
 -2.043 -1.621 3.965
 -2.014 -1.62 3.972
 -1.987 -1.619 3.982
 -1.96 -1.619 3.993
 -1.933 -1.618 4.001
 -1.907 -1.619 4.015
 -1.882 -1.621 4.029
 -1.855 -1.62 4.037
 -1.829 -1.62 4.049
 -1.802 -1.62 4.058
 -1.774 -1.619 4.065
 -1.747 -1.618 4.072
 -1.718 -1.616 4.077
 -1.688 -1.612 4.077
 -1.662 -1.612 4.087
 -1.634 -1.611 4.092
 -1.606 -1.609 4.096
 -1.58 -1.61 4.106
 -1.554 -1.61 4.115
 -1.526 -1.608 4.12
 -1.5 -1.609 4.129
 -1.473 -1.608 4.135
 -1.446 -1.607 4.139
 -1.42 -1.608 4.149
 -1.394 -1.608 4.157
 -1.368 -1.608 4.164
 -1.342 -1.609 4.174
 -1.317 -1.61 4.184
 -1.289 -1.608 4.186
 -1.262 -1.607 4.19
 -1.236 -1.607 4.194
 -1.209 -1.606 4.2
 -1.18 -1.602 4.196
 -1.154 -1.602 4.202
 -1.127 -1.601 4.205
 -1.101 -1.601 4.209
 -1.073 -1.598 4.207
 -1.048 -1.601 4.22
 -1.022 -1.599 4.221
 -0.995 -1.599 4.226
 -0.968 -1.597 4.225
 -0.942 -1.598 4.231
 -0.915 -1.595 4.23
 -0.889 -1.596 4.235
 -0.861 -1.592 4.229
 -0.835 -1.592 4.233
 -0.809 -1.592 4.236
 -0.783 -1.591 4.239
 -0.757 -1.59 4.24
 -0.732 -1.592 4.248
 -0.706 -1.592 4.251
 -0.679 -1.589 4.248
 -0.653 -1.589 4.249
 -0.626 -1.587 4.248
 -0.6 -1.585 4.245
 -0.573 -1.583 4.242
 -0.547 -1.583 4.244
 -0.521 -1.582 4.243
 -0.496 -1.581 4.245
 -0.47 -1.582 4.25
 -0.444 -1.582 4.25
 -0.418 -1.58 4.247
 -0.392 -1.579 4.246
 -0.366 -1.578 4.246
 -0.341 -1.578 4.247
 -0.315 -1.577 4.246
 -0.29 -1.578 4.249
 -0.264 -1.578 4.251
 -0.239 -1.58 4.255
 -0.213 -1.578 4.251
 -0.187 -1.578 4.254
 -0.162 -1.579 4.256
 -0.136 -1.578 4.253
 -0.111 -1.577 4.249
 -0.085 -1.577 4.252
 -0.059 -1.577 4.252
 -0.034 -1.576 4.249
 -0.008 -1.579 4.255
 0.016 -1.578 4.254
 0.042 -1.578 4.253
 0.067 -1.578 4.252
 0.093 -1.577 4.249
 0.118 -1.575 4.243
 0.143 -1.575 4.242
 0.169 -1.573 4.236
 0.194 -1.574 4.236
 0.22 -1.575 4.237
 0.246 -1.576 4.24
 0.271 -1.576 4.237
 0.297 -1.578 4.24
 0.322 -1.579 4.241
 0.348 -1.578 4.237
 0.373 -1.577 4.232
 0.399 -1.579 4.236
 0.425 -1.58 4.236
 0.45 -1.58 4.232
 0.476 -1.583 4.237
 0.502 -1.583 4.235
 0.527 -1.582 4.23
 0.553 -1.582 4.228
 0.579 -1.584 4.228
 0.605 -1.584 4.226
 0.631 -1.587 4.229
 0.657 -1.586 4.225
 0.682 -1.587 4.221
 0.708 -1.586 4.217
 0.733 -1.587 4.213
 0.759 -1.586 4.208
 0.785 -1.588 4.209
 0.812 -1.59 4.21
 0.838 -1.591 4.208
 0.865 -1.593 4.209
 0.891 -1.595 4.207
 0.917 -1.596 4.205
 0.943 -1.596 4.199
 0.97 -1.598 4.2
 0.995 -1.597 4.193
 1.023 -1.6 4.195
 1.05 -1.602 4.194
 1.077 -1.604 4.192
 1.103 -1.605 4.19
 1.131 -1.608 4.19
 1.157 -1.608 4.184
 1.184 -1.609 4.181
 1.211 -1.611 4.178
 1.237 -1.611 4.173
 1.263 -1.612 4.167
 1.29 -1.613 4.162
 1.317 -1.614 4.158
 1.344 -1.616 4.154
 1.369 -1.615 4.144
 1.396 -1.616 4.138
 1.423 -1.617 4.132
 1.45 -1.618 4.128
 1.477 -1.619 4.122
 1.505 -1.622 4.121
 1.532 -1.622 4.113
 1.557 -1.622 4.103
 1.583 -1.621 4.092
 1.609 -1.621 4.083
 1.634 -1.621 4.072
 1.662 -1.622 4.066
 1.69 -1.625 4.062
 1.715 -1.624 4.05
 1.739 -1.622 4.036
 1.76 -1.617 4.013
 1.779 -1.611 3.986
 1.794 -1.601 3.952
 1.81 -1.593 3.921
 1.822 -1.582 3.882
 1.833 -1.569 3.841
 1.845 -1.558 3.802
 1.851 -1.542 3.751
 1.856 -1.526 3.701
 1.856 -1.506 3.642
 1.855 -1.486 3.582
 1.853 -1.466 3.523
 0 0 0
 1.751 -1.351 3.225
 1.748 -1.333 3.17
 1.755 -1.322 3.134
 1.765 -1.314 3.103
 1.775 -1.306 3.073
 1.774 -1.29 3.024
 1.767 -1.27 2.967
 1.752 -1.245 2.899
 1.741 -1.223 2.837
 -2.332 -1.629 3.947
 -2.293 -1.621 3.94
 -2.262 -1.618 3.946
 -2.23 -1.615 3.95
 -2.202 -1.614 3.961
 -2.177 -1.615 3.977
 -2.151 -1.616 3.991
 -2.123 -1.615 4.002
 -2.097 -1.616 4.015
 -2.068 -1.615 4.024
 -2.04 -1.614 4.033
 -2.013 -1.614 4.045
 -1.986 -1.614 4.056
 -1.962 -1.616 4.072
 -1.937 -1.617 4.087
 -1.911 -1.619 4.101
 -1.882 -1.617 4.107
 -1.855 -1.617 4.117
 -1.826 -1.615 4.123
 -1.798 -1.613 4.129
 -1.769 -1.612 4.135
 -1.741 -1.611 4.141
 -1.711 -1.608 4.143
 -1.684 -1.608 4.152
 -1.657 -1.607 4.16
 -1.629 -1.606 4.164
 -1.602 -1.605 4.173
 -1.576 -1.606 4.183
 -1.547 -1.604 4.187
 -1.52 -1.604 4.193
 -1.493 -1.603 4.2
 -1.465 -1.602 4.204
 -1.437 -1.601 4.209
 -1.411 -1.601 4.218
 -1.384 -1.601 4.223
 -1.357 -1.6 4.228
 -1.331 -1.601 4.237
 -1.303 -1.599 4.239
 -1.275 -1.597 4.241
 -1.249 -1.597 4.248
 -1.222 -1.598 4.255
 -1.194 -1.594 4.253
 -1.167 -1.594 4.258
 -1.14 -1.593 4.261
 -1.113 -1.592 4.264
 -1.084 -1.589 4.26
 -1.059 -1.59 4.27
 -1.031 -1.588 4.27
 -1.004 -1.587 4.273
 -0.977 -1.585 4.271
 -0.95 -1.585 4.277
 -0.923 -1.584 4.276
 -0.897 -1.584 4.281
 -0.869 -1.58 4.275
 -0.842 -1.579 4.276
 -0.815 -1.578 4.278
 -0.789 -1.577 4.279
 -0.762 -1.575 4.277
 -0.736 -1.575 4.281
 -0.709 -1.574 4.282
 -0.682 -1.572 4.279
 -0.656 -1.571 4.28
 -0.629 -1.569 4.277
 -0.603 -1.568 4.277
 -0.576 -1.566 4.275
 -0.55 -1.565 4.273
 -0.524 -1.563 4.271
 -0.498 -1.563 4.272
 -0.472 -1.563 4.274
 -0.446 -1.562 4.274
 -0.42 -1.56 4.271
 -0.394 -1.559 4.27
 -0.368 -1.559 4.27
 -0.342 -1.559 4.272
 -0.316 -1.558 4.27
 -0.291 -1.558 4.273
 -0.265 -1.559 4.275
 -0.239 -1.559 4.277
 -0.213 -1.557 4.272
 -0.188 -1.557 4.274
 -0.162 -1.557 4.274
 -0.136 -1.556 4.272
 -0.111 -1.555 4.269
 -0.085 -1.557 4.273
 -0.06 -1.557 4.273
 -0.034 -1.556 4.272
 -0.008 -1.557 4.274
 0.016 -1.556 4.272
 0.042 -1.556 4.271
 0.068 -1.556 4.27
 0.093 -1.555 4.267
 0.119 -1.554 4.262
 0.144 -1.554 4.261
 0.169 -1.552 4.255
 0.195 -1.553 4.256
 0.22 -1.553 4.254
 0.246 -1.555 4.26
 0.272 -1.555 4.258
 0.298 -1.557 4.26
 0.323 -1.556 4.258
 0.349 -1.556 4.256
 0.374 -1.555 4.25
 0.4 -1.557 4.253
 0.426 -1.558 4.254
 0.451 -1.558 4.25
 0.478 -1.56 4.253
 0.504 -1.561 4.255
 0.529 -1.561 4.251
 0.555 -1.563 4.252
 0.581 -1.564 4.253
 0.607 -1.564 4.25
 0.634 -1.566 4.252
 0.659 -1.566 4.247
 0.684 -1.565 4.242
 0.71 -1.566 4.238
 0.737 -1.567 4.239
 0.762 -1.566 4.232
 0.789 -1.569 4.234
 0.815 -1.57 4.234
 0.841 -1.571 4.232
 0.868 -1.573 4.233
 0.895 -1.575 4.231
 0.922 -1.577 4.233
 0.948 -1.577 4.228
 0.975 -1.579 4.229
 1.001 -1.58 4.223
 1.028 -1.582 4.223
 1.055 -1.583 4.221
 1.082 -1.586 4.222
 1.109 -1.587 4.219
 1.137 -1.59 4.22
 1.163 -1.59 4.214
 1.19 -1.591 4.21
 1.217 -1.592 4.207
 1.244 -1.594 4.204
 1.27 -1.593 4.196
 1.297 -1.595 4.192
 1.325 -1.597 4.191
 1.352 -1.599 4.188
 1.378 -1.599 4.18
 1.406 -1.6 4.176
 1.433 -1.601 4.17
 1.461 -1.604 4.167
 1.489 -1.605 4.164
 1.517 -1.608 4.162
 1.545 -1.61 4.157
 1.572 -1.611 4.151
 1.599 -1.611 4.142
 1.625 -1.611 4.133
 1.651 -1.611 4.123
 1.679 -1.613 4.118
 1.707 -1.614 4.112
 1.732 -1.613 4.098
 1.754 -1.609 4.079
 1.775 -1.604 4.056
 1.791 -1.595 4.022
 1.805 -1.585 3.986
 1.82 -1.575 3.95
 1.835 -1.567 3.918
 1.846 -1.555 3.877
 1.86 -1.545 3.842
 1.868 -1.531 3.795
 1.88 -1.521 3.758
 1.88 -1.501 3.698
 1.88 -1.482 3.639
 0 0 0
 0 0 0
 1.727 -1.312 3.189
 1.746 -1.31 3.173
 1.755 -1.301 3.142
 1.767 -1.294 3.114
 1.777 -1.286 3.084
 1.778 -1.272 3.039
 1.771 -1.253 2.982
 1.753 -1.226 2.907
 1.752 -1.211 2.862
 -2.368 -1.627 4.019
 -2.337 -1.625 4.026
 -2.294 -1.614 4.012
 -2.261 -1.61 4.016
 -2.232 -1.609 4.025
 -2.204 -1.609 4.038
 -2.177 -1.609 4.05
 -2.149 -1.608 4.06
 -2.123 -1.609 4.076
 -2.096 -1.609 4.088
 -2.068 -1.609 4.099
 -2.043 -1.61 4.114
 -2.015 -1.61 4.124
 -1.988 -1.611 4.137
 -1.962 -1.611 4.149
 -1.936 -1.612 4.163
 -1.907 -1.611 4.17
 -1.879 -1.61 4.179
 -1.85 -1.609 4.186
 -1.822 -1.608 4.194
 -1.792 -1.606 4.199
 -1.764 -1.605 4.205
 -1.735 -1.603 4.21
 -1.708 -1.603 4.219
 -1.679 -1.602 4.225
 -1.65 -1.6 4.229
 -1.622 -1.599 4.236
 -1.596 -1.6 4.246
 -1.566 -1.597 4.248
 -1.539 -1.596 4.254
 -1.511 -1.596 4.26
 -1.482 -1.594 4.263
 -1.454 -1.592 4.266
 -1.426 -1.591 4.271
 -1.398 -1.59 4.274
 -1.369 -1.588 4.276
 -1.342 -1.587 4.282
 -1.313 -1.585 4.282
 -1.285 -1.582 4.282
 -1.257 -1.581 4.285
 -1.23 -1.581 4.292
 -1.201 -1.578 4.288
 -1.174 -1.577 4.292
 -1.146 -1.576 4.295
 -1.119 -1.575 4.299
 -1.09 -1.572 4.295
 -1.064 -1.572 4.302
 -1.037 -1.571 4.304
 -1.01 -1.57 4.305
 -0.981 -1.567 4.302
 -0.955 -1.566 4.305
 -0.928 -1.565 4.306
 -0.9 -1.563 4.306
 -0.872 -1.561 4.303
 -0.846 -1.56 4.306
 -0.819 -1.56 4.308
 -0.792 -1.558 4.306
 -0.765 -1.556 4.304
 -0.738 -1.554 4.302
 -0.711 -1.552 4.301
 -0.684 -1.55 4.299
 -0.658 -1.549 4.299
 -0.631 -1.547 4.295
 -0.604 -1.546 4.296
 -0.578 -1.544 4.293
 -0.551 -1.542 4.289
 -0.524 -1.54 4.286
 -0.499 -1.54 4.289
 -0.473 -1.54 4.291
 -0.447 -1.539 4.291
 -0.421 -1.539 4.291
 -0.395 -1.538 4.292
 -0.369 -1.537 4.289
 -0.343 -1.538 4.292
 -0.317 -1.536 4.289
 -0.291 -1.536 4.289
 -0.265 -1.535 4.289
 -0.239 -1.535 4.291
 -0.213 -1.533 4.286
 -0.188 -1.533 4.287
 -0.162 -1.533 4.286
 -0.136 -1.532 4.284
 -0.111 -1.531 4.282
 -0.085 -1.531 4.282
 -0.059 -1.532 4.284
 -0.034 -1.531 4.282
 -0.008 -1.53 4.279
 0.016 -1.53 4.277
 0.042 -1.53 4.277
 0.068 -1.529 4.274
 0.093 -1.53 4.275
 0.119 -1.529 4.272
 0.144 -1.529 4.271
 0.17 -1.528 4.268
 0.195 -1.529 4.269
 0.221 -1.529 4.269
 0.247 -1.532 4.274
 0.272 -1.532 4.272
 0.298 -1.532 4.272
 0.324 -1.533 4.27
 0.349 -1.532 4.268
 0.375 -1.532 4.265
 0.401 -1.534 4.267
 0.426 -1.534 4.265
 0.452 -1.533 4.262
 0.478 -1.536 4.265
 0.504 -1.537 4.265
 0.53 -1.536 4.261
 0.556 -1.538 4.262
 0.582 -1.539 4.262
 0.607 -1.539 4.259
 0.634 -1.54 4.259
 0.659 -1.54 4.255
 0.685 -1.54 4.251
 0.711 -1.541 4.251
 0.738 -1.543 4.252
 0.763 -1.542 4.245
 0.79 -1.545 4.248
 0.816 -1.546 4.248
 0.842 -1.547 4.244
 0.869 -1.548 4.243
 0.896 -1.551 4.245
 0.923 -1.553 4.245
 0.949 -1.554 4.243
 0.977 -1.556 4.245
 1.003 -1.557 4.24
 1.03 -1.559 4.24
 1.057 -1.56 4.239
 1.085 -1.563 4.241
 1.112 -1.565 4.238
 1.141 -1.569 4.242
 1.167 -1.569 4.237
 1.194 -1.57 4.234
 1.221 -1.571 4.229
 1.248 -1.572 4.226
 1.274 -1.572 4.217
 1.301 -1.573 4.213
 1.329 -1.576 4.212
 1.358 -1.579 4.213
 1.386 -1.581 4.21
 1.413 -1.582 4.205
 1.441 -1.583 4.201
 1.469 -1.586 4.199
 1.497 -1.587 4.194
 1.524 -1.589 4.189
 1.554 -1.592 4.189
 1.582 -1.594 4.186
 1.61 -1.595 4.18
 1.637 -1.596 4.172
 1.664 -1.597 4.164
 1.691 -1.597 4.156
 1.719 -1.599 4.15
 1.743 -1.597 4.134
 1.766 -1.593 4.114
 1.786 -1.587 4.089
 1.801 -1.578 4.055
 1.815 -1.567 4.016
 1.828 -1.556 3.977
 1.844 -1.548 3.946
 1.857 -1.538 3.907
 1.871 -1.529 3.874
 1.882 -1.517 3.833
 1.895 -1.507 3.797
 1.891 -1.485 3.729
 0 0 0
 0 0 0
 0 0 0
 1.721 -1.285 3.185
 1.738 -1.283 3.167
 1.755 -1.279 3.148
 1.767 -1.273 3.122
 1.777 -1.265 3.092
 1.78 -1.253 3.05
 1.776 -1.235 2.997
 1.79 -1.231 2.975
 1.755 -1.193 2.874
 -2.401 -1.622 4.085
 -2.344 -1.603 4.048
 -1.95 -1.349 3.417
 -1.829 -1.281 3.253
 -1.805 -1.279 3.26
 -1.784 -1.28 3.272
 -1.849 -1.343 3.446
 -1.824 -1.343 3.454
 -1.803 -1.344 3.468
 -1.864 -1.407 3.642
 -1.924 -1.472 3.821
 -1.9 -1.473 3.834
 -1.955 -1.536 4.011
 -2.01 -1.601 4.192
 -1.984 -1.602 4.207
 -1.955 -1.601 4.215
 -1.927 -1.6 4.223
 -1.899 -1.6 4.233
 -1.87 -1.599 4.24
 -1.841 -1.597 4.247
 -1.812 -1.596 4.253
 -1.782 -1.594 4.257
 -1.753 -1.593 4.264
 -1.725 -1.592 4.273
 -1.697 -1.591 4.279
 -1.668 -1.59 4.284
 -1.639 -1.589 4.289
 -1.61 -1.587 4.294
 -1.58 -1.584 4.294
 -1.552 -1.583 4.299
 -1.524 -1.582 4.305
 -1.494 -1.58 4.307
 -1.467 -1.579 4.313
 -1.438 -1.578 4.316
 -1.409 -1.575 4.317
 -1.379 -1.572 4.316
 -1.352 -1.572 4.322
 -1.321 -1.567 4.316
 -1.291 -1.564 4.314
 -1.263 -1.562 4.315
 -1.234 -1.56 4.315
 -1.205 -1.556 4.311
 -1.177 -1.555 4.313
 -1.15 -1.554 4.316
 -1.122 -1.553 4.319
 -1.095 -1.552 4.321
 -1.068 -1.551 4.324
 -1.041 -1.55 4.328
 -1.013 -1.548 4.326
 -0.984 -1.545 4.322
 -0.956 -1.543 4.321
 -0.929 -1.541 4.322
 -0.901 -1.539 4.319
 -0.874 -1.537 4.318
 -0.847 -1.536 4.319
 -0.82 -1.535 4.319
 -0.792 -1.532 4.316
 -0.765 -1.531 4.315
 -0.738 -1.528 4.312
 -0.711 -1.525 4.307
 -0.684 -1.524 4.306
 -0.657 -1.523 4.307
 -0.63 -1.52 4.302
 -0.604 -1.52 4.303
 -0.578 -1.52 4.306
 -0.551 -1.518 4.302
 -0.525 -1.516 4.299
 -0.499 -1.515 4.3
 -0.473 -1.515 4.301
 -0.446 -1.514 4.299
 -0.421 -1.513 4.3
 -0.395 -1.513 4.3
 -0.369 -1.512 4.299
 -0.343 -1.512 4.3
 -0.317 -1.511 4.298
 -0.291 -1.509 4.296
 -0.265 -1.51 4.297
 -0.239 -1.51 4.3
 -0.213 -1.508 4.295
 -0.188 -1.507 4.293
 -0.162 -1.506 4.291
 -0.136 -1.506 4.29
 -0.11 -1.504 4.286
 -0.085 -1.504 4.286
 -0.059 -1.506 4.291
 -0.034 -1.507 4.292
 -0.008 -1.504 4.286
 0.017 -1.505 4.287
 0.042 -1.505 4.288
 0.068 -1.503 4.282
 0.093 -1.503 4.281
 0.119 -1.503 4.28
 0.144 -1.503 4.277
 0.17 -1.501 4.272
 0.195 -1.502 4.274
 0.221 -1.503 4.273
 0.247 -1.504 4.276
 0.272 -1.504 4.274
 0.298 -1.504 4.272
 0.323 -1.505 4.272
 0.349 -1.504 4.268
 0.374 -1.504 4.266
 0.401 -1.506 4.27
 0.426 -1.506 4.268
 0.452 -1.507 4.266
 0.478 -1.509 4.269
 0.504 -1.51 4.27
 0.529 -1.51 4.266
 0.556 -1.512 4.269
 0.582 -1.512 4.267
 0.607 -1.513 4.266
 0.634 -1.514 4.265
 0.659 -1.515 4.264
 0.685 -1.514 4.258
 0.711 -1.515 4.257
 0.738 -1.517 4.258
 0.763 -1.516 4.252
 0.789 -1.517 4.25
 0.816 -1.519 4.251
 0.842 -1.52 4.25
 0.869 -1.522 4.249
 0.896 -1.525 4.254
 0.923 -1.527 4.255
 0.95 -1.529 4.254
 0.978 -1.532 4.256
 1.004 -1.532 4.253
 1.031 -1.534 4.251
 1.058 -1.536 4.252
 1.086 -1.539 4.253
 1.113 -1.539 4.249
 1.141 -1.543 4.251
 1.168 -1.543 4.246
 1.195 -1.545 4.245
 1.223 -1.547 4.243
 1.25 -1.548 4.239
 1.275 -1.548 4.231
 1.304 -1.55 4.231
 1.331 -1.552 4.228
 1.36 -1.554 4.227
 1.388 -1.557 4.227
 1.417 -1.559 4.225
 1.444 -1.56 4.219
 1.473 -1.563 4.218
 1.501 -1.565 4.214
 1.529 -1.566 4.21
 1.558 -1.57 4.21
 1.587 -1.572 4.208
 1.615 -1.574 4.203
 1.644 -1.575 4.197
 1.671 -1.577 4.191
 1.699 -1.578 4.184
 1.728 -1.58 4.18
 1.753 -1.579 4.166
 1.775 -1.575 4.145
 1.795 -1.569 4.119
 1.81 -1.559 4.084
 1.823 -1.548 4.042
 1.834 -1.535 3.998
 1.852 -1.529 3.97
 1.864 -1.518 3.932
 1.882 -1.512 3.904
 1.899 -1.505 3.876
 1.923 -1.504 3.863
 0 0 0
 0 0 0
 0 0 0
 0 0 0
 0 0 0
 1.741 -1.263 3.179
 1.759 -1.26 3.162
 1.771 -1.254 3.136
 1.782 -1.247 3.107
 1.791 -1.239 3.076
 1.789 -1.223 3.026
 1.811 -1.225 3.018
 1.761 -1.178 2.891
 -2.426 -1.611 4.137
 -2.388 -1.605 4.134
 -1.509 -1.027 2.648
 -1.393 -0.959 2.48
 -1.374 -0.957 2.484
 -1.355 -0.956 2.49
 -1.425 -1.018 2.659
 -1.407 -1.018 2.668
 -1.39 -1.019 2.677
 -1.543 -1.145 3.019
 -1.607 -1.208 3.197
 -1.586 -1.208 3.206
 -1.728 -1.335 3.552
 -1.868 -1.462 3.903
 -1.843 -1.463 3.915
 -1.895 -1.525 4.094
 -1.947 -1.589 4.278
 -1.918 -1.589 4.286
 -1.889 -1.588 4.294
 -1.859 -1.585 4.298
 -1.829 -1.584 4.304
 -1.798 -1.581 4.305
 -1.768 -1.578 4.309
 -1.739 -1.578 4.316
 -1.71 -1.576 4.322
 -1.681 -1.575 4.326
 -1.651 -1.573 4.33
 -1.621 -1.571 4.333
 -1.59 -1.567 4.332
 -1.56 -1.565 4.333
 -1.531 -1.563 4.336
 -1.501 -1.56 4.337
 -1.473 -1.559 4.342
 -1.443 -1.556 4.341
 -1.413 -1.553 4.34
 -1.384 -1.55 4.339
 -1.355 -1.549 4.343
 -1.324 -1.544 4.336
 -1.295 -1.541 4.334
 -1.265 -1.538 4.332
 -1.236 -1.536 4.331
 -1.206 -1.532 4.325
 -1.178 -1.53 4.327
 -1.151 -1.529 4.33
 -1.124 -1.529 4.334
 -1.096 -1.527 4.335
 -1.069 -1.526 4.337
 -1.041 -1.524 4.338
 -1.013 -1.522 4.335
 -0.984 -1.519 4.332
 -0.957 -1.517 4.331
 -0.929 -1.516 4.331
 -0.902 -1.513 4.33
 -0.874 -1.512 4.329
 -0.847 -1.51 4.328
 -0.819 -1.508 4.326
 -0.792 -1.506 4.323
 -0.765 -1.504 4.321
 -0.737 -1.5 4.315
 -0.709 -1.497 4.308
 -0.683 -1.495 4.306
 -0.656 -1.495 4.307
 -0.629 -1.492 4.303
 -0.604 -1.493 4.308
 -0.578 -1.493 4.312
 -0.551 -1.492 4.311
 -0.525 -1.49 4.307
 -0.499 -1.489 4.308
 -0.472 -1.488 4.305
 -0.446 -1.487 4.305
 -0.42 -1.486 4.303
 -0.394 -1.485 4.303
 -0.368 -1.485 4.304
 -0.342 -1.485 4.306
 -0.317 -1.484 4.304
 -0.291 -1.483 4.302
 -0.265 -1.483 4.304
 -0.239 -1.483 4.302
 -0.213 -1.481 4.298
 -0.187 -1.48 4.297
 -0.162 -1.479 4.293
 -0.136 -1.479 4.293
 -0.11 -1.478 4.29
 -0.085 -1.477 4.29
 -0.059 -1.478 4.291
 -0.033 -1.478 4.292
 -0.008 -1.476 4.287
 0.017 -1.477 4.287
 0.042 -1.478 4.29
 0.068 -1.477 4.285
 0.093 -1.477 4.285
 0.119 -1.477 4.285
 0.144 -1.477 4.283
 0.17 -1.475 4.278
 0.196 -1.476 4.28
 0.221 -1.476 4.279
 0.247 -1.478 4.28
 0.272 -1.478 4.281
 0.298 -1.478 4.28
 0.324 -1.479 4.279
 0.349 -1.479 4.278
 0.375 -1.48 4.277
 0.4 -1.48 4.276
 0.426 -1.479 4.27
 0.451 -1.479 4.269
 0.477 -1.48 4.268
 0.503 -1.481 4.268
 0.529 -1.482 4.268
 0.556 -1.485 4.274
 0.581 -1.486 4.273
 0.607 -1.486 4.27
 0.633 -1.487 4.271
 0.66 -1.489 4.271
 0.685 -1.488 4.264
 0.711 -1.489 4.264
 0.738 -1.492 4.269
 0.763 -1.491 4.262
 0.789 -1.491 4.259
 0.816 -1.493 4.259
 0.843 -1.495 4.26
 0.869 -1.496 4.257
 0.896 -1.498 4.259
 0.923 -1.5 4.26
 0.95 -1.502 4.259
 0.977 -1.504 4.26
 1.004 -1.505 4.258
 1.031 -1.507 4.257
 1.058 -1.509 4.257
 1.086 -1.512 4.259
 1.112 -1.512 4.255
 1.141 -1.515 4.256
 1.167 -1.515 4.25
 1.194 -1.517 4.248
 1.222 -1.519 4.247
 1.249 -1.52 4.243
 1.275 -1.521 4.238
 1.304 -1.524 4.24
 1.332 -1.526 4.237
 1.359 -1.527 4.234
 1.388 -1.53 4.233
 1.416 -1.532 4.231
 1.444 -1.534 4.227
 1.473 -1.537 4.227
 1.501 -1.539 4.224
 1.53 -1.541 4.221
 1.56 -1.545 4.223
 1.589 -1.547 4.221
 1.618 -1.55 4.219
 1.647 -1.552 4.215
 1.676 -1.554 4.211
 1.703 -1.555 4.203
 1.732 -1.556 4.198
 1.758 -1.556 4.187
 1.781 -1.553 4.166
 1.801 -1.547 4.141
 1.816 -1.538 4.106
 1.831 -1.528 4.068
 1.843 -1.516 4.026
 1.862 -1.511 4.001
 1.877 -1.503 3.968
 1.897 -1.498 3.945
 1.917 -1.494 3.921
 0 0 0
 0 0 0
 0 0 0
 0 0 0
 0 0 0
 0 0 0
 1.736 -1.238 3.177
 1.76 -1.24 3.171
 1.775 -1.236 3.15
 1.788 -1.23 3.125
 1.801 -1.225 3.1
 1.801 -1.211 3.054
 1.749 -1.163 2.922
 1.769 -1.163 2.911
 -2.416 -1.576 4.129
 -0.04 -0.028 0.057
 -1.067 -0.714 1.873
 -0.956 -0.647 1.703
 -0.942 -0.646 1.704
 -0.928 -0.644 1.705
 -1.002 -0.704 1.87
 -0.987 -0.702 1.871
 -0.974 -0.702 1.877
 -1.131 -0.825 2.215
 -1.2 -0.887 2.388
 -1.183 -0.886 2.393
 -1.33 -1.009 2.736
 -1.556 -1.197 3.257
 -1.616 -1.26 3.439
 -1.751 -1.385 3.791
 -1.883 -1.511 4.147
 -1.933 -1.573 4.329
 -1.903 -1.571 4.335
 -1.871 -1.568 4.337
 -1.84 -1.566 4.34
 -1.809 -1.563 4.341
 -1.778 -1.56 4.343
 -1.748 -1.558 4.348
 -1.718 -1.556 4.352
 -1.688 -1.554 4.355
 -1.658 -1.552 4.358
 -1.628 -1.549 4.359
 -1.596 -1.545 4.356
 -1.565 -1.542 4.354
 -1.535 -1.54 4.357
 -1.504 -1.535 4.352
 -1.475 -1.534 4.355
 -1.444 -1.53 4.351
 -1.413 -1.526 4.349
 -1.382 -1.522 4.344
 -1.354 -1.52 4.346
 -1.323 -1.516 4.341
 -1.294 -1.514 4.341
 -1.265 -1.511 4.339
 -1.236 -1.509 4.339
 -1.207 -1.507 4.338
 -1.179 -1.504 4.337
 -1.151 -1.503 4.339
 -1.123 -1.501 4.34
 -1.096 -1.5 4.342
 -1.067 -1.498 4.341
 -1.04 -1.496 4.341
 -1.011 -1.493 4.337
 -0.983 -1.491 4.335
 -0.955 -1.488 4.33
 -0.927 -1.485 4.328
 -0.899 -1.483 4.327
 -0.873 -1.483 4.329
 -0.845 -1.481 4.329
 -0.818 -1.48 4.328
 -0.792 -1.479 4.33
 -0.764 -1.477 4.326
 -0.736 -1.472 4.316
 -0.708 -1.469 4.309
 -0.681 -1.467 4.307
 -0.654 -1.465 4.304
 -0.628 -1.464 4.304
 -0.603 -1.465 4.31
 -0.577 -1.465 4.313
 -0.55 -1.464 4.312
 -0.524 -1.462 4.31
 -0.498 -1.461 4.309
 -0.471 -1.459 4.305
 -0.445 -1.459 4.305
 -0.419 -1.458 4.305
 -0.393 -1.457 4.304
 -0.367 -1.457 4.304
 -0.342 -1.458 4.308
 -0.316 -1.457 4.307
 -0.29 -1.456 4.306
 -0.264 -1.456 4.307
 -0.239 -1.455 4.305
 -0.213 -1.453 4.299
 -0.187 -1.452 4.297
 -0.161 -1.451 4.293
 -0.135 -1.45 4.292
 -0.11 -1.45 4.291
 -0.084 -1.45 4.293
 -0.059 -1.45 4.293
 -0.033 -1.451 4.295
 -0.008 -1.449 4.29
 0.017 -1.45 4.291
 0.042 -1.45 4.292
 0.068 -1.449 4.288
 0.093 -1.45 4.289
 0.119 -1.45 4.289
 0.144 -1.449 4.284
 0.17 -1.447 4.278
 0.195 -1.448 4.28
 0.221 -1.449 4.281
 0.247 -1.45 4.281
 0.272 -1.45 4.282
 0.298 -1.451 4.282
 0.323 -1.451 4.28
 0.349 -1.451 4.277
 0.374 -1.451 4.276
 0.4 -1.451 4.274
 0.425 -1.45 4.268
 0.451 -1.451 4.27
 0.477 -1.452 4.269
 0.503 -1.454 4.272
 0.529 -1.456 4.275
 0.556 -1.46 4.282
 0.582 -1.46 4.28
 0.607 -1.46 4.276
 0.633 -1.46 4.273
 0.659 -1.461 4.272
 0.684 -1.459 4.263
 0.71 -1.46 4.263
 0.737 -1.463 4.266
 0.763 -1.463 4.264
 0.788 -1.464 4.26
 0.815 -1.466 4.263
 0.842 -1.468 4.264
 0.868 -1.469 4.263
 0.895 -1.471 4.264
 0.922 -1.473 4.263
 0.949 -1.474 4.262
 0.976 -1.476 4.263
 1.003 -1.478 4.262
 1.029 -1.478 4.258
 1.057 -1.481 4.259
 1.084 -1.483 4.26
 1.111 -1.484 4.255
 1.138 -1.486 4.256
 1.166 -1.487 4.254
 1.193 -1.489 4.253
 1.221 -1.491 4.251
 1.248 -1.493 4.249
 1.275 -1.493 4.243
 1.303 -1.496 4.244
 1.33 -1.497 4.239
 1.358 -1.499 4.237
 1.387 -1.503 4.239
 1.415 -1.504 4.235
 1.443 -1.506 4.233
 1.472 -1.509 4.233
 1.501 -1.511 4.231
 1.529 -1.513 4.226
 1.56 -1.518 4.231
 1.59 -1.521 4.232
 1.62 -1.524 4.23
 1.649 -1.527 4.228
 1.678 -1.528 4.223
 1.704 -1.529 4.214
 1.732 -1.53 4.206
 1.759 -1.53 4.198
 1.782 -1.527 4.178
 1.803 -1.522 4.154
 1.821 -1.515 4.124
 1.837 -1.507 4.091
 1.849 -1.495 4.049
 1.869 -1.49 4.024
 1.888 -1.485 3.999
 1.908 -1.48 3.976
 0 0 0
 0 0 0
 0 0 0
 0 0 0
 0 0 0
 0 0 0
 0 0 0
 1.859 -1.302 3.41
 1.802 -1.248 3.256
 1.786 -1.222 3.177
 1.801 -1.217 3.154
 1.817 -1.214 3.135
 1.824 -1.205 3.1
 1.91 -1.248 3.199
 0 0 0
 -0.091 -0.06 0.144
 -0.073 -0.049 0.114
 -0.623 -0.41 1.09
 -0.514 -0.343 0.912
 -0.503 -0.339 0.906
 -0.493 -0.336 0.901
 -0.568 -0.393 1.058
 -0.559 -0.391 1.056
 -0.551 -0.391 1.059
 -0.714 -0.512 1.397
 -0.872 -0.634 1.737
 -0.86 -0.633 1.741
 -1.011 -0.754 2.082
 -1.322 -0.999 2.772
 -1.465 -1.122 3.123
 -1.602 -1.245 3.474
 -1.815 -1.43 4.004
 -1.943 -1.553 4.36
 -1.912 -1.551 4.365
 -1.881 -1.548 4.368
 -1.849 -1.545 4.369
 -1.816 -1.541 4.368
 -1.784 -1.537 4.367
 -1.752 -1.534 4.368
 -1.722 -1.532 4.369
 -1.691 -1.529 4.37
 -1.659 -1.525 4.368
 -1.628 -1.523 4.37
 -1.597 -1.519 4.368
 -1.566 -1.515 4.366
 -1.536 -1.513 4.366
 -1.505 -1.51 4.365
 -1.476 -1.508 4.366
 -1.444 -1.503 4.361
 -1.414 -1.5 4.359
 -1.383 -1.496 4.356
 -1.353 -1.493 4.354
 -1.322 -1.489 4.347
 -1.294 -1.487 4.348
 -1.263 -1.483 4.343
 -1.234 -1.48 4.341
 -1.205 -1.478 4.339
 -1.177 -1.475 4.339
 -1.149 -1.474 4.341
 -1.122 -1.473 4.343
 -1.094 -1.472 4.345
 -1.066 -1.47 4.344
 -1.039 -1.468 4.345
 -1.01 -1.465 4.341
 -0.982 -1.463 4.338
 -0.954 -1.46 4.335
 -0.926 -1.458 4.333
 -0.899 -1.457 4.333
 -0.872 -1.456 4.335
 -0.845 -1.454 4.334
 -0.817 -1.452 4.331
 -0.791 -1.451 4.332
 -0.763 -1.448 4.326
 -0.735 -1.444 4.317
 -0.707 -1.44 4.308
 -0.68 -1.439 4.308
 -0.654 -1.438 4.309
 -0.628 -1.437 4.31
 -0.602 -1.438 4.314
 -0.577 -1.439 4.321
 -0.55 -1.438 4.319
 -0.523 -1.435 4.312
 -0.497 -1.433 4.31
 -0.47 -1.43 4.303
 -0.444 -1.43 4.302
 -0.418 -1.428 4.3
 -0.392 -1.428 4.302
 -0.367 -1.428 4.302
 -0.341 -1.43 4.308
 -0.315 -1.429 4.309
 -0.29 -1.429 4.309
 -0.264 -1.429 4.309
 -0.238 -1.428 4.307
 -0.212 -1.427 4.305
 -0.187 -1.425 4.301
 -0.161 -1.424 4.298
 -0.135 -1.423 4.295
 -0.11 -1.423 4.294
 -0.084 -1.423 4.294
 -0.059 -1.422 4.293
 -0.033 -1.422 4.292
 -0.007 -1.421 4.288
 0.017 -1.422 4.291
 0.043 -1.422 4.291
 0.068 -1.422 4.289
 0.093 -1.422 4.289
 0.119 -1.423 4.291
 0.144 -1.421 4.286
 0.17 -1.421 4.282
 0.195 -1.422 4.284
 0.221 -1.423 4.288
 0.247 -1.423 4.286
 0.272 -1.425 4.288
 0.298 -1.425 4.288
 0.323 -1.425 4.285
 0.349 -1.425 4.282
 0.374 -1.425 4.282
 0.399 -1.424 4.276
 0.425 -1.423 4.271
 0.451 -1.425 4.273
 0.476 -1.425 4.273
 0.502 -1.427 4.275
 0.529 -1.431 4.283
 0.555 -1.432 4.286
 0.581 -1.432 4.282
 0.606 -1.432 4.277
 0.632 -1.431 4.272
 0.657 -1.431 4.268
 0.682 -1.43 4.262
 0.709 -1.432 4.264
 0.735 -1.434 4.266
 0.762 -1.436 4.266
 0.787 -1.436 4.262
 0.815 -1.439 4.266
 0.841 -1.44 4.267
 0.868 -1.442 4.268
 0.895 -1.444 4.268
 0.922 -1.446 4.268
 0.948 -1.447 4.267
 0.976 -1.449 4.268
 1.002 -1.45 4.265
 1.029 -1.451 4.262
 1.056 -1.453 4.263
 1.083 -1.455 4.263
 1.109 -1.455 4.256
 1.137 -1.458 4.258
 1.164 -1.459 4.256
 1.192 -1.461 4.254
 1.219 -1.463 4.252
 1.247 -1.465 4.252
 1.274 -1.466 4.248
 1.302 -1.469 4.248
 1.329 -1.47 4.244
 1.357 -1.471 4.241
 1.386 -1.475 4.243
 1.414 -1.476 4.239
 1.442 -1.479 4.238
 1.471 -1.482 4.238
 1.501 -1.484 4.238
 1.529 -1.486 4.234
 1.559 -1.49 4.237
 1.589 -1.493 4.237
 1.619 -1.496 4.236
 1.648 -1.499 4.233
 1.676 -1.5 4.228
 1.704 -1.501 4.22
 1.732 -1.503 4.215
 1.76 -1.503 4.207
 1.784 -1.501 4.19
 1.805 -1.496 4.167
 1.825 -1.491 4.141
 1.841 -1.483 4.108
 1.854 -1.473 4.068
 1.871 -1.465 4.036
 1.89 -1.46 4.012
 0 0 0
 0 0 0
 0 0 0
 0 0 0
 0 0 0
 0 0 0
 0 0 0
 0 0 0
 1.901 -1.308 3.495
 1.819 -1.237 3.292
 1.79 -1.203 3.191
 1.806 -1.2 3.171
 1.822 -1.196 3.15
 1.721 -1.117 2.931
 0 0 0
 0 0 0
 -0.091 -0.059 0.144
 -0.097 -0.063 0.157
 -0.175 -0.114 0.298
 -0.07 -0.047 0.114
 -0.062 -0.042 0.101
 -0.058 -0.04 0.094
 -0.138 -0.095 0.247
 -0.131 -0.091 0.237
 -0.125 -0.088 0.231
 -0.29 -0.205 0.562
 -0.452 -0.323 0.895
 -0.443 -0.321 0.892
 -0.682 -0.5 1.404
 -1.081 -0.803 2.268
 -1.308 -0.984 2.793
 -1.527 -1.165 3.317
 -1.818 -1.407 4.021
 -1.947 -1.528 4.379
 -1.915 -1.525 4.381
 -1.883 -1.522 4.382
 -1.851 -1.519 4.384
 -1.819 -1.516 4.384
 -1.784 -1.51 4.377
 -1.753 -1.507 4.377
 -1.722 -1.504 4.378
 -1.689 -1.5 4.376
 -1.656 -1.495 4.371
 -1.626 -1.493 4.373
 -1.595 -1.49 4.371
 -1.563 -1.486 4.368
 -1.533 -1.483 4.368
 -1.504 -1.481 4.37
 -1.474 -1.479 4.37
 -1.442 -1.474 4.364
 -1.412 -1.472 4.363
 -1.382 -1.468 4.36
 -1.351 -1.464 4.356
 -1.321 -1.46 4.351
 -1.293 -1.459 4.354
 -1.263 -1.456 4.35
 -1.234 -1.454 4.349
 -1.206 -1.451 4.349
 -1.177 -1.449 4.349
 -1.15 -1.448 4.35
 -1.122 -1.446 4.35
 -1.094 -1.445 4.351
 -1.066 -1.443 4.351
 -1.038 -1.441 4.35
 -1.009 -1.437 4.343
 -0.98 -1.435 4.34
 -0.952 -1.432 4.336
 -0.924 -1.429 4.331
 -0.897 -1.428 4.332
 -0.871 -1.428 4.338
 -0.843 -1.426 4.334
 -0.816 -1.425 4.335
 -0.79 -1.424 4.338
 -0.762 -1.421 4.33
 -0.734 -1.416 4.32
 -0.706 -1.414 4.315
 -0.68 -1.412 4.314
 -0.654 -1.412 4.315
 -0.628 -1.412 4.317
 -0.602 -1.412 4.322
 -0.577 -1.415 4.332
 -0.551 -1.414 4.331
 -0.523 -1.41 4.323
 -0.497 -1.408 4.319
 -0.47 -1.405 4.31
 -0.444 -1.404 4.308
 -0.418 -1.402 4.304
 -0.392 -1.402 4.307
 -0.366 -1.402 4.307
 -0.341 -1.402 4.31
 -0.315 -1.402 4.31
 -0.289 -1.402 4.311
 -0.264 -1.401 4.31
 -0.238 -1.401 4.31
 -0.212 -1.4 4.31
 -0.186 -1.399 4.305
 -0.161 -1.397 4.3
 -0.135 -1.396 4.296
 -0.109 -1.395 4.295
 -0.084 -1.394 4.292
 -0.058 -1.394 4.291
 -0.033 -1.394 4.293
 -0.007 -1.394 4.292
 0.017 -1.395 4.294
 0.043 -1.397 4.298
 0.068 -1.396 4.297
 0.094 -1.396 4.294
 0.119 -1.397 4.296
 0.144 -1.395 4.291
 0.17 -1.394 4.287
 0.195 -1.395 4.288
 0.221 -1.397 4.292
 0.247 -1.397 4.29
 0.272 -1.398 4.293
 0.298 -1.399 4.294
 0.323 -1.399 4.291
 0.349 -1.398 4.288
 0.374 -1.399 4.287
 0.399 -1.397 4.279
 0.425 -1.397 4.275
 0.45 -1.398 4.276
 0.476 -1.398 4.276
 0.502 -1.4 4.279
 0.529 -1.405 4.289
 0.555 -1.406 4.29
 0.581 -1.407 4.289
 0.606 -1.406 4.282
 0.631 -1.404 4.275
 0.657 -1.404 4.27
 0.682 -1.404 4.266
 0.708 -1.405 4.267
 0.735 -1.408 4.27
 0.762 -1.41 4.274
 0.788 -1.41 4.27
 0.815 -1.413 4.273
 0.841 -1.414 4.274
 0.868 -1.417 4.276
 0.895 -1.418 4.275
 0.921 -1.418 4.271
 0.947 -1.419 4.268
 0.974 -1.421 4.269
 1 -1.421 4.264
 1.027 -1.422 4.261
 1.055 -1.425 4.264
 1.082 -1.427 4.264
 1.108 -1.427 4.258
 1.136 -1.43 4.26
 1.163 -1.432 4.258
 1.19 -1.433 4.257
 1.218 -1.435 4.255
 1.245 -1.437 4.254
 1.273 -1.438 4.252
 1.301 -1.441 4.253
 1.329 -1.442 4.249
 1.355 -1.443 4.244
 1.384 -1.446 4.244
 1.412 -1.448 4.242
 1.44 -1.45 4.24
 1.469 -1.453 4.24
 1.499 -1.456 4.24
 1.528 -1.458 4.238
 1.558 -1.462 4.241
 1.587 -1.465 4.239
 1.617 -1.468 4.239
 1.647 -1.47 4.237
 1.674 -1.471 4.23
 1.701 -1.472 4.222
 1.73 -1.474 4.218
 1.757 -1.474 4.209
 1.782 -1.473 4.195
 1.805 -1.47 4.175
 1.827 -1.466 4.154
 1.845 -1.459 4.124
 1.861 -1.451 4.091
 1.877 -1.444 4.059
 0 0 0
 0 0 0
 0 0 0
 0 0 0
 0 0 0
 0 0 0
 0 0 0
 0 0 0
 0 0 0
 1.938 -1.309 3.57
 1.828 -1.221 3.317
 1.797 -1.186 3.21
 1.818 -1.186 3.199
 1.842 -1.187 3.192
 1.559 -0.994 2.66
 0 0 0
 0 0 0
 -0.14 -0.088 0.228
 -0.112 -0.072 0.184
 -0.098 -0.064 0.162
 -0.086 -0.056 0.143
 -0.075 -0.05 0.125
 -0.067 -0.045 0.112
 -0.058 -0.04 0.096
 -0.051 -0.036 0.085
 -0.044 -0.031 0.073
 -0.21 -0.146 0.404
 -0.286 -0.202 0.564
 -0.28 -0.199 0.559
 -0.436 -0.314 0.894
 -0.838 -0.611 1.76
 -1.067 -0.788 2.28
 -1.37 -1.026 2.981
 -1.741 -1.322 3.857
 -1.947 -1.5 4.388
 -1.915 -1.497 4.39
 -1.883 -1.494 4.392
 -1.85 -1.491 4.391
 -1.819 -1.488 4.393
 -1.784 -1.482 4.385
 -1.752 -1.479 4.384
 -1.72 -1.475 4.384
 -1.688 -1.471 4.38
 -1.654 -1.466 4.373
 -1.625 -1.465 4.378
 -1.594 -1.461 4.376
 -1.562 -1.457 4.373
 -1.531 -1.454 4.37
 -1.502 -1.453 4.374
 -1.472 -1.449 4.372
 -1.44 -1.445 4.365
 -1.41 -1.442 4.365
 -1.38 -1.439 4.361
 -1.349 -1.435 4.356
 -1.319 -1.432 4.354
 -1.292 -1.432 4.36
 -1.262 -1.428 4.354
 -1.234 -1.426 4.355
 -1.205 -1.424 4.354
 -1.176 -1.421 4.35
 -1.148 -1.419 4.351
 -1.12 -1.418 4.353
 -1.093 -1.417 4.355
 -1.065 -1.416 4.357
 -1.038 -1.414 4.357
 -1.008 -1.411 4.35
 -0.98 -1.408 4.347
 -0.952 -1.406 4.344
 -0.923 -1.402 4.337
 -0.897 -1.401 4.339
 -0.871 -1.402 4.345
 -0.843 -1.399 4.341
 -0.816 -1.399 4.342
 -0.79 -1.399 4.347
 -0.762 -1.395 4.337
 -0.733 -1.39 4.325
 -0.706 -1.388 4.322
 -0.679 -1.385 4.318
 -0.653 -1.385 4.32
 -0.627 -1.386 4.324
 -0.602 -1.386 4.329
 -0.577 -1.389 4.338
 -0.551 -1.388 4.339
 -0.523 -1.383 4.327
 -0.496 -1.381 4.322
 -0.469 -1.377 4.311
 -0.443 -1.376 4.309
 -0.417 -1.373 4.303
 -0.392 -1.375 4.311
 -0.366 -1.374 4.309
 -0.34 -1.376 4.314
 -0.315 -1.375 4.314
 -0.289 -1.375 4.314
 -0.263 -1.373 4.311
 -0.237 -1.373 4.309
 -0.212 -1.372 4.308
 -0.186 -1.371 4.305
 -0.16 -1.37 4.303
 -0.135 -1.368 4.297
 -0.109 -1.369 4.299
 -0.084 -1.369 4.298
 -0.058 -1.367 4.295
 -0.033 -1.367 4.295
 -0.007 -1.369 4.298
 0.017 -1.369 4.3
 0.043 -1.37 4.301
 0.068 -1.371 4.303
 0.094 -1.37 4.301
 0.119 -1.37 4.3
 0.145 -1.369 4.294
 0.17 -1.368 4.29
 0.195 -1.369 4.291
 0.221 -1.371 4.296
 0.247 -1.371 4.295
 0.273 -1.373 4.301
 0.298 -1.374 4.303
 0.323 -1.373 4.297
 0.349 -1.374 4.297
 0.375 -1.374 4.296
 0.399 -1.37 4.282
 0.425 -1.371 4.282
 0.451 -1.372 4.283
 0.476 -1.373 4.283
 0.502 -1.375 4.286
 0.53 -1.38 4.299
 0.556 -1.381 4.299
 0.582 -1.382 4.298
 0.606 -1.38 4.289
 0.632 -1.379 4.283
 0.657 -1.378 4.276
 0.682 -1.377 4.27
 0.708 -1.378 4.27
 0.734 -1.38 4.272
 0.761 -1.383 4.277
 0.787 -1.384 4.274
 0.815 -1.387 4.28
 0.841 -1.388 4.28
 0.869 -1.391 4.284
 0.895 -1.392 4.28
 0.921 -1.392 4.276
 0.947 -1.392 4.273
 0.974 -1.394 4.273
 1 -1.394 4.268
 1.026 -1.395 4.265
 1.054 -1.398 4.267
 1.08 -1.399 4.265
 1.107 -1.4 4.262
 1.135 -1.402 4.262
 1.161 -1.403 4.26
 1.188 -1.404 4.257
 1.215 -1.406 4.254
 1.243 -1.408 4.253
 1.271 -1.41 4.252
 1.3 -1.413 4.254
 1.328 -1.415 4.253
 1.355 -1.416 4.249
 1.384 -1.419 4.25
 1.411 -1.42 4.246
 1.439 -1.422 4.242
 1.467 -1.424 4.239
 1.496 -1.427 4.241
 1.525 -1.429 4.238
 1.556 -1.433 4.242
 1.585 -1.436 4.242
 1.616 -1.44 4.243
 1.645 -1.442 4.24
 1.673 -1.443 4.235
 1.7 -1.444 4.226
 1.728 -1.445 4.221
 1.754 -1.444 4.208
 1.779 -1.444 4.196
 1.802 -1.441 4.177
 1.825 -1.438 4.157
 1.845 -1.432 4.131
 1.862 -1.426 4.102
 0 0 0
 0 0 0
 0 0 0
 0 0 0
 0 0 0
 0 0 0
 0 0 0
 0 0 0
 0 0 0
 0 0 0
 1.982 -1.315 3.659
 1.846 -1.21 3.356
 1.801 -1.167 3.224
 1.822 -1.167 3.212
 1.843 -1.166 3.2
 1.409 -0.882 2.408
 0 0 0
 0.461 -0.284 0.76
 -0.147 -0.091 0.242
 -0.135 -0.084 0.224
 -0.104 -0.066 0.173
 -0.091 -0.059 0.152
 -0.08 -0.053 0.135
 -0.072 -0.048 0.121
 -0.06 -0.041 0.102
 -0.052 -0.035 0.086
 -0.044 -0.031 0.074
 -0.123 -0.084 0.231
 -0.286 -0.197 0.564
 -0.279 -0.195 0.559
 -0.353 -0.25 0.722
 -0.756 -0.541 1.589
 -1.066 -0.773 2.283
 -1.288 -0.947 2.808
 -1.66 -1.238 3.685
 -1.945 -1.47 4.392
 -1.912 -1.467 4.393
 -1.881 -1.464 4.395
 -1.849 -1.462 4.397
 -1.818 -1.459 4.399
 -1.783 -1.454 4.392
 -1.751 -1.45 4.39
 -1.72 -1.447 4.391
 -1.687 -1.443 4.386
 -1.653 -1.438 4.379
 -1.624 -1.437 4.384
 -1.593 -1.433 4.383
 -1.561 -1.43 4.379
 -1.53 -1.426 4.377
 -1.501 -1.424 4.378
 -1.47 -1.421 4.375
 -1.438 -1.416 4.369
 -1.409 -1.415 4.37
 -1.379 -1.411 4.366
 -1.349 -1.408 4.363
 -1.319 -1.405 4.361
 -1.292 -1.405 4.367
 -1.262 -1.401 4.361
 -1.233 -1.399 4.362
 -1.205 -1.397 4.361
 -1.175 -1.394 4.356
 -1.147 -1.392 4.355
 -1.119 -1.39 4.356
 -1.092 -1.39 4.36
 -1.064 -1.388 4.36
 -1.037 -1.387 4.362
 -1.008 -1.384 4.357
 -0.98 -1.382 4.354
 -0.952 -1.379 4.351
 -0.923 -1.375 4.343
 -0.896 -1.374 4.343
 -0.871 -1.376 4.352
 -0.843 -1.373 4.346
 -0.816 -1.372 4.348
 -0.791 -1.373 4.356
 -0.762 -1.369 4.345
 -0.733 -1.363 4.331
 -0.706 -1.362 4.33
 -0.679 -1.36 4.327
 -0.653 -1.36 4.328
 -0.628 -1.361 4.334
 -0.602 -1.361 4.336
 -0.577 -1.363 4.347
 -0.55 -1.362 4.345
 -0.522 -1.356 4.33
 -0.495 -1.352 4.319
 -0.468 -1.348 4.307
 -0.442 -1.347 4.305
 -0.415 -1.344 4.297
 -0.391 -1.347 4.308
 -0.365 -1.346 4.308
 -0.339 -1.347 4.312
 -0.314 -1.347 4.312
 -0.288 -1.346 4.311
 -0.262 -1.345 4.309
 -0.237 -1.345 4.308
 -0.211 -1.345 4.31
 -0.185 -1.344 4.306
