 1.274 -1.599 4.211
 1.3 -1.598 4.201
 1.327 -1.599 4.196
 1.353 -1.6 4.19
 1.379 -1.6 4.183
 1.406 -1.601 4.177
 1.434 -1.602 4.172
 1.46 -1.603 4.166
 1.487 -1.604 4.16
 1.515 -1.605 4.154
 1.544 -1.608 4.154
 1.573 -1.611 4.152
 1.601 -1.613 4.148
 1.628 -1.614 4.14
 1.655 -1.615 4.133
 1.68 -1.614 4.121
 1.706 -1.613 4.11
 1.73 -1.611 4.094
 1.753 -1.608 4.077
 1.775 -1.605 4.057
 1.795 -1.599 4.031
 1.811 -1.591 3.999
 1.823 -1.579 3.959
 1.832 -1.564 3.912
 1.838 -1.547 3.858
 1.843 -1.531 3.806
 1.847 -1.514 3.753
 1.852 -1.498 3.703
 1.861 -1.486 3.66
 1.872 -1.476 3.625
 0 0 0
 0 0 0
 0 0 0
 1.734 -1.301 3.152
 1.755 -1.301 3.142
 1.764 -1.292 3.109
 1.775 -1.285 3.08
 1.781 -1.274 3.044
 1.778 -1.258 2.994
 1.778 -1.243 2.948
 1.772 -1.225 2.895
 -2.349 -1.614 3.985
 -2.317 -1.611 3.992
 -2.288 -1.61 4.002
 -2.257 -1.608 4.009
 -2.232 -1.609 4.026
 -2.208 -1.612 4.045
 -2.184 -1.614 4.063
 -2.159 -1.615 4.079
 -2.132 -1.616 4.092
 -2.104 -1.616 4.104
 -2.076 -1.615 4.114
 -2.048 -1.615 4.125
 -2.017 -1.612 4.129
 -1.99 -1.612 4.141
 -1.96 -1.61 4.146
 -1.932 -1.609 4.155
 -1.903 -1.608 4.163
 -1.876 -1.608 4.173
 -1.848 -1.607 4.182
 -1.823 -1.609 4.196
 -1.794 -1.607 4.202
 -1.767 -1.608 4.213
 -1.739 -1.607 4.22
 -1.71 -1.605 4.226
 -1.682 -1.604 4.232
 -1.652 -1.602 4.235
 -1.622 -1.599 4.234
 -1.594 -1.598 4.241
 -1.566 -1.597 4.248
 -1.538 -1.596 4.253
 -1.512 -1.596 4.262
 -1.484 -1.596 4.267
 -1.456 -1.594 4.272
 -1.427 -1.593 4.275
 -1.399 -1.591 4.279
 -1.37 -1.588 4.277
 -1.34 -1.585 4.276
 -1.31 -1.581 4.272
 -1.283 -1.58 4.276
 -1.254 -1.578 4.275
 -1.227 -1.577 4.281
 -1.202 -1.58 4.293
 -1.175 -1.579 4.297
 -1.147 -1.576 4.296
 -1.118 -1.573 4.294
 -1.089 -1.57 4.29
 -1.061 -1.568 4.289
 -1.035 -1.568 4.295
 -1.007 -1.566 4.295
 -0.981 -1.566 4.299
 -0.955 -1.567 4.306
 -0.927 -1.565 4.306
 -0.899 -1.562 4.301
 -0.873 -1.561 4.304
 -0.845 -1.559 4.302
 -0.818 -1.558 4.303
 -0.792 -1.557 4.304
 -0.765 -1.557 4.307
 -0.739 -1.556 4.308
 -0.712 -1.555 4.308
 -0.685 -1.552 4.304
 -0.658 -1.55 4.302
 -0.631 -1.548 4.298
 -0.604 -1.546 4.297
 -0.578 -1.546 4.299
 -0.552 -1.546 4.3
 -0.526 -1.545 4.301
 -0.5 -1.545 4.302
 -0.474 -1.544 4.302
 -0.448 -1.543 4.302
 -0.421 -1.542 4.3
 -0.395 -1.54 4.298
 -0.369 -1.54 4.297
 -0.343 -1.538 4.293
 -0.317 -1.538 4.294
 -0.291 -1.538 4.297
 -0.266 -1.539 4.299
 -0.24 -1.538 4.297
 -0.214 -1.538 4.3
 -0.188 -1.537 4.297
 -0.162 -1.536 4.296
 -0.137 -1.536 4.296
 -0.111 -1.537 4.297
 -0.085 -1.535 4.293
 -0.06 -1.535 4.291
 -0.034 -1.534 4.29
 -0.008 -1.533 4.288
 0.017 -1.534 4.29
 0.042 -1.535 4.292
 0.068 -1.535 4.29
 0.093 -1.534 4.287
 0.119 -1.533 4.285
 0.145 -1.532 4.281
 0.17 -1.533 4.281
 0.196 -1.534 4.282
 0.222 -1.534 4.282
 0.247 -1.535 4.282
 0.273 -1.535 4.281
 0.299 -1.535 4.279
 0.324 -1.535 4.278
 0.35 -1.536 4.277
 0.376 -1.536 4.276
 0.401 -1.536 4.274
 0.427 -1.536 4.271
 0.453 -1.537 4.272
 0.479 -1.539 4.274
 0.505 -1.54 4.274
 0.531 -1.539 4.27
 0.557 -1.54 4.269
 0.582 -1.54 4.265
 0.607 -1.539 4.259
 0.634 -1.541 4.261
 0.66 -1.542 4.26
 0.686 -1.544 4.261
 0.714 -1.547 4.265
 0.74 -1.548 4.266
 0.766 -1.548 4.261
 0.793 -1.551 4.264
 0.819 -1.552 4.262
 0.845 -1.552 4.258
 0.872 -1.554 4.258
 0.898 -1.554 4.253
 0.924 -1.555 4.252
 0.951 -1.556 4.25
 0.978 -1.558 4.248
 1.005 -1.56 4.248
 1.032 -1.561 4.247
 1.059 -1.563 4.245
 1.086 -1.564 4.243
 1.113 -1.565 4.24
 1.139 -1.566 4.235
 1.168 -1.57 4.24
 1.195 -1.572 4.238
 1.223 -1.574 4.237
 1.251 -1.576 4.236
 1.279 -1.578 4.234
 1.305 -1.578 4.226
 1.333 -1.58 4.224
 1.359 -1.58 4.218
 1.386 -1.581 4.212
 1.413 -1.582 4.207
 1.441 -1.584 4.203
 1.468 -1.584 4.195
 1.496 -1.586 4.192
 1.525 -1.589 4.191
 1.554 -1.592 4.191
 1.583 -1.595 4.188
 1.612 -1.597 4.185
 1.639 -1.598 4.176
 1.665 -1.598 4.167
 1.691 -1.597 4.156
 1.718 -1.598 4.148
 1.743 -1.597 4.134
 1.767 -1.594 4.117
 1.788 -1.589 4.094
 1.805 -1.582 4.064
 1.82 -1.572 4.027
 1.829 -1.558 3.98
 1.837 -1.543 3.931
 1.845 -1.528 3.882
 1.85 -1.511 3.829
 1.853 -1.494 3.774
 1.859 -1.479 3.725
 1.869 -1.468 3.686
 0 0 0
 0 0 0
 0 0 0
 0 0 0
 1.728 -1.275 3.148
 1.751 -1.276 3.141
 1.762 -1.269 3.113
 1.774 -1.263 3.086
 1.782 -1.254 3.054
 1.781 -1.238 3.005
 1.795 -1.234 2.983
 1.781 -1.211 2.916
 -2.388 -1.613 4.062
 -2.363 -1.616 4.082
 -1.944 -1.345 3.407
 -1.915 -1.341 3.408
 -1.895 -1.343 3.423
 -1.873 -1.344 3.437
 -1.851 -1.345 3.45
 -1.83 -1.346 3.464
 -1.896 -1.413 3.646
 -1.957 -1.477 3.825
 -1.931 -1.477 3.834
 -1.906 -1.477 3.847
 -1.878 -1.475 3.852
 -1.852 -1.475 3.862
 -1.823 -1.472 3.865
 -1.878 -1.538 4.048
 -1.849 -1.536 4.053
 -1.899 -1.6 4.235
 -1.871 -1.6 4.244
 -1.845 -1.602 4.258
 -1.815 -1.599 4.26
 -1.786 -1.598 4.269
 -1.758 -1.597 4.275
 -1.727 -1.594 4.277
 -1.697 -1.592 4.28
 -1.667 -1.589 4.282
 -1.636 -1.585 4.281
 -1.607 -1.584 4.285
 -1.579 -1.583 4.291
 -1.55 -1.581 4.294
 -1.522 -1.58 4.3
 -1.494 -1.58 4.306
 -1.466 -1.578 4.31
 -1.437 -1.576 4.313
 -1.409 -1.576 4.318
 -1.38 -1.573 4.318
 -1.35 -1.569 4.315
 -1.32 -1.566 4.312
 -1.291 -1.563 4.312
 -1.261 -1.56 4.31
 -1.234 -1.56 4.314
 -1.208 -1.56 4.322
 -1.18 -1.559 4.325
 -1.152 -1.556 4.323
 -1.123 -1.554 4.321
 -1.094 -1.55 4.318
 -1.066 -1.548 4.317
 -1.039 -1.548 4.321
 -1.011 -1.546 4.32
 -0.984 -1.545 4.322
 -0.957 -1.545 4.326
 -0.929 -1.542 4.323
 -0.901 -1.538 4.317
 -0.874 -1.537 4.318
 -0.847 -1.535 4.318
 -0.819 -1.534 4.317
 -0.793 -1.533 4.318
 -0.766 -1.532 4.319
 -0.739 -1.531 4.319
 -0.712 -1.528 4.316
 -0.685 -1.526 4.312
 -0.658 -1.524 4.31
 -0.631 -1.523 4.309
 -0.605 -1.521 4.307
 -0.578 -1.52 4.307
 -0.552 -1.519 4.306
 -0.526 -1.518 4.307
 -0.499 -1.517 4.304
 -0.473 -1.515 4.302
 -0.447 -1.515 4.302
 -0.421 -1.514 4.301
 -0.394 -1.512 4.298
 -0.369 -1.512 4.299
 -0.343 -1.512 4.3
 -0.317 -1.512 4.302
 -0.291 -1.512 4.303
 -0.265 -1.512 4.304
 -0.24 -1.512 4.304
 -0.214 -1.511 4.304
 -0.188 -1.51 4.301
 -0.162 -1.51 4.301
 -0.137 -1.51 4.303
 -0.111 -1.51 4.303
 -0.085 -1.508 4.297
 -0.059 -1.507 4.295
 -0.034 -1.507 4.293
 -0.008 -1.507 4.292
 0.017 -1.507 4.293
 0.042 -1.508 4.297
 0.068 -1.508 4.295
 0.094 -1.508 4.293
 0.119 -1.506 4.289
 0.145 -1.506 4.286
 0.17 -1.507 4.287
 0.196 -1.508 4.289
 0.222 -1.508 4.287
 0.247 -1.508 4.287
 0.273 -1.508 4.287
 0.299 -1.508 4.285
 0.324 -1.508 4.281
 0.35 -1.509 4.284
 0.376 -1.51 4.283
 0.401 -1.51 4.28
 0.427 -1.509 4.276
 0.453 -1.511 4.278
 0.479 -1.512 4.28
 0.505 -1.512 4.277
 0.53 -1.512 4.273
 0.556 -1.513 4.274
 0.582 -1.513 4.27
 0.608 -1.513 4.267
 0.634 -1.515 4.268
 0.661 -1.517 4.271
 0.687 -1.518 4.27
 0.714 -1.521 4.273
 0.74 -1.521 4.271
 0.766 -1.522 4.267
 0.793 -1.524 4.269
 0.819 -1.525 4.269
 0.845 -1.526 4.265
 0.872 -1.527 4.265
 0.898 -1.528 4.262
 0.925 -1.529 4.26
 0.951 -1.53 4.258
 0.978 -1.531 4.255
 1.004 -1.533 4.254
 1.031 -1.534 4.252
 1.058 -1.535 4.249
 1.085 -1.537 4.249
 1.112 -1.539 4.247
 1.139 -1.539 4.243
 1.168 -1.544 4.248
 1.196 -1.546 4.248
 1.224 -1.549 4.248
 1.252 -1.551 4.248
 1.28 -1.553 4.247
 1.307 -1.554 4.24
 1.335 -1.556 4.238
 1.361 -1.556 4.232
 1.389 -1.558 4.229
 1.417 -1.56 4.226
 1.445 -1.562 4.223
 1.472 -1.562 4.216
 1.501 -1.565 4.214
 1.529 -1.567 4.212
 1.559 -1.57 4.212
 1.589 -1.574 4.211
 1.619 -1.577 4.212
 1.648 -1.579 4.208
 1.675 -1.58 4.2
 1.701 -1.58 4.189
 1.728 -1.58 4.179
 1.752 -1.578 4.164
 1.776 -1.575 4.146
 1.796 -1.57 4.121
 1.813 -1.562 4.09
 1.827 -1.551 4.052
 1.837 -1.538 4.006
 1.845 -1.523 3.956
 1.853 -1.509 3.908
 1.86 -1.494 3.858
 1.864 -1.478 3.805
 1.869 -1.462 3.753
 0 0 0
 0 0 0
 0 0 0
 0 0 0
 0 0 0
 1.726 -1.252 3.151
 1.751 -1.255 3.149
 1.764 -1.25 3.124
 1.776 -1.243 3.097
 1.785 -1.235 3.066
 1.783 -1.22 3.017
 1.76 -1.19 2.932
 1.783 -1.192 2.927
 -2.433 -1.615 4.149
 -2.354 -1.582 4.076
 -1.503 -1.022 2.637
 -1.482 -1.02 2.64
 -1.462 -1.019 2.644
 -1.446 -1.02 2.656
 -1.43 -1.021 2.668
 -1.412 -1.022 2.677
 -1.482 -1.086 2.855
 -1.548 -1.149 3.03
 -1.527 -1.148 3.037
 -1.505 -1.147 3.041
 -1.566 -1.209 3.217
 -1.627 -1.274 3.399
 -1.685 -1.337 3.578
 -1.82 -1.465 3.931
 -1.87 -1.527 4.109
 -1.919 -1.589 4.289
 -1.888 -1.587 4.293
 -1.86 -1.587 4.302
 -1.829 -1.584 4.305
 -1.801 -1.584 4.314
 -1.771 -1.582 4.318
 -1.741 -1.58 4.322
 -1.711 -1.577 4.324
 -1.68 -1.574 4.325
 -1.648 -1.57 4.322
 -1.62 -1.569 4.328
 -1.59 -1.567 4.331
 -1.56 -1.564 4.332
 -1.531 -1.562 4.335
 -1.502 -1.561 4.34
 -1.472 -1.558 4.337
 -1.442 -1.555 4.337
 -1.413 -1.553 4.34
 -1.385 -1.552 4.344
 -1.354 -1.548 4.339
 -1.325 -1.545 4.339
 -1.296 -1.544 4.34
 -1.266 -1.54 4.335
 -1.237 -1.537 4.335
 -1.21 -1.537 4.34
 -1.182 -1.535 4.34
 -1.153 -1.532 4.337
 -1.124 -1.529 4.335
 -1.096 -1.526 4.333
 -1.068 -1.524 4.333
 -1.04 -1.523 4.334
 -1.012 -1.521 4.334
 -0.985 -1.52 4.336
 -0.958 -1.519 4.337
 -0.93 -1.516 4.334
 -0.902 -1.514 4.33
 -0.874 -1.512 4.33
 -0.847 -1.509 4.326
 -0.819 -1.507 4.324
 -0.792 -1.505 4.323
 -0.765 -1.504 4.323
 -0.738 -1.503 4.322
 -0.711 -1.501 4.321
 -0.684 -1.499 4.317
 -0.658 -1.498 4.316
 -0.631 -1.496 4.315
 -0.604 -1.495 4.313
 -0.578 -1.494 4.313
 -0.551 -1.492 4.311
 -0.525 -1.492 4.313
 -0.499 -1.49 4.311
 -0.473 -1.489 4.309
 -0.446 -1.488 4.307
 -0.421 -1.488 4.308
 -0.394 -1.486 4.304
 -0.368 -1.485 4.304
 -0.343 -1.486 4.307
 -0.317 -1.486 4.31
 -0.291 -1.486 4.311
 -0.265 -1.487 4.314
 -0.24 -1.486 4.313
 -0.214 -1.485 4.31
 -0.188 -1.484 4.307
 -0.162 -1.483 4.306
 -0.136 -1.482 4.303
 -0.111 -1.482 4.304
 -0.085 -1.481 4.3
 -0.059 -1.48 4.299
 -0.033 -1.48 4.297
 -0.008 -1.481 4.3
 0.017 -1.481 4.3
 0.042 -1.482 4.303
 0.068 -1.482 4.303
 0.094 -1.482 4.301
 0.119 -1.481 4.296
 0.145 -1.48 4.294
 0.171 -1.481 4.294
 0.196 -1.482 4.295
 0.222 -1.481 4.292
 0.247 -1.481 4.292
 0.273 -1.482 4.29
 0.299 -1.481 4.288
 0.324 -1.482 4.287
 0.35 -1.483 4.288
 0.376 -1.482 4.285
 0.401 -1.483 4.285
 0.427 -1.483 4.281
 0.453 -1.484 4.283
 0.479 -1.486 4.284
 0.505 -1.486 4.283
 0.53 -1.485 4.278
 0.556 -1.486 4.277
 0.581 -1.485 4.271
 0.607 -1.486 4.269
 0.633 -1.487 4.27
 0.66 -1.489 4.272
 0.686 -1.49 4.271
 0.713 -1.492 4.273
 0.738 -1.492 4.27
 0.765 -1.493 4.268
 0.791 -1.495 4.27
 0.818 -1.496 4.268
 0.844 -1.497 4.265
 0.871 -1.499 4.266
 0.897 -1.5 4.264
 0.924 -1.502 4.266
 0.951 -1.504 4.265
 0.978 -1.505 4.263
 1.005 -1.507 4.262
 1.031 -1.507 4.258
 1.057 -1.508 4.255
 1.085 -1.51 4.255
 1.112 -1.511 4.252
 1.138 -1.511 4.245
 1.167 -1.516 4.251
 1.194 -1.518 4.25
 1.222 -1.52 4.249
 1.251 -1.523 4.251
 1.28 -1.526 4.253
 1.307 -1.528 4.25
 1.335 -1.529 4.247
 1.362 -1.53 4.242
 1.39 -1.532 4.239
 1.418 -1.534 4.236
 1.445 -1.535 4.232
 1.474 -1.537 4.229
 1.502 -1.54 4.227
 1.531 -1.542 4.225
 1.56 -1.545 4.224
 1.59 -1.547 4.222
 1.62 -1.551 4.222
 1.649 -1.553 4.219
 1.677 -1.555 4.212
 1.704 -1.555 4.205
 1.731 -1.556 4.196
 1.757 -1.555 4.183
 1.78 -1.552 4.166
 1.801 -1.547 4.142
 1.819 -1.54 4.113
 1.834 -1.531 4.076
 1.845 -1.518 4.032
 1.854 -1.505 3.984
 1.863 -1.491 3.937
 1.869 -1.476 3.885
 1.871 -1.458 3.827
 0 0 0
 0 0 0
 0 0 0
 0 0 0
 0 0 0
 0 0 0
 1.809 -1.29 3.312
 1.8 -1.268 3.245
 1.77 -1.232 3.141
 1.779 -1.224 3.109
 1.786 -1.215 3.075
 1.783 -1.199 3.023
 1.764 -1.172 2.946
 1.75 -1.15 2.879
 -0.056 -0.038 0.083
 -0.052 -0.036 0.078
 -1.06 -0.709 1.861
 -1.043 -0.706 1.859
 -1.028 -0.704 1.86
 -1.017 -0.705 1.869
 -1.005 -0.706 1.876
 -0.993 -0.706 1.882
 -1.066 -0.768 2.054
 -1.135 -0.828 2.222
 -1.117 -0.826 2.224
 -1.183 -0.886 2.394
 -1.331 -1.01 2.739
 -1.478 -1.137 3.092
 -1.618 -1.262 3.444
 -1.833 -1.45 3.969
 -1.884 -1.512 4.149
 -1.932 -1.573 4.328
 -1.901 -1.569 4.33
 -1.871 -1.568 4.337
 -1.841 -1.566 4.341
 -1.812 -1.565 4.348
 -1.781 -1.563 4.352
 -1.751 -1.561 4.355
 -1.72 -1.558 4.356
 -1.687 -1.553 4.352
 -1.654 -1.549 4.348
 -1.625 -1.547 4.352
 -1.595 -1.545 4.355
 -1.565 -1.542 4.355
 -1.535 -1.54 4.357
 -1.506 -1.538 4.36
 -1.476 -1.535 4.358
 -1.445 -1.532 4.357
 -1.416 -1.529 4.357
 -1.388 -1.528 4.361
 -1.357 -1.524 4.357
 -1.328 -1.522 4.356
 -1.298 -1.519 4.355
 -1.268 -1.515 4.351
 -1.239 -1.513 4.349
 -1.211 -1.511 4.35
 -1.182 -1.508 4.348
 -1.153 -1.505 4.345
 -1.124 -1.503 4.344
 -1.096 -1.5 4.342
 -1.068 -1.499 4.344
 -1.04 -1.497 4.344
 -1.012 -1.495 4.342
 -0.984 -1.493 4.341
 -0.957 -1.492 4.343
 -0.929 -1.488 4.337
 -0.9 -1.485 4.332
 -0.873 -1.484 4.333
 -0.846 -1.481 4.329
 -0.818 -1.479 4.327
 -0.791 -1.478 4.326
 -0.764 -1.477 4.326
 -0.737 -1.475 4.325
 -0.711 -1.474 4.326
 -0.684 -1.472 4.322
 -0.657 -1.471 4.321
 -0.63 -1.469 4.32
 -0.604 -1.468 4.319
 -0.577 -1.467 4.318
 -0.551 -1.466 4.317
 -0.525 -1.465 4.319
 -0.499 -1.464 4.317
 -0.472 -1.462 4.313
 -0.446 -1.461 4.311
 -0.42 -1.461 4.313
 -0.394 -1.459 4.308
 -0.368 -1.459 4.309
 -0.342 -1.46 4.314
 -0.317 -1.46 4.318
 -0.291 -1.46 4.316
 -0.265 -1.46 4.319
 -0.239 -1.46 4.318
 -0.213 -1.458 4.313
 -0.187 -1.456 4.31
 -0.162 -1.456 4.308
 -0.136 -1.454 4.304
 -0.11 -1.454 4.304
 -0.084 -1.453 4.301
 -0.059 -1.453 4.3
 -0.033 -1.452 4.298
 -0.008 -1.453 4.301
 0.017 -1.453 4.301
 0.043 -1.454 4.304
 0.068 -1.454 4.303
 0.094 -1.455 4.304
 0.119 -1.454 4.3
 0.145 -1.454 4.298
 0.17 -1.453 4.296
 0.196 -1.454 4.298
 0.222 -1.453 4.293
 0.247 -1.454 4.294
 0.273 -1.454 4.292
 0.298 -1.455 4.292
 0.324 -1.454 4.288
 0.35 -1.455 4.289
 0.375 -1.454 4.285
 0.401 -1.455 4.285
 0.426 -1.455 4.282
 0.453 -1.457 4.286
 0.479 -1.458 4.287
 0.504 -1.459 4.286
 0.53 -1.458 4.281
 0.556 -1.459 4.28
 0.581 -1.458 4.275
 0.606 -1.458 4.271
 0.632 -1.459 4.27
 0.659 -1.461 4.274
 0.685 -1.463 4.274
 0.712 -1.464 4.275
 0.738 -1.466 4.275
 0.764 -1.467 4.274
 0.791 -1.468 4.274
 0.817 -1.469 4.271
 0.843 -1.469 4.267
 0.869 -1.471 4.267
 0.896 -1.472 4.265
 0.923 -1.473 4.265
 0.949 -1.475 4.265
 0.976 -1.476 4.263
 1.003 -1.477 4.26
 1.029 -1.478 4.256
 1.056 -1.48 4.256
 1.084 -1.482 4.257
 1.111 -1.484 4.256
 1.138 -1.485 4.253
 1.167 -1.489 4.259
 1.195 -1.491 4.258
 1.222 -1.493 4.257
 1.251 -1.496 4.258
 1.279 -1.499 4.259
 1.307 -1.5 4.256
 1.334 -1.502 4.252
 1.362 -1.503 4.249
 1.39 -1.505 4.247
 1.417 -1.507 4.243
 1.445 -1.508 4.238
 1.472 -1.509 4.233
 1.501 -1.512 4.232
 1.53 -1.514 4.23
 1.56 -1.517 4.23
 1.59 -1.521 4.23
 1.62 -1.524 4.231
 1.649 -1.527 4.229
 1.678 -1.529 4.224
 1.706 -1.53 4.218
 1.733 -1.531 4.209
 1.76 -1.531 4.2
 1.785 -1.529 4.185
 1.806 -1.524 4.16
 1.826 -1.519 4.136
 1.841 -1.51 4.1
 1.853 -1.498 4.057
 1.864 -1.486 4.013
 1.877 -1.477 3.976
 1.881 -1.459 3.919
 0 0 0
 0 0 0
 0 0 0
 0 0 0
 0 0 0
 0 0 0
 0 0 0
 1.58 -1.107 2.897
 1.666 -1.154 3.009
 1.775 -1.214 3.157
 1.782 -1.205 3.122
 1.787 -1.194 3.083
 1.782 -1.177 3.028
 1.77 -1.156 2.963
 1.75 -1.131 2.887
 -0.019 -0.014 0.02
 -0.097 -0.064 0.157
 -0.616 -0.405 1.079
 -0.605 -0.403 1.076
 -0.595 -0.401 1.073
 -0.588 -0.401 1.077
 -0.577 -0.399 1.075
 -0.571 -0.399 1.079
 -0.645 -0.457 1.241
 -0.718 -0.515 1.405
 -0.704 -0.512 1.399
 -0.86 -0.633 1.74
 -1.011 -0.754 2.081
 -1.243 -0.939 2.604
 -1.466 -1.123 3.125
 -1.685 -1.309 3.654
 -1.737 -1.369 3.832
 -1.864 -1.49 4.182
 -1.833 -1.487 4.183
 -1.804 -1.486 4.19
 -1.848 -1.544 4.367
 -1.817 -1.542 4.371
 -1.787 -1.54 4.375
 -1.756 -1.538 4.377
 -1.723 -1.533 4.374
 -1.691 -1.529 4.372
 -1.658 -1.525 4.367
 -1.628 -1.522 4.368
 -1.597 -1.519 4.369
 -1.567 -1.517 4.369
 -1.536 -1.514 4.369
 -1.507 -1.511 4.369
 -1.475 -1.507 4.366
 -1.445 -1.504 4.365
 -1.416 -1.502 4.365
 -1.386 -1.499 4.365
 -1.356 -1.496 4.363
 -1.327 -1.494 4.362
 -1.296 -1.49 4.357
 -1.267 -1.487 4.355
 -1.238 -1.485 4.354
 -1.21 -1.483 4.355
 -1.181 -1.481 4.355
 -1.153 -1.479 4.355
 -1.124 -1.476 4.352
 -1.096 -1.474 4.35
 -1.068 -1.472 4.351
 -1.04 -1.471 4.351
 -1.011 -1.467 4.347
 -0.984 -1.465 4.346
 -0.956 -1.464 4.346
 -0.927 -1.46 4.339
 -0.899 -1.457 4.333
 -0.872 -1.456 4.334
 -0.844 -1.453 4.331
 -0.817 -1.451 4.327
 -0.79 -1.449 4.326
 -0.763 -1.447 4.324
 -0.735 -1.445 4.32
 -0.709 -1.444 4.322
 -0.682 -1.443 4.32
 -0.655 -1.441 4.318
 -0.629 -1.44 4.317
 -0.603 -1.44 4.32
 -0.577 -1.439 4.32
 -0.55 -1.438 4.32
 -0.525 -1.439 4.324
 -0.498 -1.437 4.322
 -0.472 -1.436 4.321
 -0.445 -1.434 4.315
 -0.419 -1.433 4.315
 -0.393 -1.43 4.308
 -0.367 -1.431 4.31
 -0.342 -1.431 4.312
 -0.316 -1.432 4.318
 -0.29 -1.432 4.317
 -0.265 -1.433 4.322
 -0.239 -1.433 4.322
 -0.213 -1.431 4.316
 -0.187 -1.428 4.31
 -0.161 -1.428 4.309
 -0.135 -1.426 4.305
 -0.11 -1.425 4.301
 -0.084 -1.424 4.298
 -0.059 -1.424 4.297
 -0.033 -1.423 4.296
 -0.007 -1.426 4.302
 0.017 -1.427 4.305
 0.043 -1.427 4.306
 0.068 -1.427 4.305
 0.094 -1.427 4.304
 0.119 -1.425 4.296
 0.145 -1.425 4.295
 0.17 -1.424 4.293
 0.196 -1.426 4.296
 0.221 -1.426 4.296
 0.247 -1.427 4.298
 0.273 -1.427 4.295
 0.298 -1.428 4.296
 0.324 -1.427 4.291
 0.349 -1.427 4.291
 0.375 -1.427 4.288
 0.401 -1.428 4.289
 0.426 -1.427 4.284
 0.452 -1.43 4.29
 0.478 -1.43 4.287
 0.504 -1.431 4.286
 0.529 -1.43 4.282
 0.555 -1.432 4.283
 0.581 -1.432 4.28
 0.606 -1.431 4.276
 0.632 -1.433 4.277
 0.659 -1.434 4.277
 0.685 -1.436 4.278
 0.711 -1.436 4.276
 0.737 -1.438 4.275
 0.763 -1.438 4.273
 0.79 -1.44 4.274
 0.815 -1.44 4.269
 0.841 -1.44 4.265
 0.867 -1.441 4.264
 0.894 -1.442 4.262
 0.921 -1.444 4.264
 0.948 -1.447 4.265
 0.975 -1.448 4.264
 1.002 -1.45 4.265
 1.028 -1.451 4.262
 1.055 -1.453 4.261
 1.083 -1.454 4.26
 1.109 -1.455 4.256
 1.137 -1.457 4.256
 1.166 -1.461 4.261
 1.194 -1.464 4.262
 1.221 -1.465 4.26
 1.25 -1.468 4.262
 1.278 -1.47 4.261
 1.305 -1.472 4.257
 1.333 -1.473 4.255
 1.361 -1.475 4.253
 1.389 -1.478 4.252
 1.417 -1.479 4.249
 1.444 -1.481 4.244
 1.472 -1.482 4.241
 1.501 -1.485 4.238
 1.529 -1.486 4.235
 1.558 -1.489 4.234
 1.588 -1.493 4.235
 1.618 -1.495 4.233
 1.647 -1.498 4.23
 1.676 -1.5 4.227
 1.704 -1.501 4.222
 1.731 -1.502 4.213
 1.759 -1.503 4.206
 1.785 -1.502 4.193
 1.808 -1.499 4.173
 1.829 -1.495 4.151
 1.847 -1.488 4.121
 1.86 -1.477 4.08
 1.874 -1.467 4.042
 1.888 -1.459 4.007
 0 0 0
 0 0 0
 0 0 0
 0 0 0
 0 0 0
 0 0 0
 0 0 0
 0 0 0
 1.578 -1.087 2.9
 1.664 -1.132 3.012
 1.773 -1.192 3.161
 1.778 -1.181 3.122
 1.784 -1.171 3.085
 1.779 -1.155 3.03
 1.76 -1.129 2.953
 1.749 -1.11 2.891
 -0.108 -0.069 0.173
 -0.099 -0.064 0.16
 -0.167 -0.109 0.284
 -0.161 -0.106 0.277
 -0.152 -0.102 0.266
 -0.148 -0.1 0.263
 -0.141 -0.096 0.253
 -0.14 -0.097 0.255
 -0.219 -0.153 0.413
 -0.297 -0.21 0.574
 -0.286 -0.205 0.561
 -0.53 -0.384 1.07
 -0.684 -0.502 1.408
 -1.001 -0.743 2.1
 -1.309 -0.985 2.796
 -1.61 -1.228 3.499
 -1.664 -1.287 3.677
 -1.869 -1.467 4.203
 -1.838 -1.464 4.203
 -1.806 -1.46 4.204
 -1.849 -1.518 4.379
 -1.818 -1.515 4.381
 -1.787 -1.512 4.383
 -1.755 -1.509 4.384
 -1.723 -1.505 4.382
 -1.69 -1.501 4.379
 -1.658 -1.497 4.374
 -1.627 -1.494 4.375
 -1.596 -1.491 4.375
 -1.566 -1.489 4.376
 -1.536 -1.486 4.376
 -1.506 -1.483 4.376
 -1.475 -1.479 4.372
 -1.445 -1.477 4.372
 -1.414 -1.474 4.369
 -1.385 -1.471 4.369
 -1.355 -1.468 4.367
 -1.325 -1.465 4.365
 -1.295 -1.461 4.36
 -1.265 -1.458 4.356
 -1.236 -1.455 4.354
 -1.207 -1.453 4.355
 -1.179 -1.452 4.357
 -1.151 -1.45 4.357
 -1.123 -1.448 4.356
 -1.094 -1.446 4.354
 -1.067 -1.444 4.355
 -1.039 -1.443 4.355
 -1.01 -1.439 4.348
 -0.981 -1.436 4.344
 -0.954 -1.435 4.345
 -0.925 -1.43 4.334
 -0.897 -1.427 4.331
 -0.87 -1.427 4.333
 -0.842 -1.424 4.328
 -0.816 -1.424 4.332
 -0.789 -1.423 4.334
 -0.762 -1.421 4.332
 -0.735 -1.419 4.328
 -0.71 -1.42 4.336
 -0.682 -1.416 4.326
 -0.655 -1.415 4.325
 -0.629 -1.414 4.324
 -0.603 -1.414 4.328
 -0.576 -1.413 4.326
 -0.55 -1.412 4.326
 -0.524 -1.412 4.33
 -0.498 -1.411 4.326
 -0.472 -1.41 4.326
 -0.445 -1.408 4.321
 -0.419 -1.407 4.321
 -0.393 -1.404 4.313
 -0.367 -1.404 4.314
 -0.341 -1.404 4.315
 -0.316 -1.406 4.322
 -0.29 -1.405 4.322
 -0.264 -1.406 4.325
 -0.239 -1.406 4.325
 -0.213 -1.405 4.322
 -0.187 -1.402 4.315
 -0.161 -1.401 4.312
 -0.135 -1.399 4.307
 -0.109 -1.398 4.303
 -0.084 -1.396 4.297
 -0.058 -1.396 4.296
 -0.033 -1.396 4.296
 -0.007 -1.398 4.303
 0.017 -1.399 4.306
 0.043 -1.4 4.309
 0.068 -1.4 4.308
 0.094 -1.4 4.307
 0.119 -1.398 4.3
 0.145 -1.398 4.3
 0.17 -1.398 4.298
 0.196 -1.4 4.302
 0.222 -1.4 4.303
 0.247 -1.402 4.306
 0.273 -1.401 4.302
 0.299 -1.402 4.304
 0.324 -1.401 4.298
 0.35 -1.402 4.298
 0.375 -1.401 4.294
 0.401 -1.402 4.294
 0.426 -1.401 4.289
 0.452 -1.403 4.294
 0.478 -1.403 4.29
 0.503 -1.403 4.287
 0.528 -1.402 4.283
 0.555 -1.404 4.285
 0.581 -1.405 4.284
 0.606 -1.405 4.28
 0.632 -1.406 4.281
 0.658 -1.408 4.282
 0.685 -1.409 4.282
 0.711 -1.41 4.281
 0.737 -1.411 4.281
 0.763 -1.412 4.281
 0.789 -1.413 4.279
 0.815 -1.413 4.275
 0.841 -1.413 4.271
 0.867 -1.414 4.268
 0.893 -1.415 4.265
 0.92 -1.417 4.267
 0.947 -1.419 4.269
 0.974 -1.42 4.266
 1.001 -1.422 4.266
 1.027 -1.423 4.263
 1.055 -1.425 4.264
 1.081 -1.427 4.262
 1.109 -1.428 4.262
 1.136 -1.43 4.262
 1.165 -1.434 4.266
 1.193 -1.436 4.266
 1.221 -1.438 4.266
 1.249 -1.441 4.266
 1.277 -1.444 4.267
 1.305 -1.445 4.264
 1.332 -1.446 4.259
 1.359 -1.448 4.257
 1.387 -1.449 4.253
 1.415 -1.451 4.25
 1.442 -1.452 4.245
 1.47 -1.453 4.241
 1.498 -1.455 4.238
 1.527 -1.457 4.236
 1.556 -1.46 4.236
 1.586 -1.464 4.236
 1.616 -1.467 4.236
 1.645 -1.469 4.233
 1.674 -1.471 4.23
 1.702 -1.473 4.224
 1.73 -1.474 4.218
 1.758 -1.475 4.21
 1.784 -1.475 4.199
 1.809 -1.473 4.184
 1.832 -1.471 4.167
 1.852 -1.465 4.141
 1.871 -1.46 4.114
 1.889 -1.453 4.083
 0 0 0
 0 0 0
 0 0 0
 0 0 0
 0 0 0
 0 0 0
 0.497 -0.351 0.955
 0.503 -0.351 0.952
 0.627 -0.432 1.169
 1.187 -0.803 2.183
 1.521 -1.016 2.758
 1.771 -1.169 3.164
 1.778 -1.16 3.128
 1.785 -1.151 3.092
 1.782 -1.136 3.042
 1.761 -1.11 2.961
 1.762 -1.098 2.919
 -0.142 -0.089 0.232
 -0.109 -0.069 0.177
 -0.089 -0.058 0.146
 -0.083 -0.055 0.138
 -0.075 -0.05 0.124
 -0.071 -0.048 0.12
 -0.063 -0.043 0.107
 -0.061 -0.042 0.104
 -0.052 -0.037 0.088
 -0.044 -0.031 0.073
 -0.034 -0.025 0.055
 -0.279 -0.199 0.559
 -0.52 -0.374 1.068
 -0.92 -0.671 1.933
 -1.31 -0.968 2.803
 -1.611 -1.206 3.508
 -1.744 -1.324 3.862
 -1.871 -1.442 4.216
 -1.838 -1.437 4.213
 -1.807 -1.434 4.213
 -1.849 -1.489 4.387
 -1.818 -1.487 4.39
 -1.785 -1.483 4.389
 -1.755 -1.481 4.393
 -1.723 -1.478 4.391
 -1.69 -1.474 4.388
 -1.656 -1.468 4.379
 -1.625 -1.465 4.379
 -1.595 -1.463 4.38
 -1.565 -1.461 4.382
 -1.535 -1.458 4.382
 -1.505 -1.455 4.381
 -1.473 -1.451 4.376
 -1.442 -1.447 4.371
 -1.41 -1.442 4.365
 -1.379 -1.439 4.36
 -1.35 -1.436 4.36
 -1.32 -1.433 4.356
 -1.291 -1.43 4.355
 -1.262 -1.428 4.355
 -1.234 -1.427 4.358
 -1.206 -1.426 4.359
 -1.18 -1.426 4.365
 -1.152 -1.424 4.366
 -1.123 -1.421 4.363
 -1.094 -1.418 4.359
 -1.066 -1.417 4.36
 -1.038 -1.415 4.359
 -1.009 -1.411 4.352
 -0.98 -1.408 4.348
 -0.953 -1.407 4.348
 -0.924 -1.402 4.338
 -0.896 -1.4 4.335
 -0.869 -1.399 4.337
 -0.841 -1.396 4.33
 -0.815 -1.396 4.335
 -0.788 -1.395 4.336
 -0.761 -1.394 4.334
 -0.734 -1.391 4.331
 -0.709 -1.394 4.342
 -0.681 -1.39 4.331
 -0.655 -1.388 4.329
 -0.628 -1.386 4.325
 -0.602 -1.387 4.331
 -0.576 -1.385 4.329
 -0.549 -1.384 4.327
 -0.524 -1.385 4.332
 -0.498 -1.384 4.332
 -0.472 -1.384 4.334
 -0.445 -1.382 4.329
 -0.419 -1.382 4.331
 -0.393 -1.38 4.325
 -0.367 -1.379 4.322
 -0.341 -1.377 4.319
 -0.315 -1.378 4.324
 -0.289 -1.377 4.322
 -0.264 -1.378 4.324
 -0.238 -1.377 4.323
 -0.212 -1.376 4.321
 -0.186 -1.374 4.315
 -0.161 -1.373 4.313
 -0.135 -1.372 4.308
 -0.109 -1.37 4.304
 -0.084 -1.37 4.302
 -0.058 -1.369 4.301
 -0.033 -1.369 4.301
 -0.007 -1.372 4.308
 0.017 -1.373 4.312
 0.043 -1.374 4.315
 0.068 -1.374 4.313
 0.094 -1.373 4.31
 0.119 -1.371 4.303
 0.145 -1.372 4.306
 0.17 -1.372 4.303
 0.196 -1.373 4.306
 0.222 -1.375 4.309
 0.248 -1.376 4.312
 0.273 -1.375 4.307
 0.299 -1.376 4.307
 0.324 -1.375 4.303
 0.349 -1.375 4.301
 0.375 -1.374 4.297
 0.4 -1.375 4.297
 0.426 -1.375 4.294
 0.452 -1.377 4.298
 0.477 -1.376 4.292
 0.503 -1.377 4.293
 0.529 -1.377 4.289
 0.555 -1.378 4.29
 0.58 -1.379 4.289
 0.606 -1.379 4.285
 0.632 -1.379 4.284
 0.658 -1.38 4.284
 0.684 -1.382 4.285
 0.71 -1.383 4.283
 0.737 -1.385 4.287
 0.763 -1.386 4.286
 0.789 -1.387 4.283
 0.815 -1.386 4.278
 0.84 -1.386 4.274
 0.866 -1.387 4.27
 0.892 -1.387 4.267
 0.919 -1.39 4.27
 0.947 -1.393 4.274
 0.973 -1.394 4.271
 1 -1.395 4.271
 1.027 -1.396 4.268
 1.054 -1.398 4.268
 1.08 -1.399 4.265
 1.108 -1.401 4.267
 1.135 -1.403 4.264
 1.164 -1.406 4.268
 1.191 -1.408 4.267
 1.219 -1.41 4.267
 1.247 -1.412 4.267
 1.276 -1.415 4.269
 1.303 -1.416 4.265
 1.33 -1.418 4.262
 1.358 -1.42 4.26
 1.385 -1.42 4.254
 1.412 -1.421 4.249
 1.44 -1.423 4.246
 1.467 -1.424 4.242
 1.496 -1.426 4.24
 1.525 -1.429 4.239
 1.555 -1.432 4.239
 1.584 -1.435 4.239
 1.614 -1.438 4.238
 1.642 -1.439 4.233
 1.671 -1.441 4.229
 1.699 -1.443 4.224
 1.728 -1.445 4.22
 1.757 -1.447 4.215
 1.784 -1.447 4.207
 1.811 -1.447 4.196
 1.836 -1.447 4.184
 1.86 -1.445 4.167
 1.88 -1.439 4.14
 0 0 0
 0 0 0
 0 0 0
 0 0 0
 0 0 0
 0 0 0
 0 0 0
 0.497 -0.345 0.957
 0.504 -0.345 0.954
 0.627 -0.424 1.172
 1.108 -0.737 2.043
 1.497 -0.982 2.72
 1.767 -1.145 3.163
 1.774 -1.136 3.127
 1.782 -1.128 3.094
 1.782 -1.115 3.047
 1.773 -1.097 2.988
 1.771 -1.084 2.94
 -0.112 -0.069 0.181
 -0.12 -0.075 0.198
 -0.1 -0.063 0.165
 -0.089 -0.057 0.148
 -0.081 -0.053 0.136
 -0.074 -0.049 0.125
 -0.064 -0.043 0.109
 -0.061 -0.042 0.105
 -0.053 -0.037 0.091
 -0.045 -0.032 0.076
 -0.035 -0.025 0.058
 -0.281 -0.197 0.563
 -0.52 -0.368 1.071
 -0.921 -0.658 1.938
 -1.309 -0.948 2.806
 -1.609 -1.183 3.512
 -1.741 -1.298 3.865
 -1.869 -1.413 4.221
 -1.837 -1.409 4.218
 -1.805 -1.406 4.218
 -1.847 -1.46 4.391
 -1.816 -1.458 4.394
 -1.783 -1.454 4.392
 -1.753 -1.452 4.394
 -1.72 -1.447 4.391
 -1.688 -1.444 4.39
 -1.654 -1.439 4.383
 -1.623 -1.436 4.382
 -1.593 -1.433 4.382
 -1.564 -1.432 4.386
 -1.534 -1.429 4.386
 -1.504 -1.427 4.387
 -1.472 -1.423 4.381
 -1.441 -1.419 4.378
 -1.41 -1.415 4.373
 -1.379 -1.411 4.367
 -1.35 -1.409 4.366
 -1.319 -1.405 4.362
 -1.289 -1.402 4.357
 -1.261 -1.4 4.358
 -1.234 -1.399 4.363
 -1.205 -1.398 4.364
 -1.179 -1.398 4.371
 -1.151 -1.397 4.373
 -1.123 -1.395 4.371
 -1.093 -1.391 4.365
 -1.066 -1.391 4.368
 -1.038 -1.389 4.368
 -1.008 -1.384 4.358
 -0.979 -1.381 4.351
 -0.952 -1.379 4.351
 -0.922 -1.374 4.339
 -0.894 -1.372 4.335
 -0.868 -1.371 4.337
 -0.84 -1.368 4.332
 -0.814 -1.369 4.339
 -0.788 -1.369 4.342
 -0.761 -1.367 4.338
 -0.733 -1.364 4.334
 -0.709 -1.368 4.348
 -0.681 -1.363 4.335
 -0.654 -1.361 4.332
 -0.627 -1.359 4.328
 -0.602 -1.36 4.335
 -0.575 -1.359 4.332
 -0.549 -1.358 4.333
 -0.523 -1.358 4.335
 -0.497 -1.358 4.336
 -0.471 -1.357 4.337
 -0.445 -1.356 4.333
 -0.419 -1.355 4.333
 -0.392 -1.352 4.324
 -0.366 -1.35 4.32
 -0.34 -1.349 4.317
 -0.314 -1.349 4.32
 -0.289 -1.348 4.318
 -0.263 -1.348 4.319
 -0.237 -1.348 4.32
 -0.212 -1.348 4.318
 -0.186 -1.346 4.314
 -0.16 -1.345 4.312
 -0.135 -1.344 4.309
 -0.109 -1.343 4.305
 -0.083 -1.342 4.301
 -0.058 -1.341 4.299
 -0.032 -1.342 4.3
 -0.007 -1.344 4.307
 0.017 -1.345 4.311
 0.043 -1.347 4.316
 0.069 -1.347 4.315
 0.094 -1.345 4.31
 0.119 -1.342 4.299
 0.145 -1.344 4.304
 0.17 -1.344 4.302
 0.196 -1.346 4.307
 0.222 -1.35 4.317
 0.248 -1.351 4.322
 0.273 -1.35 4.317
 0.299 -1.352 4.32
 0.324 -1.349 4.308
 0.349 -1.349 4.306
 0.375 -1.348 4.303
 0.4 -1.348 4.3
 0.426 -1.348 4.297
 0.452 -1.352 4.307
 0.477 -1.35 4.297
 0.503 -1.35 4.295
 0.528 -1.35 4.292
 0.554 -1.352 4.295
 0.58 -1.352 4.294
 0.605 -1.351 4.287
 0.632 -1.353 4.289
 0.658 -1.354 4.29
 0.685 -1.357 4.293
 0.71 -1.357 4.291
 0.738 -1.36 4.298
 0.763 -1.361 4.294
 0.789 -1.361 4.291
 0.815 -1.361 4.286
 0.841 -1.361 4.284
 0.866 -1.361 4.278
 0.892 -1.361 4.274
 0.919 -1.364 4.277
 0.947 -1.367 4.281
 0.972 -1.366 4.273
 1 -1.368 4.275
 1.026 -1.368 4.27
 1.053 -1.37 4.269
 1.079 -1.37 4.264
 1.107 -1.373 4.267
 1.133 -1.374 4.264
 1.162 -1.377 4.268
 1.189 -1.379 4.266
 1.217 -1.381 4.267
 1.245 -1.383 4.266
 1.273 -1.386 4.268
 1.301 -1.387 4.264
 1.329 -1.39 4.264
 1.357 -1.391 4.262
 1.383 -1.392 4.256
 1.41 -1.393 4.251
 1.439 -1.395 4.249
 1.465 -1.396 4.243
 1.494 -1.398 4.24
 1.523 -1.4 4.239
 1.552 -1.403 4.239
 1.581 -1.405 4.238
 1.611 -1.409 4.238
 1.64 -1.411 4.236
 1.67 -1.414 4.234
 1.698 -1.415 4.229
 1.727 -1.417 4.224
 1.756 -1.419 4.22
 1.783 -1.419 4.212
 1.809 -1.419 4.201
 1.837 -1.42 4.192
 1.863 -1.42 4.18
 0 0 0
 0 0 0
 0 0 0
 0 0 0
 0 0 0
 0 0 0
 0 0 0
 0 0 0
 0.073 -0.053 0.135
 0.074 -0.053 0.135
 0 0 0
 0.75 -0.491 1.384
 1.378 -0.887 2.508
 1.763 -1.121 3.161
 1.772 -1.114 3.13
 1.78 -1.106 3.098
 1.782 -1.095 3.055
 1.796 -1.09 3.032
 1.767 -1.061 2.939
 -0.146 -0.088 0.241
 -0.134 -0.082 0.224
 -0.106 -0.066 0.177
 -0.095 -0.06 0.159
 -0.086 -0.055 0.146
 -0.076 -0.049 0.129
 -0.066 -0.044 0.112
 -0.061 -0.041 0.104
 -0.052 -0.035 0.088
 -0.044 -0.03 0.074
 -0.034 -0.024 0.055
 -0.279 -0.192 0.561
 -0.519 -0.36 1.072
 -0.919 -0.645 1.939
 -1.307 -0.929 2.808
 -1.607 -1.158 3.513
 -1.738 -1.271 3.866
 -1.865 -1.383 4.219
 -1.832 -1.379 4.217
 -1.802 -1.376 4.218
 -1.844 -1.43 4.393
 -1.814 -1.428 4.397
 -1.781 -1.425 4.396
 -1.75 -1.422 4.397
 -1.717 -1.417 4.392
 -1.686 -1.415 4.393
 -1.653 -1.41 4.387
 -1.621 -1.407 4.385
 -1.591 -1.405 4.386
 -1.562 -1.403 4.389
 -1.53 -1.399 4.385
 -1.5 -1.396 4.384
 -1.468 -1.392 4.377
 -1.437 -1.388 4.372
 -1.407 -1.385 4.37
 -1.377 -1.382 4.368
 -1.347 -1.379 4.364
 -1.317 -1.376 4.363
 -1.287 -1.373 4.359
 -1.259 -1.372 4.361
 -1.232 -1.371 4.365
 -1.204 -1.37 4.368
 -1.179 -1.372 4.378
 -1.151 -1.37 4.379
 -1.122 -1.367 4.376
 -1.093 -1.364 4.371
 -1.066 -1.364 4.374
 -1.038 -1.363 4.375
 -1.008 -1.358 4.365
 -0.979 -1.354 4.356
 -0.951 -1.352 4.355
 -0.921 -1.346 4.341
 -0.892 -1.343 4.333
 -0.866 -1.342 4.335
 -0.837 -1.338 4.326
 -0.812 -1.34 4.336
 -0.786 -1.34 4.34
 -0.759 -1.338 4.338
 -0.732 -1.336 4.333
 -0.709 -1.342 4.355
 -0.679 -1.334 4.331
 -0.653 -1.333 4.332
 -0.626 -1.33 4.326
 -0.601 -1.332 4.336
 -0.575 -1.332 4.338
 -0.549 -1.332 4.338
 -0.523 -1.332 4.34
 -0.496 -1.329 4.335
 -0.471 -1.332 4.346
 -0.444 -1.329 4.338
 -0.418 -1.327 4.332
 -0.391 -1.322 4.317
 -0.365 -1.321 4.315
 -0.339 -1.319 4.311
 -0.313 -1.32 4.314
 -0.288 -1.32 4.317
 -0.262 -1.32 4.316
 -0.237 -1.319 4.315
 -0.211 -1.319 4.314
 -0.185 -1.318 4.312
 -0.16 -1.317 4.309
 -0.134 -1.316 4.308
 -0.109 -1.316 4.305
 -0.083 -1.314 4.302
 -0.058 -1.313 4.298
 -0.032 -1.314 4.299
 -0.007 -1.316 4.307
 0.018 -1.319 4.315
 0.043 -1.325 4.335
 0.069 -1.325 4.334
 0.094 -1.32 4.315
 0.119 -1.311 4.288
 0.144 -1.313 4.292
 0.17 -1.313 4.292
 0.195 -1.316 4.3
 0.222 -1.324 4.325
 0.249 -1.329 4.339
 0.274 -1.328 4.333
 0.3 -1.329 4.335
 0.325 -1.326 4.325
 0.35 -1.325 4.319
 0.375 -1.324 4.314
 0.401 -1.323 4.309
 0.426 -1.322 4.302
 0.452 -1.326 4.311
 0.476 -1.321 4.295
 0.502 -1.321 4.292
 0.529 -1.325 4.3
 0.555 -1.327 4.306
 0.582 -1.33 4.31
 0.608 -1.331 4.312
 0.635 -1.333 4.314
 0.658 -1.328 4.295
 0.684 -1.33 4.296
 0.709 -1.329 4.289
 0.734 -1.328 4.282
 0.759 -1.327 4.275
 0.787 -1.331 4.283
 0.812 -1.33 4.278
 0.839 -1.333 4.28
 0.864 -1.331 4.272
 0.889 -1.331 4.266
 0.917 -1.335 4.273
 0.947 -1.341 4.287
 0.971 -1.339 4.276
 0.999 -1.341 4.278
 1.025 -1.342 4.274
 1.052 -1.343 4.272
 1.077 -1.343 4.265
 1.105 -1.345 4.269
 1.132 -1.346 4.264
 1.16 -1.348 4.266
 1.186 -1.35 4.263
 1.214 -1.352 4.264
 1.242 -1.354 4.262
 1.27 -1.356 4.264
 1.298 -1.358 4.262
 1.326 -1.361 4.263
 1.354 -1.362 4.261
 1.381 -1.363 4.255
 1.409 -1.365 4.254
 1.437 -1.367 4.251
 1.464 -1.367 4.245
 1.492 -1.369 4.242
 1.521 -1.372 4.241
 1.55 -1.374 4.24
 1.578 -1.376 4.237
 1.608 -1.379 4.236
 1.637 -1.382 4.236
 1.667 -1.385 4.235
 1.695 -1.386 4.229
 1.724 -1.388 4.225
 1.754 -1.39 4.223
 1.781 -1.391 4.214
 1.808 -1.391 4.205
 1.837 -1.393 4.199
 1.866 -1.395 4.196
 0 0 0
 0 0 0
 0 0 0
 0 0 0
 0 0 0
 0 0 0
 0 0 0
 0 0 0
 0 0 0
 0 0 0
 0 0 0
 0 0 0
 1.501 -0.948 2.737
 1.755 -1.095 3.154
 1.768 -1.09 3.13
 1.779 -1.084 3.101
 1.784 -1.075 3.064
 1.787 -1.065 3.024
 1.771 -1.043 2.952
 -0.133 -0.079 0.218
 -0.109 -0.066 0.179
 -0.103 -0.063 0.172
 -0.091 -0.057 0.153
 -0.081 -0.051 0.137
 -0.071 -0.045 0.12
 -0.064 -0.041 0.109
 -0.057 -0.038 0.097
 -0.049 -0.033 0.084
 -0.041 -0.028 0.069
 -0.031 -0.022 0.049
 -0.276 -0.186 0.556
 -0.6 -0.408 1.243
 -0.997 -0.686 2.109
 -1.385 -0.965 2.982
 -1.762 -1.246 3.862
 -1.891 -1.355 4.214
 -1.938 -1.409 4.394
 -1.905 -1.406 4.393
 -1.874 -1.403 4.395
 -1.84 -1.399 4.392
 -1.81 -1.398 4.397
 -1.777 -1.394 4.394
 -1.747 -1.391 4.396
 -1.714 -1.387 4.392
 -1.684 -1.385 4.395
 -1.65 -1.38 4.387
 -1.619 -1.378 4.387
 -1.588 -1.375 4.385
 -1.558 -1.372 4.387
 -1.526 -1.368 4.381
 -1.497 -1.366 4.382
 -1.464 -1.361 4.374
 -1.433 -1.358 4.37
 -1.404 -1.355 4.368
 -1.375 -1.353 4.37
 -1.345 -1.35 4.366
 -1.316 -1.348 4.366
 -1.286 -1.346 4.364
 -1.258 -1.344 4.366
 -1.232 -1.344 4.372
 -1.204 -1.343 4.374
 -1.178 -1.345 4.384
 -1.15 -1.343 4.384
 -1.122 -1.341 4.383
 -1.091 -1.336 4.372
 -1.065 -1.337 4.38
 -1.038 -1.336 4.383
 -0.866 -1.144 3.755
 -0.84 -1.14 3.745
 -0.817 -1.139 3.744
 -0.789 -1.132 3.725
 -0.765 -1.129 3.72
 -0.862 -1.311 4.325
 -0.832 -1.305 4.308
 -0.811 -1.313 4.338
 -0.787 -1.315 4.351
 0 0 0
 0 0 0
 0 0 0
 0 0 0
 0 0 0
 0 0 0
 0 0 0
 0 0 0
 0 0 0
 0 0 0
 0 0 0
 0 0 0
 0 0 0
 0 0 0
 -0.389 -1.29 4.304
 -0.363 -1.291 4.307
 -0.338 -1.292 4.311
 -0.313 -1.292 4.314
 -0.287 -1.293 4.316
 -0.262 -1.293 4.318
 -0.236 -1.292 4.317
 -0.211 -1.292 4.315
 -0.185 -1.291 4.315
 -0.159 -1.29 4.312
 -0.134 -1.29 4.31
 -0.108 -1.289 4.308
 -0.083 -1.288 4.306
 -0.057 -1.287 4.302
 -0.032 -1.287 4.299
 -0.007 -1.286 4.297
 0.018 -1.287 4.299
 0 0 0
 0 0 0
 0 0 0
 0 0 0
 0 0 0
 0 0 0
 0 0 0
 0 0 0
 0 0 0
 0 0 0
 0 0 0
 0 0 0
 0 0 0
 0 0 0
 0 0 0
 0 0 0
 0 0 0
 0 0 0
 0 0 0
 0 0 0
 0 0 0
 0 0 0
 0 0 0
 0 0 0
 0 0 0
 0 0 0
 0 0 0
 0 0 0
 0 0 0
 0 0 0
 0 0 0
 0 0 0
 0 0 0
 0 0 0
 0 0 0
 0.947 -1.315 4.293
 0.971 -1.312 4.281
 0.998 -1.314 4.279
 1.024 -1.314 4.274
 1.051 -1.315 4.274
 1.077 -1.316 4.269
 1.105 -1.318 4.272
 1.13 -1.318 4.266
 1.158 -1.321 4.268
 1.185 -1.322 4.264
 1.213 -1.324 4.265
 1.24 -1.326 4.264
 1.269 -1.329 4.267
 1.296 -1.33 4.263
 1.325 -1.333 4.264
 1.352 -1.333 4.26
 1.379 -1.335 4.255
 1.407 -1.336 4.253
 1.435 -1.339 4.253
 1.461 -1.338 4.244
 1.49 -1.341 4.243
 1.518 -1.343 4.241
 1.547 -1.345 4.238
 1.575 -1.346 4.235
 1.605 -1.35 4.237
 1.635 -1.353 4.237
 1.665 -1.356 4.236
 1.693 -1.357 4.23
 1.721 -1.358 4.225
 1.75 -1.36 4.221
 1.777 -1.361 4.212
 1.803 -1.361 4.201
 1.832 -1.362 4.196
 1.865 -1.367 4.2
 0 0 0
 0 0 0
 0 0 0
 0 0 0
 0 0 0
 0 0 0
 0 0 0
 0 0 0
 0 0 0
 0 0 0
 0 0 0
 0 0 0
 1.455 -0.901 2.658
 1.752 -1.072 3.154
 1.769 -1.07 3.138
 1.781 -1.064 3.111
 1.788 -1.056 3.077
 1.774 -1.036 3.007
 1.77 -1.022 2.956
 -0.15 -0.087 0.249
 -0.092 -0.055 0.151
 -0.101 -0.061 0.168
 -0.088 -0.054 0.148
 -0.078 -0.048 0.132
 -0.068 -0.042 0.114
 -0.059 -0.038 0.1
 -0.051 -0.033 0.085
 -0.043 -0.028 0.071
 -0.035 -0.024 0.057
 -0.027 -0.019 0.041
 -0.272 -0.18 0.549
 -0.68 -0.453 1.414
 -1.076 -0.726 2.282
 -1.462 -0.999 3.156
 -1.839 -1.274 4.039
 -1.968 -1.382 4.395
 -1.937 -1.381 4.4
 -1.904 -1.377 4.398
 -1.872 -1.375 4.401
 -1.839 -1.371 4.398
 -1.809 -1.369 4.401
 -1.776 -1.365 4.398
 -1.745 -1.362 4.399
 -1.711 -1.358 4.394
 -1.681 -1.356 4.395
 -1.646 -1.35 4.385
 -1.615 -1.347 4.383
 -1.585 -1.344 4.384
 -1.554 -1.341 4.382
 -1.522 -1.337 4.377
 -1.493 -1.336 4.378
 -1.46 -1.331 4.369
 -1.43 -1.328 4.368
 -1.402 -1.327 4.371
 -1.373 -1.325 4.372
 -1.343 -1.322 4.369
 -1.317 -1.323 4.377
 -1.283 -1.316 4.361
 -1.258 -1.318 4.373
 -1.235 -1.322 4.393
 -1.208 -1.321 4.395
 -1.185 -1.325 4.417
 0 0 0
 0 0 0
 0 0 0
 0 0 0
 0 0 0
 0 0 0
 0 0 0
 0 0 0
 0 0 0
 0 0 0
 0 0 0
 0 0 0
 0 0 0
 0 0 0
 0 0 0
 0 0 0
 0 0 0
 0 0 0
 0 0 0
 0 0 0
 0 0 0
 0 0 0
 0 0 0
 0 0 0
 0 0 0
 0 0 0
 0 0 0
 0 0 0
 -0.388 -1.261 4.298
 -0.363 -1.263 4.306
 -0.337 -1.264 4.31
 -0.312 -1.265 4.313
 -0.287 -1.265 4.316
 -0.261 -1.265 4.317
 -0.236 -1.264 4.315
 -0.21 -1.263 4.312
 -0.184 -1.263 4.31
 -0.159 -1.262 4.309
 -0.134 -1.262 4.309
 -0.108 -1.262 4.309
 -0.083 -1.261 4.307
 -0.057 -1.261 4.305
 -0.032 -1.26 4.301
 -0.007 -1.259 4.298
 0.018 -1.258 4.294
 0 0 0
 0 0 0
 0 0 0
 0 0 0
 0 0 0
 0 0 0
 0 0 0
 0 0 0
 0 0 0
 0 0 0
 0 0 0
 0 0 0
 0 0 0
 0 0 0
 0 0 0
 0 0 0
 0 0 0
 0 0 0
 0 0 0
 0 0 0
 0 0 0
 0 0 0
 0 0 0
 0 0 0
 0 0 0
 0 0 0
 0 0 0
 0 0 0
 0 0 0
 0 0 0
 0 0 0
 0 0 0
 0 0 0
 0 0 0
 0 0 0
 0.945 -1.286 4.29
 0.971 -1.285 4.283
 0.997 -1.286 4.282
 1.022 -1.286 4.275
 1.049 -1.287 4.272
 1.075 -1.287 4.268
 1.101 -1.288 4.265
 1.128 -1.289 4.263
 1.156 -1.292 4.264
 1.183 -1.293 4.262
 1.21 -1.295 4.262
 1.238 -1.297 4.262
 1.265 -1.298 4.259
 1.292 -1.3 4.257
 1.32 -1.302 4.255
 1.347 -1.303 4.253
 1.375 -1.305 4.252
 1.404 -1.307 4.251
 1.432 -1.31 4.251
 1.46 -1.311 4.247
 1.489 -1.314 4.247
 1.517 -1.315 4.245
 1.546 -1.317 4.243
 1.574 -1.319 4.238
 1.603 -1.321 4.238
 1.632 -1.324 4.236
 1.661 -1.326 4.235
 1.689 -1.327 4.227
 1.717 -1.329 4.222
 1.746 -1.331 4.219
 1.773 -1.331 4.21
 1.799 -1.331 4.198
 1.829 -1.333 4.196
 1.86 -1.337 4.196
 0 0 0
 0 0 0
 0 0 0
 0 0 0
 0 0 0
 0 0 0
 0 0 0
 0 0 0
 0 0 0
 0 0 0
 0 0 0
 0 0 0
 1.732 -1.051 3.172
 1.752 -1.051 3.161
 1.769 -1.048 3.143
 1.78 -1.043 3.115
 1.788 -1.036 3.084
 1.807 -1.035 3.069
 1.78 -1.008 2.98
 -0.126 -0.072 0.206
 -0.1 -0.058 0.165
 -0.098 -0.058 0.164
 -0.086 -0.051 0.143
 -0.075 -0.045 0.125
 -0.062 -0.039 0.105
 -0.053 -0.033 0.089
 -0.046 -0.03 0.077
 -0.126 -0.079 0.235
 -0.205 -0.13 0.398
 -0.282 -0.18 0.56
 -0.609 -0.392 1.246
 -1.011 -0.659 2.111
 -1.322 -0.873 2.81
 -1.623 -1.086 3.511
 -1.917 -1.301 4.217
 -1.966 -1.353 4.398
 -1.936 -1.352 4.405
 -1.902 -1.347 4.401
 -1.87 -1.345 4.402
 -1.836 -1.341 4.399
 -1.805 -1.338 4.399
 -1.772 -1.334 4.397
 -1.74 -1.331 4.396
 -1.707 -1.327 4.391
 -1.676 -1.324 4.389
 -1.642 -1.319 4.381
 -1.611 -1.316 4.38
 -1.582 -1.315 4.384
 -1.551 -1.312 4.383
 -1.52 -1.309 4.378
 -1.492 -1.308 4.383
 -1.46 -1.303 4.376
 -1.43 -1.301 4.375
 -1.403 -1.301 4.38
 -1.375 -1.3 4.386
 -1.346 -1.298 4.385
 -1.325 -1.304 4.413
 0 0 0
 0 0 0
 0 0 0
 0 0 0
 0 0 0
 0 0 0
 0 0 0
 0 0 0
 0 0 0
 0 0 0
 0 0 0
 0 0 0
 0 0 0
 0 0 0
 0 0 0
 0 0 0
 0 0 0
 0 0 0
 0 0 0
 0 0 0
 0 0 0
 0 0 0
 0 0 0
 0 0 0
 0 0 0
 0 0 0
 0 0 0
 0 0 0
 0 0 0
 0 0 0
 0 0 0
 0 0 0
 0 0 0
 -0.385 -1.229 4.281
 -0.361 -1.233 4.296
 -0.336 -1.235 4.305
 -0.311 -1.236 4.31
 -0.286 -1.237 4.315
 -0.261 -1.238 4.319
 -0.235 -1.238 4.317
 -0.21 -1.237 4.314
 -0.184 -1.236 4.311
 -0.158 -1.235 4.308
 -0.133 -1.234 4.307
 -0.108 -1.234 4.307
 -0.082 -1.234 4.305
 -0.057 -1.234 4.305
 -0.032 -1.233 4.301
 -0.006 -1.233 4.301
 0.018 -1.232 4.296
 0 0 0
 0 0 0
 0 0 0
 0 0 0
 0 0 0
 0 0 0
 0 0 0
 0 0 0
 0 0 0
 0 0 0
 0 0 0
 0 0 0
 0 0 0
 0 0 0
 0 0 0
 0 0 0
 0 0 0
 0 0 0
 0 0 0
 0 0 0
 0 0 0
 0 0 0
 0 0 0
 0 0 0
 0 0 0
 0 0 0
 0 0 0
 0 0 0
 0 0 0
 0 0 0
 0 0 0
 0 0 0
 0 0 0
 0 0 0
 0 0 0
 0.941 -1.254 4.278
 0.968 -1.256 4.277
 0.994 -1.256 4.272
 1.02 -1.257 4.27
 1.047 -1.258 4.27
 1.073 -1.259 4.267
 1.099 -1.26 4.263
 1.126 -1.262 4.263
 1.153 -1.263 4.26
 1.18 -1.264 4.257
 1.207 -1.266 4.258
 1.235 -1.268 4.258
 1.262 -1.269 4.255
 1.29 -1.271 4.256
 1.317 -1.273 4.253
 1.344 -1.274 4.249
 1.373 -1.276 4.249
 1.401 -1.278 4.249
 1.429 -1.28 4.247
 1.457 -1.282 4.246
 1.486 -1.285 4.246
 1.515 -1.287 4.244
 1.543 -1.289 4.243
 1.571 -1.29 4.238
 1.599 -1.292 4.235
 1.628 -1.294 4.233
 1.657 -1.296 4.231
 1.685 -1.298 4.226
 1.714 -1.299 4.222
 1.744 -1.302 4.221
 1.771 -1.303 4.213
 1.798 -1.303 4.204
 1.827 -1.305 4.199
 1.86 -1.31 4.203
 0 0 0
 0 0 0
 0 0 0
 0 0 0
 0 0 0
 0 0 0
 0 0 0
 0 0 0
 0 0 0
 0 0 0
 0 0 0
 0 0 0
 1.726 -1.026 3.167
 1.749 -1.028 3.161
 1.767 -1.026 3.145
 1.778 -1.021 3.118
 1.787 -1.014 3.087
 1.814 -1.018 3.087
 1.786 -0.991 2.994
 -0.124 -0.069 0.204
 -0.087 -0.049 0.141
 -0.095 -0.055 0.159
 -0.085 -0.05 0.142
 -0.075 -0.045 0.127
 -0.062 -0.038 0.104
 -0.052 -0.032 0.087
 -0.042 -0.027 0.069
 -0.121 -0.074 0.225
 -0.199 -0.123 0.387
 -0.277 -0.173 0.551
 -0.69 -0.435 1.416
 -1.092 -0.697 2.286
 -1.401 -0.906 2.985
 -1.702 -1.115 3.688
 -1.994 -1.325 4.397
 -1.964 -1.324 4.401
 -1.933 -1.322 4.407
 -1.901 -1.319 4.407
 -1.867 -1.315 4.403
 -1.832 -1.31 4.397
 -1.8 -1.307 4.395
 -1.768 -1.304 4.395
 -1.736 -1.301 4.393
 -1.704 -1.297 4.391
 -1.672 -1.294 4.389
 -1.639 -1.29 4.382
 -1.608 -1.287 4.379
 -1.58 -1.286 4.386
 -1.549 -1.283 4.383
 -1.518 -1.28 4.379
 -1.489 -1.278 4.382
 -1.458 -1.275 4.376
 -1.427 -1.271 4.372
 -1.399 -1.27 4.376
 -1.371 -1.27 4.381
 -1.342 -1.267 4.378
 -1.319 -1.271 4.398
 0 0 0
 0 0 0
 0 0 0
 0 0 0
 0 0 0
 0 0 0
 0 0 0
 0 0 0
 0 0 0
 0 0 0
 0 0 0
 0 0 0
 0 0 0
 0 0 0
 0 0 0
 0 0 0
 0 0 0
 0 0 0
 0 0 0
 0 0 0
 0 0 0
 0 0 0
 0 0 0
 0 0 0
 -0.187 -0.366 1.287
 -0.179 -0.366 1.285
 -0.171 -0.366 1.286
 -0.164 -0.368 1.293
 -0.155 -0.365 1.286
 0 0 0
 0 0 0
 0 0 0
 0 0 0
 -0.384 -1.2 4.275
 -0.361 -1.206 4.295
 -0.336 -1.207 4.303
 -0.311 -1.209 4.309
 -0.286 -1.21 4.314
 -0.26 -1.211 4.319
 -0.235 -1.21 4.317
 -0.209 -1.21 4.316
 -0.184 -1.209 4.311
 -0.158 -1.208 4.308
 -0.133 -1.207 4.307
 -0.107 -1.207 4.306
 -0.082 -1.206 4.303
 -0.057 -1.206 4.303
 -0.031 -1.205 4.299
 -0.006 -1.205 4.298
 0.018 -1.205 4.296
 0 0 0
 0 0 0
 0 0 0
 0 0 0
 0 0 0
 0 0 0
 0 0 0
 0 0 0
 0 0 0
 0 0 0
 0 0 0
 0 0 0
 0 0 0
 0 0 0
 0 0 0
 0 0 0
 0 0 0
 0 0 0
 0 0 0
 0 0 0
 0 0 0
 0 0 0
 0 0 0
 0 0 0
 0 0 0
 0 0 0
 0 0 0
 0 0 0
 0 0 0
 0 0 0
 0 0 0
 0 0 0
 0 0 0
 0 0 0
 0 0 0
 0.938 -1.224 4.269
 0.965 -1.227 4.271
 0.991 -1.227 4.267
 1.018 -1.228 4.266
 1.044 -1.229 4.265
 1.071 -1.231 4.266
 1.097 -1.232 4.262
 1.125 -1.234 4.262
 1.151 -1.235 4.259
 1.179 -1.236 4.259
 1.206 -1.238 4.258
 1.233 -1.24 4.258
 1.26 -1.241 4.255
 1.289 -1.244 4.258
 1.316 -1.245 4.254
 1.343 -1.247 4.252
 1.372 -1.249 4.253
 1.4 -1.251 4.252
 1.427 -1.252 4.247
 1.455 -1.254 4.246
 1.484 -1.256 4.246
 1.512 -1.258 4.244
 1.541 -1.26 4.242
 1.569 -1.262 4.239
 1.597 -1.264 4.236
 1.625 -1.265 4.231
 1.653 -1.266 4.226
 1.681 -1.268 4.222
 1.71 -1.27 4.218
 1.739 -1.272 4.215
 1.767 -1.273 4.209
 1.795 -1.274 4.203
 1.823 -1.276 4.197
 1.855 -1.279 4.198
 0 0 0
 0 0 0
 0 0 0
 0 0 0
 0 0 0
 0 0 0
 0 0 0
 0 0 0
 0 0 0
 0 0 0
 0 0 0
 0 0 0
 1.718 -1.001 3.157
 1.746 -1.005 3.161
 1.764 -1.004 3.146
 1.777 -0.999 3.122
 1.786 -0.993 3.091
 1.771 -0.973 3.019
 1.805 -0.981 3.032
 -0.122 -0.067 0.201
 -0.12 -0.066 0.2
 -0.09 -0.051 0.149
 -0.08 -0.046 0.134
 -0.069 -0.04 0.115
 -0.057 -0.034 0.094
 -0.046 -0.028 0.075
 -0.037 -0.023 0.06
 -0.116 -0.07 0.216
 -0.195 -0.118 0.379
 -0.359 -0.219 0.721
 -0.772 -0.476 1.59
 -1.174 -0.733 2.462
 -1.482 -0.938 3.163
 -1.781 -1.143 3.867
 -1.992 -1.296 4.4
 -1.962 -1.295 4.406
 -1.932 -1.293 4.412
 -1.9 -1.291 4.413
 -1.865 -1.286 4.405
 -1.827 -1.279 4.392
 -1.794 -1.275 4.389
 -1.762 -1.272 4.387
 -1.731 -1.269 4.387
 -1.7 -1.267 4.387
 -1.669 -1.264 4.386
 -1.636 -1.26 4.379
 -1.606 -1.258 4.38
 -1.576 -1.256 4.383
 -1.546 -1.254 4.381
 -1.515 -1.25 4.377
 -1.487 -1.249 4.382
 -1.455 -1.246 4.377
 -1.425 -1.243 4.373
 -1.396 -1.241 4.375
 -1.369 -1.241 4.379
 -1.339 -1.238 4.376
 -1.314 -1.24 4.389
 0 0 0
 0 0 0
 0 0 0
 0 0 0
 0 0 0
 0 0 0
 0 0 0
 0 0 0
 0 0 0
 0 0 0
 0 0 0
 0 0 0
 0 0 0
 0 0 0
 0 0 0
 0 0 0
 0 0 0
 0 0 0
 0 0 0
 0 0 0
 0 0 0
 0 0 0
 0 0 0
 -0.198 -0.365 1.31
 -0.188 -0.362 1.301
 -0.179 -0.36 1.293
 -0.171 -0.358 1.289
 -0.164 -0.359 1.292
 -0.155 -0.358 1.287
 -0.148 -0.357 1.287
 0 0 0
 0 0 0
 0 0 0
 -0.384 -1.175 4.279
 -0.36 -1.179 4.296
 -0.335 -1.181 4.304
 -0.31 -1.183 4.311
 -0.285 -1.184 4.316
 -0.26 -1.185 4.323
 -0.235 -1.185 4.323
 -0.209 -1.185 4.323
 -0.183 -1.183 4.316
 -0.158 -1.182 4.313
 -0.133 -1.181 4.311
 -0.107 -1.181 4.309
 -0.082 -1.18 4.306
 -0.057 -1.181 4.309
 -0.031 -1.18 4.305
 -0.006 -1.18 4.304
 0.018 -1.18 4.305
 0 0 0
 0 0 0
 0 0 0
 0 0 0
 0 0 0
 0 0 0
 0 0 0
 0 0 0
 0 0 0
 0 0 0
 0 0 0
 0 0 0
 0 0 0
 0 0 0
 0 0 0
 0 0 0
 0 0 0
 0 0 0
 0 0 0
 0 0 0
 0 0 0
 0 0 0
 0 0 0
 0 0 0
 0 0 0
 0 0 0
 0 0 0
 0 0 0
 0 0 0
 0 0 0
 0 0 0
 0 0 0
 0 0 0
 0 0 0
 0 0 0
 0.938 -1.198 4.274
 0.965 -1.2 4.274
 0.99 -1.2 4.27
 1.017 -1.201 4.267
 1.043 -1.202 4.264
 1.07 -1.203 4.264
 1.096 -1.204 4.26
 1.123 -1.205 4.26
 1.149 -1.206 4.257
 1.176 -1.208 4.256
 1.204 -1.21 4.256
 1.231 -1.212 4.256
 1.259 -1.213 4.255
 1.288 -1.217 4.259
 1.315 -1.218 4.257
 1.342 -1.219 4.254
 1.371 -1.222 4.255
 1.398 -1.223 4.252
 1.425 -1.224 4.246
 1.452 -1.225 4.244
 1.481 -1.227 4.243
 1.509 -1.229 4.24
 1.537 -1.231 4.239
 1.566 -1.233 4.237
 1.595 -1.236 4.237
 1.623 -1.237 4.232
 1.652 -1.239 4.229
 1.68 -1.24 4.225
 1.707 -1.241 4.218
 1.736 -1.243 4.213
 1.767 -1.246 4.216
 1.796 -1.248 4.211
 1.826 -1.25 4.209
 1.863 -1.258 4.223
 0 0 0
 0 0 0
 0 0 0
 0 0 0
 0 0 0
 0 0 0
 0 0 0
 0 0 0
 0 0 0
 0 0 0
 0 0 0
 0 0 0
 1.717 -0.979 3.162
 1.747 -0.985 3.169
 1.762 -0.982 3.148
 1.774 -0.977 3.122
 1.783 -0.97 3.091
 1.793 -0.965 3.063
 1.762 -0.937 2.964
 -0.095 -0.051 0.153
 -0.076 -0.042 0.123
 -0.09 -0.05 0.149
 -0.078 -0.044 0.131
 -0.067 -0.038 0.112
 -0.053 -0.031 0.088
 -0.042 -0.025 0.069
 -0.123 -0.072 0.227
 -0.289 -0.169 0.56
 -0.366 -0.216 0.724
 -0.615 -0.367 1.245
 -1.024 -0.618 2.116
 -1.338 -0.818 2.815
 -1.563 -0.968 3.344
 -1.86 -1.168 4.048
 -1.99 -1.267 4.403
 -1.959 -1.265 4.406
 -1.929 -1.263 4.412
 -1.893 -1.258 4.405
 -1.857 -1.253 4.396
 -1.821 -1.247 4.385
 -1.79 -1.245 4.387
 -1.761 -1.244 4.391
 -1.729 -1.241 4.39
 -1.697 -1.238 4.388
 -1.666 -1.235 4.385
 -1.633 -1.23 4.378
 -1.601 -1.227 4.376
 -1.574 -1.227 4.383
 -1.545 -1.226 4.386
 -1.514 -1.223 4.383
 -1.485 -1.221 4.385
 -1.454 -1.218 4.38
 -1.423 -1.214 4.374
 -1.394 -1.212 4.374
 -1.365 -1.211 4.374
 -1.337 -1.21 4.377
 -1.314 -1.213 4.395
 0 0 0
 0 0 0
 0 0 0
 0 0 0
 0 0 0
 0 0 0
 0 0 0
 0 0 0
 0 0 0
 0 0 0
 0 0 0
 0 0 0
 0 0 0
 0 0 0
 0 0 0
 0 0 0
 0 0 0
 0 0 0
 0 0 0
 0 0 0
 0 0 0
 0 0 0
 -0.205 -0.356 1.306
 -0.197 -0.357 1.31
 -0.188 -0.354 1.301
 -0.179 -0.352 1.295
 -0.172 -0.353 1.299
 -0.165 -0.354 1.304
 -0.157 -0.353 1.301
 -0.15 -0.356 1.311
 0 0 0
 0 0 0
 0 0 0
 -0.384 -1.151 4.288
 -0.36 -1.154 4.304
 -0.335 -1.155 4.307
 -0.31 -1.156 4.313
 -0.285 -1.157 4.318
 -0.26 -1.158 4.323
 -0.234 -1.158 4.322
 -0.209 -1.158 4.324
 -0.183 -1.156 4.316
 -0.158 -1.155 4.311
 -0.132 -1.154 4.309
 -0.107 -1.154 4.308
 -0.082 -1.152 4.301
 -0.056 -1.153 4.304
 -0.031 -1.152 4.302
 -0.006 -1.151 4.299
 0.018 -1.148 4.286
 0 0 0
 0 0 0
 0 0 0
 0 0 0
 0 0 0
 0 0 0
 0 0 0
 0 0 0
 0 0 0
 0 0 0
 0 0 0
 0 0 0
 0 0 0
 0 0 0
 0 0 0
 0 0 0
 0 0 0
 0 0 0
 0 0 0
 0 0 0
 0 0 0
 0 0 0
 0 0 0
 0 0 0
 0 0 0
 0 0 0
 0 0 0
 0 0 0
 0 0 0
 0 0 0
 0 0 0
 0 0 0
 0 0 0
 0 0 0
 0 0 0
 0.938 -1.173 4.281
 0.963 -1.172 4.271
 0.988 -1.172 4.265
 1.014 -1.173 4.263
 1.04 -1.173 4.26
 1.067 -1.175 4.259
 1.094 -1.176 4.258
 1.121 -1.178 4.259
 1.147 -1.179 4.256
 1.174 -1.18 4.255
 1.201 -1.181 4.252
 1.228 -1.182 4.25
 1.255 -1.184 4.25
 1.284 -1.187 4.253
 1.312 -1.189 4.254
 1.34 -1.191 4.254
 1.369 -1.194 4.255
 1.395 -1.195 4.25
 1.422 -1.196 4.246
 1.45 -1.197 4.243
 1.478 -1.199 4.242
 1.506 -1.201 4.239
 1.535 -1.203 4.238
 1.564 -1.205 4.238
 1.593 -1.207 4.237
 1.62 -1.208 4.229
 1.648 -1.209 4.226
 1.676 -1.211 4.222
 1.703 -1.212 4.214
 1.732 -1.213 4.211
 1.764 -1.217 4.215
 1.792 -1.219 4.21
 1.822 -1.221 4.208
 1.856 -1.226 4.213
 0 0 0
 0 0 0
 0 0 0
 0 0 0
 0 0 0
 0 0 0
 0 0 0
 0 0 0
 0 0 0
 0 0 0
 0 0 0
 0 0 0
 0 0 0
 1.74 -0.959 3.161
 1.757 -0.958 3.144
 1.768 -0.953 3.117
 1.777 -0.946 3.086
 1.786 -0.941 3.056
 1.771 -0.922 2.986
 -0.089 -0.047 0.144
 -0.112 -0.06 0.187
 -0.085 -0.046 0.141
 -0.075 -0.041 0.125
 -0.063 -0.036 0.105
 -0.05 -0.029 0.082
 -0.04 -0.024 0.064
 -0.21 -0.119 0.398
 -0.374 -0.213 0.731
 -0.537 -0.309 1.071
 -0.868 -0.505 1.766
 -1.274 -0.751 2.64
 -1.501 -0.897 3.163
 -1.724 -1.043 3.694
 -1.937 -1.189 4.223
 -1.986 -1.236 4.4
 -1.953 -1.233 4.401
 -1.922 -1.231 4.404
 -1.888 -1.227 4.399
 -1.851 -1.221 4.387
 -1.816 -1.216 4.379
 -1.786 -1.215 4.383
