 -1.697 -1.577 4.306
 -1.68 -1.574 4.302
 -1.666 -1.574 4.307
 -1.65 -1.572 4.305
 -1.634 -1.569 4.302
 -1.616 -1.566 4.295
 -1.603 -1.567 4.303
 -1.584 -1.561 4.293
 -1.57 -1.56 4.294
 -1.554 -1.558 4.291
 -1.538 -1.556 4.29
 -1.523 -1.554 4.289
 -1.511 -1.556 4.299
 -1.496 -1.554 4.297
 -1.48 -1.552 4.294
 -1.465 -1.55 4.293
 -1.45 -1.549 4.293
 -1.436 -1.548 4.295
 -1.421 -1.546 4.294
 -1.408 -1.547 4.3
 -1.394 -1.547 4.302
 -1.377 -1.543 4.294
 -1.362 -1.541 4.292
 -1.347 -1.539 4.292
 -1.334 -1.539 4.294
 -1.319 -1.537 4.293
 -1.306 -1.538 4.297
 -1.291 -1.536 4.296
 -1.276 -1.534 4.293
 -1.262 -1.532 4.292
 -1.248 -1.533 4.296
 -1.235 -1.532 4.298
 -1.222 -1.533 4.303
 -1.21 -1.534 4.309
 -1.195 -1.532 4.308
 -1.179 -1.529 4.301
 -1.164 -1.526 4.297
 -1.148 -1.524 4.292
 -1.134 -1.522 4.29
 -1.119 -1.52 4.286
 -1.106 -1.52 4.29
 -1.093 -1.52 4.292
 -1.079 -1.519 4.293
 -1.063 -1.516 4.285
 -1.051 -1.516 4.291
 -1.038 -1.516 4.293
 -1.025 -1.517 4.297
 -1.011 -1.516 4.298
 -1 -1.519 4.309
 -0.987 -1.52 4.312
 -0.973 -1.518 4.309
 -0.959 -1.517 4.308
 -0.944 -1.514 4.302
 -0.929 -1.511 4.296
 -0.915 -1.509 4.294
 -0.901 -1.508 4.292
 -0.887 -1.506 4.29
 -0.874 -1.507 4.292
 -0.861 -1.507 4.296
 -0.848 -1.506 4.296
 -0.836 -1.508 4.304
 -0.823 -1.509 4.306
 -0.81 -1.509 4.308
 -0.795 -1.506 4.303
 -0.782 -1.505 4.301
 -0.767 -1.502 4.295
 -0.754 -1.501 4.293
 -0.74 -1.5 4.294
 -0.727 -1.499 4.291
 -0.713 -1.497 4.286
 -0.699 -1.496 4.285
 -0.686 -1.494 4.282
 -0.672 -1.493 4.28
 -0.66 -1.496 4.289
 -0.647 -1.495 4.288
 -0.633 -1.492 4.283
 -0.62 -1.491 4.28
 -0.606 -1.49 4.278
 -0.592 -1.487 4.271
 -0.579 -1.487 4.272
 -0.567 -1.488 4.276
 -0.554 -1.488 4.277
 -0.541 -1.487 4.276
 -0.527 -1.485 4.272
 -0.515 -1.486 4.276
 -0.501 -1.485 4.274
 -0.489 -1.486 4.277
 -0.476 -1.486 4.277
 -0.464 -1.488 4.286
 -0.451 -1.488 4.285
 -0.438 -1.487 4.284
 -0.425 -1.486 4.284
 -0.412 -1.488 4.288
 -0.399 -1.485 4.282
 -0.386 -1.485 4.281
 -0.373 -1.484 4.281
 -0.36 -1.484 4.279
 -0.346 -1.481 4.272
 -0.334 -1.48 4.271
 -0.32 -1.479 4.268
 -0.308 -1.482 4.276
 -0.295 -1.481 4.275
 -0.282 -1.481 4.275
 -0.27 -1.483 4.282
 -0.257 -1.483 4.283
 -0.244 -1.483 4.282
 -0.232 -1.483 4.282
 -0.219 -1.483 4.283
 -0.206 -1.48 4.274
 -0.193 -1.48 4.276
 -0.18 -1.478 4.271
 -0.167 -1.478 4.27
 -0.154 -1.477 4.268
 -0.142 -1.477 4.267
 -0.129 -1.475 4.263
 -0.116 -1.474 4.259
 -0.103 -1.474 4.259
 -0.09 -1.474 4.259
 -0.078 -1.474 4.258
 -0.065 -1.474 4.26
 -0.052 -1.474 4.26
 -0.04 -1.474 4.259
 -0.027 -1.475 4.261
 -0.014 -1.475 4.263
 -0.001 -1.475 4.262
 0.01 -1.476 4.266
 0.023 -1.477 4.267
 0.036 -1.476 4.264
 0.048 -1.475 4.262
 0.061 -1.477 4.266
 0.074 -1.475 4.261
 0.087 -1.475 4.261
 0.099 -1.475 4.261
 0.112 -1.478 4.267
 0.125 -1.476 4.262
 0.137 -1.476 4.262
 0.15 -1.477 4.263
 0.163 -1.476 4.261
 0.175 -1.475 4.257
 0.188 -1.476 4.258
 0.201 -1.475 4.255
 0.214 -1.476 4.258
 0.227 -1.478 4.261
 0.24 -1.479 4.265
 0.252 -1.48 4.268
 0.265 -1.482 4.272
 0.278 -1.481 4.268
 0.29 -1.479 4.261
 0.303 -1.477 4.256
 0.315 -1.477 4.254
 0.328 -1.476 4.251
 0.34 -1.475 4.247
 0.353 -1.477 4.25
 0.366 -1.478 4.252
 0.379 -1.478 4.251
 0.392 -1.478 4.251
 0.405 -1.479 4.253
 0.418 -1.479 4.251
 0.43 -1.479 4.249
 0.443 -1.478 4.246
 0.456 -1.48 4.251
 0.469 -1.48 4.249
 0.482 -1.48 4.249
 0.494 -1.481 4.248
 0.507 -1.481 4.248
 0.519 -1.479 4.241
 0.532 -1.479 4.239
 0.544 -1.479 4.237
 0.556 -1.477 4.23
 0.569 -1.477 4.228
 0.582 -1.477 4.227
 0.596 -1.48 4.235
 0.609 -1.482 4.236
 0.623 -1.483 4.24
 0.636 -1.485 4.243
 0.65 -1.488 4.25
 0.662 -1.487 4.246
 0.675 -1.487 4.243
 0.688 -1.488 4.243
 0.701 -1.489 4.244
 0.714 -1.488 4.239
 0.726 -1.487 4.236
 0.74 -1.489 4.239
 0.753 -1.49 4.239
 0.766 -1.489 4.236
 0.778 -1.489 4.232
 0.792 -1.49 4.234
 0.804 -1.491 4.232
 0.817 -1.49 4.23
 0.831 -1.492 4.232
 0.845 -1.494 4.237
 0.858 -1.495 4.237
 0.872 -1.496 4.237
 0.885 -1.497 4.238
 0.898 -1.498 4.237
 0.911 -1.498 4.235
 0.924 -1.499 4.234
 0.938 -1.5 4.235
 0.952 -1.502 4.237
 0.964 -1.501 4.233
 0.978 -1.502 4.233
 0.992 -1.503 4.234
 1.005 -1.504 4.232
 1.018 -1.504 4.229
 1.031 -1.505 4.23
 1.045 -1.505 4.228
 1.057 -1.505 4.223
 1.069 -1.504 4.218
 1.084 -1.506 4.221
 1.097 -1.507 4.221
 1.111 -1.508 4.221
 1.126 -1.511 4.225
 1.14 -1.513 4.228
 1.154 -1.514 4.228
 1.167 -1.515 4.226
 1.181 -1.516 4.226
 1.194 -1.516 4.223
 1.208 -1.517 4.222
 1.221 -1.517 4.219
 1.235 -1.518 4.219
 1.249 -1.52 4.22
 1.263 -1.521 4.22
 1.277 -1.522 4.219
 1.292 -1.524 4.221
 1.308 -1.527 4.226
 1.321 -1.528 4.224
 1.335 -1.529 4.224
 1.349 -1.53 4.222
 1.362 -1.53 4.218
 1.374 -1.528 4.211
 1.387 -1.529 4.208
 1.401 -1.529 4.205
 1.417 -1.532 4.209
 1.431 -1.533 4.208
 1.446 -1.536 4.211
 1.461 -1.537 4.211
 1.475 -1.539 4.211
 1.489 -1.539 4.207
 1.503 -1.54 4.205
 1.516 -1.54 4.201
 1.53 -1.541 4.198
 1.544 -1.542 4.197
 1.557 -1.542 4.192
 1.572 -1.543 4.193
 1.586 -1.544 4.189
 1.601 -1.546 4.19
 1.615 -1.547 4.188
 1.63 -1.549 4.189
 1.646 -1.551 4.191
 1.66 -1.552 4.189
 1.675 -1.553 4.186
 1.688 -1.554 4.182
 1.702 -1.554 4.179
 1.715 -1.554 4.172
 1.729 -1.555 4.17
 1.742 -1.554 4.163
 1.756 -1.555 4.161
 1.77 -1.556 4.158
 1.787 -1.559 4.16
 1.801 -1.56 4.157
 1.815 -1.56 4.153
 1.828 -1.56 4.147
 1.841 -1.559 4.141
 1.849 -1.555 4.123
 1.856 -1.55 4.106
 1.863 -1.545 4.086
 1.869 -1.539 4.064
 1.871 -1.53 4.034
 1.878 -1.526 4.018
 1.882 -1.518 3.992
 1.888 -1.512 3.971
 1.893 -1.506 3.949
 1.901 -1.502 3.933
 1.902 -1.493 3.903
 1.91 -1.489 3.888
 1.919 -1.487 3.876
 1.935 -1.489 3.877
 0 0 0
 0 0 0
 0 0 0
 0 0 0
 0 0 0
 0 0 0
 0 0 0
 0 0 0
 0 0 0
 0 0 0
 0 0 0
 0 0 0
 0 0 0
 0 0 0
 0 0 0
 0 0 0
 0 0 0
 1.802 -1.241 3.135
 1.824 -1.249 3.151
 1.838 -1.251 3.15
 1.847 -1.25 3.141
 1.852 -1.247 3.127
 1.857 -1.243 3.112
 1.854 -1.234 3.084
 1.854 -1.227 3.06
 1.821 -1.198 2.983
 -2.421 -1.596 4.115
 0 0 0
 -2.409 -1.606 4.157
 -2.388 -1.602 4.152
 -2.365 -1.597 4.145
 -2.354 -1.598 4.156
 -2.338 -1.597 4.159
 -2.32 -1.595 4.16
 -2.31 -1.597 4.174
 -2.302 -1.602 4.191
 -2.284 -1.598 4.189
 -2.269 -1.598 4.195
 -2.252 -1.596 4.196
 -2.239 -1.597 4.205
 -2.223 -1.595 4.206
 -2.208 -1.595 4.211
 -2.194 -1.595 4.218
 -2.182 -1.597 4.229
 -2.167 -1.595 4.232
 -2.151 -1.594 4.234
 -2.136 -1.594 4.239
 -2.117 -1.59 4.235
 -2.105 -1.591 4.245
 -2.092 -1.592 4.252
 -2.076 -1.59 4.254
 -2.062 -1.591 4.261
 -2.049 -1.592 4.269
 -2.032 -1.589 4.267
 -2.012 -1.585 4.261
 -1.997 -1.584 4.264
 -1.981 -1.582 4.265
 -1.969 -1.583 4.274
 -1.955 -1.583 4.28
 -1.942 -1.584 4.288
 -1.929 -1.585 4.294
 -1.916 -1.586 4.302
 -1.899 -1.583 4.301
 -1.883 -1.582 4.302
 -1.868 -1.58 4.304
 -1.853 -1.58 4.306
 -1.835 -1.576 4.302
 -1.819 -1.574 4.301
 -1.801 -1.571 4.296
 -1.785 -1.569 4.297
 -1.771 -1.569 4.301
 -1.757 -1.568 4.304
 -1.741 -1.566 4.304
 -1.727 -1.566 4.308
 -1.713 -1.566 4.313
 -1.697 -1.564 4.311
 -1.679 -1.56 4.306
 -1.665 -1.56 4.309
 -1.65 -1.558 4.308
 -1.633 -1.555 4.304
 -1.615 -1.551 4.297
 -1.601 -1.55 4.3
 -1.583 -1.547 4.295
 -1.569 -1.546 4.296
 -1.554 -1.545 4.297
 -1.54 -1.544 4.298
 -1.526 -1.544 4.302
 -1.514 -1.545 4.309
 -1.499 -1.544 4.309
 -1.482 -1.54 4.304
 -1.467 -1.539 4.304
 -1.452 -1.538 4.304
 -1.438 -1.536 4.304
 -1.422 -1.534 4.302
 -1.409 -1.534 4.306
 -1.395 -1.534 4.307
 -1.378 -1.53 4.301
 -1.363 -1.528 4.298
 -1.348 -1.527 4.298
 -1.335 -1.527 4.302
 -1.32 -1.525 4.299
 -1.305 -1.523 4.299
 -1.291 -1.523 4.3
 -1.276 -1.521 4.299
 -1.261 -1.518 4.294
 -1.247 -1.518 4.296
 -1.235 -1.519 4.302
 -1.221 -1.518 4.303
 -1.209 -1.52 4.31
 -1.195 -1.519 4.312
 -1.18 -1.517 4.308
 -1.164 -1.513 4.301
 -1.148 -1.511 4.297
 -1.133 -1.508 4.292
 -1.118 -1.505 4.285
 -1.105 -1.506 4.291
 -1.092 -1.506 4.295
 -1.079 -1.506 4.297
 -1.064 -1.503 4.292
 -1.052 -1.504 4.298
 -1.037 -1.503 4.297
 -1.024 -1.503 4.299
 -1.01 -1.502 4.298
 -0.999 -1.504 4.307
 -0.986 -1.505 4.311
 -0.972 -1.504 4.31
 -0.958 -1.502 4.308
 -0.944 -1.5 4.305
 -0.93 -1.499 4.304
 -0.916 -1.497 4.301
 -0.901 -1.496 4.298
 -0.888 -1.495 4.299
 -0.875 -1.495 4.3
 -0.862 -1.495 4.302
 -0.848 -1.494 4.303
 -0.836 -1.496 4.309
 -0.822 -1.495 4.308
 -0.809 -1.494 4.309
 -0.794 -1.491 4.301
 -0.781 -1.49 4.301
 -0.767 -1.489 4.3
 -0.754 -1.489 4.3
 -0.74 -1.488 4.298
 -0.727 -1.487 4.296
 -0.712 -1.483 4.288
 -0.698 -1.481 4.284
 -0.685 -1.479 4.28
 -0.671 -1.479 4.28
 -0.659 -1.481 4.287
 -0.646 -1.48 4.287
 -0.632 -1.477 4.279
 -0.618 -1.475 4.275
 -0.605 -1.475 4.276
 -0.591 -1.472 4.27
 -0.578 -1.471 4.268
 -0.566 -1.473 4.273
 -0.553 -1.473 4.277
 -0.539 -1.471 4.27
 -0.526 -1.469 4.266
 -0.514 -1.471 4.273
 -0.501 -1.471 4.274
 -0.488 -1.47 4.272
 -0.476 -1.472 4.278
 -0.463 -1.474 4.286
 -0.45 -1.473 4.284
 -0.437 -1.473 4.284
 -0.425 -1.473 4.285
 -0.411 -1.472 4.284
 -0.398 -1.47 4.279
 -0.385 -1.47 4.278
 -0.372 -1.469 4.277
 -0.359 -1.469 4.277
 -0.346 -1.467 4.272
 -0.333 -1.467 4.272
 -0.32 -1.465 4.269
 -0.308 -1.467 4.274
 -0.295 -1.467 4.276
 -0.283 -1.469 4.281
 -0.27 -1.47 4.284
 -0.257 -1.47 4.286
 -0.244 -1.47 4.287
 -0.231 -1.469 4.285
 -0.219 -1.469 4.283
 -0.206 -1.467 4.278
 -0.193 -1.467 4.278
 -0.18 -1.466 4.276
 -0.167 -1.466 4.275
 -0.154 -1.465 4.274
 -0.142 -1.465 4.273
 -0.129 -1.464 4.272
 -0.116 -1.463 4.268
 -0.103 -1.463 4.269
 -0.09 -1.462 4.266
 -0.078 -1.462 4.266
 -0.065 -1.461 4.264
 -0.052 -1.461 4.262
 -0.039 -1.46 4.259
 -0.027 -1.461 4.262
 -0.014 -1.461 4.264
 -0.001 -1.461 4.263
 0.01 -1.462 4.265
 0.023 -1.463 4.267
 0.036 -1.462 4.265
 0.048 -1.461 4.261
 0.061 -1.464 4.269
 0.074 -1.463 4.267
 0.087 -1.463 4.265
 0.099 -1.463 4.266
 0.112 -1.465 4.272
 0.125 -1.462 4.262
 0.137 -1.462 4.26
 0.15 -1.462 4.259
 0.163 -1.461 4.257
 0.175 -1.461 4.255
 0.188 -1.462 4.258
 0.201 -1.462 4.258
 0.214 -1.463 4.262
 0.227 -1.465 4.265
 0.239 -1.465 4.265
 0.252 -1.465 4.264
 0.265 -1.467 4.268
 0.278 -1.467 4.267
 0.29 -1.464 4.257
 0.303 -1.463 4.255
 0.315 -1.464 4.257
 0.328 -1.463 4.254
 0.34 -1.461 4.246
 0.353 -1.463 4.25
 0.366 -1.463 4.249
 0.379 -1.463 4.248
 0.391 -1.463 4.246
 0.404 -1.465 4.251
 0.417 -1.466 4.253
 0.43 -1.467 4.254
 0.443 -1.466 4.25
 0.456 -1.467 4.254
 0.469 -1.467 4.251
 0.481 -1.467 4.251
 0.494 -1.467 4.25
 0.507 -1.467 4.249
 0.519 -1.467 4.245
 0.532 -1.465 4.24
 0.545 -1.466 4.241
 0.557 -1.466 4.239
 0.57 -1.467 4.239
 0.583 -1.466 4.237
 0.597 -1.469 4.243
 0.609 -1.469 4.241
 0.623 -1.47 4.243
 0.636 -1.472 4.244
 0.65 -1.474 4.251
 0.663 -1.475 4.25
 0.675 -1.474 4.245
 0.688 -1.474 4.245
 0.701 -1.476 4.247
 0.714 -1.475 4.242
 0.726 -1.474 4.239
 0.74 -1.476 4.242
 0.752 -1.475 4.238
 0.765 -1.476 4.237
 0.777 -1.475 4.232
 0.791 -1.475 4.232
 0.803 -1.475 4.23
 0.817 -1.477 4.232
 0.83 -1.478 4.231
 0.845 -1.481 4.239
 0.859 -1.483 4.242
 0.872 -1.484 4.243
 0.885 -1.484 4.242
 0.899 -1.485 4.242
 0.912 -1.486 4.242
 0.924 -1.486 4.238
 0.938 -1.487 4.238
 0.952 -1.488 4.239
 0.964 -1.487 4.234
 0.977 -1.488 4.233
 0.991 -1.489 4.233
 1.004 -1.489 4.231
 1.017 -1.49 4.23
 1.031 -1.491 4.231
 1.044 -1.491 4.229
 1.056 -1.491 4.225
 1.069 -1.49 4.22
 1.083 -1.491 4.221
 1.096 -1.492 4.218
 1.11 -1.493 4.219
 1.125 -1.496 4.224
 1.14 -1.499 4.229
 1.153 -1.499 4.227
 1.168 -1.502 4.23
 1.181 -1.502 4.228
 1.194 -1.503 4.227
 1.207 -1.503 4.223
 1.22 -1.503 4.221
 1.234 -1.503 4.218
 1.248 -1.505 4.219
 1.261 -1.505 4.215
 1.276 -1.507 4.219
 1.29 -1.509 4.219
 1.305 -1.511 4.221
 1.318 -1.51 4.216
 1.333 -1.513 4.219
 1.346 -1.513 4.217
 1.361 -1.515 4.218
 1.374 -1.515 4.214
 1.388 -1.517 4.214
 1.402 -1.518 4.214
 1.419 -1.521 4.22
 1.432 -1.522 4.217
 1.448 -1.524 4.22
 1.463 -1.526 4.221
 1.477 -1.528 4.22
 1.49 -1.527 4.215
 1.504 -1.528 4.213
 1.517 -1.528 4.208
 1.53 -1.528 4.204
 1.544 -1.529 4.202
 1.556 -1.527 4.193
 1.571 -1.529 4.194
 1.586 -1.531 4.195
 1.6 -1.531 4.191
 1.614 -1.533 4.19
 1.63 -1.535 4.192
 1.646 -1.538 4.195
 1.659 -1.537 4.188
 1.675 -1.54 4.191
 1.689 -1.541 4.188
 1.702 -1.541 4.183
 1.715 -1.54 4.177
 1.73 -1.542 4.177
 1.742 -1.541 4.167
 1.756 -1.542 4.166
 1.771 -1.543 4.165
 1.787 -1.545 4.165
 1.801 -1.546 4.161
 1.817 -1.548 4.161
 1.828 -1.547 4.153
 1.841 -1.546 4.145
 1.848 -1.541 4.125
 1.857 -1.538 4.111
 1.861 -1.53 4.086
 1.867 -1.525 4.065
 1.869 -1.515 4.035
 1.878 -1.512 4.022
 1.881 -1.504 3.994
 1.888 -1.499 3.976
 1.895 -1.495 3.958
 1.905 -1.493 3.947
 1.908 -1.485 3.92
 1.921 -1.485 3.914
 1.937 -1.487 3.916
 0 0 0
 0 0 0
 0 0 0
 0 0 0
 0 0 0
 0 0 0
 0 0 0
 0 0 0
 0 0 0
 0 0 0
 0 0 0
 0 0 0
 0 0 0
 0 0 0
 0 0 0
 0 0 0
 0 0 0
 0 0 0
 1.8 -1.229 3.135
 1.832 -1.244 3.168
 1.844 -1.245 3.164
 1.849 -1.241 3.149
 1.855 -1.238 3.136
 1.862 -1.235 3.123
 1.854 -1.224 3.088
 1.851 -1.215 3.059
 1.866 -1.217 3.06
 -2.436 -1.592 4.147
 -2.452 -1.611 4.205
 -2.412 -1.594 4.167
 -2.395 -1.592 4.169
 -2.374 -1.588 4.164
 -2.367 -1.593 4.183
 -2.358 -1.596 4.2
 -2.344 -1.597 4.208
 -2.335 -1.6 4.222
 -2.326 -1.604 4.24
 -2.306 -1.6 4.236
 -2.287 -1.596 4.233
 -2.27 -1.594 4.234
 -2.256 -1.595 4.241
 -2.237 -1.591 4.238
 -2.223 -1.592 4.245
 -2.208 -1.591 4.25
 -2.195 -1.592 4.258
 -2.179 -1.59 4.26
 -2.164 -1.59 4.265
 -2.149 -1.589 4.27
 -2.133 -1.587 4.271
 -2.118 -1.587 4.277
 -2.103 -1.587 4.281
 -2.087 -1.585 4.282
 -2.074 -1.585 4.289
 -2.06 -1.586 4.295
 -2.042 -1.583 4.294
 -2.024 -1.58 4.29
 -2.007 -1.577 4.289
 -1.989 -1.574 4.286
 -1.975 -1.574 4.291
 -1.961 -1.575 4.299
 -1.948 -1.575 4.304
 -1.935 -1.576 4.313
 -1.92 -1.575 4.316
 -1.904 -1.573 4.316
 -1.887 -1.571 4.314
 -1.87 -1.568 4.312
 -1.855 -1.567 4.315
 -1.837 -1.564 4.312
 -1.821 -1.563 4.312
 -1.804 -1.56 4.309
 -1.789 -1.558 4.31
 -1.773 -1.556 4.309
 -1.758 -1.555 4.312
 -1.741 -1.553 4.31
 -1.727 -1.552 4.312
 -1.714 -1.553 4.319
 -1.698 -1.551 4.317
 -1.68 -1.547 4.311
 -1.666 -1.547 4.315
 -1.649 -1.544 4.312
 -1.632 -1.541 4.306
 -1.615 -1.538 4.302
 -1.6 -1.537 4.304
 -1.584 -1.534 4.3
 -1.569 -1.533 4.302
 -1.555 -1.532 4.304
 -1.541 -1.531 4.306
 -1.528 -1.533 4.314
 -1.515 -1.533 4.317
 -1.501 -1.532 4.32
 -1.484 -1.529 4.315
 -1.468 -1.527 4.312
 -1.452 -1.524 4.309
 -1.438 -1.523 4.309
 -1.423 -1.522 4.308
 -1.408 -1.52 4.308
 -1.395 -1.52 4.311
 -1.379 -1.517 4.307
 -1.363 -1.515 4.305
 -1.349 -1.514 4.304
 -1.336 -1.514 4.309
 -1.32 -1.512 4.306
 -1.306 -1.511 4.305
 -1.292 -1.51 4.307
 -1.277 -1.509 4.306
 -1.262 -1.507 4.303
 -1.249 -1.507 4.307
 -1.236 -1.507 4.312
 -1.222 -1.506 4.312
 -1.208 -1.506 4.313
 -1.194 -1.505 4.314
 -1.179 -1.502 4.309
 -1.164 -1.5 4.306
 -1.148 -1.497 4.3
 -1.134 -1.496 4.298
 -1.118 -1.492 4.291
 -1.106 -1.493 4.297
 -1.091 -1.492 4.295
 -1.077 -1.491 4.295
 -1.062 -1.488 4.29
 -1.05 -1.49 4.297
 -1.036 -1.488 4.294
 -1.023 -1.488 4.298
 -1.01 -1.488 4.299
 -0.997 -1.489 4.306
 -0.984 -1.489 4.307
 -0.971 -1.488 4.308
 -0.957 -1.487 4.307
 -0.943 -1.486 4.305
 -0.928 -1.484 4.302
 -0.915 -1.483 4.301
 -0.9 -1.481 4.298
 -0.887 -1.48 4.297
 -0.874 -1.481 4.301
 -0.861 -1.481 4.303
 -0.847 -1.48 4.302
 -0.835 -1.481 4.307
 -0.821 -1.48 4.306
 -0.807 -1.478 4.303
 -0.793 -1.477 4.3
 -0.781 -1.477 4.303
 -0.768 -1.477 4.305
 -0.754 -1.477 4.306
 -0.741 -1.476 4.307
 -0.727 -1.474 4.3
 -0.712 -1.47 4.291
 -0.698 -1.467 4.285
 -0.684 -1.465 4.28
 -0.671 -1.464 4.279
 -0.659 -1.466 4.287
 -0.646 -1.466 4.288
 -0.631 -1.462 4.277
 -0.618 -1.461 4.275
 -0.605 -1.461 4.276
 -0.591 -1.459 4.272
 -0.578 -1.459 4.273
 -0.566 -1.461 4.28
 -0.553 -1.461 4.282
 -0.54 -1.46 4.28
 -0.527 -1.458 4.276
 -0.514 -1.46 4.281
 -0.501 -1.459 4.281
 -0.488 -1.457 4.276
 -0.475 -1.457 4.277
 -0.463 -1.459 4.283
 -0.45 -1.458 4.282
 -0.437 -1.458 4.284
 -0.424 -1.46 4.288
 -0.411 -1.459 4.286
 -0.398 -1.457 4.282
 -0.385 -1.456 4.28
 -0.372 -1.455 4.276
 -0.359 -1.455 4.277
 -0.346 -1.454 4.275
 -0.333 -1.455 4.279
 -0.32 -1.453 4.276
 -0.308 -1.454 4.278
 -0.295 -1.454 4.279
 -0.282 -1.456 4.284
 -0.27 -1.456 4.285
 -0.257 -1.456 4.287
 -0.244 -1.458 4.291
 -0.231 -1.456 4.287
 -0.219 -1.456 4.287
 -0.205 -1.453 4.278
 -0.192 -1.452 4.277
 -0.18 -1.451 4.272
 -0.167 -1.452 4.275
 -0.154 -1.45 4.27
 -0.141 -1.451 4.273
 -0.129 -1.45 4.271
 -0.116 -1.45 4.271
 -0.103 -1.45 4.272
 -0.09 -1.451 4.275
 -0.078 -1.451 4.273
 -0.065 -1.45 4.272
 -0.052 -1.45 4.272
 -0.039 -1.449 4.268
 -0.027 -1.449 4.267
 -0.014 -1.45 4.27
 -0.001 -1.45 4.272
 0.01 -1.45 4.271
 0.023 -1.45 4.27
 0.036 -1.449 4.268
 0.048 -1.448 4.264
 0.061 -1.45 4.269
 0.074 -1.449 4.267
 0.087 -1.45 4.27
 0.099 -1.452 4.273
 0.112 -1.453 4.277
 0.125 -1.451 4.27
 0.137 -1.45 4.266
 0.15 -1.449 4.264
 0.163 -1.448 4.26
 0.175 -1.448 4.259
 0.188 -1.448 4.26
 0.201 -1.449 4.262
 0.214 -1.45 4.264
 0.227 -1.452 4.267
 0.239 -1.451 4.265
 0.252 -1.452 4.266
 0.265 -1.453 4.268
 0.278 -1.453 4.268
 0.29 -1.45 4.259
 0.302 -1.45 4.257
 0.315 -1.45 4.258
 0.328 -1.451 4.257
 0.34 -1.448 4.249
 0.353 -1.45 4.253
 0.366 -1.451 4.255
 0.379 -1.451 4.254
 0.392 -1.451 4.253
 0.405 -1.453 4.259
 0.418 -1.454 4.259
 0.43 -1.453 4.257
 0.443 -1.453 4.253
 0.456 -1.454 4.255
 0.469 -1.454 4.253
 0.481 -1.454 4.254
 0.494 -1.454 4.252
 0.507 -1.454 4.251
 0.519 -1.453 4.245
 0.531 -1.452 4.242
 0.545 -1.454 4.246
 0.558 -1.454 4.245
 0.571 -1.455 4.246
 0.584 -1.456 4.246
 0.597 -1.457 4.247
 0.609 -1.456 4.243
 0.622 -1.457 4.244
 0.635 -1.457 4.244
 0.649 -1.459 4.249
 0.662 -1.461 4.252
 0.675 -1.46 4.246
 0.688 -1.461 4.248
 0.701 -1.462 4.25
 0.714 -1.462 4.246
 0.726 -1.461 4.242
 0.74 -1.464 4.247
 0.752 -1.462 4.242
 0.765 -1.463 4.241
 0.777 -1.461 4.233
 0.79 -1.462 4.234
 0.803 -1.461 4.23
 0.817 -1.464 4.234
 0.83 -1.465 4.235
 0.845 -1.469 4.244
 0.859 -1.47 4.247
 0.872 -1.471 4.247
 0.886 -1.472 4.247
 0.899 -1.472 4.245
 0.912 -1.474 4.247
 0.925 -1.473 4.242
 0.938 -1.474 4.242
 0.951 -1.474 4.241
 0.964 -1.474 4.237
 0.976 -1.473 4.232
 0.991 -1.476 4.237
 1.004 -1.476 4.235
 1.018 -1.478 4.237
 1.031 -1.478 4.235
 1.045 -1.479 4.236
 1.056 -1.478 4.228
 1.069 -1.478 4.226
 1.082 -1.478 4.222
 1.096 -1.479 4.222
 1.109 -1.48 4.222
 1.125 -1.484 4.231
 1.14 -1.486 4.235
 1.154 -1.487 4.235
 1.169 -1.49 4.238
 1.183 -1.491 4.239
 1.196 -1.491 4.235
 1.209 -1.491 4.231
 1.222 -1.492 4.23
 1.235 -1.492 4.227
 1.249 -1.493 4.225
 1.261 -1.491 4.218
 1.276 -1.494 4.222
 1.29 -1.495 4.221
 1.304 -1.496 4.221
 1.317 -1.496 4.217
 1.332 -1.499 4.221
 1.345 -1.499 4.218
 1.36 -1.501 4.219
 1.373 -1.501 4.216
 1.388 -1.503 4.217
 1.403 -1.505 4.22
 1.419 -1.509 4.225
 1.433 -1.509 4.222
 1.448 -1.511 4.224
 1.462 -1.512 4.223
 1.475 -1.512 4.219
 1.489 -1.512 4.215
 1.502 -1.513 4.212
 1.517 -1.514 4.211
 1.53 -1.514 4.207
 1.545 -1.516 4.208
 1.557 -1.515 4.201
 1.573 -1.518 4.205
 1.588 -1.519 4.203
 1.601 -1.519 4.198
 1.615 -1.52 4.196
 1.63 -1.522 4.196
 1.645 -1.523 4.195
 1.657 -1.522 4.188
 1.673 -1.525 4.191
 1.687 -1.525 4.186
 1.699 -1.525 4.18
 1.713 -1.525 4.176
 1.729 -1.527 4.177
 1.741 -1.526 4.169
 1.755 -1.528 4.168
 1.771 -1.53 4.169
 1.786 -1.531 4.168
 1.801 -1.532 4.165
 1.817 -1.535 4.166
 1.827 -1.532 4.155
 1.839 -1.531 4.145
 1.845 -1.525 4.124
 1.854 -1.522 4.109
 1.859 -1.515 4.086
 1.866 -1.51 4.067
 1.871 -1.503 4.042
 1.881 -1.501 4.031
 1.882 -1.492 4
 1.886 -1.485 3.976
 1.894 -1.481 3.959
 1.904 -1.479 3.949
 1.9 -1.466 3.909
 0 0 0
 0 0 0
 0 0 0
 0 0 0
 0 0 0
 0 0 0
 0 0 0
 0 0 0
 0 0 0
 0 0 0
 0 0 0
 0 0 0
 0 0 0
 0 0 0
 0 0 0
 0 0 0
 0 0 0
 0 0 0
 0 0 0
 0 0 0
 1.815 -1.229 3.165
 1.841 -1.239 3.187
 1.848 -1.237 3.175
 1.852 -1.232 3.158
 1.856 -1.228 3.141
 1.859 -1.223 3.123
 1.851 -1.211 3.086
 1.824 -1.186 3.017
 0 0 0
 0 0 0
 0 0 0
 -2.435 -1.596 4.212
 -2.424 -1.598 4.226
 -2.4 -1.591 4.215
 -2.388 -1.593 4.226
 -2.375 -1.594 4.235
 -2.365 -1.597 4.25
 -2.354 -1.599 4.263
 -2.344 -1.602 4.278
 -2.328 -1.601 4.28
 -2.312 -1.6 4.284
 -2.292 -1.596 4.28
 -2.277 -1.596 4.286
 -2.257 -1.592 4.282
 -2.24 -1.59 4.283
 -2.222 -1.587 4.282
 -2.207 -1.587 4.287
 -2.189 -1.583 4.285
 -2.173 -1.583 4.288
 -2.16 -1.583 4.295
 -2.144 -1.582 4.299
 -2.127 -1.58 4.3
 -2.111 -1.578 4.3
 -2.094 -1.576 4.302
 -2.078 -1.575 4.304
 -2.062 -1.573 4.305
 -2.046 -1.572 4.306
 -2.029 -1.57 4.306
 -2.012 -1.568 4.306
 -1.994 -1.564 4.301
 -1.978 -1.563 4.303
 -1.964 -1.563 4.31
 -1.949 -1.562 4.313
 -1.936 -1.563 4.319
 -1.922 -1.563 4.325
 -1.907 -1.562 4.329
 -1.89 -1.56 4.327
 -1.875 -1.558 4.328
 -1.859 -1.557 4.331
 -1.842 -1.554 4.327
 -1.825 -1.552 4.324
 -1.807 -1.548 4.32
 -1.79 -1.546 4.318
 -1.773 -1.543 4.314
 -1.758 -1.542 4.317
 -1.743 -1.54 4.317
 -1.728 -1.539 4.319
 -1.714 -1.539 4.323
 -1.698 -1.538 4.323
 -1.681 -1.534 4.318
 -1.665 -1.532 4.317
 -1.648 -1.53 4.314
 -1.631 -1.526 4.308
 -1.614 -1.523 4.305
 -1.599 -1.522 4.305
 -1.584 -1.521 4.306
 -1.568 -1.519 4.304
 -1.555 -1.519 4.309
 -1.541 -1.519 4.312
 -1.528 -1.519 4.317
 -1.513 -1.518 4.317
 -1.5 -1.518 4.322
 -1.482 -1.514 4.314
 -1.465 -1.51 4.308
 -1.45 -1.508 4.305
 -1.435 -1.507 4.306
 -1.421 -1.506 4.306
 -1.407 -1.505 4.308
 -1.393 -1.505 4.312
 -1.379 -1.505 4.313
 -1.363 -1.501 4.307
 -1.348 -1.5 4.307
 -1.335 -1.5 4.31
 -1.32 -1.498 4.309
 -1.305 -1.496 4.306
 -1.292 -1.497 4.311
 -1.277 -1.495 4.309
 -1.263 -1.494 4.309
 -1.249 -1.493 4.311
 -1.236 -1.494 4.314
 -1.221 -1.492 4.314
 -1.207 -1.491 4.313
 -1.192 -1.489 4.31
 -1.176 -1.486 4.305
 -1.16 -1.482 4.297
 -1.145 -1.48 4.293
 -1.131 -1.479 4.292
 -1.116 -1.477 4.289
 -1.104 -1.478 4.296
 -1.091 -1.478 4.299
 -1.077 -1.478 4.299
 -1.063 -1.476 4.298
 -1.051 -1.478 4.306
 -1.037 -1.476 4.301
 -1.023 -1.475 4.303
 -1.01 -1.475 4.304
 -0.997 -1.475 4.307
 -0.983 -1.474 4.307
 -0.969 -1.473 4.306
 -0.956 -1.473 4.308
 -0.941 -1.471 4.304
 -0.927 -1.469 4.3
 -0.913 -1.467 4.298
 -0.9 -1.467 4.299
 -0.885 -1.465 4.295
 -0.873 -1.465 4.298
 -0.859 -1.465 4.299
 -0.846 -1.464 4.299
 -0.833 -1.465 4.303
 -0.82 -1.465 4.305
 -0.806 -1.463 4.302
 -0.793 -1.463 4.301
 -0.78 -1.462 4.302
 -0.766 -1.462 4.302
 -0.754 -1.462 4.305
 -0.74 -1.462 4.306
 -0.726 -1.459 4.299
 -0.711 -1.455 4.289
 -0.697 -1.452 4.283
 -0.683 -1.45 4.276
 -0.669 -1.449 4.276
 -0.657 -1.451 4.282
 -0.645 -1.451 4.285
 -0.63 -1.448 4.276
 -0.617 -1.446 4.273
 -0.605 -1.448 4.279
 -0.591 -1.446 4.276
 -0.579 -1.447 4.28
 -0.566 -1.449 4.286
 -0.553 -1.449 4.287
 -0.54 -1.446 4.281
 -0.526 -1.444 4.276
 -0.513 -1.444 4.277
 -0.501 -1.445 4.279
 -0.487 -1.442 4.274
 -0.474 -1.443 4.277
 -0.462 -1.445 4.284
 -0.449 -1.445 4.284
 -0.436 -1.444 4.284
 -0.424 -1.446 4.291
 -0.411 -1.445 4.287
 -0.397 -1.442 4.28
 -0.385 -1.443 4.282
 -0.371 -1.441 4.278
 -0.359 -1.441 4.279
 -0.346 -1.44 4.275
 -0.333 -1.442 4.284
 -0.32 -1.441 4.279
 -0.308 -1.441 4.281
 -0.295 -1.44 4.278
 -0.282 -1.44 4.28
 -0.269 -1.44 4.279
 -0.256 -1.441 4.282
 -0.244 -1.441 4.285
 -0.231 -1.441 4.284
 -0.218 -1.441 4.284
 -0.205 -1.439 4.278
 -0.192 -1.438 4.277
 -0.179 -1.438 4.275
 -0.167 -1.439 4.279
 -0.154 -1.437 4.274
 -0.141 -1.438 4.276
 -0.128 -1.437 4.275
 -0.116 -1.437 4.275
 -0.103 -1.437 4.274
 -0.09 -1.438 4.278
 -0.078 -1.437 4.274
 -0.065 -1.437 4.274
 -0.052 -1.436 4.272
 -0.039 -1.435 4.267
 -0.027 -1.433 4.263
 -0.014 -1.435 4.267
 -0.001 -1.435 4.269
 0.01 -1.435 4.268
 0.023 -1.435 4.268
 0.036 -1.435 4.266
 0.049 -1.434 4.265
 0.061 -1.435 4.268
 0.074 -1.434 4.264
 0.087 -1.436 4.268
 0.1 -1.439 4.277
 0.112 -1.439 4.276
 0.125 -1.437 4.27
 0.137 -1.436 4.267
 0.15 -1.435 4.264
 0.163 -1.434 4.26
 0.176 -1.436 4.265
 0.188 -1.437 4.267
 0.201 -1.438 4.269
 0.214 -1.439 4.273
 0.227 -1.44 4.275
 0.239 -1.438 4.267
 0.252 -1.437 4.264
 0.265 -1.438 4.266
 0.277 -1.438 4.264
 0.29 -1.435 4.256
 0.302 -1.435 4.255
 0.315 -1.436 4.256
 0.328 -1.436 4.256
 0.34 -1.435 4.251
 0.353 -1.436 4.255
 0.366 -1.438 4.259
 0.379 -1.439 4.261
 0.392 -1.439 4.26
 0.405 -1.441 4.265
 0.418 -1.441 4.263
 0.43 -1.44 4.259
 0.443 -1.439 4.254
 0.455 -1.439 4.254
 0.468 -1.44 4.254
 0.481 -1.44 4.255
 0.494 -1.44 4.251
 0.507 -1.441 4.252
 0.519 -1.44 4.248
 0.531 -1.438 4.242
 0.544 -1.44 4.246
 0.558 -1.441 4.248
 0.57 -1.441 4.247
 0.583 -1.442 4.247
 0.597 -1.443 4.249
 0.609 -1.442 4.244
 0.622 -1.443 4.244
 0.635 -1.443 4.244
 0.649 -1.446 4.251
 0.662 -1.448 4.253
 0.675 -1.447 4.25
 0.688 -1.449 4.252
 0.702 -1.45 4.255
 0.714 -1.448 4.248
 0.726 -1.448 4.244
 0.74 -1.45 4.249
 0.752 -1.449 4.244
 0.765 -1.45 4.243
 0.777 -1.448 4.237
 0.79 -1.449 4.237
 0.803 -1.449 4.234
 0.817 -1.45 4.236
 0.83 -1.451 4.237
 0.845 -1.455 4.245
 0.859 -1.457 4.249
 0.872 -1.458 4.249
 0.885 -1.458 4.246
 0.898 -1.458 4.245
 0.911 -1.459 4.245
 0.924 -1.459 4.243
 0.938 -1.46 4.243
 0.951 -1.461 4.243
 0.963 -1.46 4.238
 0.977 -1.461 4.238
 0.99 -1.462 4.239
 1.004 -1.463 4.238
 1.018 -1.464 4.24
 1.032 -1.467 4.244
 1.045 -1.467 4.24
 1.057 -1.466 4.236
 1.07 -1.466 4.233
 1.083 -1.466 4.23
 1.095 -1.465 4.224
 1.11 -1.467 4.227
 1.125 -1.47 4.232
 1.139 -1.472 4.234
 1.154 -1.474 4.237
 1.168 -1.476 4.24
 1.182 -1.477 4.24
 1.195 -1.478 4.238
 1.208 -1.478 4.234
 1.221 -1.477 4.23
 1.235 -1.479 4.23
 1.248 -1.479 4.228
 1.26 -1.477 4.22
 1.275 -1.48 4.224
 1.289 -1.481 4.223
 1.303 -1.482 4.222
 1.316 -1.482 4.219
 1.332 -1.485 4.224
 1.345 -1.486 4.222
 1.36 -1.488 4.224
 1.374 -1.488 4.222
 1.388 -1.49 4.222
 1.403 -1.491 4.222
 1.419 -1.494 4.226
 1.431 -1.494 4.221
 1.445 -1.495 4.22
 1.46 -1.497 4.221
 1.473 -1.496 4.215
 1.486 -1.496 4.212
 1.501 -1.498 4.212
 1.516 -1.5 4.213
 1.53 -1.501 4.21
 1.546 -1.504 4.214
 1.557 -1.502 4.204
 1.572 -1.504 4.205
 1.586 -1.504 4.203
 1.598 -1.504 4.196
 1.612 -1.504 4.192
 1.628 -1.507 4.196
 1.643 -1.508 4.195
 1.655 -1.507 4.188
 1.673 -1.511 4.193
 1.687 -1.512 4.192
 1.7 -1.512 4.185
 1.713 -1.512 4.181
 1.73 -1.515 4.184
 1.742 -1.514 4.175
 1.754 -1.513 4.17
 1.77 -1.515 4.17
 1.785 -1.517 4.169
 1.798 -1.516 4.162
 1.813 -1.518 4.162
 1.827 -1.518 4.157
 1.84 -1.519 4.152
 1.846 -1.513 4.131
 1.856 -1.51 4.117
 1.861 -1.503 4.093
 1.864 -1.495 4.067
 1.867 -1.487 4.039
 1.877 -1.485 4.028
 1.88 -1.477 4
 1.886 -1.472 3.98
 1.895 -1.469 3.966
 1.908 -1.469 3.962
 0 0 0
 0 0 0
 0 0 0
 0 0 0
 0 0 0
 0 0 0
 0 0 0
 0 0 0
 0 0 0
 0 0 0
 0 0 0
 0 0 0
 0 0 0
 0 0 0
 0 0 0
 0 0 0
 0 0 0
 0 0 0
 0 0 0
 0 0 0
 0 0 0
 1.81 -1.214 3.16
 1.839 -1.227 3.188
 1.846 -1.224 3.174
 1.85 -1.22 3.157
 1.853 -1.215 3.14
 1.857 -1.211 3.122
 1.849 -1.199 3.086
 1.839 -1.185 3.045
 1.835 -1.177 3.017
 0 0 0
 0 0 0
 -2.453 -1.593 4.249
 -2.438 -1.593 4.254
 -2.414 -1.586 4.244
 -2.399 -1.586 4.25
 -2.38 -1.583 4.249
 -2.371 -1.587 4.266
 -2.363 -1.591 4.284
 -2.357 -1.597 4.306
 -2.344 -1.597 4.315
 -2.329 -1.597 4.322
 -2.307 -1.592 4.313
 -2.291 -1.591 4.316
 -2.27 -1.586 4.31
 -2.249 -1.582 4.305
 -2.232 -1.58 4.306
 -2.219 -1.581 4.315
 -2.201 -1.578 4.313
 -2.183 -1.576 4.313
 -2.172 -1.577 4.324
 -2.153 -1.574 4.321
 -2.136 -1.572 4.322
 -2.12 -1.571 4.324
 -2.103 -1.569 4.325
 -2.084 -1.566 4.321
 -2.07 -1.565 4.326
 -2.052 -1.563 4.325
 -2.035 -1.56 4.323
 -2.018 -1.558 4.323
 -2.003 -1.557 4.326
 -1.983 -1.553 4.32
 -1.968 -1.552 4.322
 -1.952 -1.551 4.325
 -1.939 -1.551 4.331
 -1.921 -1.548 4.328
 -1.908 -1.549 4.336
 -1.892 -1.547 4.336
 -1.876 -1.546 4.337
 -1.86 -1.544 4.336
 -1.844 -1.543 4.338
 -1.827 -1.54 4.334
 -1.81 -1.537 4.332
 -1.794 -1.535 4.332
 -1.778 -1.533 4.331
 -1.762 -1.531 4.33
 -1.746 -1.529 4.329
 -1.729 -1.526 4.325
 -1.713 -1.525 4.326
 -1.696 -1.522 4.322
 -1.678 -1.518 4.316
 -1.663 -1.517 4.316
 -1.647 -1.514 4.314
 -1.631 -1.513 4.313
 -1.615 -1.511 4.311
 -1.6 -1.509 4.311
 -1.586 -1.509 4.314
 -1.569 -1.506 4.31
 -1.555 -1.506 4.314
 -1.541 -1.505 4.317
 -1.529 -1.506 4.324
 -1.513 -1.504 4.322
 -1.501 -1.506 4.33
 -1.483 -1.501 4.32
 -1.466 -1.497 4.313
 -1.449 -1.494 4.308
 -1.436 -1.494 4.311
 -1.421 -1.493 4.311
 -1.408 -1.493 4.316
 -1.395 -1.493 4.32
 -1.381 -1.494 4.324
 -1.365 -1.49 4.318
 -1.35 -1.489 4.318
 -1.335 -1.487 4.316
 -1.32 -1.486 4.315
 -1.304 -1.482 4.308
 -1.291 -1.482 4.312
 -1.276 -1.481 4.31
 -1.262 -1.481 4.313
 -1.249 -1.48 4.314
 -1.236 -1.481 4.32
 -1.221 -1.479 4.317
 -1.207 -1.477 4.316
 -1.191 -1.475 4.312
 -1.176 -1.473 4.308
 -1.159 -1.468 4.298
 -1.145 -1.467 4.296
 -1.131 -1.466 4.295
 -1.117 -1.464 4.294
 -1.104 -1.465 4.3
 -1.092 -1.466 4.305
 -1.078 -1.466 4.307
 -1.065 -1.466 4.309
 -1.053 -1.467 4.314
 -1.038 -1.464 4.31
 -1.024 -1.463 4.309
 -1.01 -1.462 4.307
 -0.995 -1.46 4.304
 -0.982 -1.459 4.304
 -0.968 -1.459 4.305
 -0.955 -1.458 4.306
 -0.941 -1.457 4.305
 -0.927 -1.456 4.306
 -0.913 -1.455 4.303
 -0.899 -1.453 4.301
 -0.885 -1.451 4.296
 -0.871 -1.45 4.296
 -0.858 -1.45 4.297
 -0.845 -1.45 4.299
 -0.832 -1.45 4.302
 -0.82 -1.451 4.306
 -0.806 -1.45 4.303
 -0.792 -1.449 4.303
 -0.779 -1.448 4.301
 -0.766 -1.448 4.304
 -0.753 -1.449 4.307
 -0.74 -1.448 4.308
 -0.726 -1.446 4.302
 -0.712 -1.444 4.299
 -0.697 -1.441 4.291
 -0.683 -1.438 4.284
 -0.67 -1.437 4.283
 -0.657 -1.438 4.286
 -0.644 -1.436 4.282
 -0.63 -1.434 4.278
 -0.617 -1.433 4.276
 -0.604 -1.434 4.281
 -0.591 -1.433 4.278
 -0.578 -1.434 4.283
 -0.566 -1.434 4.285
 -0.553 -1.435 4.287
 -0.54 -1.434 4.285
 -0.526 -1.432 4.282
 -0.513 -1.432 4.281
 -0.501 -1.433 4.287
 -0.487 -1.43 4.279
 -0.475 -1.431 4.282
 -0.462 -1.433 4.289
 -0.449 -1.433 4.29
 -0.436 -1.431 4.285
 -0.424 -1.433 4.292
 -0.41 -1.43 4.285
 -0.397 -1.427 4.276
 -0.384 -1.428 4.279
 -0.371 -1.427 4.278
 -0.358 -1.426 4.276
 -0.345 -1.426 4.275
 -0.333 -1.429 4.285
 -0.32 -1.427 4.282
 -0.307 -1.427 4.282
 -0.294 -1.427 4.281
 -0.282 -1.428 4.284
 -0.269 -1.427 4.283
 -0.256 -1.428 4.286
 -0.244 -1.429 4.288
 -0.231 -1.428 4.287
 -0.218 -1.428 4.286
 -0.205 -1.426 4.282
 -0.192 -1.425 4.278
 -0.179 -1.424 4.276
 -0.167 -1.425 4.28
 -0.154 -1.424 4.277
 -0.141 -1.424 4.276
 -0.128 -1.424 4.276
 -0.116 -1.424 4.277
 -0.103 -1.425 4.279
 -0.09 -1.425 4.28
 -0.077 -1.424 4.276
 -0.065 -1.423 4.275
 -0.052 -1.423 4.275
 -0.039 -1.421 4.268
 -0.026 -1.42 4.264
 -0.014 -1.422 4.269
 -0.001 -1.422 4.27
 0.011 -1.42 4.265
 0.023 -1.42 4.265
 0.036 -1.42 4.264
 0.049 -1.42 4.265
 0.061 -1.421 4.266
 0.074 -1.421 4.265
 0.087 -1.422 4.27
 0.1 -1.425 4.278
 0.112 -1.425 4.275
 0.125 -1.424 4.272
 0.138 -1.424 4.273
 0.15 -1.423 4.269
 0.163 -1.422 4.266
 0.176 -1.424 4.27
 0.188 -1.425 4.272
 0.201 -1.424 4.269
 0.214 -1.425 4.271
 0.227 -1.425 4.27
 0.239 -1.422 4.261
 0.251 -1.421 4.258
 0.264 -1.422 4.26
 0.277 -1.422 4.258
 0.289 -1.42 4.253
 0.302 -1.421 4.253
 0.315 -1.422 4.256
 0.327 -1.422 4.255
 0.34 -1.422 4.254
 0.353 -1.424 4.259
 0.366 -1.426 4.264
 0.379 -1.425 4.261
 0.392 -1.425 4.26
 0.405 -1.426 4.262
 0.417 -1.425 4.257
 0.429 -1.424 4.253
 0.442 -1.423 4.249
 0.455 -1.424 4.251
 0.468 -1.425 4.251
 0.481 -1.426 4.254
 0.493 -1.425 4.249
 0.506 -1.426 4.249
 0.518 -1.425 4.246
 0.531 -1.424 4.242
 0.544 -1.425 4.242
 0.557 -1.427 4.246
 0.57 -1.428 4.248
 0.583 -1.429 4.249
 0.596 -1.428 4.247
 0.609 -1.429 4.248
 0.622 -1.429 4.246
 0.634 -1.43 4.245
 0.648 -1.432 4.25
 0.662 -1.434 4.255
 0.674 -1.433 4.248
 0.687 -1.434 4.25
 0.701 -1.435 4.252
 0.712 -1.433 4.243
 0.725 -1.432 4.24
 0.739 -1.435 4.246
 0.752 -1.435 4.245
 0.764 -1.435 4.243
 0.777 -1.435 4.24
 0.791 -1.437 4.242
 0.803 -1.436 4.239
 0.816 -1.436 4.236
 0.829 -1.437 4.237
 0.844 -1.44 4.243
 0.857 -1.442 4.246
 0.871 -1.443 4.247
 0.884 -1.444 4.247
 0.898 -1.445 4.249
 0.911 -1.446 4.248
 0.924 -1.445 4.245
 0.936 -1.445 4.24
 0.949 -1.445 4.238
 0.961 -1.444 4.233
 0.975 -1.445 4.233
 0.989 -1.447 4.235
 1.002 -1.448 4.236
 1.017 -1.45 4.24
 1.031 -1.452 4.244
 1.044 -1.452 4.24
 1.057 -1.452 4.237
 1.071 -1.453 4.238
 1.083 -1.453 4.234
 1.095 -1.452 4.227
 1.11 -1.455 4.233
 1.125 -1.457 4.237
 1.139 -1.458 4.237
 1.154 -1.461 4.241
 1.169 -1.463 4.245
 1.182 -1.464 4.243
 1.194 -1.463 4.238
 1.207 -1.463 4.233
 1.219 -1.462 4.228
 1.233 -1.463 4.227
 1.245 -1.462 4.221
 1.258 -1.462 4.217
 1.274 -1.465 4.222
 1.287 -1.466 4.22
 1.301 -1.467 4.219
 1.315 -1.468 4.22
 1.331 -1.471 4.224
 1.344 -1.471 4.222
 1.359 -1.473 4.224
 1.373 -1.474 4.222
 1.387 -1.476 4.223
 1.401 -1.476 4.221
 1.417 -1.479 4.224
 1.43 -1.479 4.22
 1.444 -1.481 4.221
 1.459 -1.482 4.221
 1.472 -1.482 4.216
 1.485 -1.482 4.213
 1.5 -1.483 4.212
 1.513 -1.484 4.209
 1.527 -1.485 4.207
 1.543 -1.488 4.211
 1.555 -1.487 4.203
 1.57 -1.488 4.204
 1.586 -1.49 4.205
 1.597 -1.489 4.196
 1.61 -1.489 4.192
 1.626 -1.491 4.194
 1.641 -1.493 4.194
 1.653 -1.492 4.187
 1.672 -1.498 4.197
 1.688 -1.5 4.198
 1.7 -1.499 4.19
 1.715 -1.5 4.189
 1.73 -1.502 4.189
 1.741 -1.5 4.179
 1.753 -1.499 4.17
 1.77 -1.502 4.173
 1.784 -1.503 4.17
 1.798 -1.503 4.167
 1.814 -1.506 4.169
 1.828 -1.506 4.164
 1.84 -1.505 4.155
 1.848 -1.501 4.138
 1.859 -1.499 4.128
 1.865 -1.493 4.106
 1.87 -1.487 4.085
 1.876 -1.481 4.063
 1.883 -1.477 4.045
 1.884 -1.467 4.012
 1.889 -1.461 3.99
 1.897 -1.457 3.974
 0 0 0
 0 0 0
 0 0 0
 0 0 0
 0 0 0
 0 0 0
 0 0 0
 0 0 0
 0 0 0
 0 0 0
 0 0 0
 0 0 0
 0 0 0
 0 0 0
 0 0 0
 0 0 0
 0 0 0
 0 0 0
 0 0 0
 0 0 0
 0 0 0
 0 0 0
 0 0 0
 1.848 -1.222 3.206
 1.856 -1.22 3.196
 1.859 -1.215 3.176
 1.86 -1.209 3.154
 1.862 -1.204 3.135
 1.853 -1.191 3.096
 1.863 -1.191 3.09
 1.801 -1.144 2.964
 0 0 0
 -2.488 -1.592 4.282
 -2.485 -1.599 4.308
 -2.471 -1.6 4.317
 -2.466 -1.606 4.342
 -2.441 -1.599 4.33
 -2.416 -1.593 4.319
 -2.4 -1.591 4.323
 -2.38 -1.588 4.32
 -2.366 -1.588 4.326
 -2.351 -1.588 4.334
 -2.336 -1.588 4.339
 -2.317 -1.585 4.338
 -2.3 -1.583 4.339
 -2.28 -1.579 4.335
 -2.261 -1.575 4.331
 -2.243 -1.573 4.331
 -2.229 -1.573 4.338
 -2.211 -1.571 4.339
 -2.192 -1.568 4.335
 -2.178 -1.568 4.342
 -2.159 -1.565 4.339
 -2.14 -1.561 4.335
 -2.125 -1.56 4.338
 -2.108 -1.558 4.339
 -2.088 -1.554 4.334
 -2.074 -1.554 4.339
 -2.057 -1.553 4.34
 -2.038 -1.549 4.335
 -2.022 -1.547 4.337
 -2.007 -1.546 4.339
 -1.986 -1.541 4.331
 -1.969 -1.539 4.329
 -1.953 -1.537 4.331
 -1.937 -1.536 4.331
 -1.92 -1.533 4.329
 -1.905 -1.533 4.333
 -1.89 -1.532 4.335
 -1.873 -1.53 4.335
 -1.858 -1.528 4.336
 -1.842 -1.526 4.335
 -1.825 -1.524 4.333
 -1.808 -1.522 4.332
 -1.793 -1.52 4.333
 -1.775 -1.517 4.329
 -1.761 -1.517 4.333
 -1.745 -1.515 4.333
 -1.729 -1.513 4.331
 -1.714 -1.512 4.332
 -1.698 -1.51 4.332
 -1.679 -1.506 4.323
 -1.664 -1.505 4.325
 -1.648 -1.503 4.323
 -1.632 -1.5 4.321
 -1.617 -1.498 4.32
 -1.602 -1.497 4.321
 -1.587 -1.496 4.321
 -1.568 -1.491 4.312
 -1.554 -1.491 4.315
 -1.54 -1.49 4.317
 -1.526 -1.49 4.32
 -1.51 -1.488 4.317
 -1.499 -1.49 4.328
 -1.481 -1.486 4.319
 -1.464 -1.482 4.312
 -1.449 -1.48 4.311
 -1.436 -1.481 4.315
 -1.421 -1.48 4.316
 -1.408 -1.48 4.322
 -1.395 -1.481 4.327
 -1.381 -1.48 4.328
 -1.365 -1.477 4.322
 -1.35 -1.475 4.32
 -1.335 -1.474 4.319
 -1.32 -1.472 4.318
 -1.304 -1.469 4.312
 -1.291 -1.469 4.316
 -1.276 -1.468 4.315
 -1.261 -1.466 4.313
 -1.248 -1.466 4.317
 -1.235 -1.467 4.321
 -1.22 -1.464 4.318
 -1.206 -1.464 4.318
 -1.191 -1.462 4.316
 -1.176 -1.459 4.311
 -1.16 -1.456 4.304
 -1.146 -1.455 4.305
 -1.132 -1.454 4.305
 -1.118 -1.453 4.303
 -1.105 -1.453 4.307
 -1.092 -1.453 4.31
 -1.078 -1.453 4.311
 -1.065 -1.452 4.312
 -1.051 -1.451 4.312
 -1.037 -1.45 4.31
 -1.022 -1.448 4.307
 -1.008 -1.446 4.305
 -0.993 -1.443 4.297
 -0.98 -1.444 4.301
 -0.966 -1.443 4.302
 -0.954 -1.443 4.305
 -0.94 -1.442 4.304
 -0.927 -1.442 4.307
 -0.913 -1.441 4.306
 -0.898 -1.439 4.301
 -0.884 -1.436 4.294
 -0.87 -1.435 4.293
 -0.857 -1.434 4.293
 -0.843 -1.434 4.294
 -0.831 -1.434 4.297
 -0.818 -1.436 4.303
 -0.805 -1.435 4.301
 -0.792 -1.436 4.307
 -0.779 -1.435 4.307
 -0.766 -1.436 4.31
 -0.753 -1.435 4.309
 -0.74 -1.435 4.31
 -0.725 -1.431 4.301
 -0.711 -1.428 4.294
 -0.696 -1.424 4.284
 -0.682 -1.424 4.283
 -0.669 -1.422 4.279
 -0.656 -1.422 4.282
 -0.643 -1.422 4.282
 -0.63 -1.422 4.283
 -0.617 -1.42 4.28
 -0.605 -1.422 4.287
 -0.591 -1.421 4.285
 -0.578 -1.421 4.287
 -0.566 -1.421 4.288
 -0.553 -1.421 4.288
 -0.539 -1.42 4.286
 -0.526 -1.418 4.281
 -0.513 -1.417 4.281
 -0.5 -1.419 4.286
 -0.486 -1.416 4.278
 -0.474 -1.416 4.28
 -0.462 -1.419 4.289
 -0.449 -1.419 4.291
 -0.436 -1.418 4.288
 -0.424 -1.42 4.296
 -0.411 -1.419 4.293
 -0.397 -1.416 4.285
 -0.384 -1.415 4.284
 -0.371 -1.415 4.282
 -0.358 -1.414 4.282
 -0.345 -1.411 4.272
 -0.332 -1.413 4.28
 -0.32 -1.412 4.278
 -0.306 -1.411 4.274
 -0.294 -1.411 4.275
 -0.281 -1.413 4.282
 -0.268 -1.412 4.278
 -0.256 -1.412 4.28
 -0.243 -1.413 4.283
 -0.23 -1.412 4.282
 -0.218 -1.413 4.282
 -0.205 -1.412 4.282
 -0.192 -1.411 4.279
 -0.179 -1.41 4.277
 -0.166 -1.41 4.277
 -0.154 -1.41 4.275
 -0.141 -1.41 4.276
 -0.128 -1.41 4.278
 -0.116 -1.412 4.283
 -0.103 -1.414 4.289
 -0.09 -1.413 4.286
 -0.077 -1.413 4.284
 -0.065 -1.411 4.281
 -0.052 -1.411 4.279
 -0.039 -1.408 4.271
 -0.026 -1.408 4.271
 -0.014 -1.409 4.272
 -0.001 -1.409 4.272
 0.011 -1.407 4.265
 0.023 -1.407 4.266
 0.036 -1.407 4.267
 0.049 -1.407 4.266
 0.061 -1.407 4.267
 0.074 -1.408 4.267
 0.087 -1.409 4.272
 0.1 -1.411 4.276
 0.112 -1.41 4.275
 0.125 -1.41 4.273
 0.138 -1.411 4.276
 0.15 -1.408 4.266
 0.163 -1.408 4.266
 0.176 -1.411 4.272
 0.188 -1.41 4.271
 0.201 -1.41 4.268
 0.214 -1.412 4.274
 0.227 -1.411 4.272
 0.239 -1.409 4.263
 0.251 -1.408 4.261
 0.264 -1.409 4.261
 0.277 -1.409 4.261
 0.289 -1.407 4.256
 0.302 -1.407 4.255
 0.315 -1.408 4.257
 0.327 -1.409 4.258
 0.34 -1.408 4.254
 0.353 -1.411 4.261
 0.366 -1.412 4.265
 0.379 -1.413 4.265
 0.392 -1.413 4.264
 0.405 -1.414 4.266
 0.417 -1.411 4.257
 0.429 -1.41 4.253
 0.442 -1.41 4.25
 0.455 -1.411 4.252
 0.467 -1.41 4.249
 0.48 -1.412 4.253
 0.493 -1.41 4.247
 0.505 -1.411 4.247
 0.518 -1.41 4.243
 0.53 -1.41 4.241
 0.543 -1.411 4.244
 0.557 -1.414 4.25
 0.57 -1.414 4.25
 0.583 -1.415 4.251
 0.596 -1.415 4.249
 0.608 -1.415 4.248
 0.621 -1.414 4.243
 0.634 -1.416 4.245
 0.648 -1.419 4.252
 0.661 -1.42 4.255
 0.674 -1.42 4.253
 0.688 -1.422 4.255
 0.701 -1.423 4.257
 0.712 -1.42 4.248
 0.724 -1.419 4.242
 0.738 -1.42 4.244
 0.751 -1.421 4.244
 0.764 -1.421 4.241
 0.777 -1.421 4.24
 0.791 -1.424 4.246
 0.803 -1.424 4.244
 0.816 -1.424 4.243
 0.829 -1.424 4.24
 0.843 -1.426 4.243
 0.857 -1.428 4.246
 0.87 -1.429 4.247
 0.883 -1.428 4.243
 0.897 -1.431 4.247
 0.911 -1.432 4.249
 0.923 -1.431 4.244
 0.936 -1.431 4.241
 0.949 -1.431 4.239
 0.961 -1.43 4.234
 0.974 -1.431 4.234
 0.988 -1.433 4.236
 1.002 -1.435 4.239
 1.017 -1.437 4.243
 1.032 -1.44 4.248
 1.044 -1.44 4.245
 1.057 -1.439 4.24
 1.07 -1.439 4.238
 1.083 -1.44 4.238
 1.095 -1.438 4.23
 1.109 -1.44 4.231
 1.124 -1.443 4.238
 1.138 -1.444 4.237
 1.152 -1.445 4.237
 1.167 -1.448 4.243
 1.181 -1.45 4.244
 1.194 -1.449 4.24
 1.207 -1.45 4.238
 1.219 -1.449 4.231
 1.232 -1.449 4.227
 1.245 -1.449 4.224
 1.258 -1.448 4.219
 1.273 -1.451 4.223
 1.287 -1.452 4.224
 1.302 -1.454 4.225
 1.315 -1.454 4.222
 1.331 -1.458 4.228
 1.344 -1.458 4.225
 1.358 -1.459 4.225
 1.372 -1.46 4.223
 1.387 -1.462 4.226
 1.4 -1.462 4.222
 1.415 -1.464 4.224
 1.429 -1.465 4.222
 1.444 -1.467 4.223
 1.457 -1.467 4.219
 1.47 -1.467 4.214
 1.483 -1.467 4.212
 1.498 -1.469 4.211
 1.512 -1.47 4.21
 1.527 -1.472 4.212
 1.543 -1.474 4.214
 1.556 -1.474 4.208
 1.571 -1.476 4.21
 1.586 -1.478 4.211
 1.598 -1.476 4.202
 1.611 -1.476 4.197
 1.625 -1.477 4.196
 1.639 -1.478 4.193
 1.651 -1.477 4.186
 1.67 -1.482 4.195
 1.686 -1.484 4.196
 1.699 -1.484 4.191
 1.714 -1.486 4.192
 1.728 -1.487 4.188
 1.74 -1.485 4.179
 1.753 -1.485 4.173
 1.769 -1.487 4.174
 1.783 -1.488 4.172
 1.799 -1.491 4.174
 1.815 -1.493 4.174
 1.828 -1.492 4.168
 1.839 -1.491 4.158
 1.846 -1.486 4.139
 1.856 -1.483 4.125
 1.862 -1.478 4.105
 1.869 -1.473 4.086
 1.876 -1.468 4.067
 1.885 -1.465 4.052
 1.885 -1.454 4.018
 1.889 -1.448 3.994
 0 0 0
 0 0 0
 0 0 0
 0 0 0
 0 0 0
 0 0 0
 0 0 0
 0 0 0
 0 0 0
 0 0 0
 0 0 0
 0 0 0
 0 0 0
 0 0 0
 0 0 0
 0 0 0
 0 0 0
 0 0 0
 0 0 0
 0 0 0
 0 0 0
 0 0 0
 0 0 0
 0 0 0
 1.845 -1.209 3.205
 1.854 -1.208 3.196
 1.854 -1.201 3.172
 1.857 -1.196 3.154
 1.86 -1.191 3.134
 1.853 -1.18 3.099
 1.87 -1.185 3.105
 1.818 -1.145 2.996
 0 0 0
 0 0 0
 -2.488 -1.587 4.32
 -2.474 -1.587 4.328
 -2.466 -1.591 4.346
 -2.444 -1.586 4.34
 -2.428 -1.586 4.344
 -2.409 -1.583 4.343
 -2.39 -1.58 4.342
 -2.373 -1.578 4.345
 -2.356 -1.577 4.347
 -2.341 -1.577 4.354
 -2.319 -1.571 4.346
 -2.3 -1.568 4.344
 -2.282 -1.566 4.343
 -2.263 -1.563 4.341
 -2.241 -1.557 4.332
 -2.228 -1.559 4.342
 -2.213 -1.558 4.346
 -2.194 -1.555 4.344
 -2.177 -1.553 4.345
 -2.16 -1.551 4.345
 -2.139 -1.546 4.337
 -2.121 -1.544 4.336
 -2.104 -1.541 4.335
 -2.086 -1.539 4.334
 -2.07 -1.537 4.336
 -2.054 -1.536 4.338
 -2.036 -1.533 4.336
 -2.019 -1.531 4.334
 -2.004 -1.53 4.337
 -1.986 -1.527 4.336
 -1.97 -1.526 4.336
 -1.953 -1.524 4.336
 -1.937 -1.522 4.336
 -1.919 -1.518 4.331
 -1.902 -1.517 4.331
 -1.887 -1.516 4.333
 -1.871 -1.514 4.333
 -1.855 -1.512 4.334
 -1.839 -1.511 4.335
 -1.822 -1.508 4.332
 -1.805 -1.506 4.33
 -1.789 -1.504 4.329
 -1.773 -1.501 4.327
 -1.758 -1.501 4.331
 -1.743 -1.5 4.332
 -1.728 -1.498 4.332
 -1.714 -1.499 4.338
 -1.698 -1.497 4.336
 -1.681 -1.493 4.332
 -1.665 -1.492 4.331
 -1.649 -1.49 4.33
 -1.632 -1.486 4.324
 -1.617 -1.485 4.324
 -1.601 -1.483 4.324
 -1.586 -1.482 4.323
 -1.567 -1.477 4.312
 -1.553 -1.476 4.315
 -1.538 -1.475 4.316
 -1.524 -1.474 4.318
 -1.509 -1.473 4.317
 -1.497 -1.475 4.327
 -1.48 -1.472 4.321
 -1.463 -1.468 4.314
 -1.448 -1.466 4.313
 -1.435 -1.466 4.317
 -1.42 -1.465 4.317
 -1.406 -1.465 4.319
 -1.393 -1.465 4.325
 -1.38 -1.465 4.327
 -1.363 -1.462 4.321
 -1.348 -1.46 4.319
 -1.333 -1.459 4.319
 -1.318 -1.457 4.316
 -1.302 -1.453 4.309
 -1.288 -1.453 4.311
 -1.273 -1.451 4.31
 -1.259 -1.45 4.311
 -1.246 -1.451 4.315
 -1.234 -1.451 4.32
 -1.22 -1.451 4.322
 -1.206 -1.451 4.323
 -1.191 -1.448 4.319
 -1.175 -1.445 4.313
 -1.161 -1.443 4.31
 -1.146 -1.442 4.308
 -1.132 -1.441 4.308
 -1.118 -1.439 4.306
 -1.104 -1.438 4.306
 -1.089 -1.437 4.304
 -1.075 -1.436 4.303
 -1.063 -1.436 4.308
 -1.049 -1.435 4.307
 -1.036 -1.436 4.311
 -1.023 -1.435 4.312
 -1.009 -1.434 4.312
 -0.992 -1.429 4.298
 -0.979 -1.43 4.302
 -0.965 -1.427 4.298
 -0.951 -1.426 4.296
 -0.936 -1.424 4.292
 -0.924 -1.425 4.297
 -0.91 -1.424 4.297
 -0.897 -1.423 4.297
 -0.883 -1.422 4.294
 -0.869 -1.421 4.293
 -0.856 -1.42 4.292
 -0.842 -1.419 4.292
 -0.829 -1.419 4.295
 -0.817 -1.421 4.302
 -0.804 -1.42 4.3
 -0.792 -1.422 4.309
 -0.778 -1.421 4.306
 -0.765 -1.42 4.306
 -0.751 -1.419 4.304
 -0.739 -1.42 4.308
 -0.724 -1.416 4.299
 -0.71 -1.414 4.292
 -0.696 -1.411 4.287
 -0.682 -1.41 4.285
 -0.669 -1.409 4.284
 -0.656 -1.41 4.289
 -0.644 -1.411 4.292
 -0.631 -1.411 4.294
 -0.618 -1.41 4.292
 -0.605 -1.41 4.292
 -0.591 -1.408 4.287
 -0.578 -1.407 4.287
 -0.565 -1.406 4.285
 -0.552 -1.406 4.285
 -0.539 -1.407 4.289
 -0.526 -1.405 4.285
 -0.513 -1.404 4.284
 -0.501 -1.407 4.292
 -0.487 -1.404 4.286
 -0.473 -1.402 4.281
 -0.462 -1.405 4.29
 -0.449 -1.406 4.293
 -0.436 -1.404 4.288
 -0.424 -1.406 4.297
 -0.411 -1.408 4.301
 -0.397 -1.404 4.291
 -0.384 -1.404 4.292
 -0.371 -1.404 4.291
 -0.358 -1.403 4.289
 -0.345 -1.398 4.275
 -0.333 -1.401 4.286
 -0.32 -1.4 4.284
 -0.306 -1.398 4.279
 -0.293 -1.397 4.276
 -0.281 -1.398 4.279
 -0.268 -1.396 4.272
 -0.255 -1.396 4.272
 -0.242 -1.396 4.273
 -0.23 -1.396 4.274
 -0.217 -1.397 4.277
 -0.204 -1.398 4.28
 -0.192 -1.397 4.279
 -0.179 -1.397 4.278
 -0.166 -1.398 4.281
 -0.154 -1.398 4.283
 -0.141 -1.398 4.281
 -0.128 -1.398 4.282
 -0.116 -1.4 4.288
 -0.103 -1.4 4.288
 -0.09 -1.399 4.285
 -0.077 -1.398 4.282
 -0.064 -1.397 4.279
 -0.052 -1.397 4.28
 -0.039 -1.395 4.274
 -0.026 -1.394 4.271
 -0.014 -1.394 4.269
 -0.001 -1.394 4.27
 0.011 -1.391 4.261
 0.023 -1.392 4.263
 0.036 -1.393 4.265
 0.049 -1.395 4.27
 0.061 -1.394 4.268
 0.074 -1.394 4.266
 0.087 -1.395 4.272
 0.1 -1.397 4.277
 0.112 -1.396 4.274
 0.125 -1.397 4.274
 0.138 -1.399 4.28
 0.15 -1.395 4.269
 0.163 -1.396 4.271
 0.176 -1.398 4.276
 0.188 -1.397 4.273
 0.201 -1.396 4.27
 0.214 -1.399 4.278
 0.227 -1.398 4.274
 0.239 -1.397 4.269
 0.252 -1.397 4.268
 0.264 -1.397 4.267
 0.277 -1.396 4.266
 0.289 -1.394 4.257
 0.302 -1.393 4.253
 0.314 -1.393 4.254
 0.327 -1.394 4.255
 0.34 -1.394 4.253
 0.353 -1.399 4.266
 0.367 -1.401 4.274
 0.379 -1.4 4.269
 0.392 -1.401 4.271
 0.405 -1.402 4.272
 0.417 -1.398 4.26
 0.429 -1.397 4.253
 0.442 -1.397 4.253
 0.455 -1.398 4.256
 0.467 -1.397 4.252
 0.48 -1.399 4.255
 0.493 -1.398 4.252
 0.506 -1.399 4.252
 0.517 -1.396 4.243
 0.53 -1.397 4.245
 0.544 -1.399 4.248
 0.556 -1.399 4.246
 0.569 -1.399 4.244
 0.582 -1.399 4.244
 0.594 -1.398 4.239
 0.606 -1.397 4.235
 0.619 -1.397 4.234
 0.632 -1.399 4.237
 0.646 -1.402 4.244
 0.66 -1.404 4.248
 0.673 -1.405 4.25
 0.687 -1.408 4.255
 0.701 -1.409 4.259
 0.712 -1.407 4.251
 0.724 -1.406 4.244
 0.738 -1.407 4.247
 0.751 -1.409 4.249
 0.764 -1.408 4.246
 0.778 -1.41 4.25
 0.792 -1.413 4.254
 0.804 -1.411 4.249
 0.816 -1.411 4.246
 0.829 -1.411 4.242
 0.842 -1.411 4.24
 0.855 -1.412 4.241
 0.869 -1.413 4.242
 0.881 -1.412 4.236
 0.895 -1.415 4.243
 0.909 -1.416 4.244
 0.922 -1.417 4.244
 0.935 -1.417 4.241
 0.949 -1.418 4.243
 0.96 -1.416 4.234
 0.974 -1.419 4.239
 0.989 -1.421 4.242
 1.004 -1.423 4.248
 1.017 -1.425 4.248
 1.033 -1.429 4.259
 1.045 -1.428 4.253
 1.058 -1.427 4.247
 1.07 -1.427 4.244
 1.084 -1.429 4.245
 1.095 -1.426 4.235
 1.11 -1.428 4.237
 1.125 -1.431 4.243
 1.138 -1.431 4.24
 1.152 -1.432 4.242
 1.166 -1.434 4.243
 1.18 -1.435 4.244
 1.192 -1.434 4.237
 1.205 -1.434 4.234
 1.217 -1.433 4.227
 1.231 -1.434 4.226
 1.244 -1.434 4.222
 1.258 -1.436 4.224
 1.273 -1.438 4.228
 1.288 -1.44 4.231
 1.303 -1.443 4.235
 1.318 -1.444 4.235
 1.333 -1.447 4.239
 1.346 -1.447 4.236
 1.359 -1.447 4.231
 1.372 -1.446 4.226
 1.386 -1.447 4.225
 1.398 -1.447 4.219
 1.412 -1.448 4.218
 1.427 -1.45 4.22
 1.441 -1.451 4.22
 1.455 -1.451 4.216
 1.468 -1.451 4.212
 1.481 -1.452 4.21
 1.496 -1.453 4.209
 1.51 -1.455 4.209
 1.526 -1.457 4.211
 1.541 -1.459 4.212
 1.555 -1.46 4.211
 1.569 -1.461 4.21
 1.584 -1.463 4.21
 1.597 -1.462 4.204
 1.611 -1.463 4.2
 1.625 -1.464 4.199
 1.639 -1.464 4.195
 1.652 -1.464 4.19
 1.669 -1.467 4.195
 1.684 -1.469 4.196
 1.698 -1.47 4.192
 1.714 -1.473 4.196
 1.729 -1.474 4.193
 1.741 -1.473 4.186
 1.754 -1.472 4.18
 1.768 -1.474 4.178
 1.782 -1.474 4.173
 1.797 -1.476 4.173
 1.812 -1.477 4.172
 1.827 -1.478 4.169
 1.839 -1.477 4.162
 1.85 -1.475 4.151
 1.861 -1.473 4.14
 1.871 -1.471 4.127
 1.878 -1.466 4.109
 1.888 -1.464 4.096
 1.897 -1.461 4.082
 1.895 -1.449 4.044
 0 0 0
 0 0 0
 0 0 0
 0 0 0
 0 0 0
 0 0 0
 0 0 0
 0 0 0
 0 0 0
 0 0 0
 0 0 0
 0 0 0
 0 0 0
 0 0 0
 0 0 0
 0 0 0
 0 0 0
 0 0 0
 0 0 0
 0 0 0
 0 0 0
 0 0 0
 0 0 0
 0 0 0
 0 0 0
 1.85 -1.201 3.216
 1.861 -1.202 3.211
 1.86 -1.194 3.185
 1.86 -1.187 3.162
 1.862 -1.182 3.142
 1.858 -1.173 3.111
 1.877 -1.178 3.12
 1.825 -1.139 3.01
 0 0 0
 0 0 0
 -2.497 -1.577 4.339
 -2.483 -1.578 4.347
 -2.469 -1.579 4.356
 -2.448 -1.575 4.353
 -2.429 -1.572 4.352
 -2.41 -1.569 4.35
 -2.39 -1.565 4.347
 -2.371 -1.563 4.346
 -2.354 -1.561 4.349
 -2.34 -1.562 4.357
 -2.321 -1.558 4.354
 -2.3 -1.554 4.349
 -2.283 -1.552 4.35
 -2.264 -1.549 4.348
 -2.242 -1.544 4.34
 -2.23 -1.546 4.351
 -2.216 -1.546 4.358
 -2.194 -1.541 4.349
 -2.177 -1.539 4.35
 -2.159 -1.536 4.348
 -2.137 -1.531 4.338
 -2.119 -1.528 4.336
 -2.103 -1.527 4.338
 -2.085 -1.524 4.336
 -2.067 -1.521 4.335
 -2.052 -1.521 4.338
 -2.035 -1.518 4.337
 -2.018 -1.516 4.337
 -2.004 -1.516 4.342
 -1.989 -1.515 4.345
 -1.972 -1.513 4.345
 -1.955 -1.511 4.344
 -1.937 -1.508 4.341
 -1.919 -1.505 4.337
 -1.903 -1.503 4.337
 -1.886 -1.501 4.336
 -1.87 -1.499 4.335
 -1.853 -1.497 4.335
 -1.838 -1.496 4.337
 -1.821 -1.493 4.332
 -1.803 -1.49 4.33
 -1.787 -1.488 4.329
 -1.773 -1.488 4.333
 -1.759 -1.488 4.336
 -1.745 -1.488 4.342
 -1.73 -1.487 4.343
 -1.716 -1.487 4.347
 -1.701 -1.485 4.348
 -1.683 -1.481 4.341
 -1.666 -1.479 4.338
 -1.65 -1.477 4.336
 -1.632 -1.473 4.33
 -1.616 -1.471 4.327
 -1.601 -1.47 4.327
 -1.585 -1.468 4.326
 -1.567 -1.463 4.317
 -1.553 -1.463 4.32
 -1.538 -1.461 4.32
 -1.523 -1.46 4.32
 -1.508 -1.459 4.32
 -1.496 -1.46 4.328
 -1.481 -1.458 4.326
 -1.463 -1.454 4.317
