 1.865 -1.491 3.358
 1.863 -1.471 3.301
 1.873 -1.462 3.269
 1.866 -1.439 3.206
 1.849 -1.41 3.13
 1.844 -1.39 3.074
 1.824 -1.36 2.995
 1.824 -1.344 2.95
 -2.208 -1.62 3.708
 -2.18 -1.618 3.717
 -2.168 -1.629 3.753
 -2.165 -1.646 3.806
 -2.129 -1.638 3.8
 -2.093 -1.63 3.794
 -2.078 -1.639 3.825
 -2.04 -1.63 3.816
 -2.009 -1.626 3.818
 -1.976 -1.619 3.815
 -1.952 -1.621 3.83
 -1.936 -1.629 3.861
 -1.909 -1.628 3.87
 -1.886 -1.631 3.886
 -1.837 -1.61 3.847
 -1.829 -1.626 3.894
 -1.827 -1.647 3.956
 -1.786 -1.634 3.935
 -1.749 -1.623 3.918
 -1.727 -1.627 3.937
 -1.689 -1.615 3.918
 -1.684 -1.635 3.976
 -1.654 -1.632 3.977
 -1.626 -1.629 3.979
 -1.598 -1.627 3.983
 -1.575 -1.63 3.999
 -1.552 -1.632 4.014
 -1.524 -1.63 4.017
 -1.497 -1.629 4.022
 -1.467 -1.624 4.018
 -1.454 -1.639 4.062
 -1.421 -1.63 4.049
 -1.386 -1.62 4.031
 -1.372 -1.634 4.072
 -1.335 -1.621 4.046
 -1.297 -1.605 4.015
 -1.28 -1.615 4.046
 -1.245 -1.603 4.023
 -1.24 -1.63 4.096
 -1.204 -1.616 4.067
 -1.197 -1.642 4.14
 -1.163 -1.63 4.116
 -1.127 -1.616 4.086
 -1.108 -1.626 4.116
 -1.072 -1.61 4.082
 -1.043 -1.604 4.071
 -1.035 -1.632 4.148
 -0.999 -1.615 4.11
 -0.977 -1.62 4.129
 -0.952 -1.621 4.136
 -0.924 -1.616 4.129
 -0.896 -1.612 4.121
 -0.87 -1.611 4.124
 -0.843 -1.608 4.119
 -0.821 -1.616 4.144
 -0.792 -1.608 4.128
 -0.768 -1.61 4.137
 -0.739 -1.602 4.12
 -0.714 -1.603 4.126
 -0.692 -1.612 4.151
 -0.669 -1.618 4.171
 -0.645 -1.621 4.181
 -0.619 -1.619 4.179
 -0.593 -1.618 4.18
 -0.566 -1.613 4.168
 -0.542 -1.618 4.184
 -0.516 -1.616 4.182
 -0.487 -1.605 4.155
 -0.466 -1.617 4.19
 -0.437 -1.607 4.165
 -0.415 -1.617 4.193
 -0.388 -1.61 4.177
 -0.365 -1.621 4.206
 -0.339 -1.618 4.201
 -0.31 -1.601 4.157
 -0.287 -1.612 4.186
 -0.261 -1.608 4.179
 -0.236 -1.611 4.188
 -0.21 -1.602 4.164
 -0.186 -1.62 4.21
 -0.16 -1.608 4.18
 -0.135 -1.614 4.198
 -0.109 -1.597 4.154
 -0.085 -1.626 4.23
 -0.059 -1.616 4.203
 -0.034 -1.599 4.159
 -0.009 -1.62 4.213
 0.016 -1.608 4.182
 0.041 -1.606 4.175
 0.066 -1.617 4.202
 0.092 -1.619 4.208
 0.117 -1.615 4.196
 0.142 -1.615 4.197
 0.167 -1.608 4.175
 0.193 -1.615 4.193
 0.216 -1.603 4.162
 0.243 -1.611 4.181
 0.268 -1.611 4.18
 0.294 -1.616 4.19
 0.318 -1.611 4.174
 0.343 -1.611 4.172
 0.369 -1.612 4.172
 0.395 -1.614 4.176
 0.422 -1.624 4.2
 0.444 -1.61 4.162
 0.471 -1.618 4.178
 0.492 -1.602 4.135
 0.521 -1.614 4.164
 0.548 -1.621 4.178
 0.57 -1.612 4.15
 0.594 -1.607 4.135
 0.619 -1.608 4.135
 0.652 -1.627 4.179
 0.672 -1.614 4.143
 0.7 -1.621 4.157
 0.718 -1.605 4.111
 0.745 -1.608 4.116
 0.781 -1.632 4.172
 0.799 -1.617 4.129
 0.826 -1.621 4.134
 0.853 -1.624 4.138
 0.872 -1.612 4.102
 0.91 -1.635 4.155
 0.927 -1.619 4.111
 0.957 -1.629 4.129
 0.983 -1.629 4.125
 1.002 -1.619 4.092
 1.026 -1.617 4.083
 1.058 -1.628 4.105
 1.088 -1.634 4.115
 1.107 -1.625 4.084
 1.135 -1.629 4.09
 1.159 -1.627 4.077
 1.184 -1.627 4.071
 1.206 -1.622 4.051
 1.245 -1.64 4.088
 1.254 -1.618 4.028
 1.286 -1.628 4.043
 1.312 -1.628 4.038
 1.339 -1.631 4.037
 1.383 -1.652 4.082
 1.395 -1.636 4.034
 1.413 -1.629 4.006
 1.447 -1.638 4.021
 1.467 -1.632 3.997
 1.497 -1.637 4.001
 1.504 -1.618 3.946
 1.533 -1.622 3.947
 1.558 -1.621 3.936
 1.584 -1.623 3.93
 1.627 -1.64 3.963
 1.635 -1.623 3.911
 1.671 -1.634 3.928
 1.694 -1.631 3.912
 1.712 -1.625 3.886
 1.748 -1.635 3.9
 1.753 -1.616 3.845
 1.785 -1.622 3.847
 1.819 -1.63 3.857
 1.84 -1.626 3.837
 1.857 -1.619 3.808
 1.864 -1.603 3.76
 1.867 -1.585 3.706
 1.882 -1.578 3.677
 1.879 -1.555 3.612
 1.876 -1.533 3.55
 1.88 -1.516 3.5
 1.865 -1.486 3.42
 1.898 -1.494 3.425
 0 0 0
 0 0 0
 1.791 -1.36 3.086
 1.828 -1.373 3.102
 1.842 -1.367 3.078
 1.858 -1.363 3.059
 1.83 -1.328 2.968
 -2.229 -1.61 3.753
 -2.221 -1.622 3.796
 -2.213 -1.636 3.84
 -2.179 -1.63 3.84
 -2.141 -1.622 3.832
 -2.11 -1.618 3.836
 -2.076 -1.612 3.833
 -2.066 -1.624 3.874
 -2.045 -1.628 3.895
 -2.023 -1.632 3.916
 -1.986 -1.623 3.906
 -1.968 -1.63 3.934
 -1.947 -1.634 3.956
 -1.917 -1.631 3.96
 -1.894 -1.634 3.977
 -1.861 -1.628 3.973
 -1.826 -1.62 3.964
 -1.785 -1.607 3.941
 -1.776 -1.622 3.989
 -1.747 -1.62 3.994
 -1.716 -1.615 3.99
 -1.696 -1.621 4.015
 -1.664 -1.615 4.009
 -1.64 -1.617 4.024
 -1.623 -1.627 4.056
 -1.592 -1.622 4.053
 -1.561 -1.617 4.048
 -1.538 -1.619 4.064
 -1.522 -1.63 4.098
 -1.489 -1.622 4.087
 -1.457 -1.616 4.079
 -1.43 -1.616 4.086
 -1.399 -1.61 4.078
 -1.383 -1.621 4.115
 -1.352 -1.615 4.106
 -1.329 -1.618 4.121
 -1.302 -1.618 4.127
 -1.274 -1.615 4.126
 -1.259 -1.628 4.167
 -1.226 -1.619 4.151
 -1.191 -1.608 4.128
 -1.174 -1.619 4.164
 -1.14 -1.608 4.14
 -1.113 -1.607 4.144
 -1.087 -1.606 4.146
 -1.059 -1.603 4.143
 -1.031 -1.599 4.139
 -1.01 -1.608 4.166
 -0.979 -1.599 4.149
 -0.944 -1.582 4.11
 -0.928 -1.598 4.156
 -0.913 -1.617 4.209
 -0.879 -1.602 4.176
 -0.852 -1.601 4.177
 -0.832 -1.611 4.207
 -0.805 -1.609 4.205
 -0.778 -1.606 4.201
 -0.753 -1.607 4.207
 -0.729 -1.611 4.221
 -0.699 -1.601 4.199
 -0.675 -1.606 4.216
 -0.642 -1.588 4.172
 -0.625 -1.608 4.228
 -0.594 -1.594 4.193
 -0.572 -1.604 4.221
 -0.546 -1.604 4.225
 -0.52 -1.603 4.223
 -0.499 -1.617 4.263
 -0.471 -1.61 4.246
 -0.443 -1.603 4.229
 -0.418 -1.604 4.233
 -0.394 -1.612 4.257
 -0.366 -1.603 4.234
 -0.341 -1.603 4.235
 -0.315 -1.599 4.228
 -0.288 -1.593 4.213
 -0.265 -1.611 4.261
 -0.237 -1.593 4.214
 -0.212 -1.599 4.231
 -0.188 -1.605 4.247
 -0.162 -1.605 4.248
 -0.137 -1.614 4.273
 -0.111 -1.601 4.238
 -0.085 -1.599 4.235
 -0.059 -1.596 4.226
 -0.034 -1.597 4.227
 -0.009 -1.605 4.249
 0.016 -1.59 4.209
 0.042 -1.611 4.265
 0.067 -1.592 4.212
 0.092 -1.597 4.227
 0.118 -1.606 4.25
 0.144 -1.608 4.253
 0.169 -1.603 4.239
 0.195 -1.604 4.239
 0.219 -1.597 4.219
 0.245 -1.602 4.233
 0.27 -1.595 4.211
 0.298 -1.61 4.25
 0.325 -1.616 4.264
 0.348 -1.606 4.235
 0.374 -1.606 4.233
 0.398 -1.6 4.215
 0.423 -1.601 4.216
 0.451 -1.608 4.23
 0.477 -1.61 4.234
 0.496 -1.591 4.18
 0.526 -1.604 4.213
 0.551 -1.602 4.202
 0.577 -1.606 4.21
 0.601 -1.602 4.196
 0.628 -1.604 4.198
 0.658 -1.615 4.224
 0.687 -1.624 4.243
 0.709 -1.616 4.219
 0.738 -1.622 4.23
 0.756 -1.606 4.184
 0.781 -1.606 4.179
 0.806 -1.605 4.172
 0.833 -1.607 4.173
 0.862 -1.615 4.19
 0.889 -1.617 4.189
 0.92 -1.626 4.207
 0.946 -1.626 4.203
 0.953 -1.595 4.117
 0.985 -1.607 4.143
 1.016 -1.615 4.158
 1.036 -1.607 4.132
 1.073 -1.625 4.171
 1.085 -1.604 4.112
 1.119 -1.616 4.136
 1.15 -1.624 4.15
 1.166 -1.611 4.111
 1.198 -1.619 4.124
 1.22 -1.616 4.108
 1.248 -1.618 4.108
 1.282 -1.629 4.129
 1.306 -1.626 4.114
 1.336 -1.632 4.12
 1.358 -1.627 4.1
 1.385 -1.629 4.097
 1.403 -1.62 4.068
 1.432 -1.624 4.068
 1.454 -1.62 4.05
 1.488 -1.629 4.063
 1.508 -1.623 4.039
 1.536 -1.626 4.038
 1.574 -1.638 4.06
 1.585 -1.624 4.014
 1.621 -1.634 4.03
 1.639 -1.626 4.001
 1.658 -1.62 3.977
 1.707 -1.642 4.021
 1.716 -1.627 3.973
 1.736 -1.621 3.949
 1.762 -1.621 3.939
 1.794 -1.627 3.943
 1.819 -1.627 3.931
 1.847 -1.629 3.926
 1.875 -1.631 3.92
 1.888 -1.621 3.882
 1.89 -1.6 3.822
 1.879 -1.57 3.738
 1.889 -1.558 3.699
 1.877 -1.528 3.617
 1.904 -1.531 3.61
 1.906 -1.514 3.559
 1.877 -1.472 3.449
 0 0 0
 0 0 0
 0 0 0
 1.853 -1.385 3.2
 1.863 -1.376 3.169
 1.857 -1.356 3.111
 1.857 -1.341 3.065
 1.826 -1.304 2.969
 -2.287 -1.625 3.861
 -2.253 -1.62 3.862
 -2.251 -1.637 3.916
 -2.184 -1.608 3.859
 -2.159 -1.609 3.874
 -2.149 -1.621 3.917
 -2.126 -1.624 3.935
 -2.103 -1.627 3.954
 -2.068 -1.62 3.95
 -2.027 -1.609 3.933
 -2.024 -1.628 3.992
 -1.979 -1.613 3.967
 -1.979 -1.634 4.031
 -1.947 -1.63 4.031
 -1.914 -1.625 4.028
 -1.894 -1.631 4.055
 -1.849 -1.615 4.025
 -1.822 -1.614 4.034
 -1.807 -1.624 4.068
 -1.776 -1.621 4.07
 -1.751 -1.622 4.083
 -1.72 -1.617 4.081
 -1.687 -1.612 4.076
 -1.676 -1.626 4.122
 -1.638 -1.615 4.101
 -1.606 -1.61 4.097
 -1.596 -1.626 4.147
 -1.563 -1.619 4.139
 -1.531 -1.613 4.132
 -1.506 -1.615 4.145
 -1.47 -1.605 4.126
 -1.454 -1.616 4.162
 -1.417 -1.604 4.138
 -1.391 -1.604 4.148
 -1.37 -1.611 4.171
 -1.344 -1.61 4.177
 -1.314 -1.606 4.173
 -1.291 -1.61 4.191
 -1.248 -1.589 4.142
 -1.232 -1.601 4.181
 -1.21 -1.607 4.201
 -1.193 -1.62 4.241
 -1.153 -1.601 4.199
 -1.125 -1.598 4.197
 -1.098 -1.597 4.2
 -1.076 -1.602 4.218
 -1.049 -1.602 4.223
 -1.022 -1.601 4.224
 -1 -1.606 4.244
 -0.974 -1.607 4.25
 -0.948 -1.607 4.255
 -0.92 -1.603 4.251
 -0.895 -1.605 4.261
 -0.869 -1.607 4.269
 -0.839 -1.599 4.251
 -0.81 -1.593 4.239
 -0.785 -1.594 4.247
 -0.76 -1.598 4.26
 -0.736 -1.6 4.271
 -0.707 -1.595 4.26
 -0.684 -1.602 4.281
 -0.651 -1.585 4.239
 -0.63 -1.598 4.276
 -0.599 -1.584 4.242
 -0.574 -1.585 4.247
 -0.549 -1.587 4.256
 -0.526 -1.595 4.278
 -0.497 -1.587 4.261
 -0.47 -1.583 4.252
 -0.44 -1.568 4.212
 -0.42 -1.585 4.261
 -0.393 -1.582 4.253
 -0.368 -1.587 4.268
 -0.34 -1.575 4.239
 -0.314 -1.571 4.229
 -0.29 -1.579 4.252
 -0.265 -1.581 4.259
 -0.238 -1.576 4.244
 -0.213 -1.581 4.259
 -0.187 -1.578 4.253
 -0.162 -1.581 4.26
 -0.137 -1.586 4.274
 -0.111 -1.58 4.259
 -0.085 -1.574 4.242
 -0.059 -1.572 4.237
 -0.034 -1.573 4.24
 -0.008 -1.567 4.224
 0.016 -1.572 4.237
 0.042 -1.576 4.248
 0.067 -1.573 4.239
 0.093 -1.576 4.246
 0.119 -1.582 4.262
 0.145 -1.591 4.286
 0.169 -1.579 4.252
 0.195 -1.58 4.253
 0.219 -1.571 4.227
 0.246 -1.583 4.257
 0.272 -1.581 4.251
 0.296 -1.575 4.233
 0.323 -1.581 4.247
 0.346 -1.571 4.217
 0.374 -1.58 4.241
 0.397 -1.573 4.218
 0.426 -1.585 4.249
 0.452 -1.587 4.252
 0.475 -1.577 4.223
 0.499 -1.574 4.21
 0.525 -1.575 4.209
 0.554 -1.584 4.232
 0.576 -1.575 4.206
 0.604 -1.584 4.225
 0.627 -1.576 4.2
 0.655 -1.583 4.215
 0.685 -1.593 4.238
 0.708 -1.588 4.22
 0.733 -1.585 4.209
 0.761 -1.591 4.22
 0.787 -1.592 4.219
 0.811 -1.589 4.207
 0.84 -1.594 4.216
 0.865 -1.594 4.21
 0.893 -1.597 4.214
 0.925 -1.609 4.241
 0.946 -1.601 4.212
 0.975 -1.606 4.22
 0.994 -1.595 4.188
 1.031 -1.613 4.23
 1.054 -1.608 4.209
 1.079 -1.608 4.203
 1.096 -1.594 4.161
 1.131 -1.607 4.189
 1.154 -1.603 4.172
 1.181 -1.605 4.17
 1.207 -1.606 4.165
 1.238 -1.612 4.175
 1.257 -1.604 4.146
 1.29 -1.613 4.162
 1.313 -1.609 4.146
 1.342 -1.613 4.147
 1.378 -1.625 4.171
 1.398 -1.618 4.145
 1.421 -1.614 4.127
 1.451 -1.619 4.13
 1.487 -1.63 4.149
 1.497 -1.613 4.099
 1.519 -1.609 4.078
 1.557 -1.622 4.102
 1.581 -1.619 4.086
 1.61 -1.623 4.086
 1.637 -1.623 4.079
 1.654 -1.615 4.048
 1.688 -1.622 4.056
 1.71 -1.619 4.038
 1.739 -1.622 4.034
 1.755 -1.613 4.001
 1.79 -1.621 4.012
 1.82 -1.625 4.01
 1.817 -1.599 3.936
 1.857 -1.611 3.955
 1.854 -1.587 3.883
 1.881 -1.589 3.877
 1.899 -1.582 3.849
 1.889 -1.553 3.767
 1.891 -1.535 3.712
 1.886 -1.511 3.642
 1.874 -1.483 3.563
 0 0 0
 0 0 0
 0 0 0
 0 0 0
 0 0 0
 1.823 -1.341 3.156
 1.859 -1.352 3.171
 1.862 -1.339 3.128
 1.859 -1.321 3.075
 1.841 -1.293 3
 -2.294 -1.603 3.882
 -2.274 -1.608 3.907
 -2.281 -1.632 3.98
 -2.235 -1.619 3.96
 -2.215 -1.624 3.985
 -2.17 -1.61 3.965
 -2.157 -1.621 4.004
 -2.135 -1.624 4.024
 -2.104 -1.622 4.029
 -2.063 -1.611 4.014
 -2.051 -1.622 4.055
 -2.022 -1.621 4.062
 -2.003 -1.627 4.089
 -1.966 -1.62 4.082
 -1.923 -1.606 4.059
 -1.902 -1.611 4.081
 -1.874 -1.61 4.089
 -1.843 -1.606 4.089
 -1.83 -1.619 4.132
 -1.816 -1.63 4.171
 -1.768 -1.611 4.132
 -1.731 -1.602 4.117
 -1.704 -1.602 4.127
 -1.683 -1.606 4.148
 -1.659 -1.61 4.166
 -1.624 -1.601 4.153
 -1.599 -1.603 4.166
 -1.586 -1.617 4.211
 -1.55 -1.607 4.193
 -1.521 -1.604 4.195
 -1.502 -1.612 4.224
 -1.472 -1.609 4.223
 -1.439 -1.602 4.213
 -1.412 -1.602 4.221
 -1.378 -1.594 4.205
 -1.349 -1.591 4.205
 -1.327 -1.596 4.225
 -1.308 -1.605 4.256
 -1.265 -1.584 4.207
 -1.244 -1.592 4.233
 -1.224 -1.6 4.262
 -1.189 -1.589 4.238
 -1.169 -1.597 4.266
 -1.136 -1.588 4.247
 -1.119 -1.601 4.287
 -1.085 -1.589 4.263
 -1.061 -1.594 4.279
 -1.027 -1.582 4.252
 -1.011 -1.597 4.3
 -0.976 -1.584 4.268
 -0.951 -1.587 4.28
 -0.916 -1.571 4.244
 -0.892 -1.575 4.256
 -0.871 -1.583 4.285
 -0.839 -1.574 4.263
 -0.807 -1.563 4.236
 -0.791 -1.581 4.29
 -0.757 -1.564 4.248
 -0.738 -1.579 4.291
 -0.705 -1.564 4.253
 -0.683 -1.574 4.284
 -0.653 -1.563 4.259
 -0.628 -1.565 4.265
 -0.604 -1.57 4.282
 -0.575 -1.561 4.261
 -0.547 -1.558 4.253
 -0.521 -1.556 4.25
 -0.496 -1.557 4.258
 -0.472 -1.565 4.279
 -0.444 -1.554 4.254
 -0.423 -1.573 4.306
 -0.394 -1.559 4.27
 -0.368 -1.558 4.268
 -0.34 -1.55 4.248
 -0.316 -1.559 4.274
 -0.291 -1.562 4.283
 -0.265 -1.556 4.268
 -0.238 -1.549 4.249
 -0.213 -1.557 4.271
 -0.187 -1.55 4.253
 -0.162 -1.555 4.268
 -0.136 -1.546 4.245
 -0.111 -1.554 4.267
 -0.084 -1.542 4.233
 -0.06 -1.558 4.277
 -0.034 -1.555 4.268
 -0.008 -1.558 4.277
 0.016 -1.55 4.253
 0.042 -1.559 4.278
 0.067 -1.552 4.258
 0.093 -1.554 4.265
 0.117 -1.54 4.225
 0.143 -1.548 4.245
 0.169 -1.547 4.242
 0.194 -1.545 4.235
 0.221 -1.555 4.261
 0.247 -1.557 4.265
 0.272 -1.553 4.252
 0.297 -1.555 4.256
 0.323 -1.556 4.257
 0.348 -1.555 4.252
 0.374 -1.555 4.251
 0.402 -1.564 4.273
 0.424 -1.55 4.23
 0.453 -1.564 4.267
 0.473 -1.546 4.216
 0.5 -1.549 4.221
 0.527 -1.556 4.235
 0.556 -1.564 4.256
 0.579 -1.558 4.236
 0.602 -1.552 4.215
 0.63 -1.558 4.228
 0.66 -1.567 4.25
 0.682 -1.56 4.226
 0.703 -1.549 4.194
 0.738 -1.571 4.249
 0.761 -1.565 4.228
 0.789 -1.569 4.235
 0.814 -1.568 4.227
 0.846 -1.579 4.253
 0.865 -1.568 4.219
 0.897 -1.579 4.243
 0.919 -1.573 4.222
 0.946 -1.575 4.222
 0.978 -1.584 4.241
 0.997 -1.573 4.207
 1.025 -1.578 4.213
 1.06 -1.592 4.244
 1.085 -1.59 4.234
 1.108 -1.585 4.215
 1.132 -1.583 4.201
 1.163 -1.59 4.215
 1.187 -1.587 4.2
 1.223 -1.601 4.229
 1.247 -1.598 4.215
 1.272 -1.596 4.203
 1.296 -1.593 4.188
 1.337 -1.612 4.231
 1.36 -1.608 4.211
 1.382 -1.603 4.19
 1.405 -1.599 4.172
 1.442 -1.611 4.196
 1.455 -1.597 4.151
 1.492 -1.609 4.173
 1.528 -1.619 4.19
 1.544 -1.609 4.155
 1.576 -1.614 4.16
 1.6 -1.612 4.146
 1.628 -1.614 4.141
 1.65 -1.61 4.121
 1.682 -1.615 4.124
 1.703 -1.61 4.101
 1.747 -1.627 4.134
 1.751 -1.607 4.072
 1.765 -1.595 4.033
 1.804 -1.607 4.051
 1.825 -1.603 4.03
 1.859 -1.61 4.037
 1.865 -1.592 3.981
 1.877 -1.581 3.941
 1.89 -1.57 3.903
 1.886 -1.546 3.833
 1.905 -1.541 3.809
 1.901 -1.518 3.739
 1.88 -1.482 3.639
 0 0 0
 0 0 0
 0 0 0
 0 0 0
 0 0 0
 0 0 0
 0 0 0
 1.849 -1.323 3.161
 1.866 -1.319 3.142
 1.866 -1.305 3.095
 1.848 -1.278 3.02
 -2.375 -1.632 4.03
 -2.323 -1.615 4.001
 -2.294 -1.614 4.012
 -2.277 -1.621 4.044
 -2.248 -1.62 4.054
 -2.206 -1.61 4.041
 -2.189 -1.617 4.072
 -2.133 -1.596 4.031
 -2.125 -1.611 4.079
 -2.083 -1.599 4.062
 -2.064 -1.606 4.091
 -2.042 -1.609 4.111
 -2.041 -1.631 4.178
 -1.986 -1.608 4.131
 -1.967 -1.616 4.161
 -1.93 -1.607 4.151
 -1.905 -1.609 4.166
 -1.879 -1.611 4.18
 -1.846 -1.605 4.177
 -1.819 -1.606 4.187
 -1.79 -1.604 4.194
 -1.757 -1.598 4.188
 -1.721 -1.59 4.176
 -1.704 -1.599 4.21
 -1.675 -1.598 4.216
 -1.63 -1.581 4.178
 -1.617 -1.594 4.223
 -1.598 -1.602 4.253
 -1.574 -1.605 4.269
 -1.539 -1.597 4.255
 -1.509 -1.594 4.254
 -1.475 -1.586 4.242
 -1.444 -1.581 4.237
 -1.433 -1.598 4.291
 -1.408 -1.601 4.305
 -1.369 -1.587 4.275
 -1.341 -1.586 4.278
 -1.307 -1.577 4.26
 -1.285 -1.582 4.282
 -1.248 -1.57 4.255
 -1.225 -1.575 4.274
 -1.196 -1.571 4.269
 -1.171 -1.574 4.283
 -1.145 -1.574 4.29
 -1.113 -1.566 4.273
 -1.089 -1.57 4.29
 -1.057 -1.562 4.273
 -1.035 -1.568 4.295
 -1.003 -1.56 4.278
 -0.977 -1.561 4.284
 -0.948 -1.555 4.275
 -0.922 -1.556 4.28
 -0.898 -1.559 4.293
 -0.871 -1.558 4.294
 -0.848 -1.564 4.317
 -0.814 -1.549 4.277
 -0.791 -1.556 4.301
 -0.766 -1.558 4.309
 -0.733 -1.544 4.276
 -0.706 -1.541 4.271
 -0.681 -1.544 4.281
 -0.657 -1.548 4.297
 -0.63 -1.545 4.289
 -0.604 -1.545 4.292
 -0.58 -1.55 4.31
 -0.547 -1.532 4.263
 -0.522 -1.533 4.267
 -0.498 -1.537 4.281
 -0.473 -1.54 4.292
 -0.445 -1.532 4.271
 -0.417 -1.527 4.258
 -0.395 -1.539 4.293
 -0.365 -1.522 4.246
 -0.341 -1.529 4.267
 -0.313 -1.518 4.239
 -0.29 -1.531 4.276
 -0.264 -1.527 4.266
 -0.238 -1.525 4.261
 -0.213 -1.527 4.268
 -0.187 -1.528 4.27
 -0.162 -1.53 4.277
 -0.136 -1.529 4.276
 -0.11 -1.523 4.258
 -0.085 -1.533 4.286
 -0.059 -1.518 4.245
 -0.034 -1.528 4.274
 -0.008 -1.523 4.26
 0.016 -1.529 4.275
 0.042 -1.531 4.279
 0.067 -1.526 4.266
 0.093 -1.524 4.259
 0.119 -1.533 4.284
 0.144 -1.529 4.271
 0.168 -1.516 4.234
 0.195 -1.527 4.263
 0.221 -1.528 4.264
 0.246 -1.528 4.263
 0.271 -1.523 4.249
 0.298 -1.533 4.273
 0.324 -1.534 4.273
 0.348 -1.526 4.25
 0.373 -1.526 4.249
 0.4 -1.531 4.259
 0.424 -1.526 4.245
 0.451 -1.532 4.257
 0.477 -1.533 4.259
 0.502 -1.529 4.244
 0.529 -1.534 4.254
 0.555 -1.536 4.258
 0.579 -1.533 4.245
 0.606 -1.535 4.247
 0.633 -1.538 4.252
 0.656 -1.532 4.233
 0.681 -1.531 4.225
 0.709 -1.537 4.238
 0.734 -1.537 4.234
 0.764 -1.545 4.252
 0.79 -1.544 4.247
 0.811 -1.537 4.222
 0.838 -1.539 4.223
 0.869 -1.549 4.245
 0.894 -1.547 4.235
 0.917 -1.544 4.22
 0.949 -1.553 4.242
 0.97 -1.546 4.216
 1.003 -1.557 4.241
 1.024 -1.55 4.215
 1.053 -1.554 4.222
 1.083 -1.561 4.234
 1.109 -1.561 4.228
 1.138 -1.565 4.232
 1.159 -1.558 4.208
 1.184 -1.557 4.197
 1.215 -1.564 4.21
 1.241 -1.564 4.202
 1.276 -1.574 4.224
 1.296 -1.567 4.197
 1.324 -1.57 4.197
 1.36 -1.581 4.219
 1.383 -1.577 4.201
 1.414 -1.583 4.21
 1.44 -1.583 4.199
 1.469 -1.586 4.2
 1.492 -1.582 4.181
 1.522 -1.586 4.182
 1.561 -1.6 4.21
 1.587 -1.599 4.199
 1.608 -1.594 4.175
 1.652 -1.61 4.209
 1.667 -1.599 4.17
 1.694 -1.6 4.162
 1.712 -1.592 4.132
 1.754 -1.607 4.16
 1.773 -1.599 4.13
 1.799 -1.599 4.119
 1.826 -1.6 4.111
 1.835 -1.585 4.062
 1.872 -1.594 4.073
 1.881 -1.579 4.025
 1.89 -1.565 3.977
 1.904 -1.555 3.941
 1.878 -1.514 3.824
 1.875 -1.492 3.757
 1.92 -1.508 3.787
 0 0 0
 0 0 0
 0 0 0
 0 0 0
 0 0 0
 0 0 0
 0 0 0
 0 0 0
 1.835 -1.291 3.144
 1.89 -1.315 3.191
 1.83 -1.259 3.043
 1.868 -1.27 3.06
 -2.399 -1.621 4.081
 -2.327 -1.591 4.018
 -2.34 -1.619 4.103
 -2.286 -1.601 4.07
 -2.251 -1.595 4.069
 -2.257 -1.619 4.144
 -2.213 -1.608 4.127
 -2.173 -1.598 4.115
 -2.173 -1.619 4.182
 -2.124 -1.604 4.154
 -2.104 -1.609 4.179
 -2.057 -1.594 4.152
 -2.048 -1.609 4.203
 -2.004 -1.596 4.18
 -1.985 -1.603 4.209
 -1.942 -1.59 4.186
 -1.919 -1.594 4.206
 -1.887 -1.59 4.206
 -1.887 -1.613 4.279
 -1.847 -1.603 4.262
 -1.804 -1.59 4.236
 -1.779 -1.591 4.251
 -1.747 -1.587 4.25
 -1.727 -1.594 4.276
 -1.698 -1.593 4.283
 -1.667 -1.589 4.282
 -1.629 -1.579 4.263
 -1.607 -1.583 4.284
 -1.574 -1.578 4.279
 -1.545 -1.576 4.281
 -1.523 -1.581 4.303
 -1.488 -1.573 4.289
 -1.459 -1.571 4.291
 -1.434 -1.573 4.304
 -1.402 -1.567 4.295
 -1.38 -1.573 4.319
 -1.338 -1.556 4.279
 -1.319 -1.566 4.311
 -1.285 -1.556 4.292
 -1.252 -1.549 4.279
 -1.232 -1.557 4.306
 -1.204 -1.556 4.31
 -1.176 -1.554 4.311
 -1.146 -1.549 4.303
 -1.113 -1.54 4.283
 -1.084 -1.537 4.279
 -1.057 -1.535 4.279
 -1.036 -1.543 4.307
 -1.003 -1.533 4.283
 -0.976 -1.532 4.287
 -0.954 -1.539 4.311
 -0.926 -1.536 4.308
 -0.896 -1.53 4.293
 -0.859 -1.51 4.243
 -0.838 -1.52 4.273
 -0.813 -1.521 4.281
 -0.788 -1.524 4.292
 -0.762 -1.524 4.296
 -0.735 -1.523 4.297
 -0.71 -1.524 4.303
 -0.679 -1.514 4.279
 -0.654 -1.515 4.283
 -0.63 -1.519 4.299
 -0.601 -1.512 4.281
 -0.57 -1.498 4.245
 -0.548 -1.508 4.274
 -0.524 -1.513 4.291
 -0.493 -1.499 4.253
 -0.469 -1.503 4.268
 -0.444 -1.504 4.271
 -0.417 -1.501 4.266
 -0.391 -1.499 4.26
 -0.365 -1.497 4.257
 -0.34 -1.498 4.261
 -0.314 -1.499 4.266
 -0.288 -1.496 4.257
 -0.265 -1.507 4.29
 -0.239 -1.506 4.288
 -0.213 -1.506 4.288
 -0.187 -1.505 4.286
 -0.162 -1.506 4.291
 -0.135 -1.494 4.255
 -0.11 -1.505 4.287
 -0.084 -1.494 4.256
 -0.059 -1.503 4.282
 -0.033 -1.495 4.258
 -0.008 -1.495 4.26
 0.016 -1.492 4.251
 0.042 -1.5 4.271
 0.068 -1.507 4.292
 0.093 -1.497 4.262
 0.119 -1.499 4.268
 0.144 -1.496 4.257
 0.17 -1.505 4.282
 0.195 -1.498 4.262
 0.221 -1.502 4.271
 0.247 -1.508 4.288
 0.272 -1.501 4.266
 0.299 -1.511 4.293
 0.324 -1.507 4.279
 0.347 -1.497 4.249
 0.372 -1.493 4.235
 0.398 -1.498 4.245
 0.424 -1.5 4.25
 0.451 -1.504 4.259
 0.473 -1.492 4.222
 0.501 -1.5 4.242
 0.529 -1.507 4.259
 0.555 -1.509 4.26
 0.579 -1.504 4.245
 0.604 -1.505 4.243
 0.632 -1.51 4.253
 0.656 -1.506 4.24
 0.683 -1.51 4.247
 0.712 -1.517 4.261
 0.732 -1.506 4.227
 0.762 -1.515 4.248
 0.789 -1.516 4.248
 0.817 -1.522 4.259
 0.843 -1.521 4.252
 0.866 -1.516 4.235
 0.897 -1.526 4.257
 0.918 -1.518 4.229
 0.945 -1.52 4.23
 0.977 -1.53 4.253
 1.003 -1.53 4.248
 1.027 -1.528 4.235
 1.059 -1.537 4.254
 1.09 -1.544 4.267
 1.11 -1.535 4.236
 1.135 -1.534 4.229
 1.165 -1.54 4.238
 1.189 -1.537 4.224
 1.216 -1.538 4.219
 1.244 -1.541 4.219
 1.274 -1.545 4.225
 1.301 -1.547 4.222
 1.331 -1.551 4.225
 1.358 -1.553 4.223
 1.389 -1.557 4.227
 1.412 -1.554 4.21
 1.454 -1.572 4.25
 1.47 -1.561 4.212
 1.494 -1.558 4.196
 1.525 -1.562 4.199
 1.552 -1.564 4.193
 1.577 -1.563 4.181
 1.622 -1.58 4.22
 1.637 -1.569 4.18
 1.671 -1.577 4.191
 1.709 -1.587 4.208
 1.722 -1.575 4.166
 1.763 -1.587 4.189
 1.78 -1.579 4.156
 1.805 -1.577 4.142
 1.83 -1.576 4.127
 1.848 -1.569 4.099
 1.87 -1.565 4.077
 1.873 -1.546 4.015
 1.885 -1.535 3.975
 1.897 -1.524 3.936
 1.89 -1.498 3.858
 1.902 -1.488 3.82
 0 0 0
 0 0 0
 0 0 0
 0 0 0
 0 0 0
 0 0 0
 0 0 0
 0 0 0
 0 0 0
 1.799 -1.244 3.09
 1.863 -1.274 3.151
 1.863 -1.259 3.105
 1.862 -1.245 3.057
 -2.419 -1.607 4.126
 -2.368 -1.591 4.1
 -2.376 -1.616 4.177
 -2.346 -1.615 4.188
 -2.302 -1.603 4.172
 -2.292 -1.616 4.218
 -2.249 -1.606 4.204
 -2.21 -1.598 4.197
 -2.186 -1.601 4.216
 -2.148 -1.594 4.21
 -2.135 -1.605 4.251
 -2.082 -1.586 4.212
 -2.085 -1.61 4.288
 -2.022 -1.583 4.227
 -2.012 -1.597 4.275
 -1.967 -1.583 4.25
 -1.935 -1.58 4.252
 -1.928 -1.597 4.308
 -1.892 -1.59 4.3
 -1.878 -1.602 4.343
 -1.805 -1.563 4.246
 -1.787 -1.571 4.28
 -1.772 -1.583 4.321
 -1.739 -1.578 4.316
 -1.701 -1.568 4.3
 -1.67 -1.565 4.298
 -1.651 -1.572 4.329
 -1.617 -1.566 4.321
 -1.583 -1.56 4.312
 -1.547 -1.552 4.296
 -1.519 -1.551 4.302
 -1.49 -1.549 4.305
 -1.461 -1.546 4.304
 -1.433 -1.545 4.309
 -1.408 -1.547 4.323
 -1.369 -1.535 4.295
 -1.344 -1.536 4.306
 -1.305 -1.522 4.272
 -1.285 -1.53 4.302
 -1.26 -1.532 4.312
 -1.235 -1.534 4.327
 -1.192 -1.514 4.275
 -1.167 -1.515 4.284
 -1.143 -1.519 4.302
 -1.116 -1.518 4.303
 -1.086 -1.513 4.295
 -1.059 -1.513 4.299
 -1.036 -1.518 4.318
 -1.002 -1.506 4.289
 -0.984 -1.518 4.329
 -0.951 -1.509 4.307
 -0.923 -1.506 4.303
 -0.894 -1.5 4.291
 -0.866 -1.498 4.29
 -0.842 -1.501 4.302
 -0.812 -1.495 4.288
 -0.788 -1.498 4.3
 -0.761 -1.496 4.3
 -0.731 -1.488 4.28
 -0.707 -1.493 4.297
 -0.677 -1.483 4.272
 -0.653 -1.486 4.283
 -0.625 -1.483 4.277
 -0.602 -1.488 4.295
 -0.574 -1.484 4.286
 -0.551 -1.49 4.306
 -0.521 -1.48 4.277
 -0.496 -1.481 4.284
 -0.469 -1.478 4.276
 -0.444 -1.479 4.282
 -0.418 -1.48 4.286
 -0.389 -1.466 4.248
 -0.369 -1.487 4.31
 -0.339 -1.472 4.267
 -0.315 -1.476 4.281
 -0.291 -1.485 4.307
 -0.265 -1.483 4.302
 -0.236 -1.465 4.252
 -0.213 -1.483 4.305
 -0.186 -1.473 4.276
 -0.161 -1.475 4.283
 -0.135 -1.472 4.274
 -0.109 -1.467 4.259
 -0.084 -1.474 4.28
 -0.059 -1.483 4.305
 -0.033 -1.47 4.268
 -0.008 -1.476 4.285
 0.017 -1.479 4.295
 0.042 -1.472 4.273
 0.068 -1.474 4.277
 0.093 -1.473 4.275
 0.118 -1.469 4.261
 0.144 -1.469 4.262
 0.168 -1.46 4.234
 0.195 -1.473 4.27
 0.221 -1.473 4.269
 0.245 -1.47 4.259
 0.27 -1.465 4.243
 0.298 -1.478 4.278
 0.322 -1.473 4.261
 0.35 -1.481 4.283
 0.375 -1.479 4.276
 0.4 -1.479 4.274
 0.424 -1.472 4.25
 0.449 -1.473 4.251
 0.477 -1.48 4.268
 0.504 -1.483 4.274
 0.529 -1.481 4.266
 0.55 -1.471 4.233
 0.576 -1.473 4.235
 0.603 -1.475 4.24
 0.627 -1.471 4.225
 0.655 -1.477 4.239
 0.683 -1.483 4.252
 0.71 -1.486 4.256
 0.738 -1.491 4.265
 0.762 -1.488 4.253
 0.788 -1.49 4.254
 0.817 -1.496 4.266
 0.842 -1.494 4.256
 0.865 -1.489 4.237
 0.896 -1.498 4.259
 0.918 -1.492 4.236
 0.945 -1.494 4.236
 0.973 -1.498 4.244
 1.008 -1.511 4.276
 1.029 -1.505 4.251
 1.048 -1.495 4.217
 1.08 -1.503 4.234
 1.106 -1.503 4.23
 1.133 -1.505 4.227
 1.162 -1.509 4.232
 1.19 -1.512 4.235
 1.219 -1.516 4.239
 1.241 -1.511 4.218
 1.276 -1.521 4.24
 1.306 -1.526 4.245
 1.329 -1.522 4.228
 1.357 -1.524 4.225
 1.378 -1.519 4.202
 1.411 -1.527 4.217
 1.443 -1.533 4.225
 1.466 -1.529 4.206
 1.49 -1.527 4.191
 1.534 -1.545 4.234
 1.552 -1.537 4.202
 1.592 -1.55 4.227
 1.616 -1.547 4.212
 1.648 -1.553 4.217
 1.677 -1.555 4.213
 1.706 -1.557 4.209
 1.73 -1.554 4.192
 1.764 -1.561 4.201
 1.777 -1.549 4.158
 1.811 -1.556 4.166
 1.837 -1.555 4.151
 1.849 -1.543 4.108
 1.866 -1.535 4.077
 1.891 -1.534 4.064
 1.891 -1.514 3.997
 1.905 -1.504 3.96
 1.918 -1.494 3.922
 0 0 0
 0 0 0
 0 0 0
 0 0 0
 0 0 0
 0 0 0
 0 0 0
 0 0 0
 0 0 0
 0 0 0
 0 0 0
 1.848 -1.243 3.135
 1.861 -1.237 3.108
 1.849 -1.215 3.043
 -2.464 -1.607 4.212
 -2.433 -1.606 4.222
 -2.4 -1.603 4.229
 0 0 0
 -2.306 -1.578 4.188
 -2.287 -1.585 4.22
 -2.272 -1.594 4.257
 -2.244 -1.594 4.271
 -2.207 -1.588 4.267
 -2.189 -1.596 4.3
 -2.146 -1.585 4.283
 -2.109 -1.579 4.278
 -2.086 -1.583 4.3
 -2.046 -1.574 4.287
 -2.025 -1.579 4.313
 -1.993 -1.576 4.315
 -1.966 -1.577 4.33
 -1.934 -1.574 4.331
 -1.896 -1.566 4.32
 -1.853 -1.553 4.295
 -1.833 -1.559 4.322
 -1.801 -1.556 4.323
 -1.756 -1.541 4.291
 -1.728 -1.541 4.299
 -1.705 -1.544 4.318
 -1.667 -1.535 4.301
 -1.649 -1.543 4.334
 -1.618 -1.54 4.333
 -1.58 -1.53 4.312
 -1.555 -1.532 4.328
 -1.513 -1.517 4.293
 -1.49 -1.522 4.313
 -1.469 -1.528 4.339
 -1.432 -1.518 4.317
 -1.395 -1.506 4.292
 -1.374 -1.514 4.319
 -1.344 -1.51 4.315
 -1.321 -1.513 4.333
 -1.278 -1.495 4.286
 -1.252 -1.495 4.293
 -1.226 -1.497 4.303
 -1.201 -1.499 4.315
 -1.165 -1.487 4.287
 -1.136 -1.483 4.282
 -1.106 -1.478 4.273
 -1.09 -1.492 4.318
 -1.06 -1.488 4.313
 -1.034 -1.489 4.319
 -0.999 -1.475 4.285
 -0.98 -1.486 4.32
 -0.95 -1.481 4.312
 -0.926 -1.485 4.326
 -0.892 -1.471 4.29
 -0.868 -1.475 4.306
 -0.839 -1.47 4.296
 -0.809 -1.463 4.278
 -0.785 -1.467 4.293
 -0.76 -1.468 4.301
 -0.732 -1.464 4.292
 -0.707 -1.467 4.304
 -0.679 -1.462 4.292
 -0.65 -1.455 4.275
 -0.626 -1.459 4.29
 -0.6 -1.458 4.29
 -0.574 -1.458 4.293
 -0.546 -1.452 4.278
 -0.518 -1.446 4.261
 -0.494 -1.45 4.274
 -0.472 -1.46 4.307
 -0.444 -1.455 4.295
 -0.417 -1.451 4.283
 -0.391 -1.45 4.281
 -0.367 -1.456 4.303
 -0.339 -1.447 4.277
 -0.313 -1.441 4.26
 -0.288 -1.446 4.277
 -0.262 -1.44 4.259
 -0.236 -1.441 4.262
 -0.211 -1.442 4.267
 -0.187 -1.45 4.291
 -0.161 -1.451 4.293
 -0.135 -1.44 4.263
 -0.109 -1.441 4.267
 -0.084 -1.443 4.271
 -0.058 -1.443 4.271
 -0.033 -1.44 4.261
 -0.008 -1.438 4.255
 0.017 -1.448 4.284
 0.042 -1.439 4.257
 0.068 -1.444 4.272
 0.094 -1.453 4.299
 0.118 -1.44 4.258
 0.144 -1.443 4.266
 0.169 -1.442 4.263
 0.194 -1.441 4.257
 0.22 -1.445 4.269
 0.247 -1.455 4.298
 0.271 -1.445 4.265
 0.297 -1.446 4.268
 0.321 -1.441 4.25
 0.346 -1.439 4.243
 0.374 -1.448 4.268
 0.398 -1.446 4.257
 0.423 -1.444 4.25
 0.449 -1.445 4.25
 0.475 -1.447 4.255
 0.503 -1.454 4.273
 0.527 -1.45 4.257
 0.553 -1.451 4.258
 0.576 -1.445 4.236
 0.604 -1.452 4.254
 0.631 -1.455 4.259
 0.656 -1.454 4.253
 0.684 -1.46 4.266
 0.705 -1.451 4.236
 0.737 -1.463 4.266
 0.761 -1.46 4.255
 0.788 -1.463 4.259
 0.816 -1.467 4.267
 0.843 -1.47 4.269
 0.862 -1.458 4.231
 0.892 -1.466 4.247
 0.916 -1.462 4.233
 0.945 -1.469 4.246
 0.974 -1.473 4.254
 0.997 -1.469 4.237
 1.024 -1.47 4.235
 1.055 -1.479 4.254
 1.081 -1.479 4.247
 1.105 -1.476 4.234
 1.137 -1.484 4.25
 1.164 -1.486 4.25
 1.187 -1.482 4.232
 1.218 -1.488 4.242
 1.242 -1.486 4.228
 1.277 -1.496 4.25
 1.299 -1.491 4.23
 1.325 -1.491 4.222
 1.359 -1.5 4.241
 1.381 -1.496 4.221
 1.412 -1.501 4.226
 1.44 -1.503 4.225
 1.47 -1.507 4.227
 1.493 -1.503 4.207
 1.529 -1.513 4.226
 1.556 -1.514 4.221
 1.59 -1.521 4.23
 1.611 -1.516 4.208
 1.645 -1.523 4.218
 1.671 -1.522 4.207
 1.696 -1.521 4.193
 1.733 -1.53 4.209
 1.754 -1.525 4.185
 1.788 -1.532 4.192
 1.807 -1.525 4.163
 1.844 -1.534 4.178
 1.861 -1.526 4.145
 1.88 -1.52 4.116
 1.892 -1.508 4.073
 1.899 -1.494 4.022
 1.914 -1.485 3.987
 0 0 0
 0 0 0
 0 0 0
 0 0 0
 0 0 0
 0 0 0
 0 0 0
 0 0 0
 0 0 0
 0 0 0
 0 0 0
 1.865 -1.246 3.219
 1.854 -1.225 3.152
 1.878 -1.226 3.144
 1.847 -1.193 3.046
 -2.484 -1.592 4.257
 -2.47 -1.602 4.298
 -2.447 -1.605 4.321
 -2.422 -1.608 4.343
 -2.35 -1.58 4.279
 -2.345 -1.596 4.336
 -2.28 -1.571 4.282
 -2.248 -1.569 4.288
 -2.222 -1.57 4.305
 -2.193 -1.57 4.318
 -2.169 -1.573 4.338
 -2.11 -1.552 4.29
 -2.095 -1.561 4.328
 -2.053 -1.551 4.311
 -2.014 -1.543 4.299
 -1.995 -1.549 4.329
 -1.952 -1.538 4.308
 -1.913 -1.529 4.294
 -1.899 -1.541 4.336
 -1.849 -1.523 4.295
 -1.835 -1.533 4.335
 -1.785 -1.515 4.293
 -1.754 -1.512 4.294
 -1.729 -1.514 4.309
 -1.704 -1.516 4.325
 -1.669 -1.509 4.314
 -1.649 -1.516 4.342
 -1.603 -1.499 4.302
 -1.58 -1.503 4.322
 -1.557 -1.507 4.342
 -1.519 -1.497 4.32
 -1.498 -1.503 4.345
 -1.472 -1.504 4.357
 -1.422 -1.48 4.295
 -1.389 -1.473 4.281
 -1.37 -1.482 4.314
 -1.337 -1.476 4.302
 -1.312 -1.477 4.314
 -1.283 -1.474 4.312
 -1.251 -1.468 4.299
 -1.23 -1.475 4.326
 -1.197 -1.468 4.31
 -1.17 -1.467 4.314
 -1.136 -1.458 4.292
 -1.106 -1.452 4.281
 -1.082 -1.455 4.294
 -1.054 -1.453 4.295
 -1.027 -1.452 4.297
 -1.005 -1.458 4.318
 -0.973 -1.45 4.299
 -0.944 -1.446 4.292
 -0.919 -1.448 4.302
 -0.895 -1.451 4.315
 -0.861 -1.438 4.282
 -0.836 -1.439 4.287
 -0.814 -1.447 4.315
 -0.783 -1.437 4.291
 -0.755 -1.434 4.284
 -0.729 -1.433 4.285
 -0.704 -1.434 4.291
 -0.681 -1.441 4.314
 -0.651 -1.433 4.292
 -0.621 -1.422 4.264
 -0.603 -1.441 4.324
 -0.571 -1.425 4.278
 -0.545 -1.424 4.276
 -0.521 -1.428 4.291
 -0.49 -1.414 4.251
 -0.468 -1.423 4.281
 -0.445 -1.433 4.311
 -0.415 -1.419 4.273
 -0.39 -1.42 4.276
 -0.365 -1.422 4.284
 -0.34 -1.426 4.296
 -0.312 -1.413 4.26
 -0.287 -1.414 4.262
 -0.261 -1.413 4.261
 -0.238 -1.424 4.295
 -0.211 -1.416 4.273
 -0.185 -1.414 4.267
 -0.16 -1.421 4.288
 -0.134 -1.416 4.272
 -0.109 -1.414 4.269
 -0.084 -1.419 4.284
 -0.058 -1.413 4.265
 -0.033 -1.423 4.296
 -0.007 -1.408 4.25
 0.017 -1.42 4.285
 0.042 -1.415 4.271
 0.068 -1.419 4.282
 0.093 -1.415 4.267
 0.119 -1.421 4.284
 0.144 -1.416 4.269
 0.169 -1.413 4.259
 0.194 -1.412 4.254
 0.22 -1.416 4.266
 0.247 -1.424 4.289
 0.269 -1.408 4.238
 0.297 -1.422 4.278
 0.32 -1.412 4.247
 0.347 -1.416 4.256
 0.373 -1.421 4.268
 0.396 -1.413 4.244
 0.425 -1.424 4.275
 0.449 -1.421 4.262
 0.476 -1.424 4.269
 0.501 -1.423 4.262
 0.525 -1.419 4.247
 0.552 -1.423 4.257
 0.577 -1.422 4.252
 0.603 -1.423 4.25
 0.632 -1.432 4.273
 0.657 -1.431 4.267
 0.682 -1.43 4.26
 0.706 -1.427 4.25
 0.732 -1.427 4.245
 0.759 -1.43 4.25
 0.785 -1.432 4.251
 0.814 -1.438 4.264
 0.841 -1.44 4.265
 0.866 -1.439 4.259
 0.894 -1.443 4.265
 0.918 -1.44 4.251
 0.94 -1.435 4.23
 0.974 -1.446 4.259
 1.001 -1.449 4.261
 1.023 -1.443 4.238
 1.055 -1.452 4.258
 1.079 -1.449 4.244
 1.106 -1.451 4.243
 1.128 -1.446 4.224
 1.152 -1.444 4.21
 1.188 -1.457 4.241
 1.212 -1.454 4.228
 1.251 -1.469 4.265
 1.277 -1.47 4.259
 1.299 -1.465 4.239
 1.321 -1.46 4.217
 1.353 -1.467 4.23
 1.384 -1.473 4.237
 1.416 -1.478 4.245
 1.443 -1.48 4.241
 1.472 -1.482 4.239
 1.487 -1.471 4.198
 1.521 -1.479 4.213
 1.56 -1.491 4.238
 1.571 -1.476 4.187
 1.614 -1.492 4.224
 1.641 -1.493 4.216
 1.667 -1.492 4.204
 1.691 -1.49 4.189
 1.731 -1.501 4.211
 1.76 -1.503 4.206
 1.785 -1.502 4.193
 1.805 -1.497 4.168
 1.852 -1.514 4.204
 1.842 -1.484 4.109
 1.872 -1.487 4.108
 1.869 -1.464 4.032
 1.908 -1.474 4.049
 0 0 0
 0 0 0
 0 0 0
 0 0 0
 0 0 0
 0 0 0
 0 0 0
 0 0 0
 0 0 0
 0 0 0
 0 0 0
 0 0 0
 0 0 0
 1.85 -1.2 3.151
 1.874 -1.202 3.144
 1.877 -1.191 3.103
 -2.553 -1.606 4.384
 -2.526 -1.608 4.404
 -2.47 -1.591 4.372
 -2.418 -1.577 4.346
 -2.384 -1.574 4.352
 -2.338 -1.563 4.334
 -2.319 -1.569 4.365
 -2.275 -1.559 4.349
 -2.263 -1.571 4.395
 -2.189 -1.539 4.318
 -2.145 -1.528 4.301
 -2.13 -1.538 4.339
 -2.086 -1.527 4.319
 -2.043 -1.515 4.299
 -2.028 -1.526 4.339
 -1.991 -1.519 4.33
 -1.954 -1.512 4.322
 -1.936 -1.52 4.355
 -1.9 -1.514 4.348
 -1.872 -1.513 4.356
 -1.828 -1.5 4.329
 -1.797 -1.497 4.331
 -1.755 -1.485 4.304
 -1.729 -1.486 4.317
 -1.695 -1.481 4.311
 -1.665 -1.478 4.312
 -1.638 -1.479 4.323
 -1.598 -1.467 4.296
 -1.565 -1.462 4.289
 -1.554 -1.477 4.342
 -1.514 -1.464 4.312
 -1.486 -1.464 4.319
 -1.452 -1.457 4.305
 -1.418 -1.449 4.289
 -1.391 -1.449 4.297
 -1.362 -1.447 4.297
 -1.333 -1.445 4.298
 -1.311 -1.449 4.317
 -1.281 -1.445 4.313
 -1.249 -1.44 4.302
 -1.222 -1.439 4.306
 -1.191 -1.434 4.297
 -1.173 -1.444 4.331
 -1.142 -1.438 4.321
 -1.107 -1.428 4.295
 -1.086 -1.434 4.318
 -1.058 -1.432 4.317
 -1.029 -1.428 4.311
 -0.997 -1.42 4.291
 -0.97 -1.42 4.295
 -0.946 -1.422 4.306
 -0.922 -1.426 4.323
 -0.893 -1.421 4.311
 -0.866 -1.42 4.313
 -0.837 -1.415 4.302
 -0.813 -1.418 4.314
 -0.789 -1.422 4.329
 -0.752 -1.402 4.272
 -0.729 -1.407 4.29
 -0.701 -1.404 4.284
 -0.677 -1.407 4.298
 -0.647 -1.398 4.273
 -0.619 -1.393 4.261
 -0.595 -1.397 4.275
 -0.569 -1.394 4.269
 -0.548 -1.407 4.312
 -0.516 -1.389 4.257
 -0.493 -1.397 4.285
 -0.468 -1.397 4.287
 -0.439 -1.388 4.259
 -0.418 -1.401 4.303
 -0.388 -1.389 4.266
 -0.365 -1.397 4.293
 -0.34 -1.4 4.304
 -0.314 -1.399 4.3
 -0.287 -1.39 4.274
 -0.261 -1.386 4.263
 -0.236 -1.388 4.271
 -0.211 -1.394 4.289
 -0.186 -1.395 4.293
 -0.16 -1.396 4.297
 -0.135 -1.393 4.289
 -0.11 -1.398 4.304
 -0.083 -1.38 4.248
 -0.058 -1.383 4.256
 -0.033 -1.393 4.288
 -0.007 -1.382 4.254
 0.017 -1.387 4.27
 0.043 -1.392 4.284
 0.068 -1.395 4.292
 0.093 -1.386 4.263
 0.118 -1.382 4.249
 0.144 -1.39 4.273
 0.169 -1.387 4.265
 0.195 -1.392 4.279
 0.22 -1.388 4.266
 0.245 -1.39 4.269
 0.271 -1.391 4.271
 0.295 -1.386 4.252
 0.321 -1.39 4.264
 0.346 -1.387 4.253
 0.372 -1.39 4.259
 0.397 -1.39 4.256
 0.424 -1.393 4.265
 0.451 -1.401 4.285
 0.474 -1.392 4.257
 0.503 -1.403 4.287
 0.527 -1.398 4.268
 0.55 -1.392 4.247
 0.58 -1.404 4.283
 0.605 -1.402 4.271
 0.628 -1.396 4.25
 0.656 -1.402 4.265
 0.683 -1.405 4.269
 0.702 -1.392 4.226
 0.736 -1.409 4.274
 0.76 -1.407 4.265
 0.781 -1.398 4.232
 0.817 -1.417 4.287
 0.836 -1.405 4.245
 0.871 -1.421 4.288
 0.887 -1.405 4.236
 0.915 -1.409 4.243
 0.95 -1.423 4.281
 0.968 -1.413 4.243
 0.994 -1.412 4.236
 1.023 -1.417 4.246
 1.043 -1.41 4.218
 1.075 -1.419 4.239
 1.102 -1.42 4.237
 1.13 -1.422 4.237
 1.158 -1.425 4.239
 1.19 -1.432 4.255
 1.212 -1.429 4.237
 1.24 -1.431 4.236
 1.265 -1.43 4.227
 1.294 -1.433 4.229
 1.329 -1.443 4.25
 1.355 -1.443 4.242
 1.381 -1.443 4.236
 1.405 -1.441 4.221
 1.444 -1.454 4.251
 1.468 -1.451 4.235
 1.495 -1.453 4.231
 1.524 -1.455 4.23
 1.551 -1.455 4.222
 1.582 -1.46 4.225
 1.615 -1.466 4.235
 1.64 -1.465 4.221
 1.669 -1.466 4.216
 1.703 -1.473 4.226
 1.73 -1.474 4.218
 1.754 -1.471 4.201
 1.778 -1.469 4.184
 1.812 -1.476 4.192
 1.83 -1.468 4.161
 1.867 -1.477 4.175
 1.904 -1.485 4.185
 1.9 -1.462 4.108
 0 0 0
 0 0 0
 0 0 0
 0 0 0
 0 0 0
 0 0 0
 0 0 0
 0 0 0
 0 0 0
 0 0 0
 0 0 0
 0 0 0
 0 0 0
 0 0 0
 1.86 -1.186 3.176
 1.899 -1.197 3.194
 1.879 -1.17 3.112
 -2.527 -1.561 4.349
 -2.491 -1.557 4.353
 -2.453 -1.551 4.351
 -2.401 -1.537 4.324
 -2.386 -1.546 4.363
 -2.344 -1.538 4.354
 -2.292 -1.522 4.324
 -2.255 -1.517 4.32
 -2.234 -1.522 4.347
 -2.198 -1.517 4.346
 -2.159 -1.51 4.338
 -2.139 -1.516 4.367
 -2.083 -1.496 4.322
 -2.057 -1.498 4.338
 -2.03 -1.499 4.351
 -1.993 -1.492 4.343
 -1.979 -1.503 4.387
 -1.921 -1.48 4.33
 -1.899 -1.485 4.354
 -1.852 -1.469 4.318
 -1.836 -1.479 4.357
 -1.796 -1.469 4.336
 -1.768 -1.469 4.346
 -1.734 -1.464 4.34
 -1.701 -1.459 4.334
 -1.675 -1.46 4.347
 -1.637 -1.451 4.328
 -1.599 -1.441 4.308
 -1.574 -1.443 4.322
 -1.554 -1.45 4.35
 -1.518 -1.441 4.332
 -1.487 -1.438 4.331
 -1.454 -1.432 4.318
 -1.42 -1.425 4.304
 -1.395 -1.427 4.318
 -1.365 -1.423 4.314
 -1.335 -1.42 4.31
 -1.307 -1.419 4.315
 -1.288 -1.427 4.345
 -1.25 -1.414 4.312
 -1.228 -1.419 4.334
 -1.198 -1.416 4.329
 -1.168 -1.411 4.321
 -1.136 -1.405 4.306
 -1.105 -1.399 4.293
 -1.077 -1.397 4.293
 -1.058 -1.406 4.328
 -1.024 -1.396 4.301
 -0.992 -1.388 4.28
 -0.966 -1.388 4.284
 -0.946 -1.396 4.314
 -0.911 -1.384 4.28
 -0.886 -1.385 4.288
 -0.858 -1.381 4.281
 -0.838 -1.391 4.314
 -0.805 -1.379 4.282
 -0.78 -1.38 4.289
 -0.75 -1.373 4.268
 -0.732 -1.388 4.32
 -0.703 -1.381 4.301
 -0.676 -1.38 4.301
 -0.646 -1.37 4.274
 -0.62 -1.368 4.269
 -0.601 -1.385 4.326
 -0.577 -1.389 4.339
 -0.543 -1.368 4.278
 -0.518 -1.37 4.286
 -0.489 -1.359 4.253
 -0.473 -1.387 4.342
 -0.438 -1.359 4.255
 -0.408 -1.343 4.208
 0 0 0
 0 0 0
 0 0 0
 0 0 0
 -0.285 -1.356 4.254
 -0.262 -1.37 4.299
 -0.236 -1.366 4.287
 -0.211 -1.367 4.293
 -0.185 -1.362 4.278
 -0.16 -1.365 4.286
 -0.134 -1.363 4.279
 -0.109 -1.365 4.287
 -0.083 -1.356 4.259
 -0.058 -1.356 4.259
 -0.032 -1.361 4.275
 -0.007 -1.351 4.243
 0.017 -1.381 4.338
 0 0 0
 0.067 -1.344 4.218
 0.091 -1.336 4.193
 0 0 0
 0 0 0
 0 0 0
 0.194 -1.36 4.265
 0 0 0
 0.244 -1.359 4.257
 0.274 -1.383 4.331
 0.294 -1.357 4.248
 0.325 -1.378 4.312
 0.354 -1.392 4.356
 0.371 -1.36 4.251
 0.399 -1.369 4.279
 0.422 -1.364 4.259
 0.448 -1.365 4.261
 0.477 -1.376 4.293
 0.493 -1.349 4.204
 0.522 -1.359 4.233
 0.555 -1.379 4.294
 0.577 -1.372 4.267
 0.603 -1.372 4.264
 0.623 -1.361 4.227
 0.646 -1.355 4.205
 0.678 -1.369 4.245
 0.703 -1.369 4.24
 0.734 -1.38 4.271
 0.753 -1.369 4.232
 0.782 -1.375 4.248
 0.815 -1.387 4.282
 0.842 -1.39 4.285
 0.86 -1.377 4.239
 0.895 -1.392 4.282
 0.919 -1.39 4.27
 0.94 -1.383 4.243
 0.969 -1.387 4.251
 0.989 -1.38 4.223
 1.018 -1.385 4.232
 1.047 -1.39 4.242
 1.069 -1.385 4.222
 1.104 -1.396 4.25
 1.13 -1.396 4.245
 1.165 -1.408 4.274
 1.189 -1.405 4.259
 1.211 -1.401 4.24
 1.242 -1.407 4.251
 1.265 -1.403 4.232
 1.296 -1.409 4.243
 1.321 -1.408 4.231
 1.351 -1.412 4.236
 1.373 -1.408 4.218
 1.409 -1.418 4.239
 1.433 -1.416 4.224
 1.469 -1.426 4.246
 1.502 -1.432 4.257
 1.523 -1.427 4.232
 1.552 -1.43 4.232
 1.575 -1.426 4.213
 1.61 -1.434 4.228
 1.633 -1.431 4.209
 1.67 -1.441 4.229
 1.695 -1.439 4.213
 1.719 -1.437 4.197
 1.756 -1.446 4.214
 1.788 -1.451 4.216
 1.805 -1.443 4.183
 1.842 -1.451 4.196
 1.863 -1.447 4.173
 1.889 -1.446 4.16
 0 0 0
 0 0 0
 0 0 0
 0 0 0
 0 0 0
 0 0 0
 0 0 0
 0 0 0
 0 0 0
 0 0 0
 0 0 0
 0 0 0
 0 0 0
 0 0 0
 0 0 0
 1.875 -1.173 3.208
 1.884 -1.165 3.175
 1.862 -1.139 3.091
 -2.534 -1.535 4.371
 -2.489 -1.526 4.359
 -2.435 -1.511 4.329
 -2.428 -1.525 4.383
 -2.384 -1.516 4.37
 -2.362 -1.52 4.397
 -2.314 -1.508 4.374
 -2.258 -1.49 4.335
 -2.23 -1.49 4.348
 -2.183 -1.478 4.325
 -2.163 -1.485 4.355
 -2.118 -1.473 4.332
 -2.112 -1.489 4.391
 -2.067 -1.477 4.367
 -2.004 -1.452 4.305
 -1.994 -1.465 4.355
 -1.955 -1.457 4.341
 -1.912 -1.446 4.318
 -1.886 -1.447 4.333
 -1.856 -1.445 4.337
 -1.823 -1.441 4.334
 -1.793 -1.439 4.338
 -1.764 -1.438 4.345
 -1.723 -1.427 4.321
 -1.701 -1.431 4.342
 -1.666 -1.425 4.332
 -1.633 -1.42 4.325
 -1.608 -1.423 4.342
 -1.568 -1.411 4.313
 -1.548 -1.418 4.343
 -1.516 -1.413 4.335
 -1.491 -1.415 4.349
 -1.454 -1.405 4.327
 -1.429 -1.407 4.341
 -1.391 -1.396 4.313
 -1.363 -1.394 4.315
 -1.336 -1.395 4.323
 -1.311 -1.397 4.335
 -1.266 -1.377 4.28
 -1.242 -1.379 4.294
 -1.221 -1.385 4.317
 -1.191 -1.381 4.312
 -1.157 -1.372 4.289
 -1.137 -1.38 4.32
 -1.1 -1.367 4.284
 -1.091 -1.388 4.355
 -1.052 -1.372 4.31
 -1.032 -1.381 4.341
 -0.993 -1.363 4.292
 -0.966 -1.361 4.289
 0 0 0
 0 0 0
 0 0 0
 0 0 0
 0 0 0
 0 0 0
 0 0 0
 0 0 0
 0 0 0
 0 0 0
 0 0 0
 0 0 0
 0 0 0
 0 0 0
 0 0 0
 0 0 0
 0 0 0
 0 0 0
 0 0 0
 0 0 0
 0 0 0
 0 0 0
 0 0 0
 0 0 0
 0 0 0
 -0.287 -1.342 4.297
 -0.26 -1.334 4.272
 -0.235 -1.336 4.28
 -0.21 -1.336 4.282
 -0.184 -1.33 4.262
 -0.159 -1.336 4.283
 -0.134 -1.335 4.28
 -0.108 -1.332 4.271
 -0.083 -1.343 4.305
 -0.058 -1.343 4.306
 -0.032 -1.33 4.262
 -0.007 -1.322 4.238
 0 0 0
 0 0 0
 0 0 0
 0 0 0
 0 0 0
 0 0 0
 0 0 0
 0 0 0
 0 0 0
 0 0 0
 0 0 0
 0 0 0
 0 0 0
 0 0 0
 0 0 0
 0 0 0
 0 0 0
 0 0 0
 0 0 0
 0 0 0
 0 0 0
 0 0 0
 0 0 0
 0 0 0
 0 0 0
 0 0 0
 0 0 0
 0 0 0
 0 0 0
 0 0 0
 0 0 0
 0 0 0
 0 0 0
 0 0 0
 0 0 0
 0 0 0
 0 0 0
 0 0 0
 0 0 0
 1.019 -1.36 4.243
 1.051 -1.368 4.264
 1.076 -1.368 4.256
 1.098 -1.363 4.235
 1.129 -1.369 4.247
 1.159 -1.375 4.259
 1.182 -1.371 4.24
 1.205 -1.368 4.224
 1.238 -1.376 4.242
 1.271 -1.384 4.261
 1.295 -1.381 4.245
 1.321 -1.382 4.24
 1.349 -1.384 4.238
 1.379 -1.388 4.242
 1.413 -1.396 4.259
 1.432 -1.389 4.23
 1.455 -1.385 4.211
 1.498 -1.401 4.252
 1.512 -1.39 4.209
 1.559 -1.409 4.257
 1.572 -1.397 4.212
 1.601 -1.4 4.211
 1.634 -1.406 4.221
 1.668 -1.412 4.229
 1.692 -1.41 4.214
 1.724 -1.414 4.217
 1.748 -1.413 4.201
 1.781 -1.418 4.208
 1.809 -1.419 4.201
 1.842 -1.424 4.204
 1.873 -1.428 4.203
 0 0 0
 0 0 0
 0 0 0
 0 0 0
 0 0 0
 0 0 0
 0 0 0
 0 0 0
 0 0 0
 0 0 0
 0 0 0
 0 0 0
 0 0 0
 0 0 0
 0 0 0
 0 0 0
 1.848 -1.134 3.167
 1.895 -1.15 3.2
 1.877 -1.127 3.122
 -2.548 -1.515 4.406
 -2.469 -1.485 4.332
 -2.458 -1.496 4.38
 -2.418 -1.489 4.373
 -2.402 -1.498 4.413
 -2.349 -1.483 4.381
 -2.303 -1.472 4.362
 -2.266 -1.467 4.359
 -2.216 -1.453 4.33
 -2.182 -1.449 4.332
 -2.158 -1.453 4.353
 -2.117 -1.444 4.338
 -2.085 -1.442 4.344
 -2.049 -1.436 4.337
 -2.022 -1.437 4.352
 -1.989 -1.434 4.353
 -1.933 -1.413 4.301
 -1.923 -1.426 4.351
 -1.882 -1.416 4.332
 -1.851 -1.414 4.334
 -1.827 -1.416 4.351
 -1.786 -1.406 4.329
 -1.751 -1.4 4.32
 -1.729 -1.405 4.344
 -1.684 -1.391 4.309
 -1.659 -1.392 4.322
 -1.636 -1.396 4.343
 -1.598 -1.386 4.321
 -1.566 -1.382 4.316
 -1.533 -1.377 4.307
 -1.515 -1.385 4.34
 -1.497 -1.393 4.374
 -1.447 -1.372 4.314
 -1.421 -1.373 4.324
 -1.394 -1.372 4.33
 -1.371 -1.376 4.348
 -1.331 -1.363 4.313
 0 0 0
 0 0 0
 0 0 0
 0 0 0
 0 0 0
 0 0 0
 0 0 0
 0 0 0
 0 0 0
 0 0 0
 0 0 0
 0 0 0
 0 0 0
 0 0 0
 0 0 0
 0 0 0
 0 0 0
 0 0 0
 0 0 0
 0 0 0
 0 0 0
 0 0 0
 0 0 0
 0 0 0
 0 0 0
 0 0 0
 0 0 0
 0 0 0
 0 0 0
 0 0 0
 0 0 0
 0 0 0
 0 0 0
 0 0 0
 0 0 0
 0 0 0
 0 0 0
 0 0 0
 -0.283 -1.299 4.246
 -0.26 -1.311 4.286
 -0.235 -1.311 4.289
 -0.211 -1.317 4.309
 -0.184 -1.307 4.275
 -0.159 -1.308 4.28
 -0.134 -1.315 4.305
 -0.108 -1.311 4.291
 -0.083 -1.307 4.275
 -0.057 -1.31 4.288
 -0.032 -1.301 4.257
 -0.007 -1.297 4.245
 0 0 0
 0 0 0
 0 0 0
 0 0 0
 0 0 0
 0 0 0
 0 0 0
 0 0 0
 0 0 0
 0 0 0
 0 0 0
 0 0 0
 0 0 0
 0 0 0
 0 0 0
 0 0 0
 0 0 0
 0 0 0
 0 0 0
 0 0 0
 0 0 0
 0 0 0
 0 0 0
 0 0 0
 0 0 0
 0 0 0
 0 0 0
 0 0 0
 0 0 0
 0 0 0
 0 0 0
 0 0 0
 0 0 0
 0 0 0
 0 0 0
 0 0 0
 0 0 0
 0 0 0
 0 0 0
 1.037 -1.358 4.325
 1.049 -1.34 4.262
 1.073 -1.337 4.247
 1.101 -1.34 4.253
 1.129 -1.343 4.254
 1.153 -1.341 4.241
 1.181 -1.343 4.243
 1.212 -1.35 4.257
 1.237 -1.348 4.246
 1.261 -1.347 4.234
 1.293 -1.353 4.247
 1.312 -1.346 4.218
 1.348 -1.356 4.242
 1.377 -1.359 4.244
 1.406 -1.363 4.246
 1.438 -1.368 4.255
 1.466 -1.369 4.251
 1.488 -1.365 4.23
 1.522 -1.373 4.245
 1.547 -1.372 4.232
 1.574 -1.372 4.225
 1.603 -1.374 4.223
 1.632 -1.378 4.223
 1.652 -1.372 4.197
 1.698 -1.388 4.237
 1.713 -1.379 4.197
 1.744 -1.383 4.2
 1.774 -1.385 4.198
 1.796 -1.382 4.178
 1.847 -1.401 4.223
 0 0 0
 0 0 0
 0 0 0
 0 0 0
 0 0 0
 0 0 0
 0 0 0
 0 0 0
 0 0 0
 0 0 0
 0 0 0
 0 0 0
 0 0 0
 0 0 0
 0 0 0
 0 0 0
 0 0 0
 1.85 -1.114 3.177
 1.879 -1.119 3.179
 1.884 -1.109 3.14
 -2.535 -1.477 4.391
 -2.495 -1.471 4.387
 -2.451 -1.463 4.376
 -2.407 -1.454 4.362
 -2.378 -1.454 4.376
 -2.343 -1.45 4.379
 -2.297 -1.44 4.36
 -2.252 -1.43 4.342
 -2.224 -1.43 4.355
 -2.194 -1.429 4.364
 -2.161 -1.426 4.367
 -2.119 -1.417 4.352
 -2.078 -1.409 4.338
 -2.053 -1.411 4.356
 -2.016 -1.405 4.347
 -1.982 -1.401 4.345
 -1.967 -1.41 4.384
 -1.905 -1.385 4.318
 -1.873 -1.382 4.32
 -1.846 -1.383 4.331
 -1.825 -1.387 4.355
 -1.798 -1.388 4.366
 -1.768 -1.386 4.37
 -1.726 -1.375 4.344
 -1.682 -1.362 4.311
 -1.663 -1.369 4.341
 -1.628 -1.362 4.328
 -1.605 -1.366 4.349
 -1.579 -1.367 4.36
 -1.53 -1.347 4.306
 -1.521 -1.363 4.365
 -1.47 -1.342 4.303
 -1.448 -1.347 4.326
 -1.426 -1.351 4.348
 -1.382 -1.334 4.3
 -1.355 -1.334 4.307
 -1.316 -1.321 4.272
 0 0 0
 0 0 0
 0 0 0
 0 0 0
 0 0 0
 0 0 0
 0 0 0
 0 0 0
 0 0 0
 0 0 0
 0 0 0
 0 0 0
 0 0 0
 0 0 0
 0 0 0
 0 0 0
 0 0 0
 0 0 0
 0 0 0
 0 0 0
 0 0 0
 0 0 0
 0 0 0
 0 0 0
 0 0 0
 0 0 0
 0 0 0
 0 0 0
 0 0 0
 0 0 0
 0 0 0
 0 0 0
 0 0 0
 0 0 0
 0 0 0
 0 0 0
 0 0 0
 0 0 0
 -0.287 -1.29 4.308
 -0.26 -1.286 4.295
 -0.236 -1.29 4.31
 -0.209 -1.284 4.291
 -0.184 -1.281 4.281
 -0.158 -1.283 4.287
 -0.133 -1.282 4.284
 -0.108 -1.287 4.301
 -0.082 -1.277 4.268
 -0.057 -1.279 4.273
 -0.032 -1.288 4.305
 -0.007 -1.281 4.281
 0 0 0
 0 0 0
 0 0 0
 0 0 0
 0 0 0
 0 0 0
 0 0 0
 0 0 0
 0 0 0
 0 0 0
 0 0 0
 0 0 0
 0 0 0
 0 0 0
 0 0 0
 0 0 0
 0 0 0
 0 0 0
 0 0 0
 0 0 0
 0 0 0
 0 0 0
 0 0 0
 0 0 0
 0 0 0
 0 0 0
 0 0 0
 0 0 0
 0 0 0
 0 0 0
 0 0 0
 0 0 0
 0 0 0
 0 0 0
 0 0 0
 0 0 0
 0 0 0
 0 0 0
 0 0 0
 0 0 0
 1.043 -1.305 4.242
 1.069 -1.306 4.237
 1.099 -1.312 4.25
 1.133 -1.322 4.278
 1.153 -1.315 4.25
 1.181 -1.317 4.249
 1.211 -1.322 4.258
 1.241 -1.327 4.267
 1.266 -1.326 4.257
 1.289 -1.323 4.239
 1.322 -1.33 4.255
 1.35 -1.331 4.253
 1.374 -1.33 4.24
 1.409 -1.339 4.261
 1.434 -1.338 4.249
 1.46 -1.338 4.242
 1.484 -1.336 4.228
 1.516 -1.341 4.235
 1.544 -1.343 4.232
 1.568 -1.341 4.217
 1.593 -1.34 4.205
 1.628 -1.347 4.22
 1.66 -1.352 4.223
 1.69 -1.355 4.225
 1.722 -1.359 4.226
 1.745 -1.357 4.209
 1.773 -1.358 4.204
 1.802 -1.36 4.199
 1.837 -1.366 4.208
 0 0 0
 0 0 0
 0 0 0
 0 0 0
 0 0 0
 0 0 0
 0 0 0
 0 0 0
 0 0 0
 0 0 0
 0 0 0
 0 0 0
 0 0 0
 0 0 0
 0 0 0
 0 0 0
 0 0 0
 1.825 -1.078 3.141
 1.882 -1.099 3.19
 1.886 -1.089 3.15
 -2.507 -1.432 4.352
 -2.511 -1.451 4.425
 -2.451 -1.434 4.386
 -2.398 -1.42 4.355
 -2.389 -1.432 4.406
 -2.343 -1.421 4.387
 -2.294 -1.409 4.362
 -2.271 -1.413 4.386
 -2.217 -1.397 4.35
 -2.182 -1.393 4.35
 -2.146 -1.388 4.346
 -2.125 -1.393 4.372
 -2.081 -1.383 4.353
 -2.054 -1.384 4.367
 -2.006 -1.37 4.334
 -1.983 -1.373 4.356
 -1.944 -1.366 4.343
 -1.926 -1.372 4.374
 -1.884 -1.362 4.351
 -1.838 -1.349 4.319
 -1.814 -1.352 4.337
 -1.788 -1.353 4.35
 -1.752 -1.347 4.34
 -1.723 -1.346 4.345
 -1.69 -1.341 4.34
 -1.66 -1.339 4.342
 -1.634 -1.34 4.353
 -1.603 -1.337 4.352
 -1.57 -1.332 4.344
 -1.528 -1.319 4.309
 -1.51 -1.327 4.342
 -1.473 -1.317 4.319
 -1.445 -1.317 4.323
 -1.417 -1.316 4.328
 -1.391 -1.316 4.336
 -1.351 -1.304 4.303
 0 0 0
 0 0 0
 0 0 0
 0 0 0
 0 0 0
 0 0 0
 0 0 0
 0 0 0
 0 0 0
 0 0 0
 0 0 0
 0 0 0
 0 0 0
 0 0 0
 0 0 0
 0 0 0
 0 0 0
 0 0 0
 0 0 0
 0 0 0
 0 0 0
 0 0 0
 0 0 0
 0 0 0
 0 0 0
 0 0 0
 0 0 0
 0 0 0
 0 0 0
 0 0 0
 0 0 0
 0 0 0
 0 0 0
 0 0 0
 0 0 0
 0 0 0
 0 0 0
 0 0 0
 -0.306 -1.241 4.233
 -0.285 -1.256 4.284
 -0.258 -1.249 4.262
 -0.233 -1.251 4.268
 -0.209 -1.257 4.29
 -0.183 -1.254 4.282
 -0.157 -1.248 4.262
 -0.133 -1.256 4.288
 -0.107 -1.251 4.27
 -0.082 -1.255 4.285
 -0.057 -1.248 4.262
 -0.032 -1.255 4.284
 -0.006 -1.248 4.261
 0 0 0
 0 0 0
 0 0 0
 0 0 0
 0 0 0
 0 0 0
 0 0 0
 0 0 0
 0 0 0
 0 0 0
 0 0 0
 0 0 0
 0 0 0
 0 0 0
 0 0 0
 0 0 0
 0 0 0
 0 0 0
 0 0 0
 0 0 0
 0 0 0
 0 0 0
 0 0 0
 0 0 0
 0 0 0
 0 0 0
 0 0 0
 0 0 0
 0 0 0
 0 0 0
 0 0 0
 0 0 0
 0 0 0
 0 0 0
 0 0 0
 0 0 0
 0 0 0
 0 0 0
 0 0 0
 0 0 0
 1.052 -1.291 4.285
 1.074 -1.286 4.264
 1.091 -1.276 4.226
 1.126 -1.288 4.257
 1.149 -1.284 4.239
 1.181 -1.291 4.257
 1.207 -1.291 4.249
 1.237 -1.296 4.259
 1.257 -1.291 4.234
 1.293 -1.3 4.259
 1.312 -1.294 4.23
 1.349 -1.304 4.257
 1.376 -1.305 4.252
 1.39 -1.295 4.21
 1.425 -1.303 4.229
 1.453 -1.305 4.226
 1.481 -1.306 4.223
 1.508 -1.308 4.219
 1.537 -1.31 4.219
 1.568 -1.314 4.224
 1.587 -1.308 4.195
 1.62 -1.314 4.205
 1.665 -1.329 4.243
 1.677 -1.318 4.198
 1.714 -1.326 4.215
 1.746 -1.331 4.219
 1.774 -1.332 4.213
 1.79 -1.324 4.177
 1.839 -1.34 4.218
 0 0 0
 0 0 0
 0 0 0
 0 0 0
 0 0 0
 0 0 0
 0 0 0
 0 0 0
 0 0 0
 0 0 0
 0 0 0
 0 0 0
 0 0 0
 0 0 0
 0 0 0
 0 0 0
 0 0 0
 1.802 -1.043 3.106
 1.878 -1.075 3.19
 1.867 -1.057 3.125
 -2.507 -1.403 4.361
 -2.476 -1.402 4.372
 -2.444 -1.4 4.38
 -2.402 -1.393 4.371
 -2.365 -1.388 4.369
 -2.295 -1.364 4.305
 -2.28 -1.372 4.344
 -2.257 -1.376 4.369
 -2.201 -1.359 4.326
 -2.188 -1.368 4.369
 -2.137 -1.354 4.335
 -2.111 -1.356 4.352
 -2.077 -1.352 4.352
 -2.032 -1.341 4.327
 -2.013 -1.347 4.356
 -1.993 -1.352 4.385
 -1.946 -1.339 4.353
 -1.91 -1.334 4.347
 -1.866 -1.323 4.32
 -1.828 -1.315 4.304
 -1.805 -1.318 4.323
 -1.782 -1.321 4.343
 -1.751 -1.319 4.345
 -1.723 -1.318 4.352
 -1.697 -1.319 4.365
 -1.663 -1.314 4.357
 -1.631 -1.31 4.352
 -1.592 -1.301 4.328
 -1.557 -1.294 4.313
 -1.535 -1.298 4.336
 -1.501 -1.293 4.324
 -1.475 -1.293 4.334
 -1.447 -1.292 4.337
 -1.411 -1.284 4.316
