 -0.316 0.038 0.852
 -0.31 0.038 0.852
 -0.305 0.038 0.852
 -0.299 0.038 0.853
 -0.294 0.038 0.854
 -0.288 0.037 0.854
 -0.281 0.037 0.849
 -0.274 0.037 0.843
 -0.266 0.036 0.837
 -0.258 0.036 0.827
 -0.252 0.036 0.825
 -0.248 0.036 0.829
 -0.244 0.036 0.835
 -0.241 0.036 0.842
 -0.239 0.037 0.855
 -0.235 0.037 0.86
 -0.23 0.037 0.859
 -0.224 0.037 0.856
 -0.218 0.036 0.855
 -0.214 0.037 0.861
 -0.21 0.037 0.868
 -0.205 0.037 0.869
 -0.2 0.037 0.867
 -0.193 0.036 0.864
 -0.184 0.036 0.846
 -0.174 0.034 0.821
 -0.166 0.034 0.808
 -0.159 0.033 0.795
 -0.152 0.032 0.781
 -0.145 0.032 0.771
 -0.14 0.032 0.769
 -0.135 0.032 0.768
 -0.131 0.032 0.769
 -0.127 0.032 0.771
 -0.122 0.032 0.772
 -0.119 0.032 0.784
 -0.117 0.033 0.802
 -0.114 0.034 0.815
 -0.111 0.034 0.826
 -0.107 0.034 0.833
 -0.102 0.034 0.83
 -0.096 0.034 0.825
 -0.091 0.034 0.824
 -0.086 0.034 0.822
 -0.082 0.034 0.825
 -0.077 0.034 0.826
 -0.072 0.033 0.821
 -0.067 0.033 0.817
 -0.062 0.033 0.813
 -0.057 0.033 0.809
 -0.052 0.033 0.807
 -0.047 0.033 0.807
 -0.043 0.033 0.808
 -0.038 0.033 0.806
 -0.033 0.032 0.804
 -0.028 0.032 0.799
 -0.023 0.032 0.79
 -0.019 0.031 0.783
 -0.014 0.031 0.778
 -0.01 0.031 0.774
 -0.005 0.031 0.774
 -0.001 0.032 0.787
 0.003 0.033 0.825
 0.008 0.035 0.862
 0.014 0.036 0.892
 0.02 0.037 0.922
 0.026 0.038 0.941
 0.031 0.038 0.932
 0.036 0.037 0.922
 0.041 0.037 0.928
 0.047 0.038 0.942
 0.054 0.039 0.957
 0.061 0.04 0.991
 0.07 0.042 1.028
 0.079 0.043 1.07
 0.09 0.046 1.128
 0.101 0.048 1.179
 0.108 0.049 1.188
 0.118 0.05 1.217
 0.13 0.052 1.261
 0.138 0.052 1.271
 0.142 0.051 1.239
 0.151 0.051 1.258
 0.16 0.052 1.265
 0.165 0.051 1.254
 0.167 0.05 1.215
 0.175 0.05 1.218
 0.184 0.05 1.228
 0.188 0.049 1.211
 0.183 0.046 1.132
 0.185 0.045 1.105
 0.186 0.044 1.074
 0.179 0.04 0.999
 0.175 0.038 0.943
 0.181 0.038 0.949
 0.18 0.037 0.913
 0.178 0.035 0.878
 0.186 0.036 0.888
 0.205 0.038 0.952
 0.222 0.041 1.005
 0.238 0.042 1.047
 0.248 0.043 1.062
 0.246 0.042 1.028
 0.224 0.037 0.911
 0.193 0.03 0.766
 0.166 0.025 0.642
 0.144 0.021 0.542
 0.126 0.017 0.463
 0.113 0.015 0.406
 0.106 0.013 0.372
 0.105 0.013 0.361
 0.106 0.013 0.356
 0.106 0.012 0.349
 0.107 0.012 0.344
 0.109 0.012 0.343
 0.109 0.012 0.338
 0.11 0.012 0.332
 0.112 0.012 0.332
 0.115 0.012 0.335
 0.118 0.012 0.335
 0.121 0.012 0.338
 0.125 0.012 0.343
 0.127 0.012 0.343
 0.131 0.013 0.346
 0.133 0.012 0.345
 0.136 0.013 0.347
 0.137 0.013 0.345
 0.142 0.013 0.349
 0.145 0.013 0.352
 0.15 0.013 0.357
 0.152 0.013 0.357
 0.158 0.013 0.364
 0.161 0.014 0.365
 0.163 0.013 0.363
 0.168 0.014 0.368
 0.173 0.014 0.374
 0.178 0.014 0.379
 0.187 0.015 0.392
 0.202 0.016 0.416
 0.219 0.017 0.445
 0.246 0.02 0.493
 0.282 0.022 0.557
 0.322 0.026 0.627
 0.359 0.029 0.689
 0.39 0.031 0.738
 0.412 0.032 0.768
 0.423 0.033 0.778
 0.428 0.033 0.775
 0.43 0.033 0.768
 0.444 0.033 0.78
 0.454 0.034 0.787
 -0.331 0.032 0.592
 -0.35 0.034 0.637
 -0.36 0.035 0.664
 -0.366 0.037 0.686
 -0.372 0.038 0.709
 -0.379 0.039 0.733
 -0.382 0.04 0.752
 -0.382 0.04 0.763
 -0.382 0.041 0.776
 -0.379 0.041 0.781
 -0.375 0.041 0.785
 -0.371 0.041 0.788
 -0.366 0.041 0.791
 -0.361 0.041 0.793
 -0.357 0.041 0.796
 -0.353 0.041 0.8
 -0.349 0.041 0.804
 -0.345 0.042 0.808
 -0.342 0.042 0.814
 -0.338 0.042 0.82
 -0.335 0.042 0.826
 -0.331 0.042 0.831
 -0.327 0.042 0.835
 -0.322 0.042 0.837
 -0.317 0.042 0.838
 -0.311 0.042 0.838
 -0.305 0.042 0.838
 -0.3 0.042 0.838
 -0.295 0.042 0.84
 -0.29 0.042 0.843
 -0.285 0.042 0.843
 -0.277 0.042 0.837
 -0.27 0.041 0.83
 -0.262 0.041 0.823
 -0.252 0.04 0.808
 -0.245 0.039 0.802
 -0.24 0.039 0.803
 -0.236 0.039 0.805
 -0.232 0.04 0.809
 -0.23 0.04 0.822
 -0.226 0.04 0.827
 -0.221 0.04 0.827
 -0.216 0.04 0.826
 -0.211 0.04 0.826
 -0.207 0.04 0.833
 -0.204 0.041 0.841
 -0.199 0.041 0.842
 -0.193 0.04 0.839
 -0.187 0.04 0.835
 -0.178 0.039 0.818
 -0.168 0.038 0.791
 -0.16 0.037 0.777
 -0.153 0.036 0.762
 -0.145 0.035 0.748
 -0.139 0.035 0.737
 -0.134 0.035 0.733
 -0.129 0.034 0.732
 -0.125 0.034 0.733
 -0.121 0.035 0.736
 -0.116 0.034 0.735
 -0.114 0.035 0.748
 -0.113 0.036 0.769
 -0.11 0.037 0.784
 -0.107 0.037 0.799
 -0.104 0.038 0.812
 -0.1 0.038 0.817
 -0.096 0.038 0.818
 -0.091 0.039 0.824
 -0.087 0.039 0.827
 -0.083 0.039 0.833
 -0.078 0.039 0.836
 -0.073 0.039 0.831
 -0.068 0.038 0.827
 -0.063 0.038 0.824
 -0.058 0.038 0.82
 -0.053 0.038 0.818
 -0.048 0.038 0.819
 -0.043 0.038 0.82
 -0.038 0.038 0.818
 -0.034 0.038 0.815
 -0.029 0.037 0.809
 -0.024 0.037 0.798
 -0.019 0.036 0.787
 -0.014 0.036 0.78
 -0.01 0.035 0.773
 -0.005 0.035 0.771
 -0.001 0.036 0.781
 0.003 0.037 0.812
 0.008 0.039 0.848
 0.014 0.041 0.88
 0.02 0.042 0.914
 0.026 0.043 0.94
 0.031 0.043 0.941
 0.036 0.043 0.939
 0.042 0.044 0.952
 0.049 0.045 0.969
 0.056 0.046 0.989
 0.064 0.048 1.03
 0.071 0.049 1.051
 0.079 0.05 1.072
 0.088 0.052 1.11
 0.097 0.053 1.142
 0.102 0.052 1.122
 0.112 0.054 1.15
 0.123 0.056 1.197
 0.132 0.057 1.215
 0.134 0.055 1.172
 0.144 0.056 1.194
 0.153 0.057 1.212
 0.159 0.056 1.205
 0.159 0.054 1.154
 0.166 0.054 1.159
 0.175 0.055 1.172
 0.178 0.053 1.142
 0.169 0.049 1.05
 0.173 0.048 1.031
 0.176 0.047 1.018
 0.168 0.043 0.936
 0.166 0.041 0.898
 0.178 0.043 0.93
 0.18 0.042 0.912
 0.179 0.04 0.881
 0.19 0.042 0.909
 0.212 0.046 0.984
 0.227 0.048 1.027
 0.232 0.047 1.018
 0.232 0.046 0.993
 0.221 0.042 0.92
 0.187 0.035 0.762
 0.15 0.027 0.596
 0.128 0.022 0.496
 0.114 0.018 0.429
 0.104 0.016 0.384
 0.101 0.015 0.362
 0.1 0.015 0.35
 0.101 0.014 0.347
 0.103 0.014 0.345
 0.104 0.014 0.341
 0.105 0.014 0.337
 0.106 0.014 0.334
 0.107 0.014 0.33
 0.107 0.013 0.322
 0.11 0.013 0.325
 0.113 0.014 0.328
 0.115 0.014 0.328
 0.119 0.014 0.332
 0.124 0.014 0.34
 0.126 0.014 0.34
 0.13 0.015 0.343
 0.132 0.015 0.344
 0.136 0.015 0.346
 0.138 0.015 0.345
 0.141 0.015 0.348
 0.145 0.015 0.351
 0.15 0.015 0.358
 0.153 0.015 0.359
 0.159 0.016 0.367
 0.164 0.016 0.372
 0.167 0.016 0.372
 0.171 0.016 0.375
 0.176 0.017 0.379
 0.177 0.017 0.377
 0.18 0.017 0.377
 0.188 0.017 0.387
 0.2 0.018 0.406
 0.22 0.02 0.439
 0.25 0.023 0.493
 0.287 0.026 0.558
 0.328 0.03 0.628
 0.363 0.033 0.687
 0.392 0.035 0.731
 0.412 0.037 0.757
 0.424 0.037 0.768
 0.429 0.037 0.766
 0.407 0.035 0.716
 0.418 0.036 0.725
 -0.327 0.035 0.584
 -0.338 0.037 0.613
 -0.365 0.04 0.674
 -0.373 0.042 0.699
 -0.38 0.043 0.723
 -0.386 0.045 0.746
 -0.388 0.045 0.762
 -0.387 0.046 0.772
 -0.384 0.046 0.779
 -0.377 0.046 0.777
 -0.37 0.045 0.773
 -0.362 0.045 0.768
 -0.354 0.045 0.764
 -0.347 0.044 0.761
 -0.342 0.044 0.763
 -0.339 0.044 0.767
 -0.335 0.044 0.771
 -0.331 0.045 0.775
 -0.328 0.045 0.781
 -0.324 0.045 0.785
 -0.321 0.045 0.79
 -0.317 0.045 0.794
 -0.313 0.045 0.799
 -0.308 0.045 0.801
 -0.303 0.045 0.802
 -0.298 0.045 0.802
 -0.292 0.045 0.802
 -0.287 0.045 0.802
 -0.282 0.045 0.804
 -0.278 0.045 0.808
 -0.273 0.045 0.809
 -0.266 0.045 0.802
 -0.259 0.044 0.795
 -0.251 0.044 0.788
 -0.241 0.043 0.773
 -0.235 0.042 0.767
 -0.23 0.042 0.769
 -0.226 0.042 0.773
 -0.223 0.043 0.778
 -0.222 0.043 0.792
 -0.219 0.044 0.799
 -0.214 0.044 0.8
 -0.209 0.044 0.8
 -0.204 0.043 0.801
 -0.201 0.044 0.808
 -0.198 0.044 0.816
 -0.193 0.044 0.818
 -0.188 0.044 0.815
 -0.182 0.044 0.811
 -0.173 0.043 0.793
 -0.163 0.041 0.766
 -0.155 0.04 0.749
 -0.147 0.039 0.733
 -0.14 0.038 0.717
 -0.133 0.037 0.705
 -0.128 0.037 0.701
 -0.124 0.037 0.7
 -0.12 0.037 0.701
 -0.116 0.037 0.704
 -0.112 0.037 0.703
 -0.109 0.038 0.716
 -0.108 0.039 0.738
 -0.106 0.04 0.756
 -0.104 0.041 0.774
 -0.102 0.042 0.79
 -0.098 0.042 0.799
 -0.094 0.042 0.805
 -0.09 0.043 0.813
 -0.086 0.043 0.82
 -0.082 0.043 0.828
 -0.078 0.044 0.832
 -0.073 0.043 0.828
 -0.067 0.043 0.825
 -0.062 0.043 0.822
 -0.057 0.043 0.819
 -0.053 0.043 0.817
 -0.048 0.043 0.819
 -0.043 0.043 0.82
 -0.038 0.043 0.817
 -0.033 0.042 0.811
 -0.028 0.042 0.802
 -0.023 0.041 0.788
 -0.018 0.04 0.775
 -0.014 0.04 0.765
 -0.009 0.039 0.759
 -0.005 0.039 0.759
 -0.001 0.04 0.773
 0.003 0.042 0.807
 0.008 0.044 0.847
 0.014 0.046 0.88
 0.02 0.048 0.917
 0.026 0.049 0.944
 0.031 0.049 0.944
 0.037 0.049 0.943
 0.043 0.05 0.959
 0.049 0.051 0.98
 0.057 0.053 1.009
 0.066 0.056 1.068
 0.076 0.059 1.119
 0.087 0.062 1.175
 0.099 0.065 1.237
 0.109 0.067 1.277
 0.117 0.067 1.278
 0.125 0.068 1.286
 0.133 0.068 1.292
 0.14 0.068 1.284
 0.142 0.065 1.244
 0.147 0.064 1.225
 0.152 0.063 1.207
 0.155 0.062 1.176
 0.153 0.058 1.11
 0.158 0.057 1.1
 0.166 0.058 1.112
 0.168 0.056 1.081
 0.159 0.051 0.983
 0.164 0.051 0.98
 0.171 0.051 0.988
 0.163 0.047 0.908
 0.163 0.046 0.88
 0.176 0.048 0.919
 0.177 0.047 0.898
 0.172 0.044 0.846
 0.186 0.046 0.889
 0.21 0.051 0.977
 0.22 0.052 0.994
 0.216 0.049 0.948
 0.211 0.047 0.905
 0.195 0.042 0.813
 0.159 0.033 0.647
 0.128 0.025 0.508
 0.114 0.022 0.441
 0.106 0.019 0.4
 0.1 0.018 0.369
 0.098 0.017 0.353
 0.098 0.016 0.343
 0.099 0.016 0.341
 0.1 0.016 0.337
 0.101 0.016 0.332
 0.102 0.016 0.329
 0.103 0.015 0.326
 0.104 0.015 0.321
 0.105 0.015 0.316
 0.107 0.015 0.318
 0.11 0.015 0.321
 0.113 0.015 0.322
 0.117 0.016 0.327
 0.122 0.016 0.335
 0.124 0.016 0.335
 0.128 0.016 0.34
 0.132 0.017 0.343
 0.136 0.017 0.348
 0.139 0.017 0.347
 0.143 0.017 0.352
 0.147 0.018 0.356
 0.152 0.018 0.363
 0.155 0.018 0.363
 0.161 0.019 0.372
 0.166 0.019 0.377
 0.17 0.019 0.378
 0.174 0.019 0.382
 0.178 0.019 0.385
 0.18 0.019 0.382
 0.182 0.019 0.381
 0.186 0.019 0.383
 0.192 0.02 0.389
 0.205 0.021 0.408
 0.226 0.023 0.445
 0.255 0.026 0.495
 0.289 0.03 0.554
 0.328 0.033 0.619
 0.364 0.037 0.678
 0.392 0.039 0.719
 0.412 0.041 0.746
 0.426 0.042 0.761
 0.423 0.041 0.744
 0.436 0.042 0.756
 -0.323 0.038 0.576
 -0.366 0.044 0.666
 -0.374 0.046 0.69
 -0.383 0.048 0.719
 -0.39 0.049 0.743
 -0.395 0.051 0.765
 -0.396 0.051 0.778
 -0.392 0.051 0.782
 -0.385 0.051 0.78
 -0.374 0.05 0.769
 -0.361 0.049 0.755
 -0.35 0.048 0.743
 -0.34 0.047 0.733
 -0.333 0.047 0.729
 -0.328 0.047 0.731
 -0.325 0.047 0.736
 -0.322 0.047 0.741
 -0.319 0.047 0.746
 -0.316 0.048 0.751
 -0.313 0.048 0.756
 -0.309 0.048 0.761
 -0.306 0.048 0.766
 -0.302 0.048 0.77
 -0.298 0.049 0.773
 -0.293 0.049 0.775
 -0.289 0.048 0.776
 -0.283 0.048 0.777
 -0.279 0.048 0.778
 -0.274 0.048 0.781
 -0.271 0.049 0.785
 -0.266 0.049 0.786
 -0.259 0.048 0.78
 -0.251 0.047 0.771
 -0.243 0.047 0.762
 -0.233 0.046 0.746
 -0.226 0.045 0.739
 -0.221 0.045 0.739
 -0.218 0.045 0.742
 -0.214 0.045 0.746
 -0.213 0.046 0.759
 -0.21 0.046 0.766
 -0.205 0.046 0.767
 -0.201 0.046 0.767
 -0.196 0.046 0.766
 -0.192 0.046 0.772
 -0.189 0.047 0.78
 -0.185 0.047 0.782
 -0.18 0.047 0.781
 -0.175 0.046 0.778
 -0.167 0.045 0.763
 -0.157 0.044 0.738
 -0.149 0.043 0.723
 -0.142 0.042 0.708
 -0.135 0.041 0.693
 -0.129 0.04 0.681
 -0.124 0.04 0.676
 -0.119 0.04 0.675
 -0.116 0.04 0.677
 -0.112 0.04 0.678
 -0.108 0.039 0.677
 -0.105 0.04 0.688
 -0.104 0.041 0.708
 -0.102 0.042 0.725
 -0.1 0.043 0.742
 -0.098 0.044 0.759
 -0.095 0.045 0.772
 -0.092 0.046 0.783
 -0.088 0.047 0.797
 -0.085 0.047 0.809
 -0.082 0.048 0.822
 -0.077 0.048 0.829
 -0.072 0.048 0.826
 -0.067 0.048 0.823
 -0.062 0.048 0.82
 -0.057 0.047 0.817
 -0.052 0.047 0.815
 -0.048 0.047 0.817
 -0.043 0.047 0.819
 -0.038 0.047 0.816
 -0.033 0.047 0.811
 -0.028 0.046 0.802
 -0.023 0.045 0.789
 -0.018 0.045 0.776
 -0.014 0.044 0.767
 -0.009 0.044 0.761
 -0.005 0.044 0.761
 -0.001 0.045 0.777
 0.003 0.047 0.812
 0.008 0.049 0.852
 0.014 0.051 0.884
 0.02 0.053 0.917
 0.026 0.054 0.94
 0.031 0.054 0.935
 0.036 0.054 0.929
 0.042 0.054 0.939
 0.048 0.055 0.95
 0.055 0.056 0.969
 0.063 0.059 1.015
 0.072 0.061 1.055
 0.082 0.064 1.108
 0.093 0.068 1.168
 0.105 0.071 1.225
 0.116 0.074 1.269
 0.127 0.076 1.308
 0.138 0.078 1.336
 0.147 0.079 1.353
 0.156 0.08 1.364
 0.165 0.08 1.367
 0.173 0.08 1.37
 0.18 0.08 1.36
 0.188 0.08 1.358
 0.194 0.079 1.346
 0.201 0.079 1.343
 0.206 0.077 1.324
 0.194 0.07 1.203
 0.189 0.066 1.131
 0.19 0.064 1.094
 0.177 0.057 0.985
 0.176 0.055 0.947
 0.187 0.057 0.978
 0.187 0.055 0.948
 0.18 0.051 0.883
 0.19 0.053 0.91
 0.207 0.056 0.96
 0.206 0.054 0.931
 0.196 0.05 0.861
 0.188 0.046 0.805
 0.171 0.041 0.714
 0.141 0.032 0.573
 0.12 0.026 0.473
 0.112 0.024 0.431
 0.106 0.022 0.397
 0.101 0.02 0.369
 0.099 0.019 0.354
 0.098 0.018 0.343
 0.099 0.018 0.338
 0.099 0.018 0.332
 0.1 0.018 0.327
 0.1 0.017 0.322
 0.101 0.017 0.318
 0.102 0.017 0.314
 0.103 0.017 0.31
 0.105 0.017 0.312
 0.108 0.017 0.314
 0.111 0.017 0.317
 0.115 0.017 0.322
 0.121 0.018 0.332
 0.124 0.018 0.333
 0.128 0.018 0.338
 0.132 0.019 0.344
 0.137 0.019 0.35
 0.14 0.019 0.35
 0.144 0.02 0.355
 0.149 0.02 0.36
 0.154 0.02 0.366
 0.157 0.02 0.367
 0.162 0.021 0.372
 0.167 0.021 0.378
 0.171 0.022 0.382
 0.176 0.022 0.387
 0.181 0.022 0.39
 0.184 0.022 0.39
 0.188 0.022 0.392
 0.192 0.023 0.396
 0.198 0.023 0.402
 0.206 0.024 0.41
 0.221 0.025 0.435
 0.241 0.027 0.467
 0.267 0.03 0.51
 0.3 0.034 0.565
 0.339 0.038 0.631
 0.372 0.042 0.683
 0.399 0.044 0.722
 0.42 0.046 0.748
 0.432 0.047 0.759
 0.436 0.047 0.756
 -0.376 0.049 0.673
 -0.385 0.051 0.701
 -0.381 0.051 0.704
 -0.39 0.053 0.731
 -0.396 0.055 0.754
 -0.399 0.056 0.772
 -0.396 0.056 0.778
 -0.388 0.056 0.774
 -0.377 0.055 0.763
 -0.363 0.053 0.746
 -0.347 0.052 0.725
 -0.334 0.05 0.708
 -0.324 0.049 0.698
 -0.317 0.049 0.694
 -0.313 0.049 0.695
 -0.31 0.049 0.7
 -0.307 0.049 0.705
 -0.304 0.05 0.71
 -0.301 0.05 0.715
 -0.298 0.05 0.72
 -0.294 0.05 0.724
 -0.291 0.05 0.729
 -0.288 0.051 0.733
 -0.284 0.051 0.737
 -0.281 0.051 0.741
 -0.277 0.051 0.743
 -0.272 0.051 0.745
 -0.268 0.051 0.747
 -0.264 0.051 0.75
 -0.261 0.051 0.755
 -0.257 0.051 0.758
 -0.251 0.051 0.756
 -0.244 0.051 0.751
 -0.238 0.05 0.747
 -0.23 0.049 0.736
 -0.223 0.049 0.728
 -0.217 0.048 0.723
 -0.211 0.048 0.72
 -0.206 0.048 0.717
 -0.203 0.048 0.721
 -0.199 0.048 0.725
 -0.195 0.048 0.727
 -0.192 0.048 0.731
 -0.187 0.048 0.733
 -0.183 0.048 0.732
 -0.178 0.048 0.733
 -0.173 0.048 0.73
 -0.167 0.047 0.725
 -0.162 0.047 0.719
 -0.156 0.047 0.713
 -0.15 0.046 0.706
 -0.145 0.046 0.702
 -0.14 0.045 0.697
 -0.135 0.045 0.693
 -0.13 0.044 0.688
 -0.125 0.044 0.684
 -0.121 0.044 0.683
 -0.117 0.044 0.685
 -0.113 0.044 0.685
 -0.109 0.044 0.684
 -0.105 0.044 0.685
 -0.101 0.044 0.688
 -0.097 0.044 0.691
 -0.094 0.045 0.699
 -0.091 0.045 0.709
 -0.089 0.046 0.726
 -0.088 0.048 0.75
 -0.086 0.05 0.772
 -0.083 0.051 0.792
 -0.08 0.052 0.809
 -0.076 0.052 0.818
 -0.072 0.052 0.817
 -0.067 0.052 0.815
 -0.062 0.052 0.812
 -0.057 0.052 0.81
 -0.052 0.052 0.808
 -0.047 0.051 0.806
 -0.042 0.051 0.804
 -0.038 0.051 0.8
 -0.033 0.051 0.795
 -0.028 0.05 0.787
 -0.023 0.049 0.778
 -0.018 0.049 0.769
 -0.014 0.048 0.763
 -0.009 0.048 0.758
 -0.005 0.048 0.759
 -0.001 0.049 0.771
 0.003 0.05 0.796
 0.008 0.052 0.825
 0.013 0.054 0.852
 0.019 0.056 0.879
 0.025 0.057 0.9
 0.03 0.057 0.902
 0.035 0.057 0.899
 0.04 0.058 0.907
 0.046 0.058 0.916
 0.052 0.059 0.931
 0.06 0.062 0.971
 0.068 0.064 1.003
 0.077 0.067 1.044
 0.087 0.07 1.092
 0.097 0.073 1.136
 0.106 0.074 1.163
 0.116 0.076 1.191
 0.125 0.078 1.209
 0.133 0.078 1.22
 0.139 0.078 1.212
 0.146 0.078 1.211
 0.154 0.078 1.22
 0.162 0.079 1.225
 0.173 0.081 1.256
 0.185 0.083 1.288
 0.196 0.084 1.311
 0.206 0.085 1.321
 0.201 0.08 1.246
 0.194 0.074 1.157
 0.187 0.069 1.08
 0.175 0.062 0.977
 0.182 0.063 0.983
 0.191 0.064 0.998
 0.198 0.064 1.004
 0.193 0.06 0.947
 0.197 0.06 0.94
 0.201 0.06 0.933
 0.192 0.055 0.867
 0.179 0.05 0.785
 0.168 0.045 0.717
 0.151 0.039 0.628
 0.128 0.032 0.519
 0.114 0.028 0.45
 0.108 0.025 0.418
 0.103 0.023 0.388
 0.099 0.022 0.365
 0.098 0.021 0.353
 0.098 0.021 0.342
 0.098 0.02 0.336
 0.098 0.02 0.329
 0.099 0.019 0.324
 0.099 0.019 0.318
 0.1 0.019 0.313
 0.101 0.018 0.309
 0.101 0.018 0.306
 0.104 0.018 0.308
 0.107 0.019 0.311
 0.11 0.019 0.312
 0.114 0.019 0.318
 0.12 0.02 0.328
 0.123 0.02 0.331
 0.127 0.02 0.334
 0.132 0.021 0.343
 0.136 0.021 0.347
 0.139 0.021 0.349
 0.144 0.022 0.354
 0.148 0.022 0.359
 0.152 0.022 0.362
 0.157 0.023 0.367
 0.161 0.023 0.37
 0.166 0.023 0.375
 0.171 0.024 0.382
 0.178 0.025 0.389
 0.182 0.025 0.392
 0.187 0.025 0.397
 0.193 0.026 0.403
 0.197 0.026 0.405
 0.204 0.027 0.413
 0.212 0.027 0.422
 0.223 0.028 0.439
 0.235 0.03 0.456
 0.257 0.032 0.49
 0.282 0.035 0.531
 0.32 0.04 0.594
 0.357 0.044 0.654
 0.39 0.048 0.705
 0.417 0.051 0.742
 0.434 0.052 0.763
 0.442 0.053 0.765
 -0.381 0.055 0.683
 -0.379 0.055 0.688
 -0.386 0.057 0.713
 -0.393 0.059 0.737
 -0.397 0.06 0.755
 -0.395 0.06 0.764
 -0.388 0.06 0.761
 -0.376 0.059 0.749
 -0.36 0.057 0.729
 -0.342 0.055 0.703
 -0.326 0.053 0.679
 -0.313 0.051 0.662
 -0.303 0.05 0.651
 -0.296 0.049 0.646
 -0.291 0.049 0.647
 -0.288 0.05 0.651
 -0.285 0.05 0.655
 -0.283 0.05 0.659
 -0.28 0.05 0.663
 -0.276 0.05 0.667
 -0.273 0.05 0.67
 -0.27 0.051 0.674
 -0.267 0.051 0.678
 -0.263 0.051 0.682
 -0.26 0.051 0.685
 -0.256 0.051 0.688
 -0.253 0.051 0.691
 -0.249 0.051 0.693
 -0.245 0.051 0.696
 -0.242 0.052 0.701
 -0.239 0.052 0.704
 -0.235 0.052 0.706
 -0.23 0.052 0.706
 -0.226 0.052 0.706
 -0.22 0.051 0.704
 -0.215 0.051 0.701
 -0.21 0.051 0.7
 -0.205 0.051 0.699
 -0.201 0.051 0.699
 -0.197 0.051 0.7
 -0.193 0.051 0.702
 -0.189 0.051 0.704
 -0.185 0.051 0.706
 -0.181 0.051 0.706
 -0.176 0.051 0.706
 -0.172 0.051 0.706
 -0.167 0.05 0.705
 -0.162 0.05 0.702
 -0.157 0.05 0.699
 -0.153 0.05 0.697
 -0.148 0.049 0.693
 -0.143 0.049 0.689
 -0.138 0.048 0.685
 -0.133 0.048 0.683
 -0.128 0.048 0.679
 -0.123 0.048 0.675
 -0.119 0.047 0.675
 -0.115 0.047 0.676
 -0.111 0.047 0.675
 -0.107 0.047 0.675
 -0.103 0.047 0.676
 -0.1 0.047 0.679
 -0.096 0.048 0.683
 -0.093 0.048 0.689
 -0.09 0.049 0.698
 -0.088 0.05 0.711
 -0.085 0.051 0.724
 -0.082 0.051 0.734
 -0.078 0.052 0.745
 -0.075 0.052 0.752
 -0.071 0.053 0.755
 -0.066 0.053 0.755
 -0.062 0.053 0.755
 -0.057 0.052 0.753
 -0.053 0.052 0.752
 -0.048 0.052 0.75
 -0.044 0.052 0.749
 -0.04 0.052 0.748
 -0.035 0.052 0.746
 -0.031 0.051 0.742
 -0.026 0.051 0.738
 -0.022 0.051 0.733
 -0.017 0.05 0.728
 -0.013 0.05 0.724
 -0.009 0.05 0.722
 -0.005 0.05 0.724
 -0.001 0.05 0.732
 0.003 0.051 0.746
 0.007 0.053 0.761
 0.012 0.054 0.778
 0.017 0.055 0.795
 0.022 0.056 0.807
 0.027 0.056 0.814
 0.032 0.057 0.824
 0.037 0.058 0.839
 0.043 0.059 0.857
 0.05 0.061 0.884
 0.057 0.064 0.923
 0.064 0.066 0.947
 0.072 0.068 0.978
 0.08 0.07 1.01
 0.089 0.072 1.04
 0.097 0.074 1.059
 0.105 0.076 1.084
 0.113 0.077 1.099
 0.121 0.077 1.11
 0.127 0.077 1.104
 0.133 0.077 1.104
 0.141 0.078 1.113
 0.147 0.078 1.115
 0.16 0.081 1.16
 0.174 0.085 1.209
 0.188 0.088 1.253
 0.199 0.09 1.28
 0.21 0.091 1.301
 0.212 0.089 1.263
 0.214 0.086 1.23
 0.191 0.074 1.065
 0.186 0.07 1.006
 0.177 0.064 0.925
 0 0 0
 0.168 0.057 0.825
 0.172 0.057 0.821
 0.175 0.056 0.81
 0.165 0.051 0.745
 0.156 0.047 0.683
 0.146 0.043 0.624
 0.133 0.038 0.552
 0.115 0.031 0.467
 0.108 0.028 0.425
 0.104 0.027 0.401
 0.1 0.025 0.378
 0.098 0.024 0.36
 0.098 0.023 0.351
 0.097 0.022 0.341
 0.097 0.022 0.333
 0.098 0.021 0.327
 0.098 0.021 0.321
 0.098 0.021 0.315
 0.099 0.02 0.31
 0.1 0.02 0.307
 0.101 0.02 0.305
 0.104 0.02 0.307
 0.107 0.021 0.311
 0.11 0.021 0.314
 0.115 0.021 0.32
 0.12 0.022 0.329
 0.124 0.022 0.333
 0.127 0.022 0.335
 0.133 0.023 0.345
 0.137 0.024 0.348
 0.14 0.024 0.351
 0.145 0.024 0.356
 0.15 0.025 0.363
 0.154 0.025 0.365
 0.159 0.026 0.372
 0.164 0.026 0.377
 0.169 0.026 0.382
 0.174 0.027 0.387
 0.18 0.027 0.394
 0.183 0.028 0.395
 0.188 0.028 0.399
 0.195 0.029 0.407
 0.2 0.029 0.411
 0.209 0.03 0.424
 0.218 0.031 0.435
 0.229 0.032 0.45
 0.238 0.033 0.46
 0.253 0.035 0.482
 0.27 0.037 0.508
 0.305 0.042 0.566
 0.341 0.046 0.625
 0.377 0.051 0.681
 0.408 0.054 0.726
 0.442 0.058 0.775
 0.444 0.058 0.768
 -0.378 0.059 0.676
 -0.378 0.059 0.687
 -0.388 0.062 0.715
 -0.391 0.063 0.734
 -0.392 0.064 0.746
 -0.387 0.064 0.747
 -0.376 0.063 0.738
 -0.362 0.061 0.721
 -0.344 0.059 0.696
 -0.327 0.056 0.67
 -0.312 0.054 0.65
 -0.3 0.053 0.635
 -0.291 0.052 0.626
 -0.285 0.051 0.621
 -0.28 0.051 0.622
 -0.277 0.051 0.624
 -0.273 0.051 0.625
 -0.269 0.051 0.627
 -0.265 0.051 0.629
 -0.261 0.051 0.63
 -0.257 0.051 0.631
 -0.253 0.051 0.632
 -0.25 0.051 0.633
 -0.246 0.051 0.636
 -0.243 0.051 0.64
 -0.24 0.052 0.644
 -0.238 0.052 0.649
 -0.235 0.052 0.654
 -0.233 0.053 0.659
 -0.23 0.053 0.664
 -0.227 0.053 0.669
 -0.224 0.053 0.673
 -0.22 0.053 0.675
 -0.216 0.053 0.675
 -0.212 0.053 0.676
 -0.207 0.053 0.676
 -0.203 0.053 0.676
 -0.199 0.053 0.677
 -0.195 0.053 0.678
 -0.191 0.053 0.68
 -0.187 0.053 0.681
 -0.183 0.053 0.682
 -0.179 0.053 0.681
 -0.174 0.053 0.68
 -0.17 0.053 0.679
 -0.165 0.052 0.677
 -0.16 0.052 0.675
 -0.156 0.052 0.672
 -0.151 0.052 0.669
 -0.146 0.051 0.667
 -0.142 0.051 0.665
 -0.137 0.051 0.663
 -0.133 0.051 0.662
 -0.129 0.051 0.662
 -0.125 0.05 0.66
 -0.12 0.05 0.658
 -0.116 0.05 0.658
 -0.112 0.05 0.658
 -0.108 0.05 0.656
 -0.104 0.05 0.655
 -0.1 0.05 0.655
 -0.097 0.05 0.656
 -0.093 0.05 0.659
 -0.089 0.05 0.662
 -0.086 0.05 0.667
 -0.083 0.051 0.673
 -0.08 0.051 0.679
 -0.076 0.052 0.684
 -0.073 0.052 0.69
 -0.069 0.052 0.694
 -0.065 0.053 0.697
 -0.062 0.053 0.702
 -0.058 0.053 0.707
 -0.054 0.053 0.709
 -0.05 0.054 0.712
 -0.046 0.054 0.714
 -0.042 0.054 0.715
 -0.038 0.054 0.718
 -0.034 0.054 0.722
 -0.03 0.054 0.727
 -0.026 0.055 0.731
 -0.022 0.055 0.735
 -0.018 0.055 0.738
 -0.013 0.056 0.742
 -0.009 0.056 0.746
 -0.005 0.056 0.754
 0 0.057 0.765
 0.003 0.058 0.779
 0.008 0.06 0.794
 0.013 0.061 0.807
 0.018 0.061 0.819
 0.022 0.062 0.827
 0.027 0.062 0.832
 0.033 0.063 0.839
 0.038 0.064 0.853
 0.044 0.065 0.871
 0.05 0.067 0.896
 0.057 0.07 0.924
 0.065 0.072 0.959
 0.074 0.076 1.006
 0.084 0.079 1.052
 0.094 0.083 1.096
 0.104 0.086 1.133
 0.113 0.088 1.161
 0.121 0.089 1.176
 0.129 0.09 1.186
 0.136 0.09 1.183
 0.143 0.09 1.188
 0.151 0.091 1.198
 0.159 0.091 1.202
 0.17 0.094 1.233
 0.183 0.096 1.268
 0.194 0.099 1.296
 0.204 0.1 1.31
 0.21 0.099 1.301
 0.212 0.096 1.266
 0.215 0.094 1.237
 0.206 0.087 1.149
 0.206 0.084 1.112
 0.208 0.082 1.088
 0 0 0
 0.181 0.067 0.889
 0.166 0.06 0.793
 0.165 0.057 0.763
 0.148 0.05 0.668
 0.139 0.045 0.608
 0.129 0.041 0.552
 0.117 0.036 0.487
 0.106 0.031 0.427
 0.101 0.029 0.4
 0.099 0.028 0.382
 0.097 0.026 0.363
 0.096 0.025 0.353
 0.096 0.025 0.345
 0.096 0.024 0.336
 0.096 0.024 0.329
 0.096 0.023 0.322
 0.096 0.023 0.315
 0.096 0.022 0.308
 0.097 0.022 0.303
 0.098 0.022 0.301
 0.1 0.022 0.301
 0.102 0.022 0.302
 0.106 0.022 0.308
 0.111 0.023 0.314
 0.115 0.023 0.32
 0.119 0.024 0.327
 0.124 0.024 0.334
 0.128 0.025 0.338
 0.133 0.025 0.346
 0.137 0.026 0.349
 0.141 0.026 0.354
 0.145 0.027 0.357
 0.15 0.027 0.362
 0.153 0.027 0.363
 0.159 0.028 0.372
 0.164 0.028 0.377
 0.169 0.029 0.382
 0.174 0.029 0.387
 0.18 0.03 0.395
 0.183 0.03 0.393
 0.187 0.03 0.398
 0.196 0.031 0.409
 0.202 0.032 0.416
 0.211 0.033 0.427
 0.22 0.034 0.44
 0.232 0.036 0.455
 0.239 0.036 0.463
 0.249 0.037 0.475
 0.261 0.039 0.491
 0.289 0.043 0.535
 0.316 0.046 0.579
 0.344 0.05 0.62
 0.37 0.053 0.658
 0.443 0.064 0.777
 0.448 0.064 0.775
 -0.38 0.063 0.68
 -0.38 0.064 0.69
 -0.386 0.066 0.712
 -0.389 0.067 0.729
 -0.389 0.068 0.74
 -0.384 0.068 0.742
 -0.374 0.067 0.734
 -0.36 0.065 0.717
 -0.344 0.063 0.694
 -0.329 0.061 0.674
 -0.317 0.059 0.66
 -0.308 0.058 0.651
 -0.301 0.058 0.647
 -0.297 0.058 0.647
 -0.293 0.058 0.649
 -0.289 0.058 0.652
 -0.286 0.058 0.655
 -0.282 0.058 0.658
 -0.279 0.058 0.661
 -0.276 0.058 0.664
 -0.272 0.059 0.668
 -0.269 0.059 0.672
 -0.267 0.059 0.677
 -0.265 0.06 0.684
 -0.263 0.06 0.693
 -0.262 0.061 0.702
 -0.26 0.062 0.711
 -0.259 0.062 0.721
 -0.257 0.063 0.729
 -0.255 0.063 0.736
 -0.252 0.064 0.742
 -0.248 0.064 0.747
 -0.244 0.064 0.749
 -0.24 0.064 0.751
 -0.235 0.064 0.752
 -0.231 0.064 0.753
 -0.226 0.064 0.753
 -0.221 0.064 0.754
 -0.217 0.064 0.755
 -0.212 0.064 0.756
 -0.208 0.064 0.756
 -0.203 0.064 0.757
 -0.198 0.064 0.755
 -0.193 0.063 0.754
 -0.188 0.063 0.752
 -0.182 0.063 0.748
 -0.176 0.062 0.743
 -0.17 0.061 0.737
 -0.165 0.061 0.731
 -0.159 0.06 0.727
 -0.154 0.06 0.724
 -0.15 0.06 0.723
 -0.145 0.06 0.724
 -0.141 0.06 0.725
 -0.137 0.06 0.725
 -0.132 0.06 0.725
 -0.128 0.06 0.724
 -0.123 0.059 0.722
 -0.118 0.059 0.72
 -0.114 0.059 0.718
 -0.11 0.059 0.718
 -0.105 0.059 0.718
 -0.101 0.059 0.72
 -0.097 0.059 0.721
 -0.094 0.059 0.725
 -0.09 0.06 0.732
 -0.087 0.06 0.74
 -0.083 0.061 0.748
 -0.08 0.062 0.756
 -0.076 0.062 0.763
 -0.072 0.063 0.767
 -0.068 0.063 0.773
 -0.064 0.063 0.777
 -0.059 0.063 0.779
 -0.055 0.063 0.779
 -0.05 0.063 0.778
 -0.045 0.063 0.776
 -0.041 0.063 0.776
 -0.037 0.063 0.781
 -0.032 0.064 0.789
 -0.028 0.065 0.798
 -0.024 0.065 0.807
 -0.019 0.066 0.818
 -0.015 0.067 0.827
 -0.01 0.068 0.835
 -0.005 0.068 0.844
 0 0.069 0.857
 0.004 0.07 0.869
 0.009 0.071 0.881
 0.014 0.072 0.889
 0.019 0.073 0.894
 0.025 0.073 0.896
 0.03 0.073 0.895
 0.035 0.073 0.897
 0.041 0.074 0.907
 0.047 0.075 0.92
 0.053 0.076 0.937
 0.06 0.078 0.957
 0.067 0.08 0.984
 0.076 0.083 1.023
 0.085 0.087 1.067
 0.095 0.09 1.109
 0.105 0.094 1.148
 0.115 0.096 1.178
 0.123 0.098 1.197
 0.132 0.099 1.211
 0.14 0.099 1.218
 0.149 0.101 1.234
 0.158 0.102 1.251
 0.167 0.103 1.26
 0.178 0.105 1.285
 0.189 0.107 1.308
 0.199 0.109 1.327
 0.208 0.109 1.332
 0.212 0.107 1.31
 0.214 0.105 1.277
 0.217 0.102 1.246
 0.209 0.095 1.165
 0.209 0.092 1.128
 0.213 0.091 1.112
 0.201 0.083 1.019
 0.191 0.077 0.94
 0.166 0.064 0.789
 0.161 0.06 0.745
 0.142 0.052 0.641
 0.128 0.045 0.561
 0.12 0.041 0.511
 0.111 0.037 0.463
 0.101 0.032 0.407
 0.097 0.03 0.383
 0.096 0.029 0.37
 0.096 0.028 0.359
 0.096 0.027 0.351
 0.095 0.027 0.341
 0.095 0.026 0.333
 0.095 0.025 0.324
 0.095 0.025 0.318
 0.095 0.024 0.311
 0.095 0.024 0.305
 0.095 0.023 0.299
 0.097 0.023 0.298
 0.099 0.023 0.297
 0.101 0.023 0.299
 0.105 0.024 0.305
 0.109 0.024 0.311
 0.114 0.025 0.318
 0.119 0.026 0.324
 0.124 0.026 0.333
 0.128 0.027 0.337
 0.134 0.028 0.346
 0.137 0.028 0.349
 0.142 0.029 0.355
 0.145 0.029 0.356
 0.149 0.029 0.36
 0.151 0.029 0.359
 0.158 0.03 0.369
 0.163 0.031 0.375
 0.168 0.031 0.381
 0.174 0.032 0.388
 0.182 0.033 0.399
 0.184 0.033 0.397
 0.189 0.033 0.401
 0.198 0.034 0.413
 0.204 0.035 0.42
 0.211 0.036 0.428
 0.22 0.037 0.438
 0.229 0.038 0.451
 0.236 0.039 0.457
 0.249 0.04 0.474
 0.26 0.042 0.488
 0.284 0.045 0.527
 0.31 0.049 0.566
 0.336 0.053 0.606
 0.359 0.056 0.637
 0.427 0.066 0.749
 0.41 0.063 0.708
 -0.377 0.067 0.674
 -0.378 0.068 0.687
 -0.384 0.07 0.707
 -0.387 0.072 0.724
 -0.387 0.073 0.735
 -0.382 0.072 0.737
 -0.372 0.071 0.729
 -0.359 0.07 0.714
 -0.345 0.068 0.698
 -0.334 0.066 0.684
 -0.325 0.065 0.676
 -0.318 0.065 0.673
 -0.314 0.065 0.674
 -0.309 0.065 0.675
 -0.305 0.065 0.677
 -0.301 0.065 0.68
 -0.298 0.065 0.683
 -0.294 0.065 0.686
 -0.291 0.065 0.69
 -0.288 0.066 0.695
 -0.286 0.066 0.701
 -0.284 0.066 0.708
 -0.282 0.067 0.717
 -0.282 0.068 0.729
 -0.282 0.069 0.742
 -0.281 0.07 0.756
 -0.281 0.072 0.77
 -0.281 0.073 0.783
 -0.279 0.073 0.794
 -0.277 0.074 0.802
 -0.274 0.075 0.809
 -0.27 0.075 0.814
 -0.266 0.075 0.818
 -0.262 0.075 0.822
 -0.258 0.076 0.825
 -0.253 0.076 0.828
 -0.248 0.076 0.829
 -0.243 0.076 0.831
 -0.239 0.076 0.832
 -0.234 0.076 0.834
 -0.229 0.076 0.835
 -0.224 0.076 0.836
 -0.219 0.076 0.836
 -0.214 0.075 0.836
 -0.208 0.075 0.834
 -0.201 0.075 0.829
 -0.195 0.074 0.823
 -0.188 0.073 0.815
 -0.181 0.072 0.806
 -0.174 0.071 0.799
 -0.169 0.071 0.795
 -0.164 0.071 0.793
 -0.159 0.071 0.794
 -0.154 0.071 0.795
 -0.15 0.071 0.796
 -0.145 0.071 0.795
 -0.14 0.07 0.794
 -0.135 0.07 0.793
 -0.13 0.07 0.792
 -0.125 0.07 0.791
 -0.121 0.07 0.791
 -0.116 0.07 0.793
 -0.112 0.07 0.794
 -0.107 0.07 0.797
 -0.103 0.071 0.802
 -0.1 0.071 0.812
 -0.096 0.072 0.825
 -0.093 0.074 0.837
 -0.089 0.075 0.85
 -0.085 0.075 0.859
 -0.081 0.076 0.864
 -0.076 0.076 0.866
 -0.071 0.076 0.868
 -0.066 0.076 0.866
 -0.06 0.075 0.862
 -0.055 0.075 0.856
 -0.05 0.074 0.849
 -0.044 0.074 0.846
 -0.04 0.074 0.848
 -0.035 0.075 0.856
 -0.03 0.076 0.866
 -0.026 0.076 0.877
 -0.021 0.078 0.89
 -0.016 0.079 0.902
 -0.011 0.08 0.914
 -0.006 0.081 0.927
 0 0.082 0.943
 0.004 0.084 0.959
 0.01 0.085 0.972
 0.016 0.085 0.979
 0.021 0.086 0.983
 0.027 0.086 0.982
 0.033 0.085 0.98
 0.038 0.085 0.98
 0.045 0.086 0.991
 0.051 0.088 1.006
 0.058 0.089 1.026
 0.065 0.091 1.049
 0.074 0.094 1.081
 0.083 0.098 1.121
 0.093 0.101 1.159
 0.102 0.104 1.19
 0.111 0.106 1.214
 0.12 0.107 1.228
 0.127 0.108 1.233
 0.135 0.108 1.236
 0.143 0.109 1.24
 0.151 0.11 1.254
 0.161 0.111 1.271
 0.17 0.113 1.284
 0.181 0.115 1.308
 0.192 0.117 1.332
 0.203 0.118 1.35
 0.211 0.119 1.352
 0.214 0.116 1.321
 0.217 0.113 1.29
 0.218 0.11 1.256
 0.211 0.103 1.174
 0.211 0.099 1.134
 0.213 0.098 1.113
 0.207 0.092 1.049
 0.206 0.089 1.01
 0 0 0
 0.179 0.072 0.828
 0.155 0.061 0.698
 0.13 0.049 0.571
 0.123 0.045 0.523
 0.116 0.041 0.482
 0.102 0.035 0.414
 0.097 0.032 0.381
 0.095 0.031 0.364
 0.095 0.03 0.355
 0.095 0.029 0.347
 0.094 0.028 0.338
 0.094 0.028 0.33
 0.094 0.027 0.322
 0.094 0.027 0.316
 0.095 0.026 0.31
 0.095 0.026 0.304
 0.096 0.025 0.299
 0.097 0.025 0.296
 0.098 0.025 0.296
 0.101 0.025 0.298
 0.105 0.026 0.303
 0.109 0.026 0.309
 0.114 0.027 0.316
 0.118 0.028 0.322
 0.123 0.028 0.331
 0.128 0.029 0.338
 0.134 0.03 0.347
 0.137 0.03 0.349
 0.142 0.031 0.356
 0.145 0.031 0.357
 0.149 0.031 0.359
 0.151 0.031 0.358
 0.158 0.032 0.368
 0.164 0.033 0.376
 0.168 0.034 0.38
 0.175 0.034 0.388
 0.184 0.036 0.402
 0.185 0.035 0.399
 0.189 0.036 0.4
 0.197 0.037 0.411
 0.202 0.037 0.416
 0.207 0.038 0.42
 0.215 0.039 0.429
 0.224 0.04 0.44
 0.232 0.041 0.449
 0.249 0.044 0.475
 0.267 0.046 0.501
 0.293 0.05 0.542
 0.319 0.054 0.582
 0.345 0.058 0.621
 0.363 0.061 0.644
 0.225 0.036 0.391
 0.231 0.037 0.396
 -0.372 0.071 0.664
 -0.375 0.072 0.68
 -0.381 0.074 0.701
 -0.384 0.076 0.719
 -0.384 0.077 0.73
 -0.38 0.077 0.733
 -0.372 0.076 0.728
 -0.362 0.075 0.72
 -0.352 0.074 0.71
 -0.343 0.073 0.704
 -0.338 0.072 0.703
 -0.333 0.072 0.704
 -0.328 0.072 0.706
 -0.324 0.072 0.707
 -0.32 0.072 0.709
 -0.316 0.072 0.712
 -0.312 0.073 0.717
 -0.309 0.073 0.721
 -0.306 0.073 0.726
 -0.304 0.074 0.733
 -0.302 0.074 0.742
 -0.301 0.075 0.753
 -0.301 0.077 0.766
 -0.302 0.078 0.782
 -0.303 0.08 0.8
 -0.304 0.081 0.818
 -0.306 0.083 0.837
 -0.306 0.085 0.853
 -0.305 0.086 0.868
 -0.303 0.087 0.879
 -0.3 0.088 0.888
 -0.297 0.088 0.895
 -0.293 0.089 0.901
 -0.289 0.089 0.907
 -0.284 0.089 0.912
 -0.28 0.09 0.916
 -0.275 0.09 0.918
 -0.269 0.09 0.921
 -0.264 0.09 0.922
 -0.259 0.09 0.924
 -0.254 0.09 0.926
 -0.248 0.09 0.929
 -0.243 0.09 0.93
 -0.237 0.09 0.931
 -0.231 0.089 0.928
 -0.224 0.089 0.922
 -0.216 0.088 0.914
 -0.208 0.087 0.904
 -0.2 0.085 0.892
 -0.193 0.084 0.883
 -0.186 0.084 0.878
 -0.18 0.083 0.876
 -0.175 0.083 0.875
 -0.17 0.083 0.876
 -0.165 0.083 0.877
 -0.16 0.083 0.878
 -0.154 0.083 0.876
 -0.149 0.083 0.876
 -0.143 0.083 0.875
 -0.138 0.083 0.874
 -0.133 0.082 0.874
 -0.128 0.083 0.877
 -0.123 0.083 0.881
 -0.119 0.083 0.884
 -0.115 0.084 0.892
 -0.111 0.085 0.906
 -0.108 0.087 0.924
 -0.104 0.088 0.941
 -0.1 0.09 0.959
 -0.096 0.091 0.971
 -0.091 0.092 0.976
 -0.085 0.092 0.977
 -0.079 0.091 0.975
 -0.073 0.091 0.969
 -0.067 0.09 0.959
 -0.061 0.088 0.947
 -0.054 0.087 0.935
 -0.049 0.086 0.927
 -0.043 0.086 0.927
 -0.038 0.087 0.935
 -0.033 0.088 0.946
 -0.028 0.089 0.958
 -0.023 0.091 0.973
 -0.017 0.092 0.988
 -0.012 0.093 1.001
 -0.006 0.095 1.017
 0 0.097 1.036
 0.005 0.098 1.056
 0.011 0.1 1.07
 0.018 0.101 1.08
 0.024 0.101 1.084
 0.03 0.101 1.083
 0.036 0.1 1.079
 0.043 0.101 1.08
 0.049 0.102 1.092
 0.057 0.104 1.113
 0.065 0.106 1.139
 0.073 0.109 1.172
 0.083 0.113 1.216
 0.094 0.118 1.266
 0.105 0.123 1.314
 0.116 0.126 1.35
 0.126 0.128 1.373
 0.135 0.129 1.383
 0.143 0.129 1.384
 0.151 0.129 1.383
 0.159 0.129 1.382
 0.168 0.13 1.389
 0.177 0.13 1.392
 0.184 0.13 1.387
 0.192 0.13 1.388
 0.2 0.13 1.388
 0.208 0.13 1.387
 0.214 0.129 1.372
 0.217 0.125 1.337
 0.219 0.122 1.305
 0.221 0.119 1.269
 0.216 0.112 1.198
 0.216 0.109 1.163
 0.221 0.108 1.151
 0.214 0.101 1.083
 0.214 0.098 1.048
 0 0 0
 0.201 0.087 0.928
 0.174 0.073 0.782
 0.139 0.056 0.608
 0.129 0.05 0.548
 0.123 0.047 0.51
 0.109 0.04 0.441
 0.099 0.036 0.391
 0.095 0.033 0.367
 0.095 0.032 0.356
 0.095 0.031 0.347
 0.095 0.031 0.338
 0.094 0.03 0.33
 0.095 0.029 0.324
 0.095 0.029 0.317
 0.095 0.028 0.311
 0.095 0.028 0.305
 0.096 0.027 0.301
 0.097 0.027 0.299
 0.099 0.027 0.298
 0.101 0.027 0.299
 0.105 0.027 0.302
 0.108 0.028 0.307
 0.112 0.029 0.313
 0.116 0.029 0.318
 0.122 0.03 0.327
 0.127 0.031 0.335
 0.132 0.032 0.343
 0.136 0.032 0.345
 0.14 0.033 0.35
 0.143 0.033 0.351
 0.147 0.033 0.354
 0.149 0.033 0.354
 0.155 0.034 0.363
 0.163 0.035 0.374
 0.167 0.036 0.377
 0.173 0.036 0.383
 0.18 0.038 0.394
 0.183 0.037 0.393
 0.183 0.037 0.388
 0.192 0.038 0.4
 0.198 0.039 0.406
 0.203 0.04 0.411
 0.211 0.041 0.42
 0.222 0.042 0.436
 0.237 0.045 0.458
 0.26 0.049 0.495
 0.284 0.053 0.533
 0.309 0.057 0.571
 0.332 0.061 0.607
 0.352 0.064 0.634
 0.364 0.065 0.646
 0.402 0.071 0.703
 0.424 0.074 0.731
 -0.37 0.074 0.66
 -0.375 0.077 0.681
 -0.378 0.078 0.696
 -0.382 0.08 0.714
 -0.382 0.081 0.726
 -0.381 0.082 0.734
 -0.377 0.082 0.738
 -0.372 0.082 0.74
 -0.366 0.081 0.739
 -0.362 0.082 0.742
 -0.358 0.082 0.746
 -0.353 0.082 0.748
 -0.349 0.082 0.751
 -0.345 0.082 0.754
 -0.341 0.082 0.757
 -0.337 0.082 0.761
 -0.334 0.083 0.767
 -0.331 0.083 0.772
 -0.328 0.084 0.78
 -0.327 0.085 0.79
 -0.327 0.086 0.804
 -0.327 0.087 0.819
 -0.329 0.089 0.838
 -0.331 0.091 0.859
 -0.334 0.094 0.882
 -0.336 0.096 0.905
 -0.339 0.098 0.929
 -0.34 0.1 0.95
 -0.34 0.102 0.968
 -0.338 0.103 0.981
 -0.336 0.104 0.993
 -0.332 0.105 1.002
 -0.328 0.106 1.011
 -0.324 0.106 1.018
 -0.319 0.107 1.025
 -0.314 0.107 1.031
 -0.309 0.108 1.036
 -0.304 0.108 1.039
 -0.298 0.108 1.043
 -0.293 0.108 1.047
 -0.287 0.108 1.051
 -0.281 0.109 1.054
 -0.276 0.109 1.057
 -0.27 0.109 1.059
 -0.262 0.108 1.057
 -0.254 0.108 1.05
 -0.246 0.106 1.04
 -0.236 0.105 1.028
 -0.227 0.103 1.014
 -0.218 0.102 1.003
 -0.211 0.101 0.996
 -0.204 0.101 0.994
 -0.198 0.101 0.993
 -0.192 0.101 0.993
 -0.186 0.101 0.994
 -0.181 0.101 0.996
 -0.175 0.101 0.996
 -0.169 0.1 0.996
 -0.163 0.1 0.997
 -0.157 0.1 0.997
 -0.151 0.1 0.997
 -0.146 0.1 1
 -0.14 0.101 1.004
 -0.135 0.101 1.009
 -0.131 0.102 1.022
 -0.127 0.104 1.043
 -0.124 0.107 1.068
 -0.121 0.11 1.094
 -0.117 0.112 1.118
 -0.112 0.113 1.134
 -0.106 0.114 1.14
 -0.099 0.114 1.139
 -0.092 0.113 1.135
 -0.085 0.112 1.125
 -0.077 0.111 1.109
 -0.07 0.109 1.091
 -0.062 0.107 1.072
 -0.055 0.105 1.058
 -0.049 0.105 1.053
 -0.043 0.105 1.057
 -0.037 0.106 1.065
 -0.031 0.107 1.076
 -0.025 0.108 1.09
 -0.019 0.11 1.107
 -0.013 0.111 1.122
 -0.007 0.113 1.141
 0 0.115 1.162
 0.006 0.117 1.184
 0.013 0.119 1.199
 0.02 0.12 1.207
 0.027 0.12 1.209
 0.034 0.12 1.206
 0.041 0.119 1.2
 0.047 0.119 1.198
 0.055 0.12 1.21
 0.063 0.122 1.232
 0.072 0.125 1.261
 0.082 0.129 1.304
 0.093 0.135 1.361
 0.106 0.141 1.422
 0.119 0.147 1.476
 0.131 0.151 1.519
 0.142 0.153 1.54
 0.151 0.154 1.547
 0.16 0.154 1.544
 0.168 0.153 1.539
 0.177 0.153 1.533
 0.186 0.153 1.534
 0.194 0.152 1.53
 0.202 0.151 1.518
 0.207 0.149 1.497
 0.213 0.147 1.474
 0.218 0.144 1.448
 0.221 0.141 1.413
 0.221 0.135 1.36
 0.224 0.133 1.33
 0.224 0.128 1.284
 0.22 0.122 1.225
 0.222 0.119 1.192
 0.226 0.117 1.175
 0.216 0.109 1.092
 0.215 0.105 1.055
 0 0 0
 0.209 0.096 0.967
 0.181 0.081 0.816
 0.145 0.062 0.633
 0.133 0.056 0.566
 0.126 0.051 0.522
 0.113 0.045 0.458
 0.104 0.04 0.409
 0.097 0.036 0.372
 0.096 0.035 0.359
 0.096 0.034 0.35
 0.096 0.033 0.343
 0.096 0.032 0.336
 0.097 0.032 0.332
 0.097 0.031 0.323
 0.097 0.03 0.316
 0.097 0.03 0.309
 0.097 0.029 0.304
 0.098 0.029 0.302
 0.1 0.029 0.3
 0.102 0.029 0.3
 0.105 0.029 0.304
 0.108 0.03 0.307
 0.112 0.03 0.313
 0.116 0.031 0.317
 0.122 0.032 0.326
 0.126 0.033 0.332
 0.131 0.033 0.338
 0.134 0.034 0.34
 0.138 0.034 0.344
 0.139 0.034 0.342
 0.143 0.034 0.345
 0.146 0.034 0.345
 0.152 0.036 0.355
 0.159 0.037 0.364
 0.164 0.037 0.369
 0.17 0.038 0.377
 0.179 0.04 0.391
 0.182 0.04 0.39
 0.183 0.039 0.387
 0.19 0.041 0.396
 0.194 0.041 0.398
 0.198 0.041 0.399
 0.205 0.042 0.407
 0.217 0.044 0.425
 0.233 0.047 0.449
 0.265 0.053 0.505
 0.296 0.059 0.555
 0.317 0.062 0.587
 0.336 0.065 0.613
 0.352 0.068 0.633
 0.36 0.069 0.639
 0.43 0.081 0.752
 0.434 0.081 0.749
 -0.365 0.078 0.651
 -0.367 0.079 0.666
 -0.375 0.082 0.691
 -0.379 0.084 0.709
 -0.382 0.086 0.725
 -0.384 0.087 0.741
 -0.385 0.088 0.753
 -0.384 0.089 0.763
 -0.381 0.09 0.77
 -0.379 0.09 0.777
 -0.376 0.091 0.783
 -0.372 0.091 0.788
 -0.369 0.092 0.793
 -0.365 0.092 0.799
 -0.362 0.092 0.805
 -0.359 0.093 0.811
 -0.357 0.094 0.819
 -0.354 0.094 0.827
 -0.353 0.095 0.838
 -0.353 0.097 0.853
 -0.354 0.099 0.871
 -0.356 0.101 0.892
 -0.36 0.103 0.917
 -0.364 0.106 0.945
 -0.368 0.109 0.973
 -0.372 0.112 1.001
 -0.375 0.115 1.028
 -0.376 0.118 1.051
 -0.375 0.12 1.07
 -0.374 0.121 1.086
 -0.371 0.122 1.099
 -0.367 0.123 1.109
 -0.363 0.124 1.12
 -0.359 0.125 1.131
 -0.355 0.126 1.141
 -0.351 0.127 1.151
 -0.346 0.128 1.16
 -0.341 0.128 1.167
 -0.335 0.129 1.173
 -0.329 0.129 1.179
 -0.324 0.13 1.187
 -0.318 0.13 1.193
 -0.312 0.131 1.198
 -0.305 0.131 1.201
 -0.297 0.131 1.2
 -0.288 0.13 1.193
 -0.278 0.128 1.182
 -0.268 0.127 1.168
 -0.258 0.125 1.152
 -0.248 0.123 1.14
 -0.239 0.122 1.129
 -0.231 0.121 1.124
 -0.223 0.121 1.121
 -0.216 0.12 1.12
 -0.21 0.12 1.12
 -0.203 0.12 1.122
 -0.197 0.12 1.124
 -0.19 0.12 1.124
 -0.184 0.12 1.126
 -0.177 0.12 1.127
 -0.171 0.121 1.13
 -0.165 0.121 1.133
 -0.159 0.121 1.14
 -0.153 0.122 1.147
 -0.148 0.124 1.162
 -0.144 0.126 1.186
 -0.141 0.129 1.217
 -0.137 0.133 1.248
 -0.133 0.136 1.278
 -0.128 0.138 1.297
 -0.121 0.138 1.304
 -0.113 0.138 1.299
 -0.104 0.136 1.288
 -0.095 0.135 1.272
 -0.087 0.132 1.249
 -0.078 0.129 1.222
 -0.069 0.126 1.195
 -0.061 0.124 1.172
 -0.053 0.122 1.157
 -0.047 0.121 1.151
 -0.04 0.121 1.15
 -0.033 0.121 1.154
 -0.027 0.122 1.164
 -0.02 0.124 1.178
 -0.014 0.125 1.193
 -0.007 0.127 1.21
 0 0.129 1.231
 0.006 0.131 1.25
 0.014 0.133 1.262
 0.021 0.133 1.268
 0.028 0.133 1.266
 0.035 0.133 1.261
 0.043 0.132 1.254
 0.05 0.131 1.251
 0.057 0.133 1.262
 0.066 0.135 1.284
 0.075 0.138 1.315
 0.086 0.143 1.362
 0.098 0.149 1.421
 0.11 0.156 1.478
 0.123 0.161 1.527
 0.135 0.164 1.561
 0.145 0.166 1.572
 0.154 0.165 1.57
 0.162 0.165 1.562
 0.17 0.164 1.555
 0.178 0.163 1.548
 0.187 0.163 1.546
 0.196 0.162 1.54
 0.203 0.161 1.529
 0.209 0.159 1.508
 0.215 0.157 1.485
 0.219 0.154 1.458
 0.223 0.15 1.424
 0.223 0.145 1.376
 0.227 0.142 1.348
 0.226 0.137 1.298
 0.224 0.131 1.245
 0.226 0.128 1.213
 0.228 0.125 1.188
 0.22 0.117 1.111
 0.221 0.114 1.084
 0 0 0
 0.209 0.102 0.967
 0.19 0.09 0.856
 0.154 0.071 0.674
 0.14 0.062 0.596
 0.13 0.056 0.539
 0.115 0.048 0.463
 0.105 0.043 0.413
 0.098 0.039 0.375
 0.098 0.038 0.367
 0.098 0.037 0.357
 0.098 0.036 0.351
 0.099 0.035 0.344
 0.099 0.035 0.34
 0.098 0.034 0.329
 0.098 0.033 0.322
 0.099 0.033 0.316
 0.099 0.032 0.31
 0.1 0.032 0.307
 0.101 0.031 0.302
 0.103 0.031 0.304
 0.105 0.031 0.304
 0.108 0.032 0.306
 0.112 0.032 0.311
 0.115 0.033 0.315
 0.12 0.034 0.322
 0.125 0.035 0.33
 0.131 0.035 0.337
 0.134 0.036 0.34
 0.138 0.036 0.345
 0.141 0.037 0.345
 0.144 0.037 0.348
 0.147 0.037 0.347
 0.151 0.037 0.352
 0.157 0.038 0.36
 0.161 0.039 0.363
 0.168 0.04 0.373
 0.178 0.042 0.389
 0.182 0.042 0.392
 0.184 0.042 0.388
 0.19 0.043 0.396
 0.192 0.043 0.393
 0.192 0.042 0.388
 0.197 0.043 0.392
 0.209 0.045 0.408
 0.23 0.049 0.444
 0.278 0.059 0.529
 0.316 0.067 0.593
 0.34 0.071 0.63
 0.361 0.075 0.659
 0.379 0.078 0.682
 0.39 0.079 0.692
 0.411 0.082 0.718
 0.417 0.083 0.718
 -0.366 0.082 0.652
 -0.369 0.084 0.668
 -0.372 0.086 0.685
 -0.376 0.088 0.703
 -0.379 0.09 0.719
 -0.382 0.091 0.735
 -0.383 0.093 0.748
 -0.382 0.094 0.759
 -0.38 0.095 0.768
 -0.378 0.095 0.775
 -0.375 0.096 0.781
 -0.372 0.096 0.787
 -0.369 0.097 0.793
 -0.365 0.097 0.798
 -0.362 0.098 0.805
 -0.359 0.098 0.811
 -0.357 0.099 0.82
 -0.355 0.1 0.828
 -0.354 0.101 0.84
 -0.354 0.103 0.856
 -0.357 0.105 0.877
 -0.359 0.107 0.9
 -0.364 0.11 0.928
 -0.369 0.114 0.958
 -0.374 0.117 0.989
 -0.378 0.121 1.019
 -0.382 0.124 1.048
 -0.384 0.127 1.073
 -0.384 0.129 1.093
 -0.382 0.131 1.111
 -0.38 0.132 1.124
 -0.376 0.133 1.135
 -0.372 0.134 1.146
 -0.368 0.135 1.158
 -0.364 0.136 1.17
 -0.36 0.137 1.18
 -0.355 0.138 1.191
 -0.35 0.139 1.2
 -0.345 0.14 1.207
 -0.339 0.14 1.214
 -0.334 0.141 1.222
 -0.328 0.142 1.229
 -0.321 0.142 1.234
 -0.315 0.142 1.239
 -0.307 0.142 1.238
 -0.298 0.141 1.232
 -0.288 0.14 1.222
 -0.278 0.138 1.21
 -0.267 0.136 1.195
 -0.257 0.135 1.183
 -0.248 0.134 1.173
 -0.239 0.133 1.166
 -0.231 0.132 1.162
 -0.224 0.131 1.159
 -0.217 0.131 1.159
 -0.21 0.131 1.161
 -0.204 0.132 1.164
 -0.198 0.132 1.167
 -0.191 0.132 1.171
 -0.184 0.132 1.172
 -0.178 0.132 1.176
 -0.172 0.133 1.18
 -0.166 0.134 1.187
 -0.16 0.135 1.197
 -0.155 0.136 1.215
 -0.151 0.139 1.239
 -0.147 0.143 1.271
 -0.143 0.146 1.303
 -0.139 0.149 1.332
 -0.133 0.151 1.351
 -0.125 0.152 1.357
 -0.117 0.151 1.352
 -0.108 0.15 1.34
 -0.099 0.148 1.321
 -0.09 0.145 1.297
 -0.081 0.142 1.269
 -0.072 0.138 1.241
 -0.063 0.135 1.216
 -0.055 0.133 1.198
 -0.048 0.132 1.189
 -0.041 0.132 1.186
 -0.034 0.132 1.188
 -0.028 0.133 1.195
 -0.021 0.134 1.207
 -0.014 0.136 1.221
 -0.007 0.137 1.237
 0 0.139 1.255
 0.006 0.141 1.273
 0.014 0.143 1.284
 0.021 0.143 1.289
 0.029 0.143 1.288
 0.036 0.143 1.285
 0.044 0.142 1.281
 0.051 0.142 1.282
 0.059 0.144 1.295
 0.068 0.146 1.32
 0.077 0.15 1.352
 0.088 0.155 1.398
 0.1 0.161 1.451
 0.112 0.167 1.502
 0.124 0.172 1.544
 0.136 0.175 1.572
 0.146 0.176 1.58
 0.155 0.176 1.578
 0.163 0.175 1.57
 0.171 0.174 1.564
 0.18 0.173 1.557
 0.188 0.173 1.553
 0.196 0.172 1.544
 0.204 0.171 1.533
 0.21 0.169 1.513
 0.216 0.166 1.49
 0.221 0.163 1.465
 0.224 0.16 1.432
 0.226 0.155 1.389
 0.229 0.152 1.362
 0.229 0.146 1.313
 0.229 0.141 1.268
 0.231 0.138 1.241
 0.234 0.136 1.217
 0.23 0.129 1.16
 0.235 0.128 1.15
 0 0 0
 0.217 0.112 1.001
 0.204 0.102 0.917
 0.169 0.082 0.74
 0.153 0.072 0.652
 0.139 0.064 0.576
 0.118 0.052 0.475
 0.107 0.046 0.42
 0.098 0.041 0.374
 0.098 0.04 0.365
 0.098 0.039 0.36
 0.1 0.039 0.358
 0.102 0.039 0.355
 0.103 0.039 0.353
 0.103 0.038 0.345
 0.102 0.037 0.334
 0.102 0.036 0.328
 0.102 0.035 0.319
 0.102 0.034 0.314
 0.103 0.034 0.31
 0.106 0.034 0.311
 0.108 0.034 0.312
 0.111 0.034 0.313
 0.114 0.035 0.316
 0.116 0.035 0.318
 0.121 0.036 0.323
 0.125 0.036 0.328
 0.129 0.037 0.334
 0.133 0.038 0.337
 0.137 0.038 0.341
 0.14 0.038 0.342
 0.143 0.039 0.345
 0.146 0.039 0.346
 0.15 0.039 0.349
 0.155 0.04 0.356
 0.158 0.04 0.356
 0.165 0.042 0.366
 0.174 0.043 0.38
 0.179 0.044 0.384
 0.179 0.043 0.378
 0.184 0.044 0.383
 0.183 0.043 0.374
 0.18 0.042 0.363
 0.184 0.042 0.365
 0.202 0.046 0.394
 0.241 0.055 0.465
 0.305 0.069 0.58
 0.342 0.077 0.642
 0.361 0.08 0.669
 0.376 0.082 0.687
 0.388 0.084 0.697
 0.397 0.085 0.704
 0.374 0.079 0.652
 0.391 0.082 0.673
 -0.364 0.086 0.648
 -0.367 0.088 0.663
 -0.369 0.089 0.678
 -0.373 0.092 0.696
 -0.376 0.094 0.713
 -0.379 0.095 0.73
 -0.38 0.097 0.743
 -0.38 0.098 0.755
 -0.379 0.099 0.764
 -0.377 0.1 0.771
 -0.374 0.1 0.778
 -0.371 0.101 0.784
 -0.368 0.101 0.79
 -0.364 0.102 0.796
 -0.362 0.102 0.803
 -0.359 0.103 0.809
 -0.356 0.104 0.818
 -0.354 0.105 0.827
 -0.354 0.106 0.84
 -0.355 0.108 0.856
 -0.358 0.111 0.879
 -0.362 0.114 0.905
 -0.367 0.117 0.935
 -0.373 0.121 0.968
 -0.379 0.125 1.001
 -0.384 0.129 1.033
 -0.388 0.132 1.064
 -0.391 0.136 1.092
 -0.391 0.138 1.114
 -0.39 0.14 1.132
 -0.387 0.142 1.147
 -0.383 0.143 1.158
 -0.379 0.144 1.17
 -0.376 0.145 1.182
 -0.372 0.147 1.194
 -0.367 0.148 1.205
 -0.363 0.149 1.216
 -0.358 0.15 1.225
 -0.352 0.15 1.233
 -0.346 0.151 1.24
 -0.341 0.152 1.249
 -0.335 0.152 1.256
 -0.328 0.153 1.261
 -0.321 0.153 1.264
 -0.314 0.153 1.264
 -0.304 0.152 1.259
 -0.295 0.151 1.25
 -0.284 0.149 1.238
 -0.274 0.147 1.225
 -0.264 0.146 1.213
 -0.254 0.144 1.203
 -0.246 0.143 1.197
 -0.237 0.142 1.191
 -0.23 0.142 1.189
 -0.223 0.142 1.189
 -0.216 0.142 1.191
 -0.209 0.142 1.195
 -0.203 0.143 1.198
 -0.196 0.143 1.202
 -0.189 0.143 1.204
 -0.183 0.143 1.209
 -0.176 0.144 1.212
 -0.17 0.145 1.221
 -0.165 0.146 1.232
 -0.16 0.148 1.251
 -0.155 0.151 1.274
 -0.151 0.154 1.305
 -0.147 0.158 1.334
 -0.142 0.161 1.361
 -0.136 0.163 1.379
 -0.128 0.163 1.387
 -0.12 0.163 1.384
 -0.111 0.162 1.374
 -0.102 0.16 1.357
 -0.092 0.157 1.335
 -0.083 0.154 1.309
 -0.074 0.15 1.281
 -0.065 0.147 1.256
 -0.057 0.145 1.237
 -0.049 0.143 1.224
 -0.042 0.143 1.219
 -0.035 0.143 1.22
 -0.028 0.144 1.227
 -0.021 0.145 1.239
 -0.014 0.146 1.251
 -0.007 0.148 1.265
 0 0.15 1.28
 0.007 0.151 1.294
 0.014 0.152 1.304
 0.022 0.153 1.309
 0.029 0.153 1.31
 0.037 0.153 1.31
 0.045 0.153 1.31
 0.052 0.154 1.315
 0.061 0.155 1.33
 0.07 0.158 1.355
 0.079 0.162 1.387
 0.09 0.167 1.43
 0.102 0.173 1.477
 0.114 0.178 1.521
 0.125 0.182 1.556
 0.136 0.185 1.58
 0.146 0.186 1.586
 0.155 0.185 1.582
 0.163 0.184 1.575
 0.172 0.184 1.567
 0.18 0.183 1.559
 0.188 0.182 1.554
 0.196 0.181 1.543
 0.204 0.18 1.532
 0.21 0.177 1.513
 0.216 0.175 1.491
 0.221 0.172 1.465
 0.224 0.168 1.433
 0.226 0.163 1.392
 0.229 0.16 1.36
 0.23 0.155 1.316
 0.232 0.151 1.286
 0.236 0.149 1.266
 0.241 0.147 1.251
 0.24 0.142 1.21
 0.245 0.141 1.197
 0 0 0
 0.221 0.12 1.022
 0.22 0.116 0.986
 0.199 0.102 0.868
 0.171 0.085 0.727
 0.141 0.068 0.583
 0.12 0.056 0.482
 0.109 0.049 0.427
 0.099 0.044 0.379
 0.099 0.043 0.372
 0.101 0.042 0.368
 0.103 0.042 0.366
 0.104 0.042 0.361
 0.105 0.041 0.357
 0.104 0.04 0.347
 0.103 0.039 0.337
 0.103 0.038 0.328
 0.102 0.037 0.32
 0.104 0.037 0.319
 0.105 0.036 0.315
 0.108 0.037 0.317
 0.111 0.037 0.321
 0.113 0.037 0.321
 0.118 0.038 0.327
 0.12 0.038 0.328
 0.124 0.039 0.332
 0.126 0.039 0.331
 0.131 0.04 0.337
 0.132 0.039 0.334
 0.135 0.04 0.337
 0.138 0.04 0.338
 0.142 0.041 0.342
 0.145 0.041 0.343
 0.15 0.042 0.35
 0.155 0.042 0.354
 0.157 0.042 0.354
 0.163 0.043 0.362
 0.172 0.045 0.376
 0.174 0.045 0.374
 0.173 0.044 0.365
 0.179 0.045 0.371
 0.177 0.044 0.361
 0 0 0
 0 0 0
 0 0 0
 0 0 0
 0.331 0.079 0.63
 0.349 0.082 0.655
 0.359 0.084 0.665
 0.368 0.085 0.671
 0.379 0.086 0.681
 0.392 0.088 0.694
 0.4 0.089 0.697
 0.392 0.086 0.674
 -0.362 0.09 0.645
 -0.364 0.091 0.658
 -0.367 0.093 0.674
 -0.371 0.095 0.691
 -0.374 0.097 0.708
 -0.377 0.099 0.725
 -0.378 0.101 0.738
 -0.378 0.102 0.75
 -0.377 0.103 0.76
 -0.375 0.104 0.767
 -0.372 0.105 0.774
 -0.369 0.105 0.78
 -0.366 0.106 0.787
 -0.363 0.106 0.793
 -0.361 0.107 0.8
 -0.358 0.108 0.807
 -0.356 0.109 0.816
 -0.354 0.11 0.826
 -0.354 0.111 0.839
 -0.355 0.113 0.857
 -0.359 0.116 0.881
 -0.364 0.12 0.909
 -0.369 0.124 0.941
 -0.377 0.128 0.977
 -0.383 0.133 1.012
 -0.389 0.137 1.046
 -0.394 0.141 1.079
 -0.397 0.145 1.108
 -0.397 0.147 1.132
 -0.396 0.15 1.151
 -0.394 0.151 1.167
 -0.391 0.153 1.179
 -0.386 0.154 1.19
 -0.383 0.155 1.203
 -0.378 0.157 1.215
 -0.374 0.158 1.226
 -0.37 0.159 1.238
 -0.365 0.16 1.248
 -0.359 0.161 1.256
 -0.353 0.162 1.264
 -0.347 0.162 1.272
 -0.341 0.163 1.277
 -0.334 0.163 1.282
 -0.327 0.163 1.285
 -0.319 0.163 1.286
 -0.31 0.162 1.281
 -0.3 0.161 1.273
 -0.29 0.16 1.263
 -0.279 0.158 1.25
 -0.269 0.156 1.238
 -0.26 0.155 1.228
 -0.251 0.154 1.222
 -0.243 0.153 1.217
 -0.235 0.152 1.215
 -0.228 0.152 1.216
 -0.221 0.152 1.218
 -0.214 0.153 1.223
 -0.207 0.153 1.226
 -0.201 0.153 1.229
 -0.194 0.154 1.232
 -0.187 0.154 1.237
 -0.18 0.154 1.241
 -0.174 0.155 1.249
 -0.168 0.157 1.261
 -0.163 0.159 1.278
 -0.158 0.161 1.301
 -0.154 0.165 1.329
 -0.149 0.168 1.357
 -0.144 0.171 1.381
 -0.137 0.173 1.398
 -0.13 0.174 1.407
 -0.122 0.174 1.406
 -0.113 0.173 1.399
