 0.934 -1.64 4.013
 0.951 -1.627 3.975
 0.978 -1.63 3.979
 1.015 -1.65 4.021
 1.037 -1.646 4.006
 1.064 -1.648 4.006
 1.088 -1.648 3.999
 1.101 -1.63 3.949
 1.117 -1.618 3.912
 1.152 -1.633 3.942
 1.173 -1.628 3.925
 1.206 -1.64 3.946
 1.232 -1.64 3.94
 1.253 -1.637 3.923
 1.291 -1.653 3.955
 1.32 -1.659 3.962
 1.321 -1.629 3.882
 1.354 -1.64 3.9
 1.367 -1.625 3.858
 1.408 -1.645 3.897
 1.44 -1.653 3.907
 1.421 -1.603 3.78
 1.48 -1.642 3.865
 1.525 -1.664 3.907
 1.536 -1.649 3.862
 1.557 -1.644 3.843
 1.584 -1.648 3.842
 1.585 -1.623 3.775
 1.625 -1.639 3.802
 1.66 -1.649 3.816
 1.684 -1.648 3.803
 1.682 -1.622 3.733
 1.712 -1.628 3.736
 1.76 -1.65 3.777
 1.773 -1.639 3.742
 1.781 -1.624 3.696
 1.819 -1.636 3.712
 1.82 -1.615 3.654
 1.829 -1.602 3.613
 1.837 -1.588 3.57
 1.809 -1.544 3.459
 1.829 -1.541 3.442
 1.813 -1.509 3.359
 1.782 -1.464 3.249
 1.754 -1.424 3.149
 1.767 -1.418 3.124
 1.789 -1.418 3.113
 1.772 -1.388 3.037
 1.751 -1.356 2.955
 1.752 -1.341 2.912
 1.746 -1.322 2.859
 1.754 -1.313 2.829
 -2.151 -1.603 3.602
 -2.12 -1.598 3.603
 -2.125 -1.621 3.668
 -2.102 -1.623 3.685
 -2.083 -1.628 3.708
 -2.057 -1.627 3.718
 -2.034 -1.629 3.735
 -2.009 -1.63 3.747
 -1.987 -1.633 3.765
 -1.96 -1.632 3.774
 -1.935 -1.632 3.786
 -1.905 -1.628 3.788
 -1.88 -1.629 3.8
 -1.855 -1.629 3.812
 -1.83 -1.63 3.823
 -1.804 -1.629 3.832
 -1.781 -1.631 3.847
 -1.751 -1.627 3.847
 -1.723 -1.624 3.85
 -1.696 -1.623 3.858
 -1.67 -1.622 3.865
 -1.643 -1.62 3.869
 -1.62 -1.622 3.883
 -1.594 -1.622 3.892
 -1.568 -1.622 3.899
 -1.542 -1.62 3.904
 -1.516 -1.62 3.913
 -1.49 -1.619 3.916
 -1.463 -1.617 3.92
 -1.438 -1.617 3.93
 -1.413 -1.617 3.937
 -1.387 -1.617 3.943
 -1.363 -1.617 3.952
 -1.338 -1.618 3.962
 -1.313 -1.618 3.968
 -1.29 -1.621 3.982
 -1.264 -1.621 3.988
 -1.238 -1.62 3.992
 -1.213 -1.62 3.999
 -1.187 -1.618 4
 -1.158 -1.612 3.993
 -1.133 -1.612 3.999
 -1.108 -1.613 4.005
 -1.082 -1.612 4.01
 -1.058 -1.613 4.016
 -1.033 -1.614 4.024
 -1.008 -1.614 4.031
 -0.983 -1.614 4.034
 -0.957 -1.611 4.033
 -0.932 -1.612 4.04
 -0.907 -1.612 4.044
 -0.881 -1.611 4.047
 -0.856 -1.611 4.05
 -0.832 -1.612 4.057
 -0.806 -1.61 4.057
 -0.781 -1.61 4.059
 -0.755 -1.609 4.061
 -0.732 -1.611 4.071
 -0.707 -1.612 4.076
 -0.683 -1.614 4.084
 -0.659 -1.617 4.095
 -0.635 -1.619 4.104
 -0.61 -1.62 4.11
 -0.585 -1.62 4.112
 -0.559 -1.618 4.109
 -0.534 -1.617 4.109
 -0.508 -1.616 4.108
 -0.482 -1.613 4.104
 -0.457 -1.613 4.106
 -0.433 -1.614 4.111
 -0.408 -1.614 4.112
 -0.383 -1.615 4.117
 -0.358 -1.614 4.115
 -0.333 -1.616 4.121
 -0.308 -1.615 4.121
 -0.283 -1.615 4.122
 -0.258 -1.613 4.118
 -0.233 -1.614 4.122
 -0.208 -1.612 4.115
 -0.183 -1.61 4.111
 -0.158 -1.608 4.108
 -0.133 -1.607 4.106
 -0.108 -1.608 4.107
 -0.083 -1.609 4.112
 -0.058 -1.611 4.117
 -0.034 -1.613 4.122
 -0.009 -1.616 4.129
 0.015 -1.618 4.134
 0.04 -1.617 4.131
 0.065 -1.616 4.127
 0.09 -1.615 4.123
 0.115 -1.614 4.121
 0.139 -1.611 4.112
 0.164 -1.612 4.114
 0.189 -1.611 4.11
 0.214 -1.611 4.109
 0.239 -1.611 4.106
 0.264 -1.612 4.107
 0.289 -1.612 4.106
 0.314 -1.613 4.106
 0.338 -1.61 4.098
 0.363 -1.611 4.097
 0.387 -1.61 4.094
 0.412 -1.608 4.086
 0.437 -1.611 4.089
 0.463 -1.616 4.1
 0.488 -1.616 4.098
 0.513 -1.615 4.092
 0.539 -1.618 4.097
 0.564 -1.619 4.096
 0.588 -1.616 4.086
 0.613 -1.617 4.085
 0.639 -1.621 4.091
 0.664 -1.621 4.086
 0.689 -1.62 4.082
 0.715 -1.624 4.086
 0.741 -1.626 4.088
 0.766 -1.626 4.083
 0.791 -1.626 4.08
 0.816 -1.625 4.073
 0.841 -1.625 4.069
 0.865 -1.625 4.063
 0.89 -1.625 4.057
 0.914 -1.623 4.047
 0.94 -1.625 4.048
 0.966 -1.626 4.044
 0.991 -1.627 4.041
 1.017 -1.629 4.04
 1.044 -1.631 4.04
 1.068 -1.63 4.032
 1.093 -1.63 4.026
 1.119 -1.631 4.021
 1.143 -1.63 4.013
 1.17 -1.633 4.012
 1.197 -1.635 4.011
 1.223 -1.636 4.008
 1.249 -1.638 4.004
 1.277 -1.641 4.005
 1.301 -1.641 3.997
 1.328 -1.642 3.993
 1.352 -1.641 3.982
 1.377 -1.642 3.975
 1.403 -1.642 3.968
 1.427 -1.641 3.958
 1.45 -1.639 3.943
 1.476 -1.64 3.938
 1.501 -1.639 3.927
 1.523 -1.637 3.912
 1.548 -1.637 3.903
 1.574 -1.637 3.895
 1.599 -1.638 3.886
 1.624 -1.637 3.876
 1.65 -1.638 3.868
 1.675 -1.638 3.858
 1.699 -1.638 3.847
 1.723 -1.637 3.835
 1.747 -1.636 3.823
 1.768 -1.632 3.802
 1.789 -1.628 3.784
 1.806 -1.621 3.757
 1.818 -1.61 3.719
 1.825 -1.594 3.672
 1.83 -1.578 3.624
 1.831 -1.559 3.568
 1.833 -1.541 3.515
 1.83 -1.519 3.454
 1.816 -1.488 3.373
 1.788 -1.448 3.27
 1.775 -1.419 3.194
 1.767 -1.396 3.132
 1.769 -1.381 3.087
 1.77 -1.366 3.041
 1.766 -1.347 2.989
 1.76 -1.327 2.933
 1.762 -1.313 2.893
 1.754 -1.293 2.836
 -2.181 -1.6 3.661
 -2.196 -1.63 3.744
 -2.161 -1.623 3.74
 -2.139 -1.626 3.759
 -2.117 -1.629 3.779
 -2.089 -1.627 3.787
 -2.064 -1.628 3.8
 -2.038 -1.628 3.812
 -2.015 -1.63 3.828
 -1.988 -1.629 3.838
 -1.962 -1.629 3.849
 -1.933 -1.626 3.853
 -1.907 -1.626 3.864
 -1.879 -1.624 3.87
 -1.852 -1.624 3.879
 -1.828 -1.625 3.893
 -1.804 -1.626 3.906
 -1.773 -1.622 3.906
 -1.747 -1.622 3.915
 -1.722 -1.622 3.926
 -1.695 -1.621 3.932
 -1.668 -1.62 3.938
 -1.646 -1.623 3.955
 -1.619 -1.622 3.962
 -1.591 -1.62 3.966
 -1.563 -1.617 3.968
 -1.537 -1.617 3.976
 -1.509 -1.615 3.978
 -1.482 -1.613 3.983
 -1.458 -1.614 3.993
 -1.433 -1.615 4.004
 -1.407 -1.615 4.01
 -1.382 -1.616 4.019
 -1.357 -1.616 4.027
 -1.33 -1.614 4.031
 -1.306 -1.616 4.042
 -1.28 -1.616 4.048
 -1.255 -1.616 4.054
 -1.229 -1.616 4.061
 -1.205 -1.617 4.071
 -1.177 -1.614 4.068
 -1.151 -1.613 4.072
 -1.125 -1.613 4.077
 -1.099 -1.611 4.08
 -1.071 -1.609 4.079
 -1.046 -1.609 4.085
 -1.021 -1.609 4.091
 -0.996 -1.609 4.096
 -0.969 -1.608 4.097
 -0.945 -1.609 4.104
 -0.919 -1.608 4.107
 -0.893 -1.608 4.111
 -0.868 -1.608 4.115
 -0.843 -1.609 4.121
 -0.817 -1.608 4.123
 -0.792 -1.607 4.126
 -0.766 -1.606 4.127
 -0.741 -1.608 4.135
 -0.717 -1.609 4.142
 -0.692 -1.61 4.148
 -0.668 -1.613 4.159
 -0.643 -1.614 4.165
 -0.618 -1.615 4.17
 -0.592 -1.615 4.172
 -0.566 -1.613 4.169
 -0.54 -1.611 4.167
 -0.514 -1.61 4.168
 -0.488 -1.607 4.161
 -0.462 -1.605 4.158
 -0.437 -1.606 4.164
 -0.412 -1.607 4.168
 -0.387 -1.608 4.17
 -0.362 -1.607 4.171
 -0.337 -1.61 4.178
 -0.311 -1.608 4.176
 -0.286 -1.607 4.173
 -0.261 -1.607 4.175
 -0.236 -1.608 4.178
 -0.21 -1.606 4.174
 -0.185 -1.604 4.171
 -0.159 -1.603 4.168
 -0.134 -1.6 4.161
 -0.109 -1.6 4.162
 -0.084 -1.601 4.163
 -0.059 -1.603 4.169
 -0.034 -1.606 4.175
 -0.009 -1.608 4.181
 0.016 -1.61 4.186
 0.041 -1.61 4.185
 0.066 -1.609 4.183
 0.091 -1.607 4.178
 0.116 -1.607 4.175
 0.141 -1.603 4.165
 0.166 -1.603 4.164
 0.191 -1.601 4.158
 0.216 -1.602 4.157
 0.241 -1.602 4.157
 0.267 -1.604 4.161
 0.292 -1.606 4.163
 0.317 -1.607 4.164
 0.342 -1.604 4.155
 0.367 -1.604 4.153
 0.392 -1.603 4.148
 0.416 -1.601 4.14
 0.442 -1.603 4.143
 0.468 -1.608 4.152
 0.494 -1.608 4.151
 0.519 -1.608 4.148
 0.545 -1.61 4.151
 0.57 -1.612 4.152
 0.595 -1.611 4.145
 0.621 -1.612 4.146
 0.647 -1.615 4.148
 0.672 -1.614 4.142
 0.697 -1.614 4.137
 0.723 -1.616 4.14
 0.749 -1.617 4.138
 0.774 -1.617 4.134
 0.801 -1.619 4.136
 0.825 -1.618 4.128
 0.851 -1.619 4.126
 0.877 -1.62 4.123
 0.902 -1.621 4.119
 0.926 -1.619 4.109
 0.953 -1.622 4.112
 0.979 -1.622 4.107
 1.005 -1.624 4.107
 1.031 -1.626 4.105
 1.058 -1.628 4.103
 1.083 -1.626 4.095
 1.108 -1.626 4.088
 1.133 -1.626 4.081
 1.158 -1.626 4.073
 1.185 -1.628 4.073
 1.212 -1.631 4.073
 1.239 -1.632 4.07
 1.266 -1.634 4.067
 1.294 -1.638 4.069
 1.32 -1.638 4.062
 1.345 -1.638 4.054
 1.37 -1.637 4.043
 1.395 -1.637 4.036
 1.42 -1.637 4.026
 1.445 -1.636 4.016
 1.469 -1.635 4.005
 1.496 -1.636 3.999
 1.521 -1.636 3.991
 1.545 -1.635 3.978
 1.572 -1.635 3.971
 1.598 -1.636 3.963
 1.623 -1.636 3.954
 1.648 -1.636 3.942
 1.674 -1.636 3.934
 1.699 -1.636 3.924
 1.723 -1.635 3.911
 1.748 -1.634 3.899
 1.77 -1.631 3.881
 1.787 -1.624 3.854
 1.804 -1.616 3.824
 1.817 -1.606 3.79
 1.826 -1.592 3.745
 1.833 -1.577 3.698
 1.839 -1.562 3.651
 1.842 -1.544 3.598
 1.846 -1.528 3.549
 1.848 -1.509 3.495
 1.825 -1.472 3.398
 1.787 -1.424 3.275
 1.771 -1.394 3.196
 1.765 -1.373 3.135
 1.769 -1.36 3.095
 1.772 -1.346 3.052
 1.767 -1.327 2.998
 1.761 -1.307 2.942
 1.762 -1.293 2.901
 1.766 -1.282 2.864
 -2.236 -1.614 3.764
 -2.193 -1.602 3.749
 -2.19 -1.619 3.801
 -2.169 -1.623 3.822
 -2.147 -1.626 3.843
 -2.119 -1.624 3.851
 -2.093 -1.625 3.864
 -2.066 -1.625 3.875
 -2.043 -1.626 3.892
 -2.015 -1.625 3.901
 -1.989 -1.626 3.913
 -1.96 -1.623 3.917
 -1.932 -1.622 3.926
 -1.903 -1.62 3.931
 -1.876 -1.619 3.939
 -1.852 -1.62 3.954
 -1.828 -1.623 3.97
 -1.799 -1.62 3.973
 -1.774 -1.62 3.984
 -1.748 -1.621 3.996
 -1.721 -1.62 4.003
 -1.693 -1.618 4.008
 -1.67 -1.621 4.024
 -1.643 -1.62 4.031
 -1.615 -1.619 4.036
 -1.586 -1.616 4.037
 -1.561 -1.616 4.048
 -1.533 -1.614 4.05
 -1.506 -1.613 4.054
 -1.479 -1.612 4.062
 -1.455 -1.614 4.073
 -1.428 -1.612 4.078
 -1.402 -1.613 4.087
 -1.377 -1.614 4.096
 -1.35 -1.612 4.099
 -1.324 -1.613 4.107
 -1.297 -1.611 4.111
 -1.271 -1.611 4.116
 -1.246 -1.612 4.126
 -1.222 -1.615 4.139
 -1.194 -1.612 4.139
 -1.169 -1.613 4.146
 -1.142 -1.611 4.147
 -1.114 -1.608 4.147
 -1.087 -1.607 4.149
 -1.062 -1.608 4.156
 -1.036 -1.608 4.162
 -1.012 -1.61 4.171
 -0.985 -1.609 4.174
 -0.958 -1.607 4.174
 -0.932 -1.606 4.176
 -0.906 -1.605 4.179
 -0.88 -1.604 4.181
 -0.854 -1.604 4.184
 -0.829 -1.605 4.19
 -0.802 -1.603 4.189
 -0.776 -1.602 4.19
 -0.75 -1.602 4.194
 -0.725 -1.602 4.199
 -0.699 -1.602 4.2
 -0.674 -1.603 4.208
 -0.648 -1.602 4.207
 -0.623 -1.603 4.213
 -0.597 -1.602 4.214
 -0.571 -1.601 4.214
 -0.545 -1.6 4.213
 -0.519 -1.6 4.215
 -0.493 -1.597 4.21
 -0.467 -1.596 4.21
 -0.441 -1.596 4.21
 -0.416 -1.596 4.213
 -0.391 -1.597 4.219
 -0.365 -1.596 4.216
 -0.34 -1.597 4.22
 -0.314 -1.596 4.22
 -0.288 -1.595 4.218
 -0.263 -1.595 4.219
 -0.237 -1.596 4.222
 -0.212 -1.595 4.22
 -0.186 -1.594 4.218
 -0.161 -1.593 4.215
 -0.135 -1.59 4.21
 -0.11 -1.591 4.211
 -0.085 -1.59 4.211
 -0.059 -1.592 4.214
 -0.034 -1.593 4.218
 -0.009 -1.594 4.221
 0.016 -1.596 4.224
 0.041 -1.596 4.224
 0.067 -1.597 4.226
 0.092 -1.596 4.224
 0.118 -1.596 4.223
 0.143 -1.593 4.213
 0.168 -1.592 4.209
 0.193 -1.589 4.201
 0.218 -1.589 4.199
 0.244 -1.59 4.201
 0.269 -1.593 4.207
 0.295 -1.594 4.208
 0.32 -1.594 4.206
 0.345 -1.592 4.198
 0.37 -1.591 4.192
 0.395 -1.589 4.187
 0.42 -1.588 4.181
 0.446 -1.592 4.188
 0.472 -1.595 4.194
 0.498 -1.597 4.196
 0.524 -1.597 4.193
 0.55 -1.6 4.197
 0.576 -1.601 4.197
 0.601 -1.6 4.191
 0.627 -1.602 4.193
 0.653 -1.604 4.195
 0.678 -1.602 4.187
 0.704 -1.603 4.184
 0.73 -1.606 4.188
 0.756 -1.606 4.183
 0.781 -1.605 4.178
 0.808 -1.608 4.182
 0.833 -1.608 4.175
 0.859 -1.609 4.173
 0.885 -1.61 4.17
 0.911 -1.611 4.168
 0.935 -1.609 4.157
 0.963 -1.612 4.161
 0.988 -1.612 4.155
 1.015 -1.614 4.156
 1.041 -1.615 4.152
 1.068 -1.617 4.15
 1.093 -1.616 4.142
 1.119 -1.617 4.138
 1.146 -1.618 4.134
 1.172 -1.619 4.131
 1.2 -1.622 4.131
 1.227 -1.624 4.131
 1.253 -1.625 4.126
 1.279 -1.625 4.119
 1.307 -1.628 4.118
 1.334 -1.63 4.115
 1.36 -1.63 4.107
 1.386 -1.631 4.101
 1.413 -1.632 4.096
 1.439 -1.632 4.088
 1.465 -1.633 4.081
 1.49 -1.632 4.07
 1.516 -1.631 4.061
 1.541 -1.631 4.052
 1.566 -1.63 4.039
 1.59 -1.629 4.027
 1.618 -1.63 4.022
 1.644 -1.631 4.014
 1.669 -1.631 4.003
 1.696 -1.631 3.994
 1.721 -1.631 3.985
 1.745 -1.629 3.969
 1.767 -1.626 3.952
 1.789 -1.623 3.931
 1.804 -1.614 3.899
 1.818 -1.603 3.863
 1.828 -1.59 3.82
 1.835 -1.575 3.773
 1.841 -1.559 3.722
 1.849 -1.545 3.679
 1.851 -1.527 3.625
 1.858 -1.513 3.581
 1.864 -1.499 3.535
 1.844 -1.464 3.442
 1.777 -1.394 3.265
 1.761 -1.365 3.186
 1.758 -1.346 3.13
 1.768 -1.338 3.101
 1.773 -1.325 3.062
 1.769 -1.308 3.01
 1.764 -1.289 2.955
 1.775 -1.282 2.929
 1.754 -1.253 2.851
 -2.267 -1.611 3.827
 -2.248 -1.616 3.853
 -2.224 -1.618 3.871
 -2.2 -1.62 3.887
 -2.176 -1.622 3.905
 -2.15 -1.622 3.918
 -2.123 -1.622 3.93
 -2.096 -1.621 3.94
 -2.072 -1.623 3.957
 -2.044 -1.622 3.967
 -2.016 -1.622 3.976
 -1.988 -1.62 3.985
 -1.96 -1.619 3.992
 -1.93 -1.616 3.995
 -1.903 -1.616 4.006
 -1.88 -1.619 4.024
 -1.855 -1.619 4.037
 -1.826 -1.618 4.043
 -1.801 -1.619 4.055
 -1.774 -1.618 4.064
 -1.744 -1.616 4.067
 -1.716 -1.614 4.072
 -1.691 -1.615 4.085
 -1.665 -1.615 4.094
 -1.638 -1.615 4.101
 -1.609 -1.612 4.104
 -1.584 -1.613 4.116
 -1.555 -1.611 4.119
 -1.527 -1.609 4.121
 -1.499 -1.608 4.127
 -1.474 -1.609 4.138
 -1.447 -1.608 4.143
 -1.421 -1.609 4.152
 -1.395 -1.609 4.16
 -1.368 -1.608 4.164
 -1.341 -1.608 4.171
 -1.314 -1.606 4.173
 -1.288 -1.606 4.18
 -1.262 -1.607 4.189
 -1.237 -1.608 4.199
 -1.21 -1.607 4.201
 -1.183 -1.607 4.207
 -1.155 -1.604 4.206
 -1.127 -1.602 4.206
 -1.099 -1.599 4.204
 -1.074 -1.6 4.211
 -1.048 -1.6 4.217
 -1.023 -1.601 4.227
 -0.996 -1.6 4.229
 -0.969 -1.599 4.23
 -0.941 -1.596 4.226
 -0.915 -1.595 4.229
 -0.888 -1.593 4.228
 -0.862 -1.593 4.231
 -0.836 -1.594 4.239
 -0.81 -1.594 4.242
 -0.784 -1.593 4.244
 -0.758 -1.593 4.246
 -0.732 -1.592 4.248
 -0.705 -1.591 4.248
 -0.68 -1.591 4.252
 -0.653 -1.589 4.249
 -0.627 -1.588 4.251
 -0.601 -1.589 4.256
 -0.575 -1.587 4.254
 -0.548 -1.586 4.252
 -0.523 -1.586 4.254
 -0.496 -1.584 4.251
 -0.47 -1.582 4.248
 -0.444 -1.581 4.248
 -0.419 -1.582 4.252
 -0.393 -1.582 4.253
 -0.367 -1.582 4.255
 -0.342 -1.583 4.26
 -0.316 -1.582 4.259
 -0.29 -1.581 4.257
 -0.265 -1.582 4.26
 -0.239 -1.582 4.26
 -0.213 -1.579 4.255
 -0.187 -1.579 4.256
 -0.162 -1.578 4.253
 -0.136 -1.575 4.246
 -0.11 -1.575 4.244
 -0.085 -1.574 4.243
 -0.059 -1.574 4.244
 -0.034 -1.575 4.245
 -0.008 -1.575 4.245
 0.016 -1.576 4.248
 0.042 -1.578 4.252
 0.067 -1.579 4.255
 0.093 -1.579 4.255
 0.118 -1.58 4.255
 0.144 -1.578 4.25
 0.169 -1.577 4.244
 0.194 -1.574 4.236
 0.22 -1.575 4.236
 0.245 -1.576 4.238
 0.271 -1.578 4.242
 0.297 -1.579 4.243
 0.322 -1.578 4.238
 0.347 -1.576 4.232
 0.373 -1.576 4.229
 0.398 -1.575 4.223
 0.423 -1.574 4.22
 0.449 -1.577 4.224
 0.476 -1.58 4.229
 0.501 -1.581 4.23
 0.527 -1.581 4.226
 0.553 -1.584 4.231
 0.579 -1.585 4.231
 0.605 -1.585 4.228
 0.631 -1.585 4.225
 0.657 -1.588 4.229
 0.682 -1.586 4.219
 0.708 -1.586 4.216
 0.734 -1.588 4.218
 0.76 -1.589 4.214
 0.786 -1.589 4.211
 0.813 -1.593 4.216
 0.839 -1.593 4.212
 0.865 -1.594 4.211
 0.892 -1.596 4.211
 0.918 -1.597 4.209
 0.943 -1.595 4.199
 0.97 -1.598 4.201
 0.996 -1.598 4.195
 1.023 -1.6 4.195
 1.049 -1.601 4.192
 1.076 -1.602 4.189
 1.101 -1.602 4.181
 1.127 -1.603 4.177
 1.154 -1.604 4.174
 1.181 -1.605 4.171
 1.209 -1.608 4.172
 1.237 -1.611 4.172
 1.264 -1.613 4.169
 1.29 -1.613 4.163
 1.319 -1.617 4.165
 1.346 -1.618 4.161
 1.372 -1.618 4.153
 1.4 -1.62 4.149
 1.427 -1.622 4.146
 1.453 -1.621 4.137
 1.48 -1.623 4.132
 1.506 -1.623 4.124
 1.533 -1.623 4.116
 1.558 -1.623 4.106
 1.584 -1.622 4.095
 1.61 -1.622 4.085
 1.638 -1.624 4.081
 1.664 -1.625 4.073
 1.691 -1.626 4.065
 1.718 -1.626 4.057
 1.744 -1.626 4.045
 1.766 -1.622 4.026
 1.786 -1.618 4.003
 1.805 -1.611 3.976
 1.818 -1.6 3.938
 1.828 -1.587 3.895
 1.838 -1.574 3.851
 1.846 -1.559 3.804
 1.852 -1.543 3.754
 1.859 -1.529 3.708
 1.865 -1.514 3.66
 1.87 -1.499 3.612
 1.876 -1.484 3.567
 0 0 0
 1.755 -1.354 3.232
 1.747 -1.332 3.168
 1.756 -1.323 3.135
 1.767 -1.316 3.107
 1.773 -1.305 3.07
 1.772 -1.289 3.022
 1.768 -1.271 2.969
 1.744 -1.24 2.885
 1.739 -1.222 2.833
 -2.305 -1.611 3.901
 -2.274 -1.608 3.907
 -2.258 -1.616 3.939
 -2.231 -1.616 3.952
 -2.207 -1.618 3.97
 -2.179 -1.617 3.981
 -2.151 -1.616 3.992
 -2.124 -1.616 4.004
 -2.099 -1.618 4.02
 -2.071 -1.617 4.03
 -2.043 -1.616 4.039
 -2.016 -1.616 4.05
 -1.987 -1.615 4.058
 -1.958 -1.613 4.064
 -1.931 -1.612 4.074
 -1.906 -1.614 4.09
 -1.881 -1.616 4.104
 -1.852 -1.614 4.111
 -1.827 -1.616 4.124
 -1.8 -1.616 4.134
 -1.772 -1.615 4.141
 -1.741 -1.61 4.14
 -1.715 -1.612 4.153
 -1.688 -1.611 4.161
 -1.661 -1.611 4.169
 -1.631 -1.608 4.17
 -1.606 -1.609 4.183
 -1.576 -1.606 4.184
 -1.547 -1.604 4.185
 -1.518 -1.602 4.188
 -1.492 -1.602 4.196
 -1.464 -1.601 4.201
 -1.438 -1.601 4.209
 -1.411 -1.601 4.216
 -1.383 -1.6 4.221
 -1.357 -1.6 4.228
 -1.329 -1.598 4.231
 -1.302 -1.598 4.237
 -1.276 -1.598 4.244
 -1.25 -1.599 4.252
 -1.222 -1.597 4.253
 -1.194 -1.595 4.255
 -1.166 -1.593 4.256
 -1.139 -1.592 4.257
 -1.111 -1.59 4.258
 -1.085 -1.59 4.264
 -1.058 -1.589 4.268
 -1.032 -1.59 4.274
 -1.005 -1.588 4.275
 -0.977 -1.586 4.273
 -0.949 -1.583 4.27
 -0.922 -1.582 4.271
 -0.894 -1.579 4.267
 -0.867 -1.578 4.269
 -0.842 -1.579 4.277
 -0.816 -1.578 4.278
 -0.789 -1.578 4.282
 -0.763 -1.578 4.286
 -0.736 -1.577 4.285
 -0.71 -1.575 4.284
 -0.683 -1.574 4.285
 -0.656 -1.571 4.28
 -0.63 -1.57 4.279
 -0.604 -1.57 4.283
 -0.577 -1.568 4.279
 -0.551 -1.568 4.281
 -0.525 -1.568 4.284
 -0.499 -1.565 4.28
 -0.472 -1.563 4.276
 -0.446 -1.562 4.275
 -0.42 -1.562 4.277
 -0.394 -1.561 4.276
 -0.368 -1.561 4.277
 -0.343 -1.562 4.28
 -0.317 -1.56 4.278
 -0.291 -1.559 4.275
 -0.265 -1.561 4.281
 -0.24 -1.561 4.283
 -0.214 -1.56 4.281
 -0.188 -1.56 4.281
 -0.162 -1.559 4.278
 -0.136 -1.556 4.272
 -0.111 -1.555 4.269
 -0.085 -1.553 4.264
 -0.059 -1.555 4.268
 -0.034 -1.554 4.267
 -0.008 -1.554 4.265
 0.016 -1.554 4.265
 0.042 -1.556 4.27
 0.068 -1.556 4.271
 0.093 -1.557 4.271
 0.119 -1.557 4.271
 0.144 -1.557 4.269
 0.17 -1.555 4.264
 0.195 -1.553 4.256
 0.221 -1.553 4.255
 0.246 -1.554 4.257
 0.272 -1.556 4.259
 0.298 -1.556 4.259
 0.323 -1.557 4.259
 0.349 -1.556 4.254
 0.374 -1.556 4.252
 0.4 -1.556 4.249
 0.425 -1.556 4.248
 0.451 -1.557 4.249
 0.477 -1.559 4.251
 0.503 -1.56 4.25
 0.529 -1.56 4.246
 0.555 -1.561 4.246
 0.581 -1.563 4.249
 0.606 -1.563 4.245
 0.632 -1.564 4.244
 0.659 -1.566 4.247
 0.684 -1.565 4.24
 0.709 -1.564 4.234
 0.736 -1.567 4.237
 0.762 -1.567 4.233
 0.788 -1.567 4.231
 0.816 -1.571 4.237
 0.843 -1.574 4.239
 0.869 -1.575 4.238
 0.896 -1.577 4.236
 0.922 -1.578 4.235
 0.948 -1.577 4.227
 0.974 -1.578 4.225
 1 -1.579 4.222
 1.028 -1.582 4.224
 1.055 -1.584 4.223
 1.082 -1.585 4.219
 1.109 -1.586 4.217
 1.135 -1.586 4.211
 1.161 -1.588 4.208
 1.188 -1.589 4.205
 1.216 -1.591 4.204
 1.244 -1.594 4.204
 1.271 -1.595 4.2
 1.298 -1.596 4.195
 1.326 -1.599 4.196
 1.354 -1.601 4.194
 1.38 -1.601 4.185
 1.409 -1.604 4.184
 1.437 -1.606 4.182
 1.464 -1.607 4.176
 1.491 -1.608 4.172
 1.519 -1.61 4.166
 1.546 -1.61 4.159
 1.574 -1.612 4.154
 1.599 -1.611 4.143
 1.627 -1.613 4.137
 1.654 -1.614 4.131
 1.682 -1.615 4.124
 1.708 -1.615 4.113
 1.734 -1.615 4.103
 1.759 -1.613 4.089
 1.78 -1.609 4.068
 1.798 -1.601 4.038
 1.813 -1.592 4.003
 1.825 -1.58 3.963
 1.833 -1.565 3.912
 1.842 -1.552 3.869
 1.851 -1.538 3.823
 1.858 -1.523 3.775
 1.867 -1.51 3.731
 1.877 -1.498 3.692
 1.883 -1.484 3.645
 0 0 0
 0 0 0
 1.726 -1.311 3.186
 1.748 -1.311 3.178
 1.758 -1.303 3.146
 1.77 -1.296 3.12
 1.777 -1.286 3.085
 1.778 -1.272 3.039
 1.773 -1.254 2.986
 1.767 -1.235 2.93
 1.774 -1.227 2.899
 -2.358 -1.621 4.002
 -2.312 -1.608 3.983
 -2.29 -1.612 4.006
 -2.263 -1.612 4.02
 -2.237 -1.612 4.034
 -2.21 -1.613 4.049
 -2.182 -1.613 4.06
 -2.153 -1.611 4.069
 -2.127 -1.612 4.083
 -2.101 -1.613 4.098
 -2.071 -1.611 4.104
 -2.044 -1.612 4.117
 -2.017 -1.611 4.128
 -1.988 -1.61 4.136
 -1.957 -1.608 4.14
 -1.934 -1.61 4.159
 -1.906 -1.61 4.168
 -1.876 -1.608 4.174
 -1.85 -1.609 4.185
 -1.824 -1.61 4.199
 -1.795 -1.608 4.205
 -1.764 -1.605 4.207
 -1.738 -1.606 4.218
 -1.71 -1.606 4.226
 -1.681 -1.604 4.23
 -1.651 -1.601 4.231
 -1.624 -1.601 4.24
 -1.594 -1.598 4.24
 -1.565 -1.596 4.243
 -1.535 -1.593 4.245
 -1.508 -1.592 4.251
 -1.48 -1.591 4.256
 -1.453 -1.591 4.263
 -1.424 -1.589 4.266
 -1.396 -1.588 4.27
 -1.369 -1.588 4.276
 -1.341 -1.586 4.278
 -1.313 -1.585 4.282
 -1.286 -1.584 4.286
 -1.259 -1.584 4.292
 -1.231 -1.582 4.294
 -1.203 -1.58 4.295
 -1.175 -1.578 4.296
 -1.148 -1.577 4.299
 -1.119 -1.575 4.297
 -1.092 -1.574 4.3
 -1.064 -1.572 4.301
 -1.037 -1.572 4.305
 -1.009 -1.569 4.303
 -0.982 -1.567 4.303
 -0.953 -1.564 4.298
 -0.926 -1.563 4.299
 -0.898 -1.56 4.296
 -0.871 -1.559 4.297
 -0.846 -1.56 4.304
 -0.819 -1.559 4.306
 -0.792 -1.558 4.308
 -0.766 -1.558 4.31
 -0.739 -1.555 4.306
 -0.712 -1.554 4.305
 -0.685 -1.552 4.303
 -0.657 -1.548 4.296
 -0.63 -1.546 4.293
 -0.604 -1.546 4.295
 -0.577 -1.543 4.289
 -0.551 -1.543 4.293
 -0.525 -1.543 4.295
 -0.499 -1.542 4.294
 -0.473 -1.541 4.295
 -0.447 -1.541 4.294
 -0.421 -1.54 4.294
 -0.395 -1.539 4.293
 -0.369 -1.539 4.295
 -0.343 -1.538 4.295
 -0.317 -1.537 4.292
 -0.291 -1.535 4.289
 -0.265 -1.536 4.293
 -0.24 -1.536 4.294
 -0.214 -1.535 4.292
 -0.188 -1.535 4.291
 -0.162 -1.535 4.291
 -0.136 -1.533 4.286
 -0.111 -1.531 4.281
 -0.085 -1.53 4.278
 -0.059 -1.532 4.283
 -0.034 -1.531 4.28
 -0.008 -1.53 4.278
 0.016 -1.53 4.278
 0.042 -1.531 4.281
 0.068 -1.532 4.281
 0.093 -1.532 4.28
 0.119 -1.531 4.278
 0.144 -1.53 4.275
 0.17 -1.529 4.269
 0.195 -1.527 4.263
 0.221 -1.527 4.262
 0.246 -1.529 4.266
 0.272 -1.532 4.271
 0.298 -1.533 4.273
 0.324 -1.533 4.272
 0.349 -1.533 4.269
 0.375 -1.532 4.266
 0.4 -1.532 4.262
 0.426 -1.532 4.26
 0.451 -1.532 4.257
 0.478 -1.534 4.26
 0.503 -1.534 4.257
 0.529 -1.534 4.254
 0.555 -1.535 4.253
 0.581 -1.538 4.259
 0.607 -1.538 4.257
 0.634 -1.54 4.258
 0.66 -1.542 4.26
 0.686 -1.542 4.256
 0.711 -1.541 4.25
 0.737 -1.543 4.25
 0.763 -1.543 4.247
 0.789 -1.544 4.244
 0.816 -1.546 4.248
 0.843 -1.549 4.25
 0.87 -1.551 4.25
 0.897 -1.552 4.248
 0.924 -1.554 4.249
 0.95 -1.555 4.246
 0.977 -1.557 4.245
 1.004 -1.558 4.245
 1.031 -1.561 4.246
 1.059 -1.562 4.244
 1.085 -1.563 4.24
 1.112 -1.565 4.239
 1.139 -1.565 4.234
 1.166 -1.567 4.232
 1.193 -1.569 4.23
 1.221 -1.571 4.229
 1.248 -1.573 4.226
 1.275 -1.573 4.221
 1.302 -1.574 4.216
 1.331 -1.577 4.217
 1.359 -1.58 4.217
 1.386 -1.581 4.211
 1.416 -1.585 4.215
 1.445 -1.588 4.213
 1.472 -1.589 4.207
 1.5 -1.591 4.204
 1.528 -1.592 4.199
 1.555 -1.593 4.193
 1.584 -1.596 4.19
 1.611 -1.596 4.183
 1.639 -1.598 4.177
 1.667 -1.599 4.172
 1.694 -1.6 4.164
 1.721 -1.6 4.153
 1.745 -1.598 4.138
 1.77 -1.597 4.125
 1.79 -1.591 4.098
 1.806 -1.583 4.066
 1.82 -1.571 4.026
 1.832 -1.56 3.985
 1.839 -1.544 3.935
 1.85 -1.532 3.894
 1.858 -1.518 3.847
 1.869 -1.506 3.805
 1.879 -1.495 3.765
 1.889 -1.484 3.725
 0 0 0
 0 0 0
 0 0 0
 1.728 -1.29 3.197
 1.75 -1.291 3.188
 1.76 -1.283 3.157
 1.772 -1.276 3.13
 1.78 -1.267 3.097
 1.783 -1.254 3.055
 1.782 -1.24 3.008
 1.794 -1.233 2.982
 1.777 -1.209 2.911
 -2.367 -1.6 4.027
 -2.357 -1.611 4.07
 -2.131 -1.474 3.736
 -2.106 -1.474 3.748
 -1.988 -1.409 3.593
 -1.875 -1.345 3.44
 -1.851 -1.345 3.45
 -1.826 -1.343 3.456
 -1.802 -1.343 3.466
 -1.867 -1.41 3.649
 -1.925 -1.473 3.823
 -1.985 -1.539 4.007
 -2.042 -1.604 4.191
 -2.014 -1.604 4.2
 -1.984 -1.602 4.206
 -1.879 -1.539 4.05
 -1.852 -1.538 4.059
 -1.821 -1.535 4.06
 -1.794 -1.534 4.068
 -1.767 -1.534 4.078
 -1.813 -1.598 4.258
 -1.782 -1.594 4.258
 -1.754 -1.594 4.266
 -1.726 -1.593 4.274
 -1.696 -1.591 4.278
 -1.666 -1.588 4.279
 -1.638 -1.588 4.287
 -1.608 -1.585 4.288
 -1.579 -1.583 4.291
 -1.548 -1.58 4.29
 -1.519 -1.578 4.293
 -1.491 -1.576 4.297
 -1.463 -1.575 4.303
 -1.434 -1.574 4.305
 -1.406 -1.573 4.31
 -1.379 -1.572 4.315
 -1.35 -1.569 4.315
 -1.321 -1.567 4.317
 -1.293 -1.566 4.318
 -1.264 -1.563 4.319
 -1.235 -1.561 4.318
 -1.207 -1.559 4.318
 -1.178 -1.556 4.317
 -1.15 -1.555 4.318
 -1.122 -1.553 4.319
 -1.095 -1.552 4.321
 -1.067 -1.55 4.322
 -1.04 -1.549 4.325
 -1.012 -1.547 4.325
 -0.984 -1.545 4.324
 -0.956 -1.543 4.321
 -0.928 -1.54 4.319
 -0.9 -1.537 4.313
 -0.873 -1.535 4.313
 -0.846 -1.535 4.316
 -0.82 -1.534 4.317
 -0.793 -1.533 4.319
 -0.766 -1.532 4.32
 -0.739 -1.529 4.315
 -0.711 -1.527 4.312
 -0.684 -1.525 4.308
 -0.657 -1.521 4.302
 -0.63 -1.519 4.298
 -0.604 -1.519 4.302
 -0.577 -1.517 4.299
 -0.551 -1.518 4.302
 -0.525 -1.517 4.304
 -0.5 -1.518 4.307
 -0.473 -1.517 4.306
 -0.447 -1.516 4.305
 -0.421 -1.515 4.304
 -0.395 -1.514 4.304
 -0.369 -1.513 4.304
 -0.343 -1.512 4.302
 -0.317 -1.511 4.301
 -0.291 -1.511 4.302
 -0.265 -1.512 4.303
 -0.24 -1.511 4.302
 -0.214 -1.51 4.299
 -0.188 -1.508 4.297
 -0.162 -1.507 4.294
 -0.136 -1.506 4.291
 -0.11 -1.504 4.286
 -0.085 -1.504 4.286
 -0.059 -1.506 4.289
 -0.034 -1.504 4.286
 -0.008 -1.504 4.284
 0.017 -1.504 4.283
 0.042 -1.504 4.284
 0.068 -1.504 4.284
 0.093 -1.504 4.283
 0.119 -1.504 4.28
 0.145 -1.504 4.281
 0.17 -1.503 4.275
 0.195 -1.501 4.27
 0.221 -1.501 4.269
 0.247 -1.503 4.273
 0.272 -1.505 4.276
 0.298 -1.506 4.276
 0.324 -1.506 4.277
 0.349 -1.506 4.274
 0.375 -1.506 4.271
 0.401 -1.506 4.271
 0.427 -1.508 4.272
 0.452 -1.508 4.269
 0.478 -1.51 4.272
 0.504 -1.509 4.269
 0.529 -1.508 4.262
 0.555 -1.509 4.26
 0.581 -1.51 4.262
 0.606 -1.51 4.258
 0.633 -1.513 4.262
 0.659 -1.515 4.263
 0.685 -1.515 4.26
 0.711 -1.516 4.259
 0.738 -1.517 4.259
 0.764 -1.518 4.258
 0.79 -1.519 4.256
 0.817 -1.522 4.26
 0.844 -1.524 4.26
 0.87 -1.524 4.257
 0.896 -1.525 4.254
 0.923 -1.526 4.253
 0.949 -1.528 4.251
 0.976 -1.529 4.25
 1.004 -1.532 4.253
 1.032 -1.535 4.255
 1.059 -1.537 4.254
 1.085 -1.537 4.25
 1.112 -1.539 4.247
 1.139 -1.539 4.242
 1.166 -1.54 4.239
 1.193 -1.542 4.238
 1.221 -1.544 4.237
 1.249 -1.547 4.235
 1.275 -1.547 4.231
 1.303 -1.549 4.228
 1.332 -1.553 4.23
 1.36 -1.555 4.229
 1.388 -1.557 4.226
 1.419 -1.562 4.231
 1.448 -1.564 4.23
 1.475 -1.566 4.226
 1.504 -1.569 4.225
 1.533 -1.57 4.221
 1.56 -1.572 4.215
 1.59 -1.575 4.214
 1.618 -1.576 4.208
 1.646 -1.577 4.203
 1.673 -1.579 4.196
 1.702 -1.58 4.191
 1.728 -1.58 4.181
 1.754 -1.58 4.169
 1.78 -1.579 4.155
 1.799 -1.572 4.129
 1.815 -1.563 4.094
 1.827 -1.551 4.052
 1.839 -1.539 4.01
 1.846 -1.524 3.959
 1.859 -1.514 3.92
 1.869 -1.502 3.878
 1.881 -1.491 3.84
 1.893 -1.481 3.801
 0 0 0
 0 0 0
 0 0 0
 0 0 0
 0 0 0
 1.735 -1.259 3.169
 1.754 -1.257 3.154
 1.769 -1.253 3.132
 1.782 -1.247 3.107
 1.79 -1.239 3.075
 1.797 -1.229 3.039
 1.77 -1.197 2.95
 1.805 -1.207 2.963
 -2.396 -1.591 4.086
 -2.392 -1.607 4.14
 -1.785 -1.214 3.134
 -1.761 -1.212 3.14
 -1.556 -1.084 2.815
 -1.445 -1.02 2.655
 -1.425 -1.018 2.659
 -1.407 -1.018 2.667
 -1.389 -1.018 2.674
 -1.459 -1.083 2.854
 -1.523 -1.145 3.029
 -1.589 -1.211 3.211
 -1.65 -1.274 3.391
 -1.709 -1.338 3.57
 -1.683 -1.336 3.575
 -1.661 -1.337 3.586
 -1.714 -1.4 3.765
 -1.762 -1.46 3.937
 -1.734 -1.458 3.941
 -1.783 -1.521 4.123
 -1.828 -1.583 4.302
 -1.796 -1.579 4.302
 -1.768 -1.579 4.309
 -1.738 -1.577 4.314
 -1.707 -1.574 4.315
 -1.677 -1.571 4.317
 -1.648 -1.57 4.322
 -1.617 -1.567 4.322
 -1.587 -1.564 4.323
 -1.557 -1.562 4.325
 -1.527 -1.559 4.325
 -1.499 -1.557 4.329
 -1.471 -1.557 4.334
 -1.441 -1.554 4.334
 -1.413 -1.553 4.338
 -1.384 -1.551 4.342
 -1.354 -1.548 4.339
 -1.325 -1.546 4.339
 -1.296 -1.543 4.339
 -1.266 -1.539 4.335
 -1.236 -1.536 4.331
 -1.207 -1.533 4.33
 -1.178 -1.53 4.325
 -1.15 -1.528 4.326
 -1.122 -1.526 4.327
 -1.095 -1.526 4.331
 -1.067 -1.524 4.331
 -1.04 -1.523 4.335
 -1.012 -1.521 4.332
 -0.984 -1.519 4.332
 -0.955 -1.515 4.324
 -0.927 -1.512 4.321
 -0.899 -1.508 4.315
 -0.871 -1.507 4.315
 -0.845 -1.507 4.318
 -0.819 -1.507 4.323
 -0.792 -1.506 4.325
 -0.766 -1.506 4.327
 -0.739 -1.504 4.325
 -0.712 -1.502 4.323
 -0.684 -1.499 4.317
 -0.657 -1.496 4.312
 -0.63 -1.493 4.306
 -0.604 -1.493 4.308
 -0.577 -1.491 4.306
 -0.551 -1.492 4.31
 -0.525 -1.492 4.312
 -0.5 -1.492 4.316
 -0.473 -1.491 4.313
 -0.447 -1.49 4.312
 -0.421 -1.489 4.312
 -0.395 -1.488 4.311
 -0.369 -1.487 4.31
 -0.343 -1.486 4.308
 -0.317 -1.485 4.307
 -0.291 -1.484 4.305
 -0.265 -1.484 4.305
 -0.239 -1.484 4.305
 -0.213 -1.483 4.305
 -0.188 -1.482 4.302
 -0.162 -1.481 4.299
 -0.136 -1.48 4.296
 -0.11 -1.478 4.292
 -0.085 -1.477 4.29
 -0.059 -1.479 4.293
 -0.033 -1.478 4.29
 -0.008 -1.477 4.289
 0.017 -1.476 4.286
 0.042 -1.477 4.288
 0.068 -1.478 4.288
 0.093 -1.478 4.288
 0.119 -1.478 4.287
 0.145 -1.478 4.286
 0.17 -1.476 4.281
 0.195 -1.475 4.276
 0.221 -1.476 4.277
 0.247 -1.477 4.279
 0.272 -1.479 4.282
 0.298 -1.48 4.283
 0.324 -1.481 4.284
 0.349 -1.48 4.28
 0.375 -1.48 4.278
 0.401 -1.481 4.277
 0.426 -1.481 4.277
 0.452 -1.481 4.273
 0.478 -1.483 4.276
 0.503 -1.481 4.269
 0.528 -1.481 4.265
 0.554 -1.481 4.262
 0.58 -1.483 4.265
 0.606 -1.484 4.263
 0.633 -1.486 4.268
 0.659 -1.488 4.268
 0.685 -1.489 4.268
 0.712 -1.49 4.267
 0.737 -1.491 4.265
 0.764 -1.492 4.264
 0.79 -1.493 4.264
 0.817 -1.496 4.266
 0.844 -1.497 4.266
 0.87 -1.498 4.264
 0.896 -1.499 4.261
 0.923 -1.5 4.258
 0.949 -1.501 4.256
 0.976 -1.502 4.254
 1.003 -1.505 4.257
 1.031 -1.507 4.257
 1.058 -1.509 4.258
 1.085 -1.51 4.254
 1.112 -1.512 4.253
 1.139 -1.513 4.25
 1.165 -1.514 4.245
 1.193 -1.515 4.243
 1.221 -1.518 4.244
 1.248 -1.52 4.242
 1.275 -1.521 4.238
 1.304 -1.524 4.24
 1.334 -1.528 4.244
 1.362 -1.53 4.241
 1.39 -1.532 4.24
 1.42 -1.536 4.241
 1.448 -1.538 4.239
 1.476 -1.539 4.234
 1.505 -1.542 4.234
 1.533 -1.544 4.23
 1.561 -1.546 4.227
 1.592 -1.55 4.228
 1.62 -1.552 4.223
 1.648 -1.553 4.218
 1.677 -1.554 4.212
 1.706 -1.557 4.21
 1.733 -1.557 4.2
 1.759 -1.557 4.188
 1.786 -1.557 4.179
 1.805 -1.551 4.151
 1.82 -1.541 4.115
 1.832 -1.529 4.072
 1.845 -1.518 4.032
 1.85 -1.501 3.975
 1.866 -1.493 3.943
 1.878 -1.483 3.904
 1.895 -1.476 3.876
 0 0 0
 0 0 0
 0 0 0
 0 0 0
 0 0 0
 0 0 0
 1.735 -1.237 3.175
 1.76 -1.24 3.172
 1.775 -1.236 3.15
 1.788 -1.23 3.126
 1.8 -1.224 3.099
 1.809 -1.216 3.068
 1.808 -1.201 3.019
 1.856 -1.219 3.054
 -2.43 -1.585 4.153
 -2.391 -1.578 4.149
 -1.342 -0.897 2.358
 -1.324 -0.896 2.364
 -1.122 -0.769 2.032
 -1.014 -0.703 1.864
 -1.001 -0.703 1.868
 -0.987 -0.702 1.872
 -0.972 -0.7 1.873
 -1.046 -0.763 2.047
 -1.114 -0.824 2.217
 -1.183 -0.886 2.393
 -1.248 -0.948 2.568
 -1.394 -1.073 2.917
 -1.452 -1.133 3.089
 -1.513 -1.197 3.273
 -1.648 -1.322 3.626
 -1.774 -1.444 3.972
 -1.745 -1.441 3.974
 -1.794 -1.504 4.158
 -1.839 -1.564 4.336
 -1.806 -1.561 4.335
 -1.778 -1.561 4.345
 -1.748 -1.558 4.348
 -1.716 -1.555 4.347
 -1.685 -1.551 4.346
 -1.655 -1.549 4.348
 -1.623 -1.545 4.347
 -1.593 -1.542 4.347
 -1.562 -1.539 4.347
 -1.532 -1.536 4.347
 -1.503 -1.534 4.349
 -1.473 -1.532 4.35
 -1.443 -1.529 4.349
 -1.415 -1.528 4.354
 -1.386 -1.526 4.355
 -1.356 -1.523 4.352
 -1.326 -1.52 4.351
 -1.297 -1.517 4.351
 -1.267 -1.513 4.345
 -1.237 -1.51 4.342
 -1.208 -1.507 4.34
 -1.179 -1.504 4.337
 -1.151 -1.503 4.338
 -1.122 -1.5 4.337
 -1.095 -1.499 4.339
 -1.066 -1.496 4.337
 -1.039 -1.495 4.339
 -1.01 -1.492 4.334
 -0.983 -1.491 4.335
 -0.955 -1.488 4.331
 -0.927 -1.486 4.329
 -0.899 -1.483 4.325
 -0.872 -1.481 4.324
 -0.845 -1.48 4.325
 -0.818 -1.479 4.327
 -0.791 -1.478 4.327
 -0.765 -1.477 4.329
 -0.738 -1.476 4.328
 -0.711 -1.474 4.325
 -0.683 -1.471 4.32
 -0.656 -1.469 4.317
 -0.629 -1.467 4.313
 -0.603 -1.466 4.314
 -0.577 -1.465 4.313
 -0.551 -1.465 4.316
 -0.525 -1.465 4.316
 -0.499 -1.464 4.318
 -0.472 -1.463 4.316
 -0.446 -1.462 4.313
 -0.42 -1.461 4.314
 -0.394 -1.461 4.314
 -0.368 -1.459 4.311
 -0.342 -1.459 4.311
 -0.316 -1.458 4.31
 -0.29 -1.456 4.307
 -0.264 -1.456 4.305
 -0.239 -1.455 4.305
 -0.213 -1.456 4.307
 -0.187 -1.454 4.304
 -0.161 -1.453 4.3
 -0.136 -1.452 4.298
 -0.11 -1.452 4.297
 -0.084 -1.451 4.294
 -0.059 -1.451 4.295
 -0.033 -1.451 4.296
 -0.008 -1.453 4.3
 0.017 -1.452 4.297
 0.042 -1.452 4.295
 0.068 -1.452 4.296
 0.094 -1.452 4.294
 0.119 -1.451 4.291
 0.145 -1.45 4.289
 0.17 -1.45 4.286
 0.196 -1.45 4.284
 0.221 -1.45 4.285
 0.247 -1.451 4.285
 0.272 -1.452 4.286
 0.298 -1.453 4.287
 0.324 -1.452 4.284
 0.349 -1.452 4.28
 0.374 -1.451 4.277
 0.4 -1.452 4.277
 0.426 -1.453 4.276
 0.451 -1.452 4.272
 0.477 -1.454 4.274
 0.502 -1.453 4.267
 0.528 -1.453 4.265
 0.554 -1.454 4.265
 0.58 -1.456 4.267
 0.606 -1.457 4.268
 0.633 -1.461 4.276
 0.659 -1.462 4.275
 0.685 -1.463 4.274
 0.712 -1.464 4.275
 0.738 -1.465 4.273
 0.764 -1.466 4.271
 0.79 -1.466 4.268
 0.816 -1.468 4.269
 0.843 -1.469 4.268
 0.869 -1.47 4.266
 0.896 -1.471 4.264
 0.922 -1.473 4.264
 0.949 -1.474 4.262
 0.976 -1.476 4.262
 1.003 -1.478 4.263
 1.03 -1.479 4.261
 1.057 -1.481 4.26
 1.084 -1.482 4.258
 1.111 -1.484 4.257
 1.138 -1.486 4.255
 1.166 -1.487 4.253
 1.194 -1.49 4.254
 1.221 -1.492 4.252
 1.248 -1.493 4.249
 1.275 -1.494 4.246
 1.304 -1.497 4.247
 1.333 -1.5 4.247
 1.361 -1.502 4.246
 1.389 -1.505 4.245
 1.419 -1.508 4.246
 1.447 -1.51 4.245
 1.475 -1.512 4.241
 1.504 -1.515 4.24
 1.533 -1.517 4.237
 1.561 -1.519 4.234
 1.591 -1.522 4.234
 1.619 -1.524 4.23
 1.647 -1.525 4.223
 1.675 -1.526 4.216
 1.703 -1.528 4.211
 1.731 -1.528 4.203
 1.757 -1.528 4.193
 1.785 -1.529 4.184
 1.805 -1.524 4.16
 1.823 -1.516 4.128
 1.835 -1.505 4.086
 1.849 -1.495 4.049
 1.856 -1.48 3.997
 1.869 -1.47 3.959
 1.881 -1.459 3.919
 0 0 0
 0 0 0
 0 0 0
 0 0 0
 0 0 0
 0 0 0
 0 0 0
 1.49 -1.045 2.732
 1.617 -1.12 2.92
 1.78 -1.217 3.165
 1.796 -1.214 3.146
 1.811 -1.21 3.125
 1.823 -1.204 3.098
 0 0 0
 0 0 0
 -0.101 -0.066 0.161
 -2.401 -1.557 4.176
 -0.898 -0.59 1.579
 -0.884 -0.588 1.577
 -0.687 -0.463 1.241
 -0.582 -0.397 1.066
 -0.572 -0.395 1.064
 -0.563 -0.394 1.064
 -0.553 -0.392 1.062
 -0.631 -0.453 1.233
 -0.704 -0.512 1.4
 -0.778 -0.573 1.572
 -0.931 -0.694 1.915
 -1.16 -0.877 2.431
 -1.301 -0.997 2.771
 -1.443 -1.121 3.129
 -1.656 -1.305 3.652
 -1.782 -1.424 3.998
 -1.752 -1.421 3.998
 -1.8 -1.482 4.18
 -1.842 -1.54 4.354
 -1.811 -1.537 4.356
 -1.782 -1.536 4.363
 -1.751 -1.533 4.365
 -1.72 -1.53 4.365
 -1.688 -1.527 4.364
 -1.656 -1.523 4.362
 -1.625 -1.52 4.362
 -1.595 -1.517 4.363
 -1.564 -1.514 4.36
 -1.533 -1.51 4.359
 -1.504 -1.509 4.362
 -1.473 -1.505 4.36
 -1.443 -1.502 4.359
 -1.415 -1.501 4.362
 -1.385 -1.498 4.36
 -1.355 -1.495 4.357
 -1.325 -1.492 4.357
 -1.295 -1.489 4.354
 -1.265 -1.485 4.349
 -1.236 -1.482 4.347
 -1.207 -1.479 4.344
 -1.177 -1.475 4.338
 -1.149 -1.474 4.34
 -1.12 -1.471 4.336
 -1.092 -1.469 4.336
 -1.064 -1.466 4.334
 -1.037 -1.466 4.337
 -1.008 -1.463 4.333
 -0.982 -1.463 4.338
 -0.954 -1.46 4.335
 -0.926 -1.458 4.333
 -0.898 -1.456 4.33
 -0.871 -1.454 4.33
 -0.844 -1.453 4.331
 -0.817 -1.452 4.33
 -0.79 -1.45 4.329
 -0.763 -1.449 4.329
 -0.736 -1.448 4.328
 -0.709 -1.445 4.324
 -0.682 -1.444 4.323
 -0.656 -1.443 4.323
 -0.629 -1.441 4.321
 -0.603 -1.441 4.323
 -0.577 -1.439 4.32
 -0.55 -1.438 4.32
 -0.524 -1.437 4.32
 -0.498 -1.437 4.321
 -0.472 -1.436 4.319
 -0.446 -1.435 4.318
 -0.42 -1.435 4.319
 -0.394 -1.434 4.319
 -0.368 -1.432 4.315
 -0.341 -1.43 4.31
 -0.316 -1.43 4.31
 -0.29 -1.428 4.306
 -0.264 -1.426 4.302
 -0.238 -1.427 4.304
 -0.213 -1.428 4.309
 -0.187 -1.426 4.304
 -0.161 -1.426 4.302
 -0.135 -1.426 4.302
 -0.11 -1.424 4.299
 -0.084 -1.423 4.294
 -0.059 -1.423 4.296
 -0.033 -1.423 4.296
 -0.007 -1.425 4.3
 0.017 -1.425 4.3
 0.043 -1.423 4.295
 0.068 -1.424 4.296
 0.094 -1.424 4.297
 0.119 -1.424 4.295
 0.145 -1.424 4.294
 0.17 -1.425 4.296
 0.196 -1.425 4.293
 0.221 -1.424 4.289
 0.247 -1.424 4.288
 0.272 -1.425 4.288
 0.298 -1.425 4.287
 0.323 -1.425 4.287
 0.349 -1.426 4.286
 0.374 -1.425 4.281
 0.4 -1.426 4.282
 0.425 -1.425 4.277
 0.451 -1.424 4.273
 0.476 -1.426 4.274
 0.502 -1.426 4.272
 0.527 -1.426 4.268
 0.554 -1.428 4.271
 0.58 -1.429 4.273
 0.606 -1.43 4.273
 0.632 -1.433 4.276
 0.659 -1.434 4.277
 0.685 -1.436 4.278
 0.711 -1.438 4.279
 0.737 -1.438 4.277
 0.764 -1.439 4.276
 0.789 -1.439 4.273
 0.816 -1.441 4.273
 0.842 -1.442 4.271
 0.869 -1.443 4.271
 0.895 -1.445 4.269
 0.922 -1.446 4.27
 0.948 -1.447 4.266
 0.976 -1.449 4.268
 1.003 -1.452 4.269
 1.029 -1.452 4.266
 1.056 -1.453 4.263
 1.083 -1.455 4.262
 1.11 -1.456 4.259
 1.137 -1.458 4.258
 1.165 -1.46 4.257
 1.193 -1.463 4.259
 1.22 -1.464 4.256
 1.247 -1.466 4.254
 1.274 -1.467 4.25
 1.303 -1.469 4.25
 1.332 -1.472 4.252
 1.36 -1.474 4.25
 1.388 -1.477 4.249
 1.417 -1.479 4.248
 1.445 -1.482 4.247
 1.473 -1.483 4.242
 1.502 -1.486 4.243
 1.531 -1.489 4.241
 1.56 -1.491 4.239
 1.589 -1.494 4.237
 1.619 -1.497 4.237
 1.647 -1.497 4.23
 1.674 -1.499 4.223
 1.702 -1.5 4.217
 1.731 -1.502 4.213
 1.758 -1.502 4.202
 1.786 -1.503 4.194
 1.808 -1.499 4.174
 1.828 -1.494 4.148
 1.842 -1.484 4.109
 1.858 -1.476 4.076
 1.868 -1.463 4.031
 1.883 -1.455 3.996
 0 0 0
 0 0 0
 0 0 0
 0 0 0
 0 0 0
 0 0 0
 0 0 0
 0 0 0
 1.391 -0.958 2.555
 1.57 -1.068 2.842
 1.78 -1.196 3.172
 1.798 -1.194 3.156
 1.815 -1.192 3.139
 1.833 -1.19 3.123
 0 0 0
 0 0 0
 -0.063 -0.041 0.096
 -0.123 -0.079 0.201
 -0.449 -0.291 0.785
 -0.437 -0.286 0.774
 -0.243 -0.161 0.431
 -0.141 -0.095 0.249
 -0.135 -0.093 0.242
 -0.131 -0.091 0.238
 -0.126 -0.088 0.232
 -0.207 -0.147 0.397
 -0.285 -0.205 0.561
 -0.361 -0.262 0.726
 -0.602 -0.442 1.237
 -0.918 -0.682 1.924
 -1.144 -0.861 2.44
 -1.367 -1.043 2.97
 -1.661 -1.285 3.671
 -1.787 -1.403 4.017
 -1.756 -1.399 4.017
 -1.801 -1.456 4.191
 -1.843 -1.512 4.364
 -1.81 -1.509 4.363
 -1.781 -1.508 4.37
 -1.75 -1.504 4.37
 -1.72 -1.503 4.373
 -1.689 -1.5 4.375
 -1.657 -1.496 4.373
 -1.626 -1.493 4.372
 -1.596 -1.491 4.374
 -1.564 -1.487 4.37
 -1.533 -1.483 4.368
 -1.503 -1.481 4.369
 -1.472 -1.477 4.365
 -1.442 -1.474 4.363
 -1.413 -1.472 4.364
 -1.382 -1.468 4.36
 -1.352 -1.465 4.358
 -1.323 -1.463 4.358
 -1.293 -1.459 4.354
 -1.263 -1.456 4.351
 -1.235 -1.454 4.351
 -1.205 -1.45 4.346
 -1.175 -1.446 4.339
 -1.147 -1.445 4.341
 -1.118 -1.442 4.337
 -1.09 -1.44 4.338
 -1.063 -1.438 4.337
 -1.036 -1.438 4.341
 -1.008 -1.436 4.338
 -0.981 -1.436 4.344
 -0.954 -1.434 4.342
 -0.926 -1.432 4.341
 -0.898 -1.43 4.339
 -0.87 -1.427 4.335
 -0.843 -1.426 4.334
 -0.816 -1.424 4.333
 -0.789 -1.423 4.333
 -0.763 -1.422 4.333
 -0.736 -1.422 4.336
 -0.709 -1.419 4.331
 -0.682 -1.417 4.327
 -0.656 -1.416 4.328
 -0.629 -1.415 4.327
 -0.603 -1.414 4.329
 -0.577 -1.413 4.328
 -0.55 -1.413 4.328
 -0.524 -1.412 4.329
 -0.498 -1.412 4.33
 -0.472 -1.411 4.328
 -0.446 -1.41 4.327
 -0.42 -1.409 4.326
 -0.393 -1.407 4.322
 -0.367 -1.404 4.314
 -0.341 -1.402 4.31
 -0.315 -1.401 4.308
 -0.289 -1.4 4.305
 -0.263 -1.398 4.301
 -0.237 -1.399 4.303
 -0.212 -1.4 4.308
 -0.186 -1.398 4.304
 -0.161 -1.397 4.301
 -0.135 -1.398 4.304
 -0.109 -1.397 4.301
 -0.084 -1.395 4.293
 -0.058 -1.395 4.295
 -0.033 -1.396 4.296
 -0.007 -1.396 4.298
 0.017 -1.397 4.3
 0.043 -1.397 4.298
 0.068 -1.397 4.299
 0.094 -1.398 4.3
 0.119 -1.398 4.3
 0.145 -1.399 4.301
 0.171 -1.4 4.305
 0.196 -1.4 4.302
 0.221 -1.399 4.297
 0.247 -1.399 4.296
 0.272 -1.399 4.294
 0.298 -1.398 4.291
 0.323 -1.399 4.29
 0.349 -1.399 4.289
 0.374 -1.398 4.283
 0.4 -1.399 4.285
 0.425 -1.398 4.28
 0.45 -1.397 4.276
 0.476 -1.399 4.277
 0.502 -1.4 4.278
 0.528 -1.4 4.275
 0.554 -1.402 4.279
 0.58 -1.404 4.28
 0.606 -1.405 4.28
 0.632 -1.406 4.281
 0.658 -1.407 4.28
 0.685 -1.409 4.283
 0.712 -1.412 4.288
 0.738 -1.413 4.287
 0.764 -1.414 4.284
 0.79 -1.414 4.281
 0.816 -1.415 4.281
 0.842 -1.415 4.276
 0.868 -1.416 4.275
 0.895 -1.418 4.275
 0.921 -1.419 4.273
 0.947 -1.419 4.268
 0.974 -1.421 4.267
 1.001 -1.423 4.267
 1.027 -1.423 4.263
 1.054 -1.424 4.261
 1.08 -1.425 4.259
 1.108 -1.427 4.259
 1.135 -1.429 4.258
 1.163 -1.431 4.257
 1.191 -1.434 4.259
 1.219 -1.436 4.259
 1.246 -1.438 4.257
 1.273 -1.439 4.254
 1.302 -1.442 4.254
 1.33 -1.444 4.255
 1.358 -1.446 4.253
 1.386 -1.448 4.25
 1.415 -1.45 4.249
 1.443 -1.453 4.249
 1.471 -1.455 4.245
 1.5 -1.457 4.244
 1.53 -1.46 4.244
 1.558 -1.462 4.242
 1.587 -1.465 4.24
 1.617 -1.467 4.238
 1.645 -1.469 4.232
 1.672 -1.47 4.225
 1.7 -1.471 4.219
 1.729 -1.473 4.214
 1.757 -1.474 4.209
 1.785 -1.475 4.201
 1.809 -1.473 4.185
 1.832 -1.47 4.165
 1.849 -1.463 4.133
 1.864 -1.454 4.098
 1.876 -1.443 4.055
 0 0 0
 0 0 0
 0 0 0
 0 0 0
 0 0 0
 0 0 0
 0.095 -0.07 0.177
 0.096 -0.07 0.176
 0.097 -0.07 0.176
 0.908 -0.616 1.67
 1.393 -0.931 2.526
 1.782 -1.176 3.184
 1.803 -1.176 3.172
 1.824 -1.176 3.161
 1.706 -1.087 2.911
 0 0 0
 0 0 0
 -0.154 -0.096 0.253
 -0.087 -0.056 0.14
 -0.185 -0.118 0.316
 -0.174 -0.113 0.302
 -0.075 -0.05 0.125
 -0.063 -0.043 0.105
 -0.058 -0.04 0.096
 -0.053 -0.037 0.088
 -0.048 -0.034 0.081
 -0.041 -0.03 0.069
 -0.121 -0.086 0.231
 -0.197 -0.141 0.39
 -0.438 -0.316 0.898
 -0.836 -0.61 1.755
 -1.144 -0.845 2.447
 -1.447 -1.084 3.151
 -1.741 -1.322 3.856
 -1.866 -1.438 4.205
 -1.835 -1.435 4.206
 -1.879 -1.491 4.381
 -1.844 -1.486 4.377
 -1.811 -1.482 4.375
 -1.783 -1.481 4.382
 -1.751 -1.478 4.381
 -1.72 -1.475 4.382
 -1.689 -1.472 4.383
 -1.656 -1.468 4.38
 -1.625 -1.465 4.377
 -1.594 -1.462 4.378
 -1.562 -1.458 4.374
 -1.531 -1.454 4.372
 -1.502 -1.453 4.374
 -1.471 -1.449 4.369
 -1.44 -1.445 4.367
 -1.411 -1.443 4.367
 -1.379 -1.438 4.36
 -1.349 -1.435 4.357
 -1.32 -1.433 4.356
 -1.291 -1.43 4.354
 -1.263 -1.429 4.357
 -1.235 -1.428 4.36
 -1.206 -1.425 4.358
 -1.176 -1.421 4.351
 -1.148 -1.42 4.354
 -1.118 -1.416 4.345
 -1.09 -1.414 4.345
 -1.062 -1.412 4.345
 -1.036 -1.412 4.35
 -1.007 -1.409 4.346
 -0.981 -1.41 4.352
 -0.953 -1.407 4.35
 -0.926 -1.405 4.348
 -0.898 -1.403 4.345
 -0.87 -1.401 4.342
 -0.843 -1.4 4.342
 -0.816 -1.398 4.341
 -0.789 -1.397 4.342
 -0.763 -1.397 4.344
 -0.737 -1.396 4.346
 -0.709 -1.394 4.341
 -0.682 -1.391 4.337
 -0.656 -1.391 4.337
 -0.629 -1.39 4.336
 -0.603 -1.389 4.338
 -0.576 -1.388 4.336
 -0.55 -1.387 4.336
 -0.524 -1.386 4.335
 -0.498 -1.384 4.332
 -0.471 -1.383 4.331
 -0.445 -1.383 4.33
 -0.419 -1.382 4.331
 -0.393 -1.381 4.329
 -0.367 -1.378 4.322
 -0.341 -1.377 4.317
 -0.315 -1.376 4.315
 -0.289 -1.373 4.309
 -0.262 -1.37 4.3
 -0.237 -1.37 4.302
 -0.211 -1.372 4.306
 -0.186 -1.37 4.301
 -0.16 -1.37 4.301
 -0.135 -1.371 4.306
 -0.109 -1.37 4.304
 -0.083 -1.367 4.294
 -0.058 -1.368 4.296
 -0.033 -1.369 4.298
 -0.007 -1.369 4.301
 0.017 -1.371 4.304
 0.043 -1.371 4.306
 0.068 -1.373 4.309
 0.094 -1.373 4.31
 0.12 -1.374 4.311
 0.145 -1.373 4.308
 0.17 -1.373 4.305
 0.196 -1.372 4.302
 0.221 -1.37 4.296
 0.246 -1.37 4.292
 0.272 -1.37 4.291
 0.298 -1.372 4.295
 0.323 -1.372 4.293
 0.349 -1.372 4.293
 0.374 -1.371 4.287
 0.4 -1.372 4.288
 0.425 -1.37 4.28
 0.45 -1.37 4.275
 0.475 -1.371 4.276
 0.501 -1.372 4.277
 0.527 -1.373 4.276
 0.554 -1.376 4.283
 0.58 -1.378 4.288
 0.606 -1.379 4.288
 0.632 -1.381 4.288
 0.658 -1.382 4.288
 0.685 -1.383 4.29
 0.711 -1.385 4.292
 0.738 -1.387 4.292
 0.763 -1.387 4.288
 0.789 -1.387 4.284
 0.816 -1.388 4.284
 0.841 -1.388 4.279
 0.868 -1.39 4.281
 0.895 -1.392 4.282
 0.922 -1.393 4.281
 0.947 -1.392 4.273
 0.973 -1.393 4.27
 0.999 -1.394 4.266
 1.025 -1.394 4.261
 1.051 -1.395 4.258
 1.078 -1.396 4.256
 1.106 -1.398 4.257
 1.134 -1.401 4.259
 1.162 -1.404 4.26
 1.19 -1.406 4.263
 1.219 -1.409 4.265
 1.246 -1.411 4.263
 1.273 -1.412 4.259
 1.3 -1.413 4.256
 1.329 -1.416 4.256
 1.356 -1.417 4.252
 1.383 -1.419 4.249
 1.412 -1.422 4.25
 1.441 -1.424 4.25
 1.47 -1.426 4.248
 1.498 -1.429 4.247
 1.528 -1.432 4.247
 1.556 -1.434 4.244
 1.585 -1.436 4.242
 1.614 -1.438 4.237
 1.641 -1.439 4.231
 1.669 -1.44 4.224
 1.697 -1.441 4.219
 1.726 -1.443 4.214
 1.755 -1.445 4.211
 1.783 -1.446 4.204
 1.808 -1.445 4.191
 1.832 -1.443 4.174
 1.855 -1.44 4.154
 1.869 -1.431 4.115
 0 0 0
 0 0 0
 0 0 0
 0 0 0
 0 0 0
 0 0 0
 0.134 -0.097 0.257
 0.12 -0.086 0.226
 0.121 -0.086 0.225
 0.123 -0.086 0.224
 0.756 -0.504 1.391
 1.296 -0.851 2.353
 1.792 -1.161 3.207
 1.812 -1.16 3.195
 1.833 -1.16 3.183
 1.646 -1.03 2.815
 0 0 0
 0 0 0
 -0.134 -0.083 0.22
 -0.133 -0.083 0.221
 -0.101 -0.064 0.168
 -0.091 -0.059 0.152
 -0.082 -0.053 0.138
 -0.069 -0.046 0.116
 -0.065 -0.044 0.11
 -0.055 -0.038 0.093
 -0.048 -0.033 0.081
 -0.041 -0.029 0.068
 -0.204 -0.141 0.399
 -0.362 -0.253 0.73
 -0.602 -0.426 1.243
 -0.999 -0.715 2.105
 -1.387 -1.005 2.976
 -1.608 -1.182 3.509
 -1.82 -1.356 4.04
 -1.943 -1.469 4.388
 -1.911 -1.466 4.389
 -1.877 -1.462 4.386
 -1.843 -1.457 4.381
 -1.809 -1.452 4.377
 -1.78 -1.451 4.383
 -1.748 -1.448 4.383
 -1.717 -1.445 4.385
 -1.686 -1.442 4.385
 -1.654 -1.438 4.381
 -1.622 -1.435 4.378
 -1.592 -1.432 4.379
 -1.559 -1.428 4.373
 -1.528 -1.424 4.371
 -1.499 -1.423 4.373
 -1.468 -1.419 4.37
 -1.437 -1.415 4.366
 -1.408 -1.414 4.368
 -1.378 -1.41 4.363
 -1.348 -1.408 4.363
 -1.319 -1.405 4.361
 -1.29 -1.403 4.361
 -1.263 -1.402 4.365
 -1.236 -1.402 4.37
 -1.206 -1.398 4.365
 -1.176 -1.395 4.361
 -1.149 -1.394 4.363
 -1.118 -1.389 4.353
 -1.089 -1.386 4.349
 -1.062 -1.386 4.353
 -1.035 -1.384 4.354
 -1.007 -1.382 4.352
 -0.981 -1.382 4.356
 -0.953 -1.381 4.356
 -0.925 -1.379 4.354
 -0.898 -1.377 4.353
 -0.87 -1.374 4.348
 -0.843 -1.373 4.348
 -0.815 -1.371 4.345
 -0.789 -1.37 4.345
 -0.762 -1.369 4.346
 -0.736 -1.368 4.347
 -0.708 -1.366 4.341
 -0.682 -1.365 4.342
 -0.655 -1.364 4.343
 -0.63 -1.365 4.347
 -0.604 -1.365 4.35
 -0.577 -1.363 4.347
 -0.55 -1.361 4.342
 -0.523 -1.359 4.338
 -0.497 -1.356 4.331
 -0.47 -1.355 4.329
 -0.445 -1.355 4.331
 -0.419 -1.355 4.333
 -0.392 -1.352 4.325
 -0.366 -1.349 4.316
 -0.34 -1.348 4.314
 -0.314 -1.347 4.313
 -0.288 -1.345 4.308
 -0.262 -1.343 4.302
 -0.236 -1.344 4.305
 -0.211 -1.344 4.306
 -0.185 -1.342 4.3
 -0.16 -1.342 4.3
 -0.134 -1.343 4.305
 -0.109 -1.342 4.303
 -0.083 -1.341 4.297
 -0.058 -1.341 4.299
 -0.032 -1.342 4.301
 -0.007 -1.343 4.305
 0.017 -1.345 4.31
 0.043 -1.345 4.311
 0.069 -1.347 4.315
 0.094 -1.347 4.314
 0.12 -1.346 4.312
 0.145 -1.347 4.312
 0.17 -1.346 4.309
 0.196 -1.346 4.306
 0.221 -1.344 4.298
 0.246 -1.343 4.295
 0.272 -1.342 4.291
 0.298 -1.345 4.297
 0.323 -1.345 4.296
 0.349 -1.346 4.298
 0.374 -1.345 4.292
 0.4 -1.346 4.292
 0.424 -1.344 4.284
 0.449 -1.343 4.277
 0.475 -1.343 4.276
 0.501 -1.345 4.28
 0.527 -1.346 4.279
 0.554 -1.35 4.289
 0.581 -1.353 4.297
 0.607 -1.354 4.297
 0.632 -1.354 4.293
 0.658 -1.355 4.292
 0.684 -1.356 4.293
 0.711 -1.358 4.295
 0.738 -1.361 4.299
 0.764 -1.361 4.295
 0.789 -1.361 4.291
 0.816 -1.363 4.293
 0.841 -1.362 4.286
 0.868 -1.363 4.285
 0.894 -1.365 4.285
 0.921 -1.367 4.286
 0.946 -1.366 4.277
 0.972 -1.366 4.273
 0.999 -1.367 4.27
 1.025 -1.368 4.267
 1.05 -1.367 4.26
 1.077 -1.369 4.258
 1.104 -1.371 4.259
 1.132 -1.373 4.26
 1.16 -1.375 4.261
 1.189 -1.378 4.264
 1.217 -1.381 4.266
 1.245 -1.383 4.266
 1.272 -1.385 4.263
 1.299 -1.385 4.258
 1.326 -1.387 4.256
 1.353 -1.388 4.251
 1.38 -1.389 4.247
 1.409 -1.392 4.247
 1.438 -1.395 4.248
 1.467 -1.397 4.248
 1.497 -1.4 4.248
 1.526 -1.403 4.249
 1.554 -1.405 4.245
 1.583 -1.407 4.244
 1.612 -1.409 4.24
 1.64 -1.411 4.235
 1.668 -1.412 4.229
 1.695 -1.413 4.222
 1.723 -1.414 4.216
 1.752 -1.416 4.212
 1.779 -1.416 4.203
 1.806 -1.417 4.194
 1.835 -1.418 4.187
 1.86 -1.418 4.175
 0 0 0
 0 0 0
 0 0 0
 0 0 0
 0 0 0
 0 0 0
 0 0 0
 0.134 -0.095 0.258
 0.12 -0.084 0.226
 0.122 -0.084 0.225
 0.123 -0.084 0.225
 0.511 -0.335 0.94
 1.106 -0.713 2.012
 1.791 -1.139 3.213
 1.812 -1.139 3.201
 1.833 -1.138 3.189
 1.56 -0.958 2.673
 0 0 0
 0.43 -0.261 0.709
 -0.107 -0.065 0.173
 -0.107 -0.066 0.175
 -0.109 -0.068 0.182
 -0.096 -0.061 0.162
 -0.088 -0.057 0.15
 -0.075 -0.049 0.128
 -0.066 -0.044 0.113
 -0.055 -0.037 0.093
 -0.047 -0.032 0.079
 -0.038 -0.027 0.063
 -0.288 -0.195 0.569
 -0.53 -0.363 1.077
 -0.769 -0.532 1.593
 -1.082 -0.759 2.284
 -1.469 -1.044 3.158
 -1.608 -1.159 3.515
 -1.739 -1.272 3.868
 -1.863 -1.381 4.214
 -1.908 -1.436 4.392
 -1.874 -1.431 4.387
 -1.84 -1.426 4.382
 -1.807 -1.422 4.38
 -1.778 -1.422 4.388
 -1.745 -1.418 4.385
 -1.716 -1.416 4.389
 -1.684 -1.413 4.388
 -1.652 -1.409 4.384
 -1.619 -1.405 4.379
 -1.59 -1.403 4.382
 -1.558 -1.4 4.379
 -1.527 -1.396 4.375
 -1.498 -1.394 4.377
 -1.468 -1.391 4.376
 -1.436 -1.387 4.369
 -1.406 -1.384 4.368
 -1.376 -1.381 4.366
 -1.347 -1.379 4.365
 -1.318 -1.377 4.364
 -1.289 -1.375 4.364
 -1.262 -1.375 4.37
 -1.235 -1.374 4.375
 -1.204 -1.37 4.368
 -1.175 -1.367 4.362
 -1.147 -1.365 4.363
 -1.115 -1.359 4.35
 -1.087 -1.357 4.346
 -1.06 -1.357 4.352
 -1.033 -1.356 4.354
 -1.006 -1.355 4.355
 -0.979 -1.354 4.358
 -0.952 -1.353 4.358
 -0.925 -1.352 4.358
 -0.898 -1.351 4.36
 -0.87 -1.348 4.354
 -0.843 -1.347 4.356
 -0.816 -1.345 4.354
 -0.789 -1.344 4.353
 -0.762 -1.343 4.354
 -0.736 -1.342 4.354
 -0.708 -1.339 4.347
 -0.681 -1.338 4.347
 -0.656 -1.34 4.355
 -0.63 -1.339 4.356
 -0.605 -1.342 4.366
 -0.577 -1.338 4.357
 -0.55 -1.336 4.353
 -0.524 -1.335 4.35
 -0.497 -1.332 4.344
 -0.471 -1.332 4.344
 -0.446 -1.333 4.351
 -0.419 -1.332 4.348
 -0.391 -1.324 4.324
 -0.364 -1.319 4.308
 -0.338 -1.317 4.304
 -0.313 -1.317 4.304
 -0.287 -1.315 4.3
