 0.343 -0.431 1.356
 0 0 0
 0 0 0
 0 0 0
 0 0 0
 0 0 0
 0 0 0
 0 0 0
 0 0 0
 0 0 0
 0 0 0
 0 0 0
 0 0 0
 0 0 0
 0 0 0
 0 0 0
 0 0 0
 0 0 0
 0 0 0
 0 0 0
 0 0 0
 0 0 0
 0 0 0
 0 0 0
 0.342 -0.274 0.818
 0.347 -0.274 0.816
 0.345 -0.268 0.797
 0.345 -0.265 0.784
 0.346 -0.262 0.773
 0.347 -0.259 0.761
 0.35 -0.258 0.756
 0.351 -0.255 0.746
 0.353 -0.253 0.738
 0.355 -0.251 0.73
 0.36 -0.251 0.729
 0.361 -0.248 0.718
 0.365 -0.248 0.714
 0.366 -0.246 0.706
 0.369 -0.245 0.701
 0.372 -0.243 0.694
 0.374 -0.242 0.687
 0.376 -0.24 0.681
 0.381 -0.24 0.679
 0.382 -0.238 0.671
 0.384 -0.237 0.663
 0.389 -0.237 0.662
 0.382 -0.23 0.64
 0.4 -0.238 0.661
 -0.323 -0.19 0.549
 -0.327 -0.194 0.563
 -0.325 -0.195 0.568
 -0.324 -0.197 0.576
 -0.323 -0.199 0.583
 -0.321 -0.2 0.588
 -0.318 -0.201 0.593
 -0.315 -0.201 0.597
 -0.312 -0.202 0.601
 -0.31 -0.203 0.605
 -0.307 -0.204 0.609
 -0.304 -0.204 0.613
 -0.3 -0.205 0.615
 -0.296 -0.205 0.618
 -0.292 -0.205 0.619
 -0.288 -0.205 0.62
 -0.284 -0.205 0.621
 -0.28 -0.204 0.622
 -0.275 -0.204 0.624
 -0.272 -0.205 0.626
 -0.269 -0.206 0.631
 -0.268 -0.208 0.641
 -0.272 -0.215 0.661
 -0.287 -0.229 0.71
 -0.308 -0.251 0.779
 -0.342 -0.282 0.882
 -0.393 -0.33 1.035
 -0.442 -0.377 1.186
 -0.478 -0.415 1.31
 -0.506 -0.446 1.414
 -0.519 -0.466 1.482
 -0.514 -0.47 1.494
 -0.505 -0.47 1.499
 -0.496 -0.471 1.503
 -0.487 -0.471 1.507
 -0.478 -0.471 1.51
 -0.469 -0.472 1.514
 -0.46 -0.472 1.518
 -0.451 -0.473 1.522
 -0.442 -0.473 1.525
 -0.433 -0.474 1.529
 -0.425 -0.474 1.533
 -0.416 -0.475 1.536
 -0.406 -0.475 1.539
 -0.398 -0.476 1.543
 -0.389 -0.476 1.547
 -0.379 -0.477 1.55
 -0.37 -0.477 1.554
 -0.361 -0.478 1.557
 -0.352 -0.478 1.561
 -0.343 -0.479 1.564
 -0.334 -0.48 1.568
 -0.325 -0.48 1.572
 -0.316 -0.481 1.575
 -0.307 -0.482 1.579
 -0.298 -0.482 1.583
 -0.289 -0.483 1.586
 -0.28 -0.484 1.59
 -0.271 -0.485 1.594
 -0.262 -0.485 1.598
 -0.252 -0.486 1.602
 -0.243 -0.487 1.606
 -0.234 -0.488 1.609
 -0.225 -0.489 1.612
 -0.215 -0.489 1.616
 -0.206 -0.49 1.62
 -0.197 -0.491 1.624
 -0.187 -0.492 1.627
 -0.178 -0.493 1.631
 -0.169 -0.494 1.635
 -0.159 -0.495 1.639
 -0.15 -0.496 1.642
 -0.14 -0.497 1.646
 -0.131 -0.498 1.65
 -0.121 -0.499 1.654
 -0.111 -0.5 1.658
 -0.102 -0.501 1.662
 -0.092 -0.502 1.666
 -0.082 -0.503 1.67
 -0.073 -0.504 1.673
 -0.063 -0.505 1.676
 -0.053 -0.506 1.679
 -0.043 -0.507 1.683
 -0.033 -0.508 1.686
 -0.023 -0.509 1.689
 -0.013 -0.51 1.693
 -0.003 -0.511 1.695
 0.006 -0.512 1.698
 0.016 -0.513 1.702
 0.026 -0.514 1.704
 0.036 -0.514 1.707
 0.046 -0.515 1.71
 0.057 -0.516 1.711
 0.067 -0.516 1.713
 0.077 -0.517 1.714
 0.087 -0.517 1.715
 0.097 -0.518 1.715
 0.108 -0.518 1.716
 0.118 -0.518 1.715
 0.128 -0.518 1.713
 0.138 -0.517 1.709
 0.147 -0.515 1.703
 0.157 -0.513 1.693
 0.166 -0.509 1.682
 0.174 -0.506 1.669
 0.183 -0.502 1.655
 0.191 -0.498 1.64
 0.199 -0.493 1.624
 0.207 -0.489 1.607
 0.214 -0.484 1.591
 0.223 -0.482 1.584
 0.23 -0.477 1.566
 0.237 -0.474 1.554
 0.247 -0.475 1.556
 0.258 -0.477 1.561
 0.267 -0.477 1.561
 0.279 -0.481 1.572
 0.29 -0.484 1.58
 0.299 -0.484 1.578
 0.308 -0.483 1.573
 0.316 -0.48 1.562
 0.322 -0.476 1.546
 0.327 -0.47 1.525
 0.331 -0.462 1.498
 0.332 -0.452 1.462
 0.334 -0.443 1.43
 0.338 -0.437 1.409
 0.34 -0.429 1.38
 0.343 -0.423 1.36
 0 0 0
 0 0 0
 0 0 0
 0 0 0
 0 0 0
 0 0 0
 0 0 0
 0 0 0
 0 0 0
 0 0 0
 0 0 0
 0 0 0
 0 0 0
 0 0 0
 0 0 0
 0 0 0
 0 0 0
 0 0 0
 0 0 0
 0 0 0
 0 0 0
 0.329 -0.267 0.817
 0.335 -0.267 0.817
 0.338 -0.266 0.811
 0.346 -0.268 0.816
 0.348 -0.265 0.805
 0.349 -0.262 0.793
 0.349 -0.259 0.78
 0.348 -0.254 0.764
 0.35 -0.252 0.757
 0.349 -0.249 0.743
 0.353 -0.248 0.738
 0.356 -0.247 0.733
 0.362 -0.248 0.734
 0.363 -0.245 0.724
 0.368 -0.245 0.721
 0.369 -0.243 0.712
 0.372 -0.242 0.708
 0.375 -0.24 0.701
 0.377 -0.239 0.695
 0.378 -0.237 0.686
 0.383 -0.237 0.684
 0.383 -0.234 0.674
 0.384 -0.232 0.665
 0.389 -0.232 0.663
 0.385 -0.227 0.647
 0.393 -0.229 0.65
 -0.323 -0.186 0.55
 -0.325 -0.189 0.561
 -0.325 -0.192 0.571
 -0.325 -0.194 0.579
 -0.324 -0.195 0.586
 -0.322 -0.196 0.591
 -0.319 -0.197 0.596
 -0.316 -0.198 0.6
 -0.314 -0.199 0.604
 -0.311 -0.2 0.609
 -0.308 -0.201 0.613
 -0.305 -0.201 0.617
 -0.302 -0.202 0.621
 -0.299 -0.202 0.624
 -0.295 -0.202 0.625
 -0.29 -0.202 0.627
 -0.286 -0.202 0.627
 -0.282 -0.202 0.628
 -0.277 -0.202 0.629
 -0.273 -0.202 0.631
 -0.271 -0.203 0.636
 -0.27 -0.206 0.646
 -0.279 -0.216 0.68
 -0.303 -0.238 0.753
 -0.334 -0.266 0.847
 -0.374 -0.303 0.968
 -0.425 -0.35 1.123
 -0.468 -0.391 1.261
 -0.495 -0.421 1.359
 -0.513 -0.444 1.437
 -0.52 -0.458 1.486
 -0.513 -0.46 1.495
 -0.504 -0.46 1.499
 -0.495 -0.461 1.504
 -0.486 -0.461 1.507
 -0.477 -0.461 1.511
 -0.469 -0.462 1.514
 -0.46 -0.462 1.518
 -0.451 -0.463 1.522
 -0.442 -0.463 1.525
 -0.433 -0.464 1.529
 -0.424 -0.464 1.533
 -0.415 -0.465 1.536
 -0.406 -0.465 1.54
 -0.397 -0.466 1.543
 -0.388 -0.466 1.547
 -0.379 -0.467 1.55
 -0.37 -0.467 1.554
 -0.361 -0.468 1.557
 -0.352 -0.468 1.561
 -0.343 -0.469 1.564
 -0.334 -0.469 1.568
 -0.325 -0.47 1.572
 -0.316 -0.471 1.575
 -0.307 -0.471 1.579
 -0.298 -0.472 1.583
 -0.288 -0.473 1.586
 -0.279 -0.474 1.59
 -0.27 -0.474 1.595
 -0.261 -0.475 1.598
 -0.252 -0.476 1.602
 -0.243 -0.477 1.606
 -0.234 -0.477 1.609
 -0.224 -0.478 1.612
 -0.215 -0.479 1.616
 -0.206 -0.48 1.62
 -0.196 -0.481 1.624
 -0.187 -0.482 1.627
 -0.178 -0.483 1.631
 -0.168 -0.483 1.635
 -0.159 -0.484 1.638
 -0.149 -0.485 1.642
 -0.14 -0.486 1.645
 -0.13 -0.487 1.649
 -0.121 -0.488 1.653
 -0.111 -0.489 1.657
 -0.102 -0.49 1.661
 -0.092 -0.491 1.665
 -0.082 -0.492 1.669
 -0.072 -0.493 1.673
 -0.063 -0.494 1.676
 -0.053 -0.495 1.679
 -0.043 -0.496 1.683
 -0.033 -0.497 1.686
 -0.023 -0.498 1.689
 -0.013 -0.499 1.692
 -0.003 -0.5 1.695
 0.006 -0.501 1.698
 0.016 -0.502 1.702
 0.026 -0.503 1.704
 0.036 -0.504 1.707
 0.046 -0.504 1.709
 0.056 -0.505 1.711
 0.067 -0.505 1.712
 0.077 -0.506 1.713
 0.087 -0.506 1.714
 0.097 -0.506 1.714
 0.107 -0.507 1.715
 0.118 -0.507 1.715
 0.128 -0.507 1.713
 0.138 -0.506 1.709
 0.147 -0.504 1.703
 0.156 -0.502 1.693
 0.165 -0.498 1.681
 0.174 -0.495 1.668
 0.183 -0.491 1.654
 0.191 -0.487 1.639
 0.199 -0.483 1.624
 0.206 -0.478 1.606
 0.214 -0.474 1.591
 0.222 -0.472 1.582
 0.229 -0.466 1.563
 0.236 -0.463 1.55
 0.246 -0.463 1.55
 0.256 -0.465 1.556
 0.266 -0.466 1.557
 0.278 -0.47 1.569
 0.289 -0.473 1.579
 0.298 -0.473 1.576
 0.307 -0.472 1.571
 0.314 -0.469 1.559
 0.321 -0.465 1.545
 0.326 -0.459 1.523
 0.33 -0.452 1.495
 0.331 -0.442 1.461
 0.333 -0.433 1.43
 0.337 -0.427 1.408
 0.34 -0.421 1.385
 0.344 -0.415 1.365
 0 0 0
 0 0 0
 0 0 0
 0 0 0
 0 0 0
 0 0 0
 0 0 0
 0 0 0
 0 0 0
 0 0 0
 0 0 0
 0 0 0
 0 0 0
 0 0 0
 0 0 0
 0 0 0
 0 0 0
 0 0 0
 0 0 0
 0 0 0
 0.331 -0.267 0.839
 0.326 -0.259 0.811
 0.329 -0.258 0.805
 0.333 -0.256 0.799
 0.339 -0.257 0.8
 0.341 -0.255 0.791
 0.347 -0.256 0.791
 0.349 -0.253 0.781
 0.347 -0.249 0.764
 0.349 -0.247 0.756
 0.348 -0.243 0.743
 0.351 -0.242 0.736
 0.354 -0.241 0.731
 0.362 -0.242 0.734
 0.363 -0.24 0.724
 0.366 -0.239 0.72
 0.367 -0.237 0.71
 0.371 -0.236 0.707
 0.374 -0.235 0.701
 0.377 -0.234 0.696
 0.378 -0.232 0.687
 0.382 -0.232 0.683
 0.382 -0.229 0.673
 0.383 -0.227 0.665
 0.387 -0.227 0.661
 0.373 -0.216 0.628
 0.399 -0.229 0.662
 -0.325 -0.183 0.554
 -0.325 -0.186 0.564
 -0.326 -0.188 0.573
 -0.326 -0.19 0.581
 -0.324 -0.192 0.588
 -0.323 -0.193 0.594
 -0.32 -0.194 0.598
 -0.317 -0.195 0.603
 -0.315 -0.196 0.608
 -0.313 -0.197 0.613
 -0.31 -0.198 0.618
 -0.308 -0.199 0.623
 -0.305 -0.2 0.627
 -0.302 -0.2 0.631
 -0.298 -0.2 0.633
 -0.294 -0.2 0.635
 -0.289 -0.2 0.635
 -0.284 -0.2 0.636
 -0.28 -0.199 0.636
 -0.276 -0.199 0.638
 -0.273 -0.201 0.643
 -0.274 -0.204 0.656
 -0.291 -0.22 0.711
 -0.324 -0.249 0.808
 -0.364 -0.284 0.926
 -0.409 -0.324 1.062
 -0.459 -0.369 1.214
 -0.493 -0.403 1.33
 -0.51 -0.424 1.403
 -0.518 -0.439 1.455
 -0.52 -0.448 1.488
 -0.512 -0.45 1.495
 -0.503 -0.45 1.5
 -0.495 -0.451 1.504
 -0.486 -0.451 1.508
 -0.477 -0.452 1.512
 -0.468 -0.452 1.515
 -0.459 -0.452 1.519
 -0.45 -0.453 1.522
 -0.441 -0.453 1.526
 -0.432 -0.454 1.529
 -0.423 -0.454 1.533
 -0.414 -0.455 1.537
 -0.405 -0.455 1.54
 -0.396 -0.456 1.544
 -0.387 -0.456 1.547
 -0.378 -0.456 1.55
 -0.369 -0.457 1.554
 -0.36 -0.457 1.557
 -0.351 -0.458 1.561
 -0.342 -0.459 1.564
 -0.333 -0.459 1.568
 -0.324 -0.46 1.572
 -0.315 -0.461 1.576
 -0.306 -0.461 1.579
 -0.297 -0.462 1.583
 -0.288 -0.462 1.586
 -0.279 -0.463 1.59
 -0.27 -0.464 1.594
 -0.261 -0.465 1.597
 -0.251 -0.465 1.601
 -0.242 -0.466 1.605
 -0.233 -0.467 1.609
 -0.224 -0.468 1.612
 -0.215 -0.469 1.616
 -0.205 -0.47 1.62
 -0.196 -0.47 1.624
 -0.187 -0.471 1.628
 -0.177 -0.472 1.631
 -0.168 -0.473 1.635
 -0.159 -0.474 1.638
 -0.149 -0.475 1.642
 -0.14 -0.475 1.645
 -0.13 -0.477 1.649
 -0.121 -0.477 1.653
 -0.111 -0.478 1.656
 -0.101 -0.479 1.66
 -0.092 -0.48 1.664
 -0.082 -0.481 1.668
 -0.072 -0.482 1.672
 -0.063 -0.483 1.675
 -0.053 -0.484 1.679
 -0.043 -0.485 1.683
 -0.033 -0.486 1.686
 -0.023 -0.487 1.689
 -0.013 -0.488 1.692
 -0.003 -0.489 1.695
 0.006 -0.49 1.698
 0.016 -0.491 1.701
 0.026 -0.492 1.704
 0.036 -0.493 1.707
 0.046 -0.493 1.709
 0.056 -0.494 1.711
 0.067 -0.495 1.712
 0.077 -0.495 1.714
 0.087 -0.495 1.714
 0.097 -0.496 1.714
 0.107 -0.496 1.715
 0.118 -0.496 1.715
 0.128 -0.496 1.713
 0.137 -0.495 1.709
 0.147 -0.493 1.703
 0.156 -0.491 1.693
 0.165 -0.488 1.681
 0.174 -0.484 1.668
 0.182 -0.48 1.654
 0.19 -0.476 1.638
 0.198 -0.472 1.623
 0.206 -0.467 1.605
 0.213 -0.463 1.589
 0.222 -0.461 1.58
 0.228 -0.456 1.561
 0.236 -0.452 1.546
 0.245 -0.452 1.546
 0.255 -0.454 1.552
 0.265 -0.455 1.555
 0.277 -0.46 1.569
 0.289 -0.464 1.58
 0.298 -0.463 1.577
 0.306 -0.461 1.569
 0.313 -0.458 1.555
 0.32 -0.454 1.542
 0.325 -0.449 1.521
 0.329 -0.442 1.496
 0.332 -0.433 1.465
 0.336 -0.427 1.442
 0.34 -0.422 1.421
 0.344 -0.416 1.4
 0.348 -0.411 1.381
 0 0 0
 0 0 0
 0 0 0
 0 0 0
 0 0 0
 0 0 0
 0 0 0
 0 0 0
 0 0 0
 0 0 0
 0 0 0
 0 0 0
 0 0 0
 0 0 0
 0 0 0
 0 0 0
 0 0 0
 0 0 0
 0 0 0
 0.319 -0.256 0.824
 0.329 -0.261 0.836
 0.329 -0.256 0.82
 0.332 -0.255 0.814
 0.335 -0.253 0.806
 0.341 -0.254 0.805
 0.343 -0.251 0.796
 0.346 -0.25 0.789
 0.348 -0.248 0.781
 0.345 -0.243 0.762
 0.348 -0.241 0.755
 0.348 -0.238 0.743
 0.352 -0.237 0.739
 0.355 -0.236 0.734
 0.363 -0.238 0.738
 0.364 -0.236 0.727
 0.367 -0.235 0.722
 0.367 -0.232 0.712
 0.37 -0.231 0.706
 0.374 -0.231 0.702
 0.377 -0.23 0.698
 0.38 -0.229 0.692
 0.383 -0.228 0.687
 0.384 -0.225 0.677
 0.385 -0.224 0.669
 0.388 -0.223 0.665
 0.39 -0.222 0.658
 0.394 -0.221 0.655
 -0.322 -0.178 0.55
 -0.324 -0.181 0.563
 -0.326 -0.184 0.574
 -0.326 -0.186 0.583
 -0.325 -0.188 0.591
 -0.323 -0.19 0.597
 -0.321 -0.19 0.601
 -0.318 -0.191 0.606
 -0.316 -0.193 0.612
 -0.314 -0.194 0.618
 -0.312 -0.195 0.624
 -0.311 -0.197 0.63
 -0.308 -0.198 0.636
 -0.305 -0.199 0.64
 -0.302 -0.199 0.643
 -0.298 -0.199 0.645
 -0.293 -0.199 0.645
 -0.288 -0.198 0.645
 -0.283 -0.198 0.645
 -0.279 -0.198 0.647
 -0.277 -0.199 0.653
 -0.282 -0.206 0.676
 -0.307 -0.228 0.753
 -0.349 -0.263 0.873
 -0.396 -0.302 1.009
 -0.441 -0.342 1.146
 -0.486 -0.383 1.289
 -0.51 -0.409 1.38
 -0.518 -0.423 1.429
 -0.52 -0.431 1.461
 -0.519 -0.439 1.489
 -0.511 -0.44 1.495
 -0.503 -0.44 1.5
 -0.494 -0.441 1.504
 -0.485 -0.441 1.508
 -0.476 -0.442 1.511
 -0.467 -0.442 1.515
 -0.458 -0.442 1.519
 -0.449 -0.443 1.523
 -0.44 -0.443 1.526
 -0.431 -0.444 1.53
 -0.423 -0.444 1.534
 -0.414 -0.445 1.537
 -0.405 -0.445 1.54
 -0.396 -0.445 1.544
 -0.387 -0.446 1.547
 -0.378 -0.446 1.55
 -0.369 -0.447 1.553
 -0.36 -0.447 1.557
 -0.351 -0.448 1.561
 -0.342 -0.449 1.565
 -0.333 -0.449 1.568
 -0.324 -0.45 1.572
 -0.315 -0.451 1.576
 -0.306 -0.451 1.579
 -0.297 -0.452 1.583
 -0.287 -0.452 1.586
 -0.278 -0.453 1.59
 -0.269 -0.454 1.594
 -0.26 -0.454 1.597
 -0.251 -0.455 1.601
 -0.242 -0.456 1.605
 -0.233 -0.457 1.609
 -0.223 -0.457 1.612
 -0.214 -0.458 1.616
 -0.205 -0.459 1.62
 -0.196 -0.46 1.624
 -0.186 -0.461 1.627
 -0.177 -0.462 1.631
 -0.168 -0.462 1.634
 -0.158 -0.463 1.638
 -0.149 -0.464 1.641
 -0.139 -0.465 1.645
 -0.13 -0.466 1.649
 -0.12 -0.467 1.653
 -0.111 -0.468 1.656
 -0.101 -0.469 1.66
 -0.092 -0.47 1.664
 -0.082 -0.471 1.668
 -0.072 -0.472 1.671
 -0.062 -0.473 1.675
 -0.053 -0.474 1.678
 -0.043 -0.475 1.682
 -0.033 -0.475 1.685
 -0.023 -0.476 1.688
 -0.013 -0.477 1.692
 -0.003 -0.478 1.695
 0.006 -0.479 1.698
 0.016 -0.48 1.701
 0.026 -0.481 1.704
 0.036 -0.482 1.706
 0.046 -0.482 1.708
 0.056 -0.483 1.71
 0.067 -0.484 1.711
 0.077 -0.484 1.713
 0.087 -0.484 1.713
 0.097 -0.485 1.714
 0.107 -0.485 1.715
 0.117 -0.485 1.714
 0.127 -0.485 1.712
 0.137 -0.484 1.708
 0.147 -0.483 1.702
 0.156 -0.48 1.692
 0.165 -0.477 1.681
 0.174 -0.474 1.667
 0.182 -0.47 1.653
 0.19 -0.466 1.637
 0.198 -0.462 1.622
 0.206 -0.457 1.605
 0.213 -0.453 1.588
 0.221 -0.451 1.58
 0.228 -0.445 1.559
 0.235 -0.441 1.541
 0.244 -0.44 1.539
 0.254 -0.442 1.545
 0.264 -0.443 1.547
 0.276 -0.448 1.562
 0.288 -0.452 1.576
 0.298 -0.453 1.577
 0.306 -0.451 1.569
 0.313 -0.448 1.554
 0.32 -0.445 1.543
 0.325 -0.439 1.52
 0.328 -0.432 1.494
 0.331 -0.424 1.463
 0.335 -0.418 1.442
 0.339 -0.412 1.419
 0.343 -0.407 1.401
 0.348 -0.403 1.383
 0 0 0
 0 0 0
 0 0 0
 0 0 0
 0 0 0
 0 0 0
 0 0 0
 0 0 0
 0 0 0
 0 0 0
 0 0 0
 0 0 0
 0 0 0
 0 0 0
 0 0 0
 0 0 0
 0 0 0
 0 0 0
 0 0 0
 0.321 -0.253 0.831
 0.333 -0.258 0.846
 0.332 -0.254 0.83
 0.336 -0.253 0.825
 0.339 -0.251 0.818
 0.344 -0.251 0.815
 0.345 -0.248 0.803
 0.348 -0.246 0.796
 0.351 -0.245 0.79
 0.349 -0.24 0.772
 0.35 -0.238 0.761
 0.35 -0.234 0.749
 0.353 -0.233 0.743
 0.355 -0.231 0.734
 0.359 -0.231 0.732
 0.36 -0.229 0.722
 0.363 -0.228 0.717
 0.366 -0.226 0.71
 0.369 -0.225 0.704
 0.375 -0.226 0.705
 0.378 -0.226 0.7
 0.381 -0.225 0.695
 0.383 -0.223 0.689
 0.384 -0.221 0.68
 0.386 -0.22 0.673
 0.389 -0.219 0.668
 0.41 -0.228 0.694
 0.39 -0.214 0.649
 -0.327 -0.177 0.56
 -0.322 -0.176 0.559
 -0.326 -0.18 0.575
 -0.326 -0.182 0.584
 -0.326 -0.185 0.593
 -0.324 -0.186 0.6
 -0.322 -0.187 0.604
 -0.32 -0.188 0.61
 -0.318 -0.189 0.616
 -0.317 -0.191 0.624
 -0.316 -0.193 0.633
 -0.315 -0.195 0.641
 -0.314 -0.197 0.648
 -0.311 -0.198 0.654
 -0.307 -0.198 0.656
 -0.303 -0.198 0.658
 -0.298 -0.198 0.658
 -0.293 -0.197 0.658
 -0.288 -0.197 0.658
 -0.284 -0.197 0.661
 -0.282 -0.199 0.667
 -0.294 -0.21 0.709
 -0.328 -0.238 0.806
 -0.375 -0.276 0.94
 -0.421 -0.315 1.077
 -0.466 -0.354 1.215
 -0.503 -0.388 1.338
 -0.519 -0.407 1.406
 -0.521 -0.416 1.438
 -0.52 -0.423 1.466
 -0.519 -0.429 1.49
 -0.51 -0.43 1.495
 -0.502 -0.43 1.5
 -0.493 -0.431 1.504
 -0.484 -0.431 1.507
 -0.475 -0.432 1.511
 -0.466 -0.432 1.515
 -0.458 -0.432 1.519
 -0.449 -0.433 1.523
 -0.44 -0.433 1.526
 -0.431 -0.434 1.529
 -0.422 -0.434 1.533
 -0.413 -0.435 1.537
 -0.404 -0.435 1.54
 -0.395 -0.435 1.544
 -0.386 -0.436 1.547
 -0.377 -0.436 1.55
 -0.368 -0.437 1.553
 -0.359 -0.437 1.557
 -0.35 -0.438 1.562
 -0.341 -0.439 1.565
 -0.332 -0.439 1.569
 -0.323 -0.44 1.572
 -0.314 -0.44 1.576
 -0.305 -0.441 1.579
 -0.296 -0.441 1.582
 -0.287 -0.442 1.585
 -0.278 -0.443 1.589
 -0.269 -0.443 1.593
 -0.26 -0.444 1.596
 -0.25 -0.445 1.6
 -0.241 -0.446 1.604
 -0.232 -0.446 1.608
 -0.223 -0.447 1.612
 -0.214 -0.448 1.615
 -0.205 -0.449 1.62
 -0.195 -0.45 1.624
 -0.186 -0.451 1.628
 -0.177 -0.451 1.631
 -0.167 -0.452 1.635
 -0.158 -0.453 1.638
 -0.148 -0.454 1.641
 -0.139 -0.454 1.644
 -0.13 -0.455 1.648
 -0.12 -0.456 1.652
 -0.11 -0.457 1.655
 -0.101 -0.458 1.659
 -0.091 -0.459 1.664
 -0.082 -0.46 1.668
 -0.072 -0.461 1.671
 -0.062 -0.462 1.674
 -0.052 -0.463 1.678
 -0.043 -0.464 1.681
 -0.033 -0.465 1.685
 -0.023 -0.466 1.688
 -0.013 -0.467 1.691
 -0.003 -0.467 1.694
 0.006 -0.468 1.697
 0.016 -0.469 1.7
 0.026 -0.47 1.703
 0.036 -0.471 1.706
 0.046 -0.472 1.708
 0.056 -0.472 1.71
 0.067 -0.473 1.711
 0.077 -0.473 1.713
 0.087 -0.473 1.713
 0.097 -0.474 1.714
 0.107 -0.474 1.715
 0.117 -0.474 1.714
 0.127 -0.474 1.712
 0.137 -0.473 1.708
 0.147 -0.472 1.702
 0.156 -0.469 1.692
 0.165 -0.466 1.68
 0.173 -0.463 1.667
 0.182 -0.459 1.652
 0.19 -0.455 1.637
 0.198 -0.451 1.621
 0.205 -0.447 1.604
 0.213 -0.443 1.588
 0.221 -0.44 1.579
 0.228 -0.436 1.562
 0.234 -0.431 1.542
 0.243 -0.431 1.54
 0.254 -0.433 1.545
 0.264 -0.434 1.548
 0.275 -0.437 1.558
 0.287 -0.442 1.573
 0.297 -0.442 1.574
 0.305 -0.44 1.566
 0.312 -0.437 1.552
 0.319 -0.434 1.541
 0.325 -0.429 1.521
 0.329 -0.423 1.496
 0.331 -0.415 1.466
 0.335 -0.409 1.443
 0.338 -0.403 1.418
 0.34 -0.395 1.391
 0.344 -0.39 1.37
 0.349 -0.387 1.356
 0 0 0
 0 0 0
 0 0 0
 0 0 0
 0 0 0
 0 0 0
 0 0 0
 0 0 0
 0 0 0
 0 0 0
 0 0 0
 0 0 0
 0 0 0
 0 0 0
 0 0 0
 0 0 0
 0.321 -0.256 0.864
 0.324 -0.254 0.857
 0.326 -0.252 0.847
 0.329 -0.249 0.837
 0.329 -0.246 0.823
 0.333 -0.245 0.818
 0.337 -0.244 0.814
 0.341 -0.243 0.808
 0.344 -0.242 0.803
 0.347 -0.24 0.795
 0.35 -0.239 0.788
 0.348 -0.234 0.77
 0.35 -0.232 0.761
 0.35 -0.229 0.749
 0.355 -0.229 0.747
 0.356 -0.227 0.739
 0.359 -0.226 0.733
 0.36 -0.224 0.722
 0.363 -0.223 0.717
 0.364 -0.221 0.708
 0.367 -0.22 0.703
 0.373 -0.221 0.703
 0.377 -0.22 0.699
 0.379 -0.219 0.692
 0.381 -0.217 0.686
 0.382 -0.215 0.677
 0.386 -0.215 0.674
 0.388 -0.214 0.667
 0.403 -0.22 0.683
 0.399 -0.215 0.666
 -0.322 -0.171 0.553
 -0.321 -0.172 0.559
 -0.325 -0.176 0.575
 -0.325 -0.178 0.585
 -0.326 -0.181 0.594
 -0.325 -0.183 0.602
 -0.323 -0.184 0.608
 -0.321 -0.185 0.614
 -0.32 -0.187 0.622
 -0.32 -0.189 0.632
 -0.32 -0.192 0.642
 -0.32 -0.194 0.652
 -0.318 -0.196 0.659
 -0.316 -0.197 0.665
 -0.312 -0.197 0.667
 -0.307 -0.197 0.669
 -0.302 -0.196 0.668
 -0.298 -0.196 0.669
 -0.293 -0.196 0.67
 -0.288 -0.196 0.671
 -0.286 -0.197 0.676
 -0.307 -0.215 0.742
 -0.35 -0.249 0.863
 -0.4 -0.288 1.004
 -0.448 -0.328 1.148
 -0.486 -0.361 1.269
 -0.514 -0.388 1.369
 -0.522 -0.401 1.416
 -0.522 -0.408 1.444
 -0.521 -0.414 1.47
 -0.518 -0.419 1.491
 -0.51 -0.42 1.496
 -0.501 -0.42 1.499
 -0.492 -0.421 1.503
 -0.483 -0.421 1.507
 -0.475 -0.422 1.511
 -0.466 -0.422 1.515
 -0.457 -0.423 1.52
 -0.448 -0.423 1.523
 -0.439 -0.423 1.527
 -0.43 -0.424 1.53
 -0.421 -0.424 1.534
 -0.412 -0.425 1.537
 -0.403 -0.425 1.54
 -0.394 -0.425 1.543
 -0.385 -0.426 1.546
 -0.376 -0.426 1.55
 -0.367 -0.427 1.553
 -0.358 -0.427 1.557
 -0.35 -0.428 1.561
 -0.341 -0.428 1.564
 -0.332 -0.429 1.568
 -0.323 -0.43 1.571
 -0.314 -0.43 1.575
 -0.305 -0.431 1.578
 -0.296 -0.431 1.582
 -0.286 -0.432 1.585
 -0.277 -0.433 1.589
 -0.268 -0.433 1.593
 -0.259 -0.434 1.597
 -0.25 -0.435 1.6
 -0.241 -0.435 1.604
 -0.232 -0.436 1.607
 -0.223 -0.437 1.611
 -0.213 -0.438 1.615
 -0.204 -0.439 1.619
 -0.195 -0.439 1.623
 -0.186 -0.44 1.627
 -0.176 -0.441 1.63
 -0.167 -0.442 1.634
 -0.158 -0.443 1.637
 -0.148 -0.443 1.641
 -0.139 -0.444 1.644
 -0.129 -0.445 1.648
 -0.12 -0.446 1.652
 -0.11 -0.447 1.655
 -0.101 -0.448 1.659
 -0.091 -0.449 1.663
 -0.081 -0.45 1.667
 -0.072 -0.45 1.67
 -0.062 -0.451 1.674
 -0.052 -0.452 1.677
 -0.043 -0.453 1.681
 -0.033 -0.454 1.684
 -0.023 -0.455 1.687
 -0.013 -0.456 1.691
 -0.003 -0.457 1.694
 0.006 -0.458 1.696
 0.016 -0.458 1.7
 0.026 -0.459 1.703
 0.036 -0.46 1.706
 0.046 -0.461 1.708
 0.056 -0.462 1.71
 0.066 -0.462 1.711
 0.077 -0.463 1.713
 0.087 -0.463 1.713
 0.097 -0.463 1.713
 0.107 -0.463 1.714
 0.117 -0.464 1.714
 0.127 -0.463 1.712
 0.137 -0.462 1.708
 0.147 -0.461 1.702
 0.156 -0.459 1.692
 0.165 -0.456 1.68
 0.173 -0.452 1.666
 0.181 -0.448 1.65
 0.189 -0.444 1.635
 0.197 -0.44 1.619
 0.205 -0.436 1.602
 0.212 -0.432 1.586
 0.22 -0.43 1.577
 0.228 -0.426 1.56
 0.234 -0.421 1.541
 0.243 -0.421 1.538
 0.253 -0.423 1.545
 0.263 -0.424 1.548
 0.275 -0.427 1.558
 0.287 -0.431 1.572
 0.296 -0.432 1.573
 0.304 -0.43 1.564
 0.311 -0.426 1.549
 0.318 -0.424 1.537
 0.324 -0.419 1.518
 0.329 -0.414 1.498
 0.332 -0.407 1.47
 0.335 -0.401 1.447
 0.339 -0.394 1.422
 0.341 -0.388 1.395
 0.344 -0.382 1.371
 0.348 -0.377 1.351
 0.353 -0.374 1.338
 0 0 0
 0 0 0
 0 0 0
 0 0 0
 0 0 0
 0 0 0
 0 0 0
 0 0 0
 0 0 0
 0 0 0
 0 0 0
 0 0 0
 0 0 0
 0 0 0
 0.315 -0.25 0.865
 0.317 -0.247 0.855
 0.324 -0.248 0.856
 0.328 -0.248 0.853
 0.33 -0.245 0.843
 0.332 -0.242 0.831
 0.335 -0.241 0.825
 0.337 -0.239 0.814
 0.34 -0.237 0.807
 0.342 -0.236 0.8
 0.343 -0.233 0.788
 0.347 -0.232 0.783
 0.347 -0.229 0.769
 0.349 -0.227 0.761
 0.35 -0.225 0.751
 0.356 -0.225 0.751
 0.357 -0.223 0.742
 0.36 -0.222 0.736
 0.36 -0.219 0.724
 0.362 -0.218 0.717
 0.363 -0.215 0.706
 0.365 -0.214 0.699
 0.369 -0.214 0.696
 0.373 -0.213 0.693
 0.376 -0.212 0.688
 0.378 -0.211 0.681
 0.381 -0.21 0.676
 0.386 -0.21 0.675
 0.387 -0.209 0.667
 0.404 -0.215 0.685
 0.376 -0.198 0.627
 -0.324 -0.168 0.556
 -0.32 -0.168 0.558
 -0.324 -0.172 0.575
 -0.325 -0.174 0.585
 -0.326 -0.177 0.596
 -0.326 -0.179 0.605
 -0.325 -0.18 0.612
 -0.323 -0.182 0.619
 -0.323 -0.184 0.628
 -0.321 -0.185 0.634
 -0.318 -0.186 0.638
 -0.315 -0.187 0.642
 -0.311 -0.187 0.644
 -0.306 -0.186 0.644
 -0.303 -0.187 0.65
 -0.302 -0.189 0.658
 -0.299 -0.19 0.663
 -0.297 -0.192 0.67
 -0.296 -0.193 0.677
 -0.291 -0.193 0.678
 -0.288 -0.194 0.684
 -0.326 -0.223 0.789
 -0.38 -0.263 0.938
 -0.429 -0.302 1.081
 -0.473 -0.338 1.214
 -0.502 -0.365 1.315
 -0.522 -0.386 1.393
 -0.524 -0.394 1.425
 -0.523 -0.4 1.45
 -0.522 -0.406 1.474
 -0.518 -0.41 1.491
 -0.509 -0.41 1.495
 -0.5 -0.41 1.499
 -0.491 -0.411 1.503
 -0.483 -0.411 1.507
 -0.474 -0.412 1.512
 -0.465 -0.412 1.516
 -0.456 -0.413 1.52
 -0.448 -0.413 1.523
 -0.439 -0.414 1.527
 -0.43 -0.414 1.53
 -0.421 -0.414 1.534
 -0.412 -0.415 1.536
 -0.403 -0.415 1.54
 -0.394 -0.415 1.543
 -0.385 -0.416 1.546
 -0.375 -0.416 1.549
 -0.367 -0.417 1.552
 -0.358 -0.417 1.556
 -0.349 -0.418 1.56
 -0.34 -0.418 1.564
 -0.331 -0.419 1.568
 -0.322 -0.42 1.571
 -0.313 -0.42 1.575
 -0.304 -0.421 1.578
 -0.295 -0.421 1.582
 -0.286 -0.422 1.585
 -0.277 -0.422 1.589
 -0.268 -0.423 1.592
 -0.259 -0.424 1.596
 -0.25 -0.425 1.6
 -0.241 -0.425 1.604
 -0.231 -0.426 1.607
 -0.222 -0.427 1.611
 -0.213 -0.427 1.615
 -0.204 -0.428 1.619
 -0.195 -0.429 1.623
 -0.185 -0.43 1.627
 -0.176 -0.431 1.63
 -0.167 -0.431 1.633
 -0.157 -0.432 1.637
 -0.148 -0.433 1.64
 -0.138 -0.434 1.643
 -0.129 -0.435 1.648
 -0.12 -0.436 1.652
 -0.11 -0.436 1.655
 -0.101 -0.437 1.659
 -0.091 -0.438 1.663
 -0.081 -0.439 1.667
 -0.072 -0.44 1.67
 -0.062 -0.441 1.673
 -0.052 -0.442 1.676
 -0.042 -0.442 1.68
 -0.033 -0.443 1.683
 -0.023 -0.444 1.687
 -0.013 -0.445 1.69
 -0.003 -0.446 1.693
 0.006 -0.447 1.696
 0.016 -0.448 1.699
 0.026 -0.449 1.702
 0.036 -0.45 1.705
 0.046 -0.45 1.707
 0.056 -0.451 1.71
 0.066 -0.451 1.711
 0.077 -0.452 1.712
 0.087 -0.452 1.713
 0.097 -0.452 1.713
 0.107 -0.453 1.714
 0.117 -0.453 1.713
 0.127 -0.452 1.711
 0.137 -0.452 1.707
 0.146 -0.45 1.701
 0.156 -0.448 1.692
 0.164 -0.445 1.679
 0.173 -0.442 1.665
 0.181 -0.438 1.65
 0.189 -0.434 1.634
 0.197 -0.43 1.618
 0.204 -0.426 1.601
 0.212 -0.422 1.585
 0.22 -0.42 1.575
 0.227 -0.416 1.559
 0.234 -0.411 1.541
 0.243 -0.411 1.539
 0.253 -0.413 1.547
 0.263 -0.415 1.551
 0.275 -0.418 1.561
 0.287 -0.422 1.574
 0.296 -0.422 1.574
 0.304 -0.419 1.562
 0.311 -0.416 1.549
 0.318 -0.413 1.536
 0.324 -0.41 1.52
 0.329 -0.405 1.501
 0.333 -0.399 1.476
 0.337 -0.393 1.454
 0.339 -0.386 1.424
 0.341 -0.379 1.397
 0.344 -0.373 1.373
 0.347 -0.368 1.351
 0.351 -0.363 1.332
 0 0 0
 0 0 0
 0 0 0
 0 0 0
 0 0 0
 0 0 0
 0 0 0
 0 0 0
 0 0 0
 0 0 0
 0 0 0
 0 0 0
 0 0 0
 0.308 -0.243 0.864
 0.313 -0.243 0.861
 0.316 -0.241 0.854
 0.32 -0.24 0.848
 0.325 -0.24 0.844
 0.327 -0.238 0.836
 0.332 -0.238 0.833
 0.337 -0.237 0.83
 0.34 -0.236 0.823
 0.343 -0.234 0.816
 0.346 -0.233 0.809
 0.345 -0.229 0.794
 0.348 -0.228 0.786
 0.347 -0.224 0.77
 0.35 -0.223 0.764
 0.351 -0.221 0.755
 0.357 -0.221 0.755
 0.36 -0.22 0.748
 0.362 -0.218 0.741
 0.362 -0.216 0.729
 0.364 -0.214 0.722
 0.365 -0.212 0.711
 0.366 -0.21 0.703
 0.37 -0.209 0.699
 0.373 -0.209 0.694
 0.376 -0.208 0.689
 0.379 -0.207 0.683
 0.381 -0.205 0.676
 0.385 -0.206 0.675
 0.387 -0.204 0.667
 0.401 -0.209 0.682
 0.385 -0.199 0.645
 -0.323 -0.163 0.555
 -0.319 -0.163 0.557
 -0.323 -0.167 0.574
 -0.324 -0.17 0.585
 -0.326 -0.173 0.597
 -0.326 -0.175 0.607
 -0.326 -0.177 0.616
 -0.325 -0.179 0.623
 -0.323 -0.18 0.629
 -0.317 -0.179 0.628
 -0.312 -0.178 0.627
 -0.306 -0.178 0.626
 -0.301 -0.177 0.625
 -0.297 -0.177 0.627
 -0.298 -0.18 0.639
 -0.299 -0.183 0.653
 -0.3 -0.186 0.666
 -0.299 -0.189 0.675
 -0.298 -0.191 0.685
 -0.294 -0.191 0.686
 -0.291 -0.192 0.691
 -0.351 -0.235 0.853
 -0.411 -0.279 1.019
 -0.458 -0.315 1.157
 -0.494 -0.345 1.272
 -0.514 -0.365 1.347
 -0.525 -0.379 1.403
 -0.525 -0.386 1.431
 -0.524 -0.391 1.454
 -0.522 -0.397 1.477
 -0.517 -0.4 1.492
 -0.508 -0.4 1.496
 -0.499 -0.401 1.499
 -0.491 -0.401 1.503
 -0.482 -0.401 1.507
 -0.473 -0.402 1.511
 -0.464 -0.402 1.515
 -0.456 -0.403 1.519
 -0.447 -0.403 1.523
 -0.438 -0.404 1.527
 -0.429 -0.404 1.53
 -0.42 -0.404 1.533
 -0.411 -0.405 1.536
 -0.402 -0.405 1.539
 -0.393 -0.405 1.542
 -0.384 -0.406 1.545
 -0.375 -0.406 1.548
 -0.366 -0.407 1.552
 -0.357 -0.407 1.556
 -0.348 -0.408 1.56
 -0.339 -0.408 1.563
 -0.33 -0.409 1.567
 -0.321 -0.409 1.57
 -0.313 -0.41 1.574
 -0.303 -0.41 1.577
 -0.295 -0.411 1.581
 -0.286 -0.412 1.585
 -0.277 -0.413 1.589
 -0.268 -0.413 1.593
 -0.259 -0.414 1.597
 -0.249 -0.415 1.6
 -0.24 -0.415 1.604
 -0.231 -0.416 1.607
 -0.222 -0.417 1.611
 -0.213 -0.417 1.614
 -0.204 -0.418 1.618
 -0.194 -0.419 1.623
 -0.185 -0.42 1.626
 -0.176 -0.42 1.63
 -0.166 -0.421 1.633
 -0.157 -0.422 1.637
 -0.148 -0.423 1.64
 -0.138 -0.423 1.643
 -0.129 -0.424 1.648
 -0.119 -0.425 1.651
 -0.11 -0.426 1.655
 -0.1 -0.427 1.659
 -0.091 -0.428 1.663
 -0.081 -0.429 1.667
 -0.071 -0.43 1.67
 -0.062 -0.43 1.673
 -0.052 -0.431 1.676
 -0.042 -0.432 1.679
 -0.032 -0.433 1.682
 -0.023 -0.434 1.686
 -0.013 -0.435 1.689
 -0.003 -0.435 1.693
 0.006 -0.436 1.695
 0.016 -0.437 1.699
 0.026 -0.438 1.702
 0.036 -0.439 1.705
 0.046 -0.439 1.707
 0.056 -0.44 1.709
 0.066 -0.441 1.711
 0.077 -0.441 1.712
 0.087 -0.441 1.712
 0.097 -0.442 1.713
 0.107 -0.442 1.713
 0.117 -0.442 1.713
 0.127 -0.442 1.711
 0.137 -0.441 1.707
 0.146 -0.439 1.7
 0.155 -0.437 1.69
 0.164 -0.434 1.677
 0.173 -0.431 1.664
 0.181 -0.427 1.649
 0.189 -0.423 1.633
 0.197 -0.42 1.618
 0.204 -0.416 1.601
 0.212 -0.412 1.584
 0.22 -0.41 1.575
 0.227 -0.406 1.559
 0.233 -0.401 1.54
 0.243 -0.401 1.539
 0.253 -0.404 1.547
 0.263 -0.405 1.549
 0.274 -0.407 1.558
 0.286 -0.411 1.573
 0.296 -0.412 1.572
 0.303 -0.41 1.562
 0.311 -0.407 1.551
 0.318 -0.404 1.538
 0.323 -0.4 1.521
 0.329 -0.396 1.502
 0.332 -0.39 1.477
 0.336 -0.384 1.452
 0.338 -0.377 1.423
 0.341 -0.371 1.399
 0.345 -0.366 1.378
 0.348 -0.361 1.357
 0.352 -0.357 1.34
 0 0 0
 0 0 0
 0 0 0
 0 0 0
 0 0 0
 0 0 0
 0 0 0
 0 0 0
 0 0 0
 0 0 0
 0 0 0
 0 0 0
 0.323 -0.253 0.925
 0.314 -0.242 0.883
 0.32 -0.243 0.882
 0.321 -0.239 0.868
 0.323 -0.237 0.857
 0.327 -0.236 0.851
 0.331 -0.235 0.847
 0.333 -0.233 0.836
 0.337 -0.232 0.832
 0.34 -0.231 0.825
 0.342 -0.229 0.816
 0.345 -0.227 0.808
 0.345 -0.224 0.794
 0.347 -0.222 0.784
 0.346 -0.218 0.769
 0.348 -0.216 0.761
 0.35 -0.215 0.752
 0.355 -0.215 0.752
 0.357 -0.214 0.745
 0.36 -0.212 0.738
 0.361 -0.21 0.727
 0.362 -0.208 0.719
 0.363 -0.206 0.709
 0.365 -0.205 0.702
 0.367 -0.203 0.695
 0.37 -0.203 0.69
 0.373 -0.201 0.684
 0.377 -0.201 0.682
 0.379 -0.2 0.675
 0.385 -0.201 0.675
 0.386 -0.199 0.666
 0.39 -0.199 0.664
 0.382 -0.193 0.641
 -0.322 -0.159 0.556
 -0.319 -0.159 0.557
 -0.322 -0.163 0.573
 -0.324 -0.166 0.585
 -0.326 -0.169 0.598
 -0.327 -0.172 0.61
 -0.328 -0.174 0.62
 -0.326 -0.175 0.626
 -0.321 -0.175 0.627
 -0.312 -0.172 0.618
 -0.301 -0.169 0.606
 -0.293 -0.166 0.599
 -0.287 -0.165 0.597
 -0.284 -0.165 0.599
 -0.287 -0.169 0.615
 -0.293 -0.175 0.64
 -0.299 -0.182 0.665
 -0.3 -0.185 0.678
 -0.301 -0.188 0.693
 -0.296 -0.188 0.692
 -0.293 -0.188 0.697
 -0.386 -0.252 0.939
 -0.448 -0.296 1.112
 -0.487 -0.327 1.232
 -0.512 -0.35 1.32
 -0.521 -0.361 1.368
 -0.527 -0.372 1.409
 -0.526 -0.378 1.435
 -0.524 -0.383 1.457
 -0.522 -0.388 1.48
 -0.516 -0.39 1.492
 -0.508 -0.391 1.496
 -0.499 -0.391 1.5
 -0.49 -0.391 1.504
 -0.481 -0.392 1.508
 -0.473 -0.392 1.512
 -0.464 -0.393 1.516
 -0.455 -0.393 1.52
 -0.446 -0.393 1.523
 -0.437 -0.394 1.526
 -0.428 -0.394 1.529
 -0.419 -0.394 1.532
 -0.41 -0.395 1.535
 -0.401 -0.395 1.539
 -0.392 -0.395 1.542
 -0.383 -0.396 1.545
 -0.374 -0.396 1.548
 -0.366 -0.397 1.552
 -0.356 -0.397 1.555
 -0.348 -0.398 1.559
 -0.339 -0.398 1.563
 -0.33 -0.399 1.567
 -0.321 -0.399 1.57
 -0.312 -0.4 1.574
 -0.303 -0.401 1.577
 -0.294 -0.401 1.581
 -0.285 -0.402 1.584
 -0.276 -0.402 1.588
 -0.267 -0.403 1.592
 -0.258 -0.404 1.596
 -0.249 -0.404 1.6
 -0.24 -0.405 1.603
 -0.231 -0.406 1.607
 -0.222 -0.406 1.61
 -0.212 -0.407 1.614
 -0.203 -0.408 1.618
 -0.194 -0.409 1.622
 -0.185 -0.409 1.626
 -0.175 -0.41 1.629
 -0.166 -0.411 1.632
 -0.157 -0.412 1.636
 -0.147 -0.412 1.639
 -0.138 -0.413 1.643
 -0.129 -0.414 1.647
 -0.119 -0.415 1.651
 -0.11 -0.416 1.655
 -0.1 -0.417 1.659
 -0.091 -0.418 1.663
 -0.081 -0.418 1.666
 -0.071 -0.419 1.67
 -0.062 -0.42 1.673
 -0.052 -0.421 1.676
 -0.042 -0.422 1.68
 -0.032 -0.422 1.683
 -0.023 -0.423 1.686
 -0.013 -0.424 1.69
 -0.003 -0.425 1.693
 0.006 -0.426 1.695
 0.016 -0.427 1.698
 0.026 -0.427 1.702
 0.036 -0.428 1.704
 0.046 -0.429 1.707
 0.056 -0.43 1.709
 0.066 -0.43 1.711
 0.077 -0.43 1.712
 0.087 -0.431 1.712
 0.097 -0.431 1.713
 0.107 -0.431 1.713
 0.117 -0.431 1.713
 0.127 -0.431 1.711
 0.137 -0.43 1.707
 0.146 -0.429 1.7
 0.155 -0.426 1.69
 0.164 -0.424 1.677
 0.173 -0.42 1.664
 0.181 -0.417 1.649
 0.189 -0.413 1.633
 0.196 -0.409 1.617
 0.204 -0.406 1.6
 0.211 -0.402 1.583
 0.219 -0.399 1.573
 0.227 -0.396 1.559
 0.233 -0.392 1.541
 0.243 -0.392 1.541
 0.254 -0.395 1.551
 0.263 -0.396 1.553
 0.274 -0.398 1.561
 0.286 -0.402 1.573
 0.295 -0.401 1.57
 0.303 -0.399 1.561
 0.31 -0.397 1.551
 0.317 -0.395 1.538
 0.324 -0.391 1.524
 0.329 -0.387 1.506
 0.333 -0.381 1.48
 0.336 -0.375 1.453
 0.338 -0.368 1.426
 0.34 -0.361 1.396
 0.344 -0.356 1.375
 0.348 -0.352 1.356
 0.35 -0.346 1.332
 0 0 0
 0 0 0
 0 0 0
 0 0 0
 0 0 0
 0 0 0
 0 0 0
 0 0 0
 0 0 0
 0 0 0
 0 0 0
 0.317 -0.248 0.928
 0.32 -0.246 0.919
 0.317 -0.239 0.893
 0.32 -0.237 0.884
 0.321 -0.234 0.87
 0.325 -0.233 0.864
 0.329 -0.232 0.859
 0.333 -0.231 0.852
 0.334 -0.228 0.841
 0.337 -0.227 0.832
 0.338 -0.224 0.822
 0.339 -0.221 0.809
 0.343 -0.221 0.804
 0.342 -0.217 0.789
 0.345 -0.216 0.783
 0.344 -0.212 0.765
 0.347 -0.211 0.76
 0.348 -0.209 0.751
 0.354 -0.21 0.751
 0.357 -0.208 0.744
 0.361 -0.208 0.742
 0.362 -0.206 0.732
 0.364 -0.204 0.723
 0.363 -0.201 0.71
 0.366 -0.201 0.706
 0.367 -0.199 0.696
 0.369 -0.197 0.688
 0.372 -0.196 0.684
 0.377 -0.197 0.682
 0.379 -0.196 0.677
 0.384 -0.196 0.675
 0.387 -0.195 0.669
 0.389 -0.194 0.663
 0.383 -0.189 0.644
 -0.323 -0.156 0.558
 -0.317 -0.155 0.556
 -0.321 -0.158 0.571
 -0.323 -0.161 0.584
 -0.326 -0.165 0.598
 -0.327 -0.167 0.609
 -0.326 -0.169 0.617
 -0.322 -0.169 0.619
 -0.313 -0.167 0.612
 -0.3 -0.162 0.595
 -0.286 -0.156 0.576
 -0.277 -0.154 0.568
 -0.271 -0.152 0.563
 -0.266 -0.152 0.563
 -0.27 -0.156 0.579
 -0.281 -0.165 0.615
 -0.291 -0.172 0.647
 -0.295 -0.177 0.667
 -0.301 -0.184 0.694
 -0.293 -0.182 0.687
 -0.319 -0.2 0.762
 -0.439 -0.279 1.072
 -0.488 -0.315 1.215
 -0.511 -0.335 1.296
 -0.523 -0.348 1.35
 -0.525 -0.356 1.382
 -0.529 -0.364 1.417
 -0.528 -0.37 1.441
 -0.525 -0.374 1.461
 -0.522 -0.379 1.482
 -0.516 -0.381 1.493
 -0.507 -0.381 1.497
 -0.498 -0.381 1.5
 -0.489 -0.382 1.504
 -0.481 -0.382 1.508
 -0.472 -0.383 1.512
 -0.463 -0.383 1.516
 -0.454 -0.383 1.519
 -0.445 -0.384 1.523
 -0.436 -0.384 1.526
 -0.428 -0.384 1.529
 -0.419 -0.385 1.532
 -0.41 -0.385 1.535
 -0.401 -0.385 1.538
 -0.392 -0.385 1.541
 -0.383 -0.386 1.545
 -0.374 -0.386 1.549
 -0.365 -0.387 1.552
 -0.356 -0.387 1.555
 -0.347 -0.388 1.559
 -0.338 -0.388 1.562
 -0.329 -0.389 1.566
 -0.32 -0.389 1.569
 -0.311 -0.39 1.573
 -0.302 -0.39 1.576
 -0.293 -0.391 1.58
 -0.285 -0.392 1.584
 -0.276 -0.392 1.588
 -0.267 -0.393 1.592
 -0.258 -0.394 1.596
 -0.249 -0.394 1.6
 -0.239 -0.395 1.603
 -0.23 -0.396 1.606
 -0.221 -0.396 1.61
 -0.212 -0.397 1.613
 -0.203 -0.398 1.618
 -0.194 -0.398 1.621
 -0.184 -0.399 1.625
 -0.175 -0.4 1.628
 -0.166 -0.401 1.632
 -0.157 -0.401 1.636
 -0.147 -0.402 1.64
 -0.138 -0.403 1.643
 -0.128 -0.404 1.648
 -0.119 -0.405 1.651
 -0.109 -0.405 1.655
 -0.1 -0.406 1.658
 -0.09 -0.407 1.662
 -0.081 -0.408 1.666
 -0.071 -0.409 1.669
 -0.062 -0.41 1.672
 -0.052 -0.41 1.675
 -0.042 -0.411 1.679
 -0.032 -0.412 1.682
 -0.022 -0.413 1.686
 -0.013 -0.414 1.689
 -0.003 -0.415 1.693
 0.006 -0.415 1.695
 0.016 -0.416 1.699
 0.026 -0.417 1.702
 0.036 -0.418 1.705
 0.046 -0.418 1.707
 0.056 -0.419 1.709
 0.066 -0.42 1.711
 0.076 -0.42 1.712
 0.087 -0.42 1.712
 0.097 -0.42 1.713
 0.107 -0.421 1.713
 0.117 -0.421 1.713
 0.127 -0.42 1.71
 0.136 -0.419 1.706
 0.146 -0.418 1.699
 0.155 -0.416 1.689
 0.164 -0.413 1.676
 0.172 -0.41 1.664
 0.181 -0.407 1.649
 0.188 -0.403 1.633
 0.196 -0.399 1.616
 0.204 -0.395 1.6
 0.211 -0.391 1.582
 0.219 -0.389 1.572
 0.226 -0.386 1.559
 0.233 -0.383 1.542
 0.243 -0.383 1.543
 0.254 -0.386 1.552
 0.263 -0.386 1.554
 0.274 -0.389 1.562
 0.286 -0.392 1.574
 0.295 -0.392 1.571
 0.303 -0.39 1.562
 0.31 -0.387 1.55
 0.317 -0.385 1.539
 0.323 -0.381 1.521
 0.328 -0.377 1.504
 0.332 -0.372 1.479
 0.335 -0.365 1.452
 0.336 -0.357 1.417
 0.34 -0.352 1.397
 0.34 -0.344 1.361
 0.341 -0.337 1.332
 0.341 -0.33 1.3
 0 0 0
 0 0 0
 0 0 0
 0 0 0
 0 0 0
 0 0 0
 0 0 0
 0 0 0
 0 0 0
 0 0 0
 0.316 -0.245 0.943
 0.319 -0.243 0.935
 0.324 -0.242 0.93
 0.322 -0.237 0.906
 0.323 -0.234 0.893
 0.322 -0.229 0.872
 0.326 -0.228 0.867
 0.327 -0.226 0.855
 0.333 -0.226 0.854
 0.335 -0.224 0.845
 0.339 -0.223 0.839
 0.341 -0.221 0.828
 0.342 -0.218 0.817
 0.344 -0.216 0.808
 0.345 -0.214 0.796
 0.348 -0.212 0.789
 0.346 -0.208 0.772
 0.348 -0.207 0.765
 0.35 -0.205 0.755
 0.354 -0.205 0.752
 0.355 -0.202 0.741
 0.358 -0.202 0.737
 0.361 -0.201 0.73
 0.362 -0.199 0.72
 0.362 -0.196 0.709
 0.366 -0.196 0.706
 0.368 -0.194 0.698
 0.367 -0.192 0.687
 0.371 -0.192 0.684
 0.376 -0.192 0.681
 0.378 -0.19 0.674
 0.383 -0.191 0.673
 0.386 -0.19 0.669
 0.385 -0.187 0.657
 0.385 -0.186 0.648
 -0.324 -0.152 0.56
 -0.318 -0.151 0.558
 -0.32 -0.154 0.57
 -0.321 -0.157 0.582
 -0.324 -0.16 0.596
 -0.324 -0.162 0.605
 -0.321 -0.163 0.61
 -0.315 -0.161 0.606
 -0.303 -0.157 0.592
 -0.285 -0.15 0.565
 -0.267 -0.143 0.538
 -0.256 -0.139 0.524
 -0.245 -0.134 0.508
 -0.236 -0.131 0.498
 -0.233 -0.131 0.499
 -0.239 -0.137 0.521
 0 0 0
 0 0 0
 0 0 0
 0 0 0
 0 0 0
 -0.513 -0.318 1.257
 -0.524 -0.33 1.306
 -0.525 -0.336 1.333
 -0.521 -0.339 1.349
 -0.528 -0.349 1.392
 -0.53 -0.356 1.423
 -0.528 -0.361 1.445
 -0.525 -0.365 1.465
 -0.522 -0.37 1.485
 -0.515 -0.371 1.493
 -0.506 -0.372 1.497
 -0.498 -0.372 1.501
 -0.489 -0.372 1.505
 -0.48 -0.373 1.508
 -0.471 -0.373 1.512
 -0.462 -0.373 1.515
 -0.453 -0.373 1.518
 -0.445 -0.374 1.522
 -0.436 -0.374 1.525
 -0.427 -0.374 1.529
 -0.418 -0.375 1.532
 -0.409 -0.375 1.535
 -0.4 -0.375 1.538
 -0.391 -0.376 1.541
 -0.382 -0.376 1.545
 -0.373 -0.376 1.548
 -0.364 -0.377 1.552
 -0.355 -0.377 1.555
 -0.347 -0.378 1.559
 -0.338 -0.378 1.562
 -0.329 -0.379 1.566
 -0.32 -0.379 1.569
 -0.311 -0.38 1.573
 -0.302 -0.381 1.576
 -0.293 -0.381 1.58
 -0.284 -0.382 1.584
 -0.275 -0.382 1.588
 -0.266 -0.383 1.591
 -0.257 -0.384 1.595
 -0.248 -0.384 1.599
 -0.239 -0.385 1.602
 -0.23 -0.385 1.605
 -0.221 -0.386 1.61
 -0.212 -0.387 1.613
 -0.203 -0.388 1.617
 -0.193 -0.388 1.621
 -0.184 -0.389 1.625
 -0.175 -0.39 1.628
 -0.166 -0.391 1.632
 -0.156 -0.391 1.636
 -0.147 -0.392 1.64
 -0.138 -0.393 1.643
 -0.128 -0.394 1.647
 -0.119 -0.394 1.65
 -0.109 -0.395 1.654
 -0.1 -0.396 1.658
 -0.09 -0.397 1.662
 -0.081 -0.398 1.665
 -0.071 -0.399 1.669
 -0.061 -0.399 1.672
 -0.052 -0.4 1.675
 -0.042 -0.401 1.679
 -0.032 -0.402 1.682
 -0.022 -0.402 1.686
 -0.013 -0.403 1.689
 -0.003 -0.404 1.693
 0.006 -0.405 1.695
 0.016 -0.406 1.698
 0.026 -0.406 1.701
 0.036 -0.407 1.704
 0.046 -0.408 1.706
 0.056 -0.408 1.709
 0.066 -0.409 1.71
 0.076 -0.409 1.712
 0.087 -0.41 1.712
 0.097 -0.41 1.713
 0.107 -0.41 1.713
 0.117 -0.41 1.713
 0.127 -0.41 1.71
 0.136 -0.409 1.705
 0.146 -0.407 1.698
 0.155 -0.405 1.688
 0.163 -0.402 1.675
 0.172 -0.4 1.663
 0.18 -0.396 1.648
 0.188 -0.393 1.632
 0.196 -0.389 1.616
 0.204 -0.386 1.6
 0.211 -0.382 1.582
 0.219 -0.38 1.572
 0.226 -0.377 1.559
 0.233 -0.373 1.541
 0.242 -0.373 1.542
 0.253 -0.376 1.551
 0.263 -0.377 1.554
 0.274 -0.379 1.562
 0.286 -0.383 1.575
 0.295 -0.382 1.572
 0.303 -0.381 1.565
 0.31 -0.378 1.552
 0.317 -0.376 1.542
 0.323 -0.372 1.524
 0.329 -0.368 1.506
 0.332 -0.362 1.479
 0.335 -0.356 1.453
 0.335 -0.347 1.414
 0.338 -0.342 1.39
 0.337 -0.333 1.353
 0.339 -0.328 1.327
 0.34 -0.32 1.296
 0.339 -0.313 1.263
 0 0 0
 0 0 0
 0 0 0
 0 0 0
 0 0 0
 0 0 0
 0 0 0
 0 0 0
 0.319 -0.246 0.975
 0.325 -0.246 0.971
 0.326 -0.242 0.956
 0.327 -0.239 0.941
 0.328 -0.236 0.926
 0.326 -0.23 0.902
 0.325 -0.226 0.882
 0.328 -0.224 0.875
 0.33 -0.222 0.864
 0.335 -0.222 0.861
 0.336 -0.219 0.849
 0.339 -0.218 0.841
 0.341 -0.216 0.831
 0.343 -0.214 0.82
 0.344 -0.211 0.808
 0.346 -0.209 0.8
 0.348 -0.208 0.792
 0.347 -0.204 0.774
 0.349 -0.202 0.766
 0.351 -0.201 0.758
 0.353 -0.199 0.75
 0.354 -0.197 0.741
 0.357 -0.196 0.735
 0.36 -0.195 0.73
 0.361 -0.193 0.719
 0.361 -0.191 0.709
 0.365 -0.191 0.706
 0.368 -0.19 0.7
 0.367 -0.187 0.688
 0.372 -0.187 0.685
 0.375 -0.187 0.681
 0.377 -0.185 0.674
 0.381 -0.185 0.671
 0.384 -0.185 0.667
 0.38 -0.181 0.65
 0.394 -0.185 0.664
 -0.323 -0.148 0.56
 -0.318 -0.148 0.56
 -0.319 -0.15 0.569
 -0.32 -0.152 0.58
 -0.323 -0.155 0.594
 -0.321 -0.157 0.601
 -0.316 -0.156 0.601
 -0.306 -0.153 0.591
 -0.291 -0.148 0.57
 -0.272 -0.14 0.54
 -0.254 -0.132 0.512
 -0.245 -0.129 0.501
 -0.234 -0.126 0.487
 -0.227 -0.123 0.478
 -0.221 -0.122 0.475
 0 0 0
 0 0 0
 0 0 0
 0 0 0
 0 0 0
 0 0 0
 -0.517 -0.313 1.268
 -0.525 -0.323 1.312
 -0.525 -0.328 1.336
 -0.522 -0.331 1.352
 -0.531 -0.342 1.4
 -0.531 -0.348 1.428
 -0.529 -0.353 1.449
 -0.526 -0.357 1.468
 -0.522 -0.36 1.486
 -0.515 -0.362 1.494
 -0.506 -0.362 1.497
 -0.497 -0.362 1.501
 -0.488 -0.362 1.504
 -0.479 -0.363 1.508
 -0.47 -0.363 1.511
 -0.461 -0.363 1.514
 -0.453 -0.364 1.518
 -0.444 -0.364 1.522
 -0.435 -0.364 1.525
 -0.426 -0.365 1.529
 -0.417 -0.365 1.532
 -0.408 -0.365 1.535
 -0.399 -0.366 1.538
 -0.391 -0.366 1.541
 -0.382 -0.366 1.545
 -0.373 -0.367 1.548
 -0.364 -0.367 1.552
 -0.355 -0.368 1.555
 -0.346 -0.368 1.559
 -0.337 -0.369 1.562
 -0.328 -0.369 1.566
 -0.319 -0.369 1.568
 -0.31 -0.37 1.572
 -0.302 -0.371 1.576
 -0.293 -0.371 1.579
 -0.284 -0.372 1.583
 -0.275 -0.372 1.587
 -0.266 -0.373 1.591
 -0.257 -0.374 1.595
 -0.248 -0.374 1.599
 -0.239 -0.375 1.602
 -0.229 -0.375 1.605
 -0.22 -0.376 1.609
 -0.211 -0.377 1.612
 -0.202 -0.378 1.616
 -0.193 -0.378 1.62
 -0.184 -0.379 1.624
 -0.175 -0.38 1.628
 -0.165 -0.38 1.631
 -0.156 -0.381 1.635
 -0.147 -0.382 1.639
 -0.137 -0.383 1.643
 -0.128 -0.384 1.647
 -0.119 -0.384 1.65
 -0.109 -0.385 1.654
 -0.1 -0.386 1.658
 -0.09 -0.387 1.661
 -0.08 -0.387 1.664
 -0.071 -0.388 1.668
 -0.061 -0.389 1.671
 -0.052 -0.39 1.675
 -0.042 -0.39 1.679
 -0.032 -0.391 1.682
 -0.022 -0.392 1.686
 -0.012 -0.393 1.689
 -0.003 -0.394 1.692
 0.006 -0.394 1.695
 0.016 -0.395 1.698
 0.026 -0.396 1.701
 0.036 -0.397 1.704
 0.046 -0.397 1.706
 0.056 -0.398 1.708
 0.066 -0.398 1.709
 0.076 -0.399 1.711
 0.086 -0.399 1.712
 0.097 -0.399 1.712
 0.107 -0.4 1.713
 0.117 -0.4 1.713
 0.127 -0.399 1.71
 0.136 -0.398 1.706
 0.146 -0.397 1.698
 0.155 -0.395 1.687
 0.163 -0.392 1.675
 0.172 -0.389 1.663
 0.18 -0.386 1.648
 0.188 -0.383 1.632
 0.196 -0.379 1.616
 0.203 -0.376 1.6
 0.21 -0.372 1.581
 0.218 -0.369 1.571
 0.226 -0.367 1.558
 0.233 -0.363 1.54
 0.242 -0.363 1.541
 0.253 -0.366 1.551
 0.263 -0.367 1.554
 0.273 -0.369 1.562
 0.285 -0.373 1.574
 0.295 -0.373 1.574
 0.303 -0.371 1.565
 0.31 -0.369 1.552
 0.317 -0.366 1.542
 0.323 -0.363 1.523
 0.328 -0.358 1.504
 0.331 -0.353 1.478
 0.334 -0.346 1.45
 0.335 -0.339 1.414
 0.336 -0.332 1.385
 0.336 -0.324 1.349
 0.338 -0.318 1.324
 0.34 -0.313 1.298
 0.338 -0.304 1.26
 0.342 -0.302 1.247
 0 0 0
 0 0 0
 0 0 0
 0 0 0
 0 0 0
 0 0 0
 0 0 0
 0.319 -0.24 0.977
 0.326 -0.241 0.977
 0.326 -0.236 0.956
 0.327 -0.233 0.941
 0.33 -0.231 0.932
 0.33 -0.227 0.914
 0.328 -0.222 0.891
 0.333 -0.222 0.888
 0.334 -0.219 0.876
 0.338 -0.218 0.869
 0.338 -0.215 0.854
 0.341 -0.213 0.845
 0.341 -0.211 0.832
 0.343 -0.209 0.823
 0.344 -0.206 0.809
 0.346 -0.204 0.801
 0.349 -0.203 0.794
 0.349 -0.2 0.78
 0.349 -0.198 0.769
 0.352 -0.196 0.761
 0.353 -0.194 0.752
 0.353 -0.192 0.74
 0.356 -0.191 0.734
 0.359 -0.19 0.729
 0.359 -0.188 0.717
 0.361 -0.186 0.709
 0.366 -0.186 0.707
 0.368 -0.185 0.701
 0.368 -0.183 0.689
 0.372 -0.183 0.687
 0.375 -0.182 0.682
 0.377 -0.181 0.675
 0.38 -0.18 0.67
 0.384 -0.18 0.667
 0.397 -0.184 0.679
 0.39 -0.179 0.658
 -0.325 -0.146 0.564
 -0.32 -0.145 0.564
 -0.318 -0.146 0.569
 -0.319 -0.148 0.579
 -0.321 -0.151 0.592
 -0.319 -0.152 0.598
 -0.312 -0.15 0.593
 -0.299 -0.146 0.578
 -0.284 -0.14 0.556
 -0.265 -0.133 0.527
 -0.246 -0.125 0.495
 -0.237 -0.122 0.486
 -0.229 -0.12 0.476
 -0.221 -0.117 0.466
 -0.211 -0.113 0.453
 0 0 0
 0 0 0
 0 0 0
 0 0 0
 0 0 0
 -0.491 -0.285 1.185
 -0.521 -0.308 1.281
 -0.527 -0.316 1.32
 -0.527 -0.321 1.343
 -0.523 -0.324 1.357
 -0.532 -0.335 1.407
 -0.532 -0.34 1.432
 -0.529 -0.344 1.452
 -0.526 -0.348 1.47
 -0.522 -0.351 1.488
 -0.514 -0.352 1.494
 -0.505 -0.352 1.498
 -0.496 -0.353 1.501
 -0.488 -0.353 1.505
 -0.479 -0.353 1.509
 -0.47 -0.354 1.512
 -0.461 -0.354 1.515
 -0.452 -0.354 1.518
 -0.443 -0.354 1.522
 -0.434 -0.355 1.525
 -0.426 -0.355 1.528
 -0.417 -0.355 1.532
 -0.408 -0.356 1.535
 -0.399 -0.356 1.538
 -0.39 -0.356 1.541
 -0.381 -0.357 1.544
 -0.372 -0.357 1.548
 -0.363 -0.357 1.551
 -0.354 -0.358 1.554
 -0.346 -0.358 1.558
 -0.337 -0.359 1.561
 -0.328 -0.359 1.565
 -0.319 -0.36 1.569
 -0.31 -0.36 1.572
 -0.301 -0.361 1.576
 -0.292 -0.361 1.579
 -0.283 -0.362 1.583
 -0.274 -0.363 1.587
 -0.265 -0.363 1.59
 -0.256 -0.364 1.594
 -0.247 -0.364 1.597
 -0.238 -0.365 1.601
 -0.229 -0.365 1.603
 -0.22 -0.366 1.608
 -0.211 -0.367 1.612
 -0.202 -0.367 1.616
 -0.193 -0.368 1.62
 -0.184 -0.369 1.624
 -0.174 -0.37 1.627
 -0.165 -0.37 1.63
 -0.156 -0.371 1.634
 -0.146 -0.372 1.638
 -0.137 -0.372 1.642
 -0.128 -0.373 1.646
 -0.118 -0.374 1.649
 -0.109 -0.375 1.653
 -0.099 -0.376 1.657
 -0.09 -0.376 1.66
 -0.08 -0.377 1.664
 -0.071 -0.378 1.668
 -0.061 -0.379 1.671
 -0.051 -0.379 1.674
 -0.042 -0.38 1.678
 -0.032 -0.381 1.682
 -0.022 -0.382 1.685
 -0.012 -0.382 1.688
 -0.003 -0.383 1.692
 0.006 -0.384 1.694
 0.016 -0.385 1.697
 0.026 -0.385 1.7
 0.036 -0.386 1.703
 0.046 -0.387 1.706
 0.056 -0.387 1.708
 0.066 -0.388 1.709
 0.076 -0.388 1.711
 0.086 -0.389 1.712
 0.096 -0.389 1.712
 0.107 -0.389 1.713
 0.117 -0.389 1.712
 0.126 -0.389 1.71
 0.136 -0.388 1.706
 0.146 -0.387 1.698
 0.155 -0.384 1.688
 0.163 -0.382 1.675
 0.172 -0.379 1.663
 0.18 -0.376 1.648
 0.188 -0.373 1.632
 0.196 -0.369 1.616
 0.203 -0.366 1.599
 0.21 -0.362 1.581
 0.218 -0.36 1.57
 0.226 -0.357 1.558
 0.233 -0.354 1.542
 0.242 -0.354 1.542
 0.253 -0.357 1.552
 0.263 -0.358 1.557
 0.274 -0.36 1.563
 0.285 -0.363 1.574
 0.295 -0.363 1.575
 0.302 -0.361 1.564
 0.309 -0.359 1.551
 0.317 -0.357 1.542
 0.323 -0.354 1.527
 0.328 -0.349 1.506
 0.331 -0.344 1.479
 0.334 -0.338 1.453
 0.335 -0.33 1.415
 0.334 -0.322 1.379
 0.335 -0.315 1.345
 0.337 -0.309 1.32
 0.338 -0.303 1.292
 0.334 -0.293 1.246
 0.336 -0.288 1.225
 0.343 -0.288 1.222
 0 0 0
 0 0 0
 0 0 0
 0 0 0
 0 0 0
 0.306 -0.229 0.956
 0.315 -0.231 0.964
 0.322 -0.232 0.966
 0.324 -0.229 0.953
 0.323 -0.225 0.932
 0.326 -0.222 0.921
 0.327 -0.219 0.906
 0.325 -0.215 0.885
 0.33 -0.215 0.883
 0.332 -0.212 0.871
 0.335 -0.211 0.864
 0.335 -0.208 0.848
 0.338 -0.206 0.839
 0.338 -0.203 0.825
 0.341 -0.202 0.818
 0.343 -0.2 0.807
 0.345 -0.198 0.799
 0.348 -0.198 0.794
 0.349 -0.195 0.781
 0.35 -0.193 0.77
 0.35 -0.191 0.759
 0.352 -0.189 0.751
 0.353 -0.187 0.74
 0.355 -0.186 0.732
 0.358 -0.185 0.727
 0.36 -0.183 0.719
 0.361 -0.182 0.711
 0.365 -0.181 0.707
 0.368 -0.181 0.701
 0.367 -0.178 0.69
 0.371 -0.178 0.686
 0.373 -0.177 0.68
 0.376 -0.176 0.675
 0.38 -0.176 0.671
 0.384 -0.176 0.668
 0.382 -0.173 0.655
 0.383 -0.172 0.648
 -0.321 -0.14 0.557
 -0.32 -0.141 0.564
 -0.318 -0.142 0.569
 -0.317 -0.144 0.577
 -0.319 -0.146 0.589
 -0.317 -0.147 0.594
 -0.308 -0.144 0.586
 -0.294 -0.14 0.569
 -0.279 -0.134 0.547
 -0.261 -0.127 0.519
 -0.242 -0.12 0.489
 -0.235 -0.118 0.481
 -0.227 -0.116 0.473
 -0.219 -0.113 0.463
 -0.209 -0.11 0.449
 0 0 0
 0 0 0
 0 0 0
 0 0 0
 0 0 0
 -0.5 -0.283 1.209
 -0.524 -0.301 1.291
 -0.529 -0.309 1.326
 -0.528 -0.313 1.347
 -0.524 -0.316 1.362
 -0.534 -0.327 1.414
 -0.533 -0.332 1.437
 -0.53 -0.336 1.456
 -0.526 -0.339 1.473
 -0.522 -0.342 1.489
 -0.513 -0.343 1.494
 -0.505 -0.343 1.498
 -0.496 -0.343 1.501
 -0.487 -0.343 1.505
 -0.478 -0.344 1.508
 -0.469 -0.344 1.512
 -0.46 -0.344 1.514
 -0.451 -0.344 1.518
 -0.443 -0.345 1.521
 -0.434 -0.345 1.525
 -0.425 -0.345 1.528
 -0.416 -0.346 1.532
 -0.407 -0.346 1.535
 -0.398 -0.346 1.538
 -0.389 -0.347 1.541
 -0.381 -0.347 1.544
 -0.372 -0.347 1.548
 -0.363 -0.348 1.551
 -0.354 -0.348 1.554
 -0.345 -0.349 1.558
 -0.336 -0.349 1.561
 -0.327 -0.35 1.565
 -0.319 -0.35 1.568
 -0.31 -0.35 1.572
 -0.301 -0.351 1.575
 -0.292 -0.352 1.579
 -0.283 -0.352 1.583
 -0.274 -0.353 1.587
 -0.265 -0.353 1.59
 -0.256 -0.354 1.594
 -0.247 -0.354 1.597
 -0.238 -0.355 1.6
 -0.229 -0.355 1.603
 -0.22 -0.356 1.607
 -0.211 -0.357 1.611
 -0.201 -0.357 1.615
 -0.192 -0.358 1.62
 -0.183 -0.359 1.624
 -0.174 -0.36 1.627
 -0.165 -0.36 1.63
 -0.156 -0.361 1.634
 -0.146 -0.362 1.638
 -0.137 -0.362 1.642
 -0.128 -0.363 1.646
 -0.118 -0.364 1.649
 -0.109 -0.365 1.653
 -0.099 -0.365 1.656
 -0.09 -0.366 1.66
 -0.08 -0.367 1.663
 -0.071 -0.368 1.668
 -0.061 -0.368 1.67
 -0.051 -0.369 1.674
 -0.042 -0.37 1.677
 -0.032 -0.371 1.681
 -0.022 -0.371 1.684
 -0.012 -0.372 1.687
 -0.003 -0.373 1.691
 0.006 -0.373 1.693
 0.016 -0.374 1.696
 0.026 -0.375 1.699
 0.036 -0.376 1.703
 0.046 -0.376 1.705
 0.056 -0.377 1.707
 0.066 -0.377 1.709
 0.076 -0.378 1.711
 0.086 -0.378 1.712
 0.096 -0.378 1.712
 0.106 -0.379 1.713
 0.116 -0.379 1.712
 0.126 -0.378 1.71
 0.136 -0.378 1.706
 0.145 -0.376 1.699
 0.154 -0.374 1.688
 0.163 -0.372 1.675
 0.172 -0.369 1.663
 0.18 -0.366 1.648
 0.188 -0.363 1.632
 0.196 -0.359 1.616
 0.203 -0.356 1.599
 0.21 -0.352 1.581
 0.218 -0.35 1.57
 0.225 -0.347 1.556
 0.232 -0.344 1.54
 0.241 -0.344 1.54
 0.252 -0.347 1.549
 0.262 -0.348 1.553
 0.273 -0.35 1.561
 0.284 -0.352 1.571
 0.294 -0.353 1.573
 0.301 -0.351 1.561
 0.308 -0.348 1.548
 0.316 -0.347 1.538
 0.322 -0.343 1.521
 0.326 -0.339 1.499
 0.329 -0.333 1.472
 0.333 -0.328 1.446
 0.332 -0.319 1.405
 0.333 -0.313 1.375
 0.333 -0.305 1.338
 0.333 -0.298 1.307
 0.332 -0.29 1.27
 0.331 -0.283 1.236
 0.334 -0.28 1.22
 0.333 -0.273 1.187
 0.321 -0.258 1.12
 0.326 -0.257 1.113
 0 0 0
 0.312 -0.236 1.019
 0.307 -0.228 0.979
 0.306 -0.223 0.959
 0.316 -0.226 0.968
 0.321 -0.225 0.965
 0.322 -0.222 0.947
 0.324 -0.219 0.935
 0.326 -0.217 0.923
 0.327 -0.214 0.907
 0.326 -0.21 0.888
 0.33 -0.209 0.883
 0.33 -0.206 0.868
 0.333 -0.204 0.858
 0.332 -0.201 0.841
 0.335 -0.199 0.833
 0.336 -0.197 0.822
 0.341 -0.197 0.819
 0.342 -0.195 0.808
 0.345 -0.194 0.802
 0.348 -0.193 0.795
 0.349 -0.19 0.784
 0.349 -0.188 0.77
 0.35 -0.186 0.76
 0.351 -0.184 0.75
 0.353 -0.182 0.741
 0.354 -0.181 0.733
 0.358 -0.18 0.727
 0.36 -0.179 0.72
 0.362 -0.177 0.713
 0.364 -0.176 0.706
 0.366 -0.175 0.7
 0.367 -0.173 0.69
 0.369 -0.172 0.683
 0.371 -0.171 0.677
 0.373 -0.17 0.669
 0.377 -0.17 0.666
 0.38 -0.17 0.663
 0.379 -0.167 0.652
 0.383 -0.167 0.648
 -0.321 -0.136 0.559
 -0.318 -0.137 0.562
 -0.318 -0.138 0.57
 -0.317 -0.139 0.577
 -0.317 -0.141 0.587
 -0.316 -0.142 0.594
