 -0.38 -0.063 0.805
 -0.377 -0.064 0.813
 -0.376 -0.064 0.823
 -0.375 -0.065 0.835
 -0.377 -0.066 0.852
 -0.378 -0.067 0.871
 -0.379 -0.069 0.887
 -0.388 -0.071 0.924
 -0.42 -0.078 1.018
 -0.453 -0.085 1.12
 -0.486 -0.093 1.222
 -0.517 -0.1 1.325
 -0.539 -0.106 1.406
 -0.539 -0.108 1.432
 -0.534 -0.108 1.444
 -0.528 -0.109 1.455
 -0.522 -0.11 1.465
 -0.515 -0.11 1.475
 -0.507 -0.11 1.479
 -0.498 -0.11 1.481
 -0.49 -0.11 1.484
 -0.481 -0.111 1.488
 -0.473 -0.111 1.491
 -0.464 -0.111 1.495
 -0.456 -0.111 1.499
 -0.448 -0.111 1.503
 -0.439 -0.111 1.508
 -0.431 -0.112 1.512
 -0.422 -0.112 1.515
 -0.414 -0.112 1.519
 -0.405 -0.112 1.523
 -0.397 -0.112 1.526
 -0.388 -0.113 1.53
 -0.379 -0.113 1.531
 -0.37 -0.113 1.532
 -0.36 -0.112 1.532
 -0.351 -0.112 1.532
 -0.342 -0.112 1.534
 -0.332 -0.112 1.53
 -0.321 -0.111 1.52
 -0.311 -0.111 1.517
 -0.298 -0.11 1.497
 -0.285 -0.108 1.479
 -0.272 -0.106 1.453
 0 0 0
 0 0 0
 0 0 0
 0 0 0
 0 0 0
 0 0 0
 0 0 0
 0 0 0
 0 0 0
 0 0 0
 -0.169 -0.101 1.383
 -0.17 -0.107 1.464
 -0.167 -0.11 1.509
 -0.16 -0.112 1.534
 -0.155 -0.115 1.573
 -0.15 -0.117 1.613
 -0.141 -0.118 1.624
 -0.132 -0.118 1.628
 -0.123 -0.119 1.631
 -0.114 -0.119 1.635
 -0.105 -0.119 1.638
 -0.096 -0.119 1.642
 -0.086 -0.12 1.646
 -0.077 -0.12 1.649
 -0.068 -0.12 1.652
 -0.058 -0.121 1.656
 -0.049 -0.121 1.659
 -0.039 -0.121 1.662
 -0.03 -0.121 1.666
 -0.02 -0.122 1.669
 -0.011 -0.122 1.673
 -0.001 -0.122 1.676
 0.008 -0.123 1.679
 0.017 -0.123 1.682
 0.027 -0.123 1.686
 0.037 -0.123 1.688
 0.046 -0.124 1.691
 0.056 -0.124 1.694
 0.066 -0.124 1.696
 0.076 -0.124 1.697
 0.086 -0.124 1.699
 0.096 -0.125 1.7
 0.105 -0.125 1.701
 0.115 -0.125 1.701
 0.125 -0.125 1.697
 0.134 -0.124 1.69
 0.143 -0.124 1.683
 0.152 -0.123 1.672
 0.16 -0.122 1.659
 0.169 -0.121 1.646
 0.177 -0.12 1.631
 0.184 -0.119 1.615
 0.192 -0.118 1.599
 0.199 -0.117 1.582
 0.206 -0.116 1.567
 0.214 -0.115 1.556
 0.22 -0.114 1.534
 0.22 -0.11 1.477
 0.225 -0.108 1.451
 0.231 -0.107 1.436
 0.236 -0.106 1.417
 0.243 -0.105 1.408
 0.255 -0.107 1.429
 0.261 -0.106 1.415
 0.266 -0.105 1.393
 0.268 -0.103 1.364
 0.271 -0.101 1.337
 0.274 -0.099 1.315
 0.279 -0.098 1.298
 0.282 -0.097 1.279
 0.288 -0.096 1.269
 0.292 -0.095 1.253
 0.296 -0.094 1.237
 0.298 -0.093 1.215
 0.3 -0.091 1.192
 0.298 -0.089 1.159
 0.297 -0.087 1.127
 0.295 -0.084 1.092
 0.294 -0.082 1.063
 0.291 -0.08 1.031
 0.293 -0.079 1.012
 0.292 -0.077 0.989
 0.294 -0.076 0.975
 0.296 -0.075 0.959
 0.297 -0.074 0.944
 0.299 -0.073 0.931
 0.301 -0.072 0.919
 0.303 -0.072 0.906
 0.305 -0.071 0.895
 0.309 -0.071 0.889
 0.31 -0.07 0.876
 0.315 -0.07 0.872
 0.316 -0.069 0.861
 0.317 -0.068 0.847
 0.318 -0.067 0.835
 0.32 -0.067 0.826
 0.322 -0.066 0.814
 0.324 -0.065 0.806
 0.327 -0.065 0.8
 0.33 -0.065 0.793
 0.333 -0.064 0.788
 0.336 -0.064 0.781
 0.339 -0.064 0.774
 0.341 -0.063 0.768
 0.343 -0.063 0.76
 0.344 -0.062 0.749
 0.348 -0.062 0.745
 0.35 -0.062 0.738
 0.353 -0.061 0.733
 0.356 -0.061 0.727
 0.359 -0.061 0.723
 0.362 -0.061 0.716
 0.366 -0.061 0.713
 0.37 -0.061 0.711
 0.375 -0.061 0.709
 0.378 -0.061 0.705
 0.382 -0.06 0.701
 0.386 -0.06 0.699
 0.39 -0.06 0.696
 0.39 -0.06 0.685
 0.394 -0.06 0.682
 -0.379 -0.051 0.678
 -0.379 -0.051 0.688
 -0.38 -0.052 0.7
 -0.381 -0.053 0.713
 -0.384 -0.054 0.73
 -0.386 -0.055 0.746
 -0.388 -0.056 0.761
 -0.388 -0.056 0.774
 -0.388 -0.057 0.785
 -0.385 -0.057 0.792
 -0.382 -0.058 0.797
 -0.379 -0.058 0.803
 -0.376 -0.058 0.81
 -0.374 -0.059 0.818
 -0.372 -0.059 0.828
 -0.372 -0.06 0.842
 -0.374 -0.061 0.861
 -0.376 -0.063 0.879
 -0.383 -0.065 0.913
 -0.41 -0.07 0.994
 -0.44 -0.076 1.086
 -0.467 -0.082 1.175
 -0.496 -0.088 1.27
 -0.52 -0.094 1.356
 -0.526 -0.097 1.398
 -0.526 -0.098 1.424
 -0.525 -0.1 1.448
 -0.522 -0.101 1.466
 -0.515 -0.101 1.475
 -0.507 -0.101 1.478
 -0.498 -0.101 1.481
 -0.489 -0.102 1.484
 -0.481 -0.102 1.488
 -0.472 -0.102 1.491
 -0.464 -0.102 1.495
 -0.456 -0.102 1.499
 -0.447 -0.102 1.503
 -0.439 -0.102 1.507
 -0.431 -0.103 1.511
 -0.422 -0.103 1.515
 -0.414 -0.103 1.519
 -0.405 -0.103 1.522
 -0.396 -0.103 1.526
 -0.388 -0.103 1.529
 -0.378 -0.103 1.529
 -0.369 -0.103 1.528
 -0.36 -0.103 1.528
 -0.35 -0.103 1.529
 -0.341 -0.103 1.527
 -0.331 -0.103 1.523
 -0.319 -0.102 1.512
 -0.308 -0.101 1.505
 -0.297 -0.1 1.493
 -0.284 -0.099 1.473
 -0.27 -0.097 1.444
 0 0 0
 0 0 0
 0 0 0
 0 0 0
 0 0 0
 0 0 0
 0 0 0
 0 0 0
 0 0 0
 0 0 0
 -0.173 -0.095 1.418
 -0.173 -0.1 1.486
 -0.168 -0.102 1.522
 -0.161 -0.103 1.544
 -0.157 -0.106 1.587
 -0.15 -0.108 1.617
 -0.141 -0.109 1.624
 -0.132 -0.109 1.627
 -0.123 -0.109 1.631
 -0.114 -0.109 1.634
 -0.105 -0.11 1.637
 -0.095 -0.11 1.64
 -0.086 -0.11 1.644
 -0.077 -0.11 1.648
 -0.067 -0.111 1.651
 -0.058 -0.111 1.655
 -0.049 -0.111 1.658
 -0.039 -0.111 1.662
 -0.03 -0.112 1.665
 -0.02 -0.112 1.669
 -0.011 -0.112 1.672
 -0.001 -0.113 1.676
 0.008 -0.113 1.679
 0.017 -0.113 1.682
 0.027 -0.113 1.685
 0.037 -0.113 1.687
 0.046 -0.114 1.69
 0.056 -0.114 1.693
 0.066 -0.114 1.695
 0.076 -0.114 1.696
 0.086 -0.115 1.698
 0.096 -0.115 1.699
 0.105 -0.115 1.7
 0.115 -0.115 1.699
 0.125 -0.115 1.696
 0.134 -0.114 1.69
 0.143 -0.114 1.681
 0.152 -0.113 1.671
 0.16 -0.112 1.658
 0.168 -0.112 1.644
 0.176 -0.111 1.629
 0.184 -0.11 1.613
 0.192 -0.109 1.597
 0.199 -0.108 1.581
 0.206 -0.107 1.567
 0.214 -0.106 1.556
 0.22 -0.105 1.533
 0.22 -0.101 1.474
 0.224 -0.099 1.446
 0.23 -0.098 1.429
 0.235 -0.097 1.408
 0.242 -0.097 1.401
 0.255 -0.098 1.424
 0.261 -0.098 1.415
 0.265 -0.096 1.393
 0.269 -0.095 1.366
 0.271 -0.093 1.335
 0.273 -0.091 1.31
 0.276 -0.09 1.285
 0.279 -0.088 1.263
 0.283 -0.087 1.247
 0.286 -0.086 1.23
 0.29 -0.085 1.214
 0.293 -0.084 1.196
 0.296 -0.083 1.179
 0.296 -0.081 1.147
 0.294 -0.079 1.114
 0.292 -0.077 1.08
 0.29 -0.075 1.05
 0.289 -0.073 1.021
 0.29 -0.072 1.005
 0.292 -0.071 0.989
 0.295 -0.07 0.976
 0.297 -0.07 0.963
 0.298 -0.069 0.948
 0.3 -0.068 0.934
 0.301 -0.067 0.919
 0.303 -0.066 0.906
 0.305 -0.066 0.896
 0.308 -0.065 0.888
 0.31 -0.064 0.876
 0.314 -0.064 0.871
 0.316 -0.064 0.86
 0.317 -0.063 0.848
 0.319 -0.062 0.838
 0.322 -0.062 0.831
 0.324 -0.061 0.821
 0.326 -0.061 0.812
 0.329 -0.06 0.804
 0.332 -0.06 0.799
 0.335 -0.06 0.791
 0.335 -0.059 0.78
 0.338 -0.059 0.772
 0.341 -0.058 0.766
 0.343 -0.058 0.759
 0.344 -0.058 0.749
 0.348 -0.058 0.747
 0.353 -0.058 0.745
 0.356 -0.057 0.739
 0.361 -0.057 0.737
 0.366 -0.057 0.737
 0.374 -0.058 0.74
 0.379 -0.058 0.74
 0.387 -0.058 0.744
 0.392 -0.059 0.742
 0.397 -0.059 0.741
 0.399 -0.058 0.734
 0.405 -0.059 0.734
 0.411 -0.059 0.734
 0.397 -0.056 0.698
 0.395 -0.055 0.684
 -0.379 -0.046 0.678
 -0.378 -0.047 0.687
 -0.38 -0.047 0.701
 -0.381 -0.048 0.714
 -0.385 -0.049 0.732
 -0.387 -0.05 0.748
 -0.389 -0.051 0.763
 -0.389 -0.052 0.776
 -0.388 -0.052 0.786
 -0.385 -0.052 0.791
 -0.381 -0.053 0.796
 -0.378 -0.053 0.802
 -0.375 -0.053 0.808
 -0.372 -0.053 0.816
 -0.37 -0.054 0.824
 -0.369 -0.055 0.836
 -0.37 -0.055 0.851
 -0.371 -0.056 0.869
 -0.376 -0.058 0.895
 -0.395 -0.062 0.959
 -0.418 -0.066 1.033
 -0.44 -0.071 1.107
 -0.463 -0.075 1.186
 -0.49 -0.081 1.278
 -0.502 -0.084 1.334
 -0.506 -0.086 1.369
 -0.511 -0.089 1.409
 -0.514 -0.091 1.444
 -0.509 -0.091 1.456
 -0.502 -0.092 1.464
 -0.497 -0.092 1.48
 -0.49 -0.093 1.487
 -0.481 -0.093 1.49
 -0.473 -0.093 1.493
 -0.464 -0.093 1.497
 -0.456 -0.093 1.501
 -0.447 -0.093 1.504
 -0.439 -0.093 1.507
 -0.43 -0.094 1.511
 -0.422 -0.094 1.515
 -0.413 -0.094 1.518
 -0.405 -0.094 1.522
 -0.396 -0.094 1.525
 -0.387 -0.094 1.528
 -0.378 -0.094 1.528
 -0.368 -0.094 1.526
 -0.359 -0.094 1.526
 -0.349 -0.094 1.525
 -0.338 -0.093 1.514
 -0.328 -0.093 1.51
 -0.312 -0.091 1.481
 -0.3 -0.09 1.466
 -0.286 -0.088 1.437
 -0.271 -0.086 1.404
 0 0 0
 0 0 0
 0 0 0
 0 0 0
 0 0 0
 0 0 0
 0 0 0
 0 0 0
 0 0 0
 0 0 0
 -0.172 -0.083 1.347
 -0.176 -0.088 1.442
 -0.174 -0.092 1.501
 -0.169 -0.094 1.531
 -0.162 -0.095 1.55
 -0.157 -0.098 1.597
 -0.15 -0.099 1.619
 -0.141 -0.099 1.623
 -0.132 -0.099 1.627
 -0.123 -0.1 1.63
 -0.114 -0.1 1.633
 -0.104 -0.1 1.636
 -0.095 -0.1 1.64
 -0.086 -0.101 1.643
 -0.077 -0.101 1.647
 -0.067 -0.101 1.651
 -0.058 -0.101 1.655
 -0.049 -0.102 1.658
 -0.039 -0.102 1.661
 -0.03 -0.102 1.664
 -0.02 -0.102 1.667
 -0.011 -0.102 1.671
 -0.001 -0.103 1.675
 0.008 -0.103 1.678
 0.017 -0.103 1.681
 0.027 -0.104 1.685
 0.037 -0.104 1.687
 0.047 -0.104 1.689
 0.056 -0.104 1.692
 0.066 -0.104 1.694
 0.076 -0.104 1.695
 0.086 -0.105 1.697
 0.096 -0.105 1.698
 0.105 -0.105 1.698
 0.115 -0.105 1.698
 0.125 -0.105 1.694
 0.134 -0.104 1.688
 0.143 -0.104 1.68
 0.152 -0.103 1.669
 0.16 -0.103 1.656
 0.168 -0.102 1.642
 0.176 -0.101 1.627
 0.184 -0.1 1.612
 0.191 -0.099 1.596
 0.199 -0.099 1.579
 0.206 -0.098 1.566
 0.214 -0.097 1.555
 0.219 -0.096 1.531
 0.22 -0.093 1.474
 0.224 -0.091 1.446
 0.23 -0.09 1.429
 0.235 -0.089 1.408
 0.242 -0.088 1.401
 0.255 -0.09 1.424
 0.261 -0.09 1.414
 0.265 -0.088 1.39
 0.268 -0.087 1.361
 0.27 -0.085 1.334
 0.272 -0.083 1.304
 0.274 -0.082 1.277
 0.277 -0.08 1.254
 0.281 -0.079 1.237
 0.283 -0.078 1.214
 0.286 -0.077 1.197
 0.289 -0.076 1.181
 0.293 -0.075 1.167
 0.293 -0.074 1.138
 0.293 -0.072 1.11
 0.292 -0.07 1.08
 0.291 -0.069 1.052
 0.287 -0.067 1.015
 0.289 -0.066 0.999
 0.291 -0.065 0.987
 0.294 -0.064 0.973
 0.296 -0.064 0.959
 0.299 -0.063 0.952
 0.303 -0.063 0.943
 0.304 -0.062 0.929
 0.305 -0.061 0.912
 0.308 -0.061 0.904
 0.311 -0.06 0.896
 0.312 -0.059 0.881
 0.314 -0.059 0.869
 0.317 -0.058 0.862
 0.317 -0.058 0.848
 0.318 -0.057 0.836
 0.322 -0.057 0.829
 0.324 -0.056 0.82
 0.326 -0.056 0.812
 0.33 -0.056 0.807
 0.333 -0.055 0.8
 0.335 -0.055 0.791
 0.335 -0.054 0.779
 0.337 -0.054 0.77
 0.339 -0.053 0.764
 0.343 -0.053 0.759
 0.344 -0.053 0.749
 0.349 -0.053 0.748
 0.355 -0.053 0.749
 0.357 -0.053 0.742
 0.365 -0.053 0.746
 0.374 -0.054 0.754
 0.387 -0.055 0.767
 0.395 -0.055 0.772
 0.406 -0.056 0.782
 0.413 -0.057 0.783
 0.419 -0.057 0.783
 0.422 -0.057 0.777
 0.429 -0.057 0.777
 0.434 -0.057 0.775
 0.426 -0.055 0.749
 0.433 -0.055 0.75
 -0.38 -0.042 0.681
 -0.376 -0.042 0.684
 -0.38 -0.043 0.701
 -0.382 -0.044 0.716
 -0.386 -0.045 0.734
 -0.388 -0.045 0.751
 -0.39 -0.046 0.766
 -0.39 -0.047 0.778
 -0.388 -0.047 0.787
 -0.385 -0.047 0.791
 -0.381 -0.048 0.796
 -0.377 -0.048 0.801
 -0.374 -0.048 0.807
 -0.371 -0.048 0.814
 -0.369 -0.049 0.822
 -0.367 -0.049 0.831
 -0.365 -0.05 0.841
 -0.364 -0.05 0.853
 -0.366 -0.051 0.873
 -0.378 -0.053 0.917
 -0.394 -0.057 0.973
 -0.41 -0.06 1.031
 -0.428 -0.063 1.096
 -0.453 -0.068 1.181
 -0.466 -0.071 1.238
 -0.471 -0.073 1.273
 -0.479 -0.075 1.321
 -0.487 -0.078 1.369
 -0.483 -0.078 1.384
 -0.48 -0.079 1.4
 -0.482 -0.081 1.433
 -0.477 -0.082 1.449
 -0.469 -0.082 1.451
 -0.464 -0.082 1.465
 -0.46 -0.083 1.482
 -0.452 -0.084 1.49
 -0.446 -0.084 1.499
 -0.439 -0.085 1.51
 -0.431 -0.085 1.514
 -0.422 -0.085 1.517
 -0.414 -0.085 1.52
 -0.405 -0.085 1.523
 -0.396 -0.085 1.526
 -0.387 -0.085 1.527
 -0.377 -0.085 1.525
 -0.367 -0.085 1.523
 -0.358 -0.085 1.522
 -0.347 -0.084 1.515
 -0.334 -0.083 1.497
 -0.323 -0.083 1.49
 -0.308 -0.081 1.46
 -0.294 -0.08 1.436
 -0.279 -0.078 1.405
 -0.263 -0.076 1.363
 0 0 0
 0 0 0
 0 0 0
 0 0 0
 0 0 0
 0 0 0
 0 0 0
 0 0 0
 0 0 0
 0 0 0
 -0.175 -0.076 1.371
 -0.177 -0.081 1.455
 -0.175 -0.083 1.504
 -0.169 -0.085 1.531
 -0.163 -0.086 1.557
 -0.158 -0.089 1.605
 -0.15 -0.09 1.619
 -0.141 -0.09 1.623
 -0.132 -0.09 1.626
 -0.123 -0.09 1.63
 -0.114 -0.09 1.633
 -0.104 -0.091 1.636
 -0.095 -0.091 1.64
 -0.086 -0.091 1.643
 -0.077 -0.091 1.648
 -0.067 -0.092 1.653
 -0.058 -0.092 1.657
 -0.049 -0.092 1.661
 -0.039 -0.092 1.664
 -0.03 -0.093 1.667
 -0.02 -0.093 1.67
 -0.011 -0.093 1.673
 -0.001 -0.093 1.677
 0.008 -0.093 1.681
 0.017 -0.094 1.684
 0.027 -0.094 1.688
 0.037 -0.094 1.69
 0.047 -0.094 1.692
 0.056 -0.094 1.694
 0.066 -0.095 1.696
 0.076 -0.095 1.695
 0.086 -0.095 1.696
 0.096 -0.095 1.696
 0.105 -0.095 1.697
 0.115 -0.095 1.696
 0.125 -0.095 1.693
 0.134 -0.095 1.687
 0.143 -0.094 1.679
 0.152 -0.094 1.667
 0.16 -0.093 1.655
 0.168 -0.092 1.641
 0.176 -0.092 1.626
 0.184 -0.091 1.61
 0.191 -0.09 1.594
 0.198 -0.089 1.578
 0.206 -0.089 1.563
 0.213 -0.088 1.552
 0.219 -0.087 1.526
 0.219 -0.084 1.469
 0.223 -0.082 1.441
 0.229 -0.081 1.422
 0.234 -0.08 1.403
 0.241 -0.08 1.398
 0.254 -0.082 1.422
 0.26 -0.081 1.41
 0.265 -0.08 1.389
 0.267 -0.078 1.36
 0.27 -0.077 1.334
 0.273 -0.076 1.306
 0.275 -0.074 1.28
 0.277 -0.073 1.255
 0.281 -0.072 1.237
 0.283 -0.071 1.217
 0.288 -0.071 1.207
 0.294 -0.07 1.199
 0.299 -0.07 1.19
 0.302 -0.069 1.171
 0.301 -0.067 1.14
 0.301 -0.066 1.117
 0.299 -0.064 1.081
 0.294 -0.062 1.042
 0.293 -0.061 1.015
 0.297 -0.06 1.007
 0.292 -0.058 0.969
 0.295 -0.058 0.956
 0.3 -0.058 0.953
 0.303 -0.057 0.943
 0.305 -0.056 0.93
 0.306 -0.056 0.915
 0.309 -0.055 0.907
 0.312 -0.055 0.898
 0.312 -0.054 0.883
 0.314 -0.054 0.872
 0.317 -0.053 0.863
 0.318 -0.053 0.851
 0.32 -0.052 0.841
 0.324 -0.052 0.836
 0.326 -0.052 0.826
 0.328 -0.051 0.816
 0.331 -0.051 0.811
 0.333 -0.05 0.802
 0.334 -0.05 0.789
 0.333 -0.049 0.776
 0.335 -0.049 0.767
 0.338 -0.048 0.76
 0.341 -0.048 0.755
 0.343 -0.048 0.747
 0.352 -0.049 0.755
 0.362 -0.049 0.764
 0.37 -0.05 0.769
 0.381 -0.051 0.78
 0.393 -0.051 0.792
 0.406 -0.052 0.806
 0.417 -0.053 0.814
 0.426 -0.054 0.82
 0.435 -0.054 0.825
 0.441 -0.054 0.825
 0.445 -0.054 0.82
 0.452 -0.054 0.819
 0.459 -0.055 0.82
 0.498 -0.058 0.877
 0.53 -0.061 0.92
 -0.379 -0.037 0.68
 -0.376 -0.038 0.684
 -0.38 -0.038 0.702
 -0.383 -0.039 0.718
 -0.387 -0.04 0.737
 -0.39 -0.041 0.754
 -0.391 -0.041 0.769
 -0.391 -0.042 0.78
 -0.389 -0.042 0.788
 -0.385 -0.042 0.792
 -0.381 -0.043 0.797
 -0.378 -0.043 0.802
 -0.374 -0.043 0.807
 -0.371 -0.043 0.813
 -0.368 -0.043 0.82
 -0.365 -0.044 0.827
 -0.362 -0.044 0.835
 -0.36 -0.044 0.844
 -0.359 -0.045 0.856
 -0.364 -0.046 0.882
 -0.372 -0.048 0.918
 -0.381 -0.05 0.956
 -0.393 -0.052 1.005
 -0.413 -0.055 1.076
 -0.425 -0.058 1.129
 -0.431 -0.06 1.164
 -0.44 -0.062 1.211
 -0.448 -0.064 1.259
 -0.445 -0.065 1.272
 -0.442 -0.065 1.289
 -0.446 -0.067 1.325
 -0.442 -0.068 1.341
 -0.434 -0.068 1.343
 -0.432 -0.069 1.364
 -0.432 -0.07 1.394
 -0.429 -0.071 1.414
 -0.428 -0.072 1.44
 -0.429 -0.074 1.473
 -0.425 -0.075 1.495
 -0.42 -0.075 1.509
 -0.413 -0.076 1.519
 -0.406 -0.076 1.527
 -0.397 -0.076 1.53
 -0.387 -0.076 1.528
 -0.376 -0.076 1.523
 -0.366 -0.076 1.518
 -0.355 -0.075 1.513
 -0.342 -0.074 1.493
 -0.327 -0.073 1.466
 -0.316 -0.073 1.457
 -0.301 -0.071 1.426
 -0.285 -0.069 1.393
 -0.271 -0.068 1.361
 0 0 0
 0 0 0
 0 0 0
 0 0 0
 0 0 0
 0 0 0
 0 0 0
 0 0 0
 0 0 0
 0 0 0
 0 0 0
 -0.18 -0.07 1.412
 -0.181 -0.074 1.482
 -0.176 -0.075 1.52
 -0.17 -0.077 1.542
 -0.164 -0.078 1.575
 -0.159 -0.08 1.61
 -0.15 -0.08 1.62
 -0.141 -0.08 1.623
 -0.132 -0.081 1.626
 -0.123 -0.081 1.63
 -0.114 -0.081 1.633
 -0.104 -0.081 1.636
 -0.095 -0.081 1.641
 -0.086 -0.082 1.646
 -0.077 -0.082 1.652
 -0.068 -0.082 1.657
 -0.058 -0.083 1.661
 -0.049 -0.083 1.665
 -0.039 -0.083 1.669
 -0.03 -0.083 1.671
 -0.02 -0.083 1.673
 -0.011 -0.083 1.677
 -0.001 -0.084 1.681
 0.008 -0.084 1.684
 0.017 -0.084 1.687
 0.027 -0.084 1.691
 0.037 -0.084 1.692
 0.047 -0.085 1.694
 0.057 -0.085 1.696
 0.066 -0.085 1.697
 0.076 -0.085 1.696
 0.086 -0.085 1.697
 0.096 -0.085 1.697
 0.105 -0.085 1.697
 0.115 -0.085 1.695
 0.125 -0.085 1.692
 0.134 -0.085 1.686
 0.143 -0.084 1.677
 0.152 -0.084 1.666
 0.16 -0.083 1.654
 0.168 -0.083 1.639
 0.176 -0.082 1.624
 0.184 -0.082 1.609
 0.191 -0.081 1.593
 0.198 -0.08 1.577
 0.206 -0.079 1.562
 0.213 -0.079 1.55
 0.218 -0.078 1.521
 0.218 -0.075 1.464
 0.223 -0.074 1.439
 0.229 -0.073 1.424
 0.235 -0.072 1.407
 0.243 -0.072 1.404
 0.256 -0.074 1.431
 0.262 -0.073 1.421
 0.267 -0.072 1.4
 0.27 -0.071 1.374
 0.274 -0.07 1.353
 0.277 -0.069 1.329
 0.281 -0.068 1.309
 0.284 -0.067 1.286
 0.288 -0.066 1.27
 0.292 -0.066 1.255
 0.297 -0.065 1.245
 0.302 -0.065 1.23
 0.307 -0.064 1.221
 0.309 -0.063 1.199
 0.305 -0.061 1.159
 0.304 -0.06 1.125
 0.3 -0.058 1.086
 0.296 -0.056 1.049
 0.294 -0.055 1.017
 0.298 -0.054 1.01
 0.292 -0.052 0.967
 0.295 -0.052 0.959
 0.301 -0.052 0.956
 0.304 -0.052 0.948
 0.307 -0.051 0.938
 0.31 -0.051 0.928
 0.312 -0.05 0.918
 0.316 -0.05 0.909
 0.317 -0.049 0.896
 0.317 -0.049 0.881
 0.318 -0.048 0.867
 0.32 -0.048 0.856
 0.322 -0.047 0.846
 0.326 -0.047 0.841
 0.329 -0.047 0.833
 0.33 -0.046 0.823
 0.336 -0.046 0.822
 0.338 -0.046 0.812
 0.337 -0.045 0.799
 0.338 -0.045 0.787
 0.339 -0.044 0.776
 0.339 -0.044 0.763
 0.345 -0.044 0.764
 0.349 -0.044 0.76
 0.36 -0.045 0.773
 0.373 -0.046 0.789
 0.385 -0.047 0.8
 0.398 -0.047 0.814
 0.409 -0.048 0.826
 0.424 -0.049 0.841
 0.434 -0.05 0.848
 0.444 -0.05 0.855
 0.454 -0.051 0.862
 0.462 -0.051 0.863
 0.467 -0.051 0.86
 0.475 -0.051 0.862
 0.482 -0.052 0.861
 0.501 -0.053 0.883
 0.511 -0.053 0.888
 -0.377 -0.033 0.676
 -0.377 -0.033 0.686
 -0.381 -0.034 0.703
 -0.385 -0.035 0.721
 -0.388 -0.035 0.74
 -0.392 -0.036 0.757
 -0.393 -0.037 0.772
 -0.392 -0.037 0.783
 -0.389 -0.037 0.789
 -0.385 -0.037 0.793
 -0.382 -0.038 0.798
 -0.378 -0.038 0.802
 -0.374 -0.038 0.808
 -0.371 -0.038 0.813
 -0.367 -0.038 0.819
 -0.364 -0.038 0.825
 -0.361 -0.039 0.831
 -0.358 -0.039 0.838
 -0.355 -0.039 0.847
 -0.354 -0.04 0.859
 -0.355 -0.04 0.875
 -0.356 -0.041 0.893
 -0.361 -0.042 0.921
 -0.374 -0.044 0.974
 -0.384 -0.046 1.018
 -0.389 -0.048 1.051
 -0.398 -0.05 1.097
 -0.407 -0.051 1.143
 -0.404 -0.052 1.155
 -0.402 -0.053 1.172
 -0.406 -0.054 1.208
 -0.404 -0.055 1.223
 -0.396 -0.055 1.225
 -0.395 -0.056 1.246
 -0.396 -0.057 1.276
 -0.394 -0.058 1.297
 -0.395 -0.059 1.326
 -0.397 -0.06 1.365
 -0.397 -0.062 1.394
 -0.395 -0.063 1.419
 -0.394 -0.064 1.449
 -0.393 -0.065 1.478
 -0.388 -0.066 1.497
 -0.381 -0.066 1.506
 -0.373 -0.066 1.51
 -0.363 -0.066 1.505
 -0.35 -0.065 1.488
 -0.333 -0.064 1.455
 -0.316 -0.062 1.419
 -0.304 -0.062 1.402
 -0.287 -0.06 1.361
 -0.271 -0.058 1.321
 -0.257 -0.057 1.289
 0 0 0
 0 0 0
 0 0 0
 0 0 0
 0 0 0
 0 0 0
 0 0 0
 0 0 0
 0 0 0
 0 0 0
 0 0 0
 -0.183 -0.063 1.434
 -0.182 -0.066 1.496
 -0.177 -0.067 1.528
 -0.17 -0.068 1.548
 -0.165 -0.069 1.587
 -0.159 -0.071 1.613
 -0.15 -0.071 1.619
 -0.141 -0.071 1.623
 -0.132 -0.071 1.626
 -0.123 -0.071 1.63
 -0.114 -0.072 1.634
 -0.104 -0.072 1.639
 -0.095 -0.072 1.645
 -0.086 -0.072 1.648
 -0.076 -0.072 1.643
 -0.066 -0.072 1.63
 -0.056 -0.071 1.615
 -0.047 -0.071 1.604
 -0.038 -0.07 1.6
 -0.028 -0.071 1.605
 -0.019 -0.071 1.617
 -0.01 -0.072 1.628
 -0.001 -0.072 1.63
 0.007 -0.072 1.625
 0.017 -0.071 1.617
 0.026 -0.071 1.611
 0.035 -0.071 1.602
 0.044 -0.071 1.603
 0.054 -0.072 1.62
 0.064 -0.073 1.639
 0.074 -0.073 1.657
 0.085 -0.074 1.679
 0.095 -0.075 1.695
 0.105 -0.075 1.697
 0.115 -0.075 1.694
 0.125 -0.075 1.692
 0.134 -0.075 1.686
 0.143 -0.075 1.677
 0.151 -0.074 1.665
 0.16 -0.074 1.653
 0.168 -0.073 1.638
 0.176 -0.073 1.623
 0.183 -0.072 1.608
 0.191 -0.071 1.591
 0.198 -0.071 1.574
 0.205 -0.07 1.559
 0.213 -0.07 1.546
 0.218 -0.069 1.52
 0.22 -0.067 1.472
 0.225 -0.066 1.453
 0.231 -0.065 1.438
 0.237 -0.065 1.421
 0.245 -0.065 1.416
 0.257 -0.066 1.436
 0.263 -0.065 1.424
 0.268 -0.064 1.404
 0.271 -0.063 1.38
 0.276 -0.063 1.363
 0.279 -0.062 1.337
 0.282 -0.061 1.316
 0.286 -0.06 1.296
 0.289 -0.059 1.273
 0.293 -0.059 1.258
 0.298 -0.058 1.247
 0.303 -0.058 1.237
 0.308 -0.057 1.227
 0.313 -0.057 1.216
 0.31 -0.055 1.175
 0.309 -0.054 1.145
 0.306 -0.052 1.107
 0.302 -0.051 1.068
 0.297 -0.049 1.028
 0.304 -0.049 1.029
 0.293 -0.047 0.971
 0.295 -0.046 0.958
 0.302 -0.046 0.962
 0.308 -0.046 0.959
 0.31 -0.046 0.948
 0.314 -0.046 0.941
 0.319 -0.046 0.937
 0.322 -0.045 0.928
 0.325 -0.045 0.918
 0.325 -0.044 0.902
 0.325 -0.044 0.885
 0.327 -0.043 0.874
 0.328 -0.043 0.861
 0.33 -0.042 0.852
 0.335 -0.042 0.85
 0.338 -0.042 0.841
 0.343 -0.042 0.84
 0.344 -0.042 0.828
 0.343 -0.041 0.812
 0.343 -0.041 0.8
 0.348 -0.041 0.796
 0.348 -0.04 0.783
 0.358 -0.041 0.793
 0.366 -0.041 0.797
 0.375 -0.042 0.806
 0.387 -0.042 0.818
 0.398 -0.043 0.829
 0.411 -0.044 0.841
 0.422 -0.044 0.852
 0.438 -0.045 0.871
 0.449 -0.046 0.878
 0.458 -0.046 0.884
 0.469 -0.047 0.89
 0.476 -0.047 0.89
 0.48 -0.047 0.885
 0.487 -0.047 0.884
 0.492 -0.047 0.881
 0.507 -0.048 0.895
 0.521 -0.048 0.905
 -0.375 -0.028 0.671
 -0.377 -0.029 0.686
 -0.381 -0.029 0.704
 -0.386 -0.03 0.724
 -0.39 -0.031 0.744
 -0.394 -0.031 0.762
 -0.395 -0.032 0.776
 -0.394 -0.032 0.786
 -0.39 -0.032 0.791
 -0.386 -0.032 0.795
 -0.382 -0.033 0.799
 -0.378 -0.033 0.803
 -0.374 -0.033 0.808
 -0.37 -0.033 0.812
 -0.367 -0.033 0.818
 -0.363 -0.033 0.823
 -0.36 -0.033 0.829
 -0.356 -0.034 0.835
 -0.353 -0.034 0.841
 -0.35 -0.034 0.848
 -0.347 -0.034 0.856
 -0.345 -0.035 0.866
 -0.345 -0.035 0.881
 -0.351 -0.036 0.914
 -0.355 -0.037 0.939
 -0.355 -0.038 0.957
 -0.359 -0.039 0.988
 -0.366 -0.04 1.024
 -0.362 -0.041 1.035
 -0.361 -0.041 1.051
 -0.366 -0.042 1.087
 -0.364 -0.043 1.101
 -0.357 -0.043 1.103
 -0.356 -0.044 1.123
 -0.358 -0.045 1.153
 -0.357 -0.045 1.174
 -0.358 -0.046 1.204
 -0.362 -0.048 1.243
 -0.362 -0.049 1.271
 -0.361 -0.05 1.297
 -0.362 -0.051 1.33
 -0.363 -0.052 1.365
 -0.36 -0.053 1.388
 -0.355 -0.053 1.401
 -0.349 -0.054 1.414
 -0.342 -0.054 1.417
 -0.329 -0.053 1.401
 -0.314 -0.052 1.372
 -0.299 -0.051 1.342
 -0.284 -0.05 1.311
 -0.265 -0.048 1.257
 -0.246 -0.046 1.201
 -0.23 -0.044 1.154
 -0.211 -0.042 1.091
 -0.207 -0.043 1.105
 0 0 0
 0 0 0
 0 0 0
 0 0 0
 0 0 0
 0 0 0
 0 0 0
 0 0 0
 -0.183 -0.052 1.366
 -0.186 -0.055 1.456
 -0.184 -0.057 1.509
 -0.178 -0.058 1.537
 -0.171 -0.059 1.554
 -0.166 -0.061 1.596
 -0.159 -0.061 1.615
 -0.15 -0.062 1.62
 -0.141 -0.062 1.623
 -0.132 -0.062 1.628
 -0.123 -0.062 1.632
 -0.114 -0.062 1.637
 -0.104 -0.062 1.641
 -0.095 -0.062 1.634
 -0.084 -0.061 1.611
 -0.073 -0.06 1.575
 -0.062 -0.058 1.527
 -0.052 -0.057 1.48
 -0.042 -0.056 1.448
 -0.034 -0.055 1.437
 -0.026 -0.055 1.441
 -0.018 -0.056 1.454
 -0.009 -0.056 1.464
 -0.001 -0.056 1.464
 0.007 -0.056 1.457
 0.015 -0.056 1.448
 0.023 -0.056 1.44
 0.031 -0.055 1.432
 0.039 -0.055 1.433
 0.048 -0.056 1.459
 0.059 -0.058 1.509
 0.07 -0.06 1.561
 0.082 -0.062 1.617
 0.094 -0.064 1.666
 0.105 -0.065 1.693
 0.115 -0.065 1.694
 0.125 -0.065 1.691
 0.134 -0.065 1.685
 0.143 -0.065 1.675
 0.151 -0.065 1.663
 0.16 -0.064 1.652
 0.168 -0.064 1.637
 0.176 -0.063 1.622
 0.183 -0.063 1.607
 0.191 -0.062 1.59
 0.198 -0.062 1.574
 0.205 -0.061 1.557
 0.212 -0.061 1.544
 0.218 -0.06 1.519
 0.221 -0.058 1.48
 0.227 -0.058 1.463
 0.233 -0.057 1.448
 0.238 -0.057 1.429
 0.246 -0.057 1.422
 0.257 -0.057 1.44
 0.263 -0.057 1.427
 0.268 -0.056 1.407
 0.272 -0.056 1.386
 0.278 -0.055 1.373
 0.282 -0.054 1.35
 0.286 -0.054 1.335
 0.29 -0.053 1.315
 0.291 -0.052 1.283
 0.296 -0.052 1.27
 0.302 -0.051 1.264
 0.308 -0.051 1.255
 0.313 -0.051 1.246
 0.323 -0.051 1.256
 0.323 -0.05 1.225
 0.323 -0.049 1.198
 0.325 -0.049 1.176
 0.32 -0.047 1.133
 0.315 -0.045 1.092
 0.321 -0.045 1.088
 0 0 0
 0.295 -0.04 0.958
 0.304 -0.041 0.968
 0.313 -0.041 0.977
 0.318 -0.041 0.973
 0.321 -0.041 0.962
 0.325 -0.041 0.954
 0.329 -0.041 0.948
 0.331 -0.04 0.936
 0.331 -0.04 0.919
 0.332 -0.039 0.904
 0 0 0
 0 0 0
 0 0 0
 0 0 0
 0 0 0
 0 0 0
 0 0 0
 0 0 0
 0.377 -0.039 0.877
 0.383 -0.039 0.877
 0.387 -0.039 0.872
 0.389 -0.039 0.862
 0.387 -0.038 0.845
 0.394 -0.038 0.845
 0.397 -0.038 0.839
 0.404 -0.038 0.84
 0.412 -0.038 0.844
 0.424 -0.039 0.854
 0.434 -0.039 0.862
 0.443 -0.04 0.866
 0.452 -0.04 0.871
 0.462 -0.04 0.877
 0.467 -0.04 0.873
 0.472 -0.04 0.869
 0.477 -0.04 0.866
 0.48 -0.04 0.859
 0.51 -0.042 0.9
 0.508 -0.042 0.882
 -0.374 -0.024 0.67
 -0.379 -0.024 0.69
 -0.382 -0.025 0.707
 -0.388 -0.026 0.729
 -0.393 -0.026 0.749
 -0.396 -0.027 0.767
 -0.397 -0.027 0.781
 -0.395 -0.027 0.789
 -0.391 -0.027 0.793
 -0.387 -0.028 0.797
 -0.383 -0.028 0.801
 -0.378 -0.028 0.804
 -0.374 -0.028 0.808
 -0.37 -0.028 0.813
 -0.366 -0.028 0.817
 -0.363 -0.028 0.822
 -0.359 -0.028 0.827
 -0.355 -0.028 0.832
 -0.351 -0.028 0.837
 -0.348 -0.029 0.843
 -0.344 -0.029 0.849
 -0.341 -0.029 0.857
 -0.339 -0.029 0.867
 -0.338 -0.03 0.88
 -0.336 -0.03 0.889
 -0.332 -0.03 0.896
 -0.331 -0.03 0.909
 -0.331 -0.031 0.927
 -0.327 -0.031 0.934
 -0.325 -0.031 0.944
 -0.325 -0.032 0.965
 -0.323 -0.032 0.975
 -0.316 -0.032 0.976
 -0.316 -0.033 0.996
 -0.319 -0.034 1.025
 -0.319 -0.034 1.047
 -0.321 -0.035 1.077
 -0.325 -0.037 1.116
 -0.326 -0.037 1.145
 -0.326 -0.038 1.171
 -0.328 -0.039 1.204
 -0.33 -0.04 1.239
 -0.328 -0.041 1.261
 -0.323 -0.041 1.274
 -0.319 -0.042 1.287
 -0.312 -0.042 1.294
 -0.301 -0.042 1.281
 -0.287 -0.041 1.255
 -0.275 -0.04 1.234
 -0.26 -0.039 1.196
 -0.241 -0.037 1.141
 -0.223 -0.036 1.086
 -0.21 -0.035 1.051
 -0.195 -0.033 1.006
 -0.191 -0.033 1.016
 -0.186 -0.034 1.025
 -0.183 -0.034 1.042
 -0.178 -0.034 1.048
 -0.168 -0.034 1.026
 -0.163 -0.034 1.034
 -0.159 -0.035 1.05
 -0.153 -0.035 1.049
 -0.152 -0.036 1.083
 -0.172 -0.042 1.284
 -0.181 -0.046 1.419
 -0.182 -0.048 1.499
 -0.177 -0.049 1.527
 -0.171 -0.05 1.558
 -0.167 -0.052 1.604
 -0.159 -0.052 1.617
 -0.15 -0.052 1.622
 -0.141 -0.052 1.627
 -0.132 -0.053 1.633
 -0.123 -0.053 1.635
 -0.113 -0.052 1.626
 -0.102 -0.052 1.602
 -0.091 -0.051 1.563
 -0.079 -0.049 1.506
 -0.067 -0.047 1.437
 -0.056 -0.045 1.369
 -0.046 -0.043 1.314
 -0.038 -0.042 1.28
 -0.03 -0.042 1.267
 -0.023 -0.042 1.271
 -0.016 -0.042 1.282
 -0.008 -0.043 1.291
 -0.001 -0.043 1.291
 0.006 -0.042 1.284
 0.013 -0.042 1.273
 0.02 -0.042 1.265
 0.027 -0.042 1.256
 0.034 -0.042 1.258
 0.043 -0.043 1.285
 0.052 -0.044 1.34
 0.063 -0.047 1.417
 0.076 -0.05 1.507
 0.09 -0.052 1.592
 0.103 -0.054 1.652
 0.114 -0.055 1.683
 0.124 -0.056 1.69
 0.134 -0.055 1.684
 0.143 -0.055 1.674
 0.151 -0.055 1.663
 0.16 -0.055 1.651
 0.168 -0.054 1.637
 0.176 -0.054 1.621
 0.183 -0.053 1.606
 0.191 -0.053 1.589
 0.198 -0.053 1.572
 0.205 -0.052 1.556
 0.212 -0.052 1.541
 0.218 -0.051 1.519
 0.222 -0.05 1.489
 0.229 -0.05 1.476
 0.235 -0.049 1.461
 0.241 -0.049 1.445
 0.248 -0.049 1.437
 0.258 -0.049 1.443
 0.263 -0.049 1.426
 0.269 -0.048 1.411
 0.274 -0.048 1.395
 0.28 -0.047 1.383
 0.286 -0.047 1.369
 0.293 -0.047 1.363
 0.298 -0.047 1.349
 0.298 -0.045 1.313
 0.305 -0.045 1.31
 0.313 -0.046 1.31
 0.32 -0.045 1.304
 0.326 -0.045 1.3
 0.343 -0.046 1.332
 0.35 -0.046 1.328
 0.361 -0.047 1.338
 0.368 -0.047 1.333
 0.38 -0.047 1.348
 0 0 0
 0.402 -0.048 1.364
 0 0 0
 0 0 0
 0.432 -0.049 1.376
 0.44 -0.049 1.374
 0.413 -0.045 1.265
 0.402 -0.043 1.205
 0.386 -0.041 1.136
 0.378 -0.04 1.09
 0.372 -0.038 1.053
 0.372 -0.038 1.033
 0.367 -0.037 1
 0.368 -0.036 0.984
 0 0 0
 0 0 0
 0 0 0
 0 0 0
 0 0 0
 0 0 0
 0.461 -0.041 1.094
 0.43 -0.038 1.002
 0.417 -0.036 0.956
 0.41 -0.035 0.926
 0.402 -0.034 0.892
 0.396 -0.033 0.863
 0.398 -0.033 0.855
 0.4 -0.033 0.845
 0.405 -0.033 0.842
 0.412 -0.033 0.844
 0.421 -0.033 0.85
 0.429 -0.034 0.853
 0.436 -0.034 0.854
 0.443 -0.034 0.854
 0.451 -0.034 0.857
 0.455 -0.034 0.851
 0.459 -0.034 0.845
 0.463 -0.034 0.841
 0.467 -0.034 0.836
 0.458 -0.033 0.808
 0.466 -0.033 0.809
 -0.372 -0.019 0.668
 -0.375 -0.02 0.683
 -0.384 -0.02 0.709
 -0.39 -0.021 0.732
 -0.394 -0.021 0.752
 -0.398 -0.022 0.771
 -0.399 -0.022 0.784
 -0.396 -0.022 0.791
 -0.392 -0.022 0.795
 -0.388 -0.023 0.799
 -0.383 -0.023 0.802
 -0.379 -0.023 0.805
 -0.374 -0.023 0.809
 -0.37 -0.023 0.813
 -0.366 -0.023 0.817
 -0.362 -0.023 0.821
 -0.358 -0.023 0.826
 -0.354 -0.023 0.83
 -0.35 -0.023 0.835
 -0.346 -0.023 0.84
 -0.343 -0.023 0.845
 -0.339 -0.024 0.852
 -0.336 -0.024 0.858
 -0.332 -0.024 0.864
 -0.329 -0.024 0.87
 -0.324 -0.024 0.875
 -0.32 -0.024 0.878
 -0.315 -0.024 0.881
 -0.31 -0.024 0.883
 -0.304 -0.024 0.884
 -0.3 -0.024 0.888
 -0.294 -0.024 0.889
 -0.289 -0.024 0.891
 -0.286 -0.025 0.899
 -0.285 -0.025 0.915
 -0.284 -0.025 0.932
 -0.285 -0.026 0.956
 -0.288 -0.027 0.986
 -0.289 -0.027 1.013
 -0.29 -0.028 1.039
 -0.293 -0.029 1.073
 -0.295 -0.03 1.108
 -0.294 -0.03 1.13
 -0.291 -0.031 1.145
 -0.287 -0.031 1.16
 -0.282 -0.031 1.168
 -0.272 -0.031 1.155
 -0.26 -0.03 1.135
 -0.25 -0.03 1.12
 -0.236 -0.029 1.084
 -0.22 -0.028 1.038
 -0.206 -0.027 1.001
 -0.196 -0.027 0.981
 -0.186 -0.026 0.963
 -0.182 -0.026 0.968
 -0.177 -0.026 0.973
 -0.173 -0.027 0.984
 -0.167 -0.027 0.987
 -0.159 -0.026 0.971
 -0.154 -0.027 0.978
 -0.151 -0.027 0.995
 -0.146 -0.027 1.002
 -0.147 -0.029 1.054
 -0.164 -0.033 1.228
 -0.176 -0.037 1.38
 -0.18 -0.039 1.482
 -0.178 -0.041 1.533
 -0.173 -0.042 1.575
 -0.168 -0.043 1.613
 -0.16 -0.043 1.623
 -0.151 -0.043 1.627
 -0.141 -0.043 1.628
 -0.131 -0.043 1.618
 -0.12 -0.042 1.593
 -0.108 -0.041 1.552
 -0.095 -0.04 1.495
 -0.083 -0.038 1.426
 -0.071 -0.036 1.35
 -0.059 -0.034 1.272
 -0.049 -0.033 1.2
 -0.04 -0.031 1.143
 -0.033 -0.03 1.107
 -0.026 -0.03 1.093
 -0.02 -0.03 1.096
 -0.014 -0.03 1.107
 -0.007 -0.031 1.115
 -0.001 -0.031 1.114
 0.005 -0.03 1.106
 0.011 -0.03 1.095
 0.017 -0.03 1.085
 0.023 -0.03 1.076
 0.029 -0.03 1.078
 0.036 -0.031 1.107
 0.045 -0.032 1.162
 0.055 -0.034 1.243
 0.068 -0.037 1.355
 0.083 -0.04 1.473
 0.097 -0.043 1.568
 0.111 -0.044 1.634
 0.123 -0.045 1.674
 0.134 -0.046 1.683
 0.143 -0.046 1.675
 0.151 -0.045 1.662
 0.159 -0.045 1.647
 0.167 -0.045 1.632
 0.175 -0.044 1.616
 0.183 -0.044 1.6
 0.19 -0.044 1.585
 0.198 -0.043 1.571
 0.205 -0.043 1.555
 0.212 -0.043 1.54
 0.218 -0.042 1.52
 0.224 -0.042 1.499
 0.231 -0.042 1.488
 0.237 -0.041 1.475
 0.244 -0.041 1.46
 0.251 -0.041 1.451
 0.258 -0.041 1.447
 0.264 -0.04 1.431
 0.27 -0.04 1.416
 0.276 -0.04 1.406
 0.283 -0.04 1.396
 0.289 -0.039 1.387
 0.298 -0.04 1.387
 0.305 -0.039 1.38
 0.304 -0.038 1.342
 0.312 -0.039 1.341
 0.318 -0.038 1.332
 0.322 -0.038 1.315
 0.328 -0.038 1.305
 0.343 -0.039 1.334
 0.351 -0.039 1.332
 0.365 -0.039 1.353
 0.376 -0.04 1.363
 0.39 -0.04 1.381
 0.399 -0.04 1.383
 0.403 -0.04 1.369
 0.405 -0.04 1.346
 0.414 -0.04 1.345
 0.419 -0.039 1.335
 0.425 -0.039 1.326
 0.412 -0.038 1.262
 0.406 -0.036 1.217
 0.395 -0.035 1.163
 0.389 -0.034 1.122
 0.386 -0.033 1.093
 0.388 -0.033 1.078
 0.387 -0.032 1.055
 0.393 -0.032 1.052
 0 0 0
 0 0 0
 0 0 0
 0 0 0
 0.443 -0.034 1.086
 0.446 -0.034 1.076
 0.443 -0.033 1.051
 0.428 -0.032 0.998
 0.42 -0.031 0.963
 0.415 -0.03 0.937
 0.408 -0.029 0.905
 0.402 -0.028 0.877
 0.403 -0.028 0.865
 0.404 -0.028 0.853
 0.406 -0.028 0.845
 0.411 -0.028 0.843
 0.418 -0.028 0.843
 0.424 -0.028 0.843
 0.429 -0.028 0.839
 0.435 -0.028 0.838
 0.44 -0.028 0.836
 0.444 -0.028 0.83
 0.447 -0.028 0.823
 0.451 -0.028 0.819
 0.453 -0.028 0.811
 0.429 -0.026 0.755
 0.431 -0.026 0.749
 -0.375 -0.015 0.673
 -0.375 -0.015 0.683
 -0.385 -0.016 0.713
 -0.391 -0.016 0.735
 -0.396 -0.017 0.756
 -0.4 -0.017 0.774
 -0.4 -0.017 0.786
 -0.397 -0.017 0.792
 -0.392 -0.017 0.796
 -0.388 -0.017 0.799
 -0.383 -0.018 0.802
 -0.379 -0.018 0.805
 -0.374 -0.018 0.809
 -0.37 -0.018 0.813
 -0.366 -0.018 0.817
 -0.362 -0.018 0.821
 -0.358 -0.018 0.825
 -0.354 -0.018 0.83
 -0.35 -0.018 0.834
 -0.346 -0.018 0.839
 -0.342 -0.018 0.844
 -0.338 -0.018 0.849
 -0.334 -0.018 0.854
 -0.33 -0.018 0.859
 -0.326 -0.019 0.863
 -0.321 -0.019 0.866
 -0.316 -0.019 0.868
 -0.311 -0.019 0.869
 -0.305 -0.019 0.87
 -0.3 -0.019 0.871
 -0.294 -0.019 0.871
 -0.288 -0.019 0.871
 -0.283 -0.019 0.873
 -0.278 -0.019 0.874
 -0.273 -0.019 0.877
 -0.269 -0.019 0.88
 -0.265 -0.019 0.886
 -0.261 -0.019 0.894
 -0.258 -0.019 0.903
 -0.257 -0.02 0.918
 -0.258 -0.02 0.943
 -0.259 -0.021 0.972
 -0.259 -0.021 0.993
 -0.257 -0.021 1.011
 -0.255 -0.022 1.029
 -0.251 -0.022 1.039
 -0.243 -0.022 1.031
 -0.235 -0.022 1.022
 -0.227 -0.021 1.016
 -0.216 -0.021 0.992
 -0.204 -0.021 0.964
 -0.195 -0.02 0.947
 -0.187 -0.02 0.939
 -0.181 -0.02 0.936
 -0.176 -0.02 0.939
 -0.171 -0.02 0.941
 -0.167 -0.02 0.948
 -0.161 -0.02 0.948
 -0.153 -0.02 0.936
 -0.149 -0.02 0.942
 -0.146 -0.021 0.959
 -0.142 -0.021 0.97
 -0.145 -0.022 1.033
 -0.16 -0.025 1.193
 -0.172 -0.028 1.347
 -0.178 -0.03 1.466
 -0.178 -0.032 1.538
 -0.175 -0.033 1.59
 -0.168 -0.033 1.614
 -0.158 -0.033 1.608
 -0.147 -0.033 1.591
 -0.136 -0.032 1.563
 -0.123 -0.032 1.522
 -0.111 -0.031 1.47
 -0.098 -0.029 1.408
 -0.085 -0.028 1.338
 -0.073 -0.027 1.262
 -0.062 -0.025 1.181
 -0.052 -0.024 1.101
 -0.042 -0.022 1.027
 -0.034 -0.021 0.969
 -0.028 -0.02 0.932
 -0.022 -0.02 0.917
 -0.017 -0.02 0.92
 -0.012 -0.021 0.931
 -0.006 -0.021 0.938
 -0.001 -0.021 0.936
 0.004 -0.021 0.928
 0.009 -0.02 0.916
 0.014 -0.02 0.906
 0.019 -0.02 0.897
 0.024 -0.02 0.899
 0.03 -0.021 0.928
 0.038 -0.022 0.984
 0.047 -0.023 1.066
 0.059 -0.026 1.179
 0.074 -0.028 1.313
 0.089 -0.031 1.442
 0.105 -0.033 1.543
 0.119 -0.035 1.619
 0.132 -0.036 1.659
 0.142 -0.036 1.661
 0.148 -0.035 1.63
 0.155 -0.034 1.598
 0.162 -0.034 1.581
 0.17 -0.034 1.567
 0.178 -0.034 1.561
 0.188 -0.034 1.566
 0.197 -0.034 1.569
 0.205 -0.034 1.554
 0.212 -0.034 1.539
 0.218 -0.033 1.523
 0.225 -0.033 1.509
 0.232 -0.033 1.498
 0.239 -0.033 1.483
 0.245 -0.033 1.467
 0.251 -0.032 1.452
 0.257 -0.032 1.436
 0.261 -0.032 1.416
 0.267 -0.031 1.402
 0.273 -0.031 1.39
 0.279 -0.031 1.377
 0.285 -0.031 1.368
 0.293 -0.031 1.364
 0.3 -0.031 1.36
 0.3 -0.03 1.324
 0.307 -0.03 1.318
 0.313 -0.03 1.309
 0.318 -0.03 1.296
 0.323 -0.03 1.287
 0.337 -0.03 1.311
 0.346 -0.03 1.315
 0.358 -0.031 1.327
 0.367 -0.031 1.332
 0.376 -0.031 1.334
 0.382 -0.031 1.325
 0.388 -0.031 1.315
 0.39 -0.03 1.295
 0.396 -0.03 1.289
 0.402 -0.03 1.282
 0.408 -0.03 1.275
 0.408 -0.03 1.247
 0.408 -0.029 1.223
 0.405 -0.029 1.19
 0.403 -0.028 1.162
 0.405 -0.028 1.147
 0.409 -0.028 1.136
 0.411 -0.027 1.123
 0.42 -0.028 1.125
 0 0 0
 0 0 0
 0 0 0
 0 0 0
 0.425 -0.026 1.044
 0.431 -0.026 1.039
 0.433 -0.026 1.026
 0.428 -0.025 0.998
 0.424 -0.025 0.972
 0.42 -0.024 0.948
 0.416 -0.024 0.923
 0.411 -0.023 0.898
 0.411 -0.023 0.882
 0.41 -0.023 0.868
 0.411 -0.023 0.856
 0.413 -0.022 0.847
 0.417 -0.022 0.842
 0.421 -0.022 0.837
 0.425 -0.022 0.831
 0.428 -0.022 0.825
 0.431 -0.022 0.819
 0.434 -0.022 0.811
 0.436 -0.022 0.803
 0.439 -0.022 0.796
 0.441 -0.022 0.789
 0.436 -0.021 0.768
 0.442 -0.021 0.767
 -0.374 -0.011 0.671
 -0.377 -0.011 0.686
 -0.387 -0.011 0.717
 -0.393 -0.012 0.739
 -0.398 -0.012 0.76
 -0.402 -0.012 0.778
 -0.401 -0.012 0.789
 -0.397 -0.012 0.794
 -0.393 -0.012 0.797
 -0.388 -0.012 0.8
 -0.384 -0.012 0.803
 -0.379 -0.013 0.806
 -0.375 -0.013 0.81
 -0.371 -0.013 0.814
 -0.366 -0.013 0.818
 -0.362 -0.013 0.822
 -0.358 -0.013 0.826
 -0.354 -0.013 0.83
 -0.35 -0.013 0.834
 -0.346 -0.013 0.838
 -0.342 -0.013 0.843
 -0.338 -0.013 0.847
 -0.333 -0.013 0.852
 -0.329 -0.013 0.856
 -0.324 -0.013 0.858
 -0.319 -0.013 0.86
 -0.313 -0.013 0.861
 -0.308 -0.013 0.861
 -0.302 -0.013 0.862
 -0.297 -0.013 0.862
 -0.291 -0.013 0.863
 -0.286 -0.013 0.864
 -0.281 -0.013 0.866
 -0.276 -0.013 0.866
 -0.27 -0.013 0.868
 -0.265 -0.013 0.87
 -0.261 -0.013 0.872
 -0.255 -0.013 0.873
 -0.25 -0.014 0.874
 -0.245 -0.014 0.876
 -0.241 -0.014 0.88
 -0.237 -0.014 0.888
 -0.233 -0.014 0.893
 -0.229 -0.014 0.899
 -0.226 -0.014 0.908
 -0.222 -0.014 0.917
 -0.217 -0.014 0.921
 -0.213 -0.014 0.925
 -0.207 -0.014 0.927
 -0.201 -0.014 0.921
 -0.194 -0.014 0.914
 -0.187 -0.014 0.909
 -0.182 -0.014 0.91
 -0.178 -0.014 0.919
 -0.173 -0.014 0.92
 -0.167 -0.014 0.92
 -0.162 -0.014 0.925
 -0.157 -0.014 0.923
 -0.15 -0.014 0.914
 -0.145 -0.014 0.92
 -0.142 -0.015 0.934
 -0.138 -0.015 0.944
 -0.139 -0.015 0.994
 -0.149 -0.017 1.116
 -0.159 -0.019 1.245
 -0.165 -0.02 1.359
 -0.167 -0.022 1.441
 -0.165 -0.022 1.498
 -0.157 -0.022 1.508
 -0.147 -0.022 1.491
 -0.135 -0.022 1.461
 -0.123 -0.021 1.421
 -0.111 -0.021 1.371
 -0.099 -0.02 1.313
 -0.087 -0.019 1.246
 -0.075 -0.018 1.172
 -0.064 -0.017 1.092
 -0.053 -0.016 1.011
 -0.044 -0.015 0.94
 -0.037 -0.014 0.885
 -0.03 -0.014 0.845
 -0.025 -0.014 0.823
 -0.02 -0.013 0.815
 -0.015 -0.014 0.816
 -0.01 -0.014 0.817
 -0.006 -0.014 0.818
 -0.001 -0.014 0.818
 0.003 -0.014 0.819
 0.008 -0.014 0.818
 0.012 -0.014 0.817
 0.017 -0.014 0.817
 0.022 -0.014 0.818
 0.027 -0.014 0.828
 0.033 -0.014 0.864
 0.041 -0.015 0.927
 0.051 -0.017 1.018
 0.064 -0.018 1.139
 0.08 -0.021 1.288
 0.097 -0.023 1.425
 0.112 -0.024 1.527
 0.126 -0.025 1.583
 0.136 -0.025 1.596
 0.141 -0.025 1.554
 0.145 -0.024 1.501
 0.153 -0.024 1.489
 0.162 -0.024 1.495
 0.173 -0.024 1.512
 0.185 -0.025 1.541
 0.197 -0.025 1.565
 0.205 -0.025 1.554
 0.212 -0.025 1.539
 0.218 -0.025 1.523
 0.225 -0.024 1.509
 0.232 -0.024 1.496
 0.238 -0.024 1.481
 0.245 -0.024 1.466
 0.251 -0.024 1.45
 0.256 -0.024 1.432
 0.261 -0.023 1.414
 0.267 -0.023 1.399
 0.273 -0.023 1.387
 0.279 -0.023 1.375
 0.286 -0.023 1.369
 0.293 -0.023 1.364
 0.3 -0.023 1.358
 0.303 -0.023 1.336
 0.309 -0.023 1.328
 0.315 -0.022 1.317
 0.32 -0.022 1.305
 0.326 -0.022 1.296
 0.336 -0.022 1.307
 0.345 -0.023 1.308
 0.355 -0.023 1.315
 0.363 -0.023 1.316
 0.37 -0.023 1.312
 0.375 -0.023 1.3
 0.38 -0.023 1.29
 0.383 -0.022 1.27
 0.388 -0.022 1.262
 0.394 -0.022 1.254
 0.399 -0.022 1.247
 0.404 -0.022 1.236
 0.409 -0.022 1.227
 0.411 -0.022 1.209
 0.413 -0.022 1.192
 0.416 -0.021 1.178
 0.42 -0.021 1.167
 0.422 -0.021 1.152
 0.427 -0.021 1.143
 0 0 0
 0 0 0
 0 0 0
 0.402 -0.019 1.003
 0.416 -0.019 1.022
 0.423 -0.019 1.021
 0.427 -0.019 1.012
 0.428 -0.019 0.998
 0.429 -0.019 0.984
 0.426 -0.019 0.961
 0.423 -0.018 0.939
 0.42 -0.018 0.917
 0.419 -0.018 0.9
 0.418 -0.018 0.883
 0.418 -0.017 0.87
 0.418 -0.017 0.857
 0.419 -0.017 0.846
 0.421 -0.017 0.837
 0.423 -0.017 0.827
 0.424 -0.017 0.818
 0.427 -0.017 0.81
 0.429 -0.017 0.802
 0.431 -0.017 0.795
 0.434 -0.017 0.788
 0.437 -0.017 0.782
 0.443 -0.017 0.781
 0.447 -0.017 0.777
 -0.377 -0.007 0.677
 -0.377 -0.007 0.686
 -0.39 -0.007 0.722
 -0.396 -0.007 0.745
 -0.401 -0.007 0.766
 -0.404 -0.007 0.784
 -0.403 -0.007 0.792
 -0.398 -0.007 0.796
 -0.394 -0.007 0.8
 -0.389 -0.007 0.803
 -0.385 -0.007 0.806
 -0.38 -0.007 0.809
 -0.376 -0.007 0.812
 -0.372 -0.008 0.816
 -0.367 -0.008 0.82
 -0.363 -0.008 0.824
 -0.359 -0.008 0.828
 -0.355 -0.008 0.832
 -0.35 -0.008 0.835
 -0.346 -0.008 0.839
 -0.341 -0.008 0.843
 -0.337 -0.008 0.846
 -0.333 -0.008 0.85
 -0.328 -0.008 0.853
 -0.323 -0.008 0.854
 -0.317 -0.008 0.855
 -0.311 -0.008 0.855
 -0.306 -0.008 0.855
 -0.3 -0.008 0.856
 -0.295 -0.008 0.857
 -0.29 -0.008 0.858
 -0.285 -0.008 0.859
 -0.279 -0.008 0.861
 -0.274 -0.008 0.862
 -0.269 -0.008 0.863
 -0.264 -0.008 0.864
 -0.259 -0.008 0.865
 -0.253 -0.008 0.865
 -0.248 -0.008 0.865
 -0.242 -0.008 0.866
 -0.237 -0.008 0.867
 -0.232 -0.008 0.868
 -0.227 -0.008 0.869
 -0.222 -0.008 0.87
 -0.216 -0.008 0.87
 -0.211 -0.008 0.872
 -0.206 -0.008 0.874
 -0.201 -0.008 0.873
 -0.195 -0.008 0.872
 -0.19 -0.008 0.87
 -0.184 -0.008 0.868
 -0.179 -0.008 0.868
 -0.174 -0.009 0.869
 -0.169 -0.009 0.873
 -0.165 -0.009 0.878
 -0.16 -0.009 0.882
 -0.156 -0.009 0.889
 -0.152 -0.009 0.895
 -0.147 -0.009 0.899
 -0.143 -0.009 0.904
 -0.139 -0.009 0.915
 -0.135 -0.009 0.923
 -0.135 -0.009 0.963
 -0.14 -0.01 1.046
 -0.146 -0.011 1.141
 -0.15 -0.012 1.23
 -0.151 -0.012 1.304
 -0.149 -0.013 1.355
 -0.142 -0.013 1.357
 -0.132 -0.012 1.338
 -0.121 -0.012 1.306
 -0.11 -0.012 1.264
 -0.098 -0.012 1.211
 -0.087 -0.011 1.15
 -0.075 -0.011 1.08
 -0.065 -0.01 1.006
 -0.055 -0.01 0.936
 -0.047 -0.009 0.88
 -0.04 -0.009 0.841
 -0.034 -0.009 0.818
 -0.029 -0.009 0.81
 -0.024 -0.009 0.809
 -0.02 -0.009 0.81
 -0.015 -0.009 0.812
 -0.01 -0.009 0.815
 -0.006 -0.009 0.817
 -0.001 -0.009 0.822
 0.003 -0.009 0.825
 0.008 -0.009 0.827
 0.012 -0.009 0.826
 0.017 -0.009 0.823
 0.022 -0.009 0.818
 0.026 -0.009 0.815
 0.031 -0.009 0.818
 0.037 -0.009 0.845
 0.045 -0.01 0.902
 0.055 -0.011 0.989
 0.069 -0.012 1.121
 0.086 -0.013 1.276
 0.102 -0.014 1.392
 0.116 -0.015 1.461
 0.127 -0.015 1.486
 0.132 -0.015 1.45
 0.134 -0.014 1.389
 0.143 -0.014 1.394
 0.154 -0.015 1.424
 0.167 -0.015 1.465
 0.182 -0.016 1.518
 0.197 -0.016 1.565
 0.205 -0.016 1.56
 0.212 -0.016 1.544
 0.219 -0.016 1.529
 0.226 -0.016 1.514
 0.233 -0.016 1.501
 0.239 -0.016 1.485
 0.245 -0.016 1.47
 0.251 -0.015 1.455
 0.257 -0.015 1.438
 0.262 -0.015 1.42
 0.268 -0.015 1.405
 0.274 -0.015 1.393
 0.28 -0.015 1.381
 0.287 -0.015 1.374
 0.294 -0.015 1.367
 0.3 -0.015 1.36
 0.306 -0.015 1.349
 0.312 -0.015 1.339
 0.317 -0.015 1.328
 0.322 -0.015 1.316
 0.328 -0.015 1.307
 0.336 -0.015 1.306
 0.344 -0.015 1.305
 0.353 -0.015 1.308
 0.36 -0.015 1.306
 0.367 -0.015 1.299
 0.371 -0.015 1.284
 0.375 -0.015 1.271
 0.377 -0.015 1.25
 0.381 -0.015 1.238
 0.386 -0.014 1.228
 0.39 -0.014 1.218
 0.395 -0.014 1.208
 0.399 -0.014 1.198
 0.401 -0.014 1.181
 0.404 -0.014 1.166
 0.407 -0.014 1.152
 0.41 -0.014 1.14
 0.413 -0.014 1.127
 0.418 -0.014 1.119
 0.418 -0.014 1.101
 0 0 0
 0 0 0
 0.394 -0.013 0.983
 0.41 -0.013 1.007
 0.419 -0.013 1.01
 0.425 -0.013 1.007
 0.428 -0.013 0.999
 0.433 -0.013 0.993
 0.432 -0.013 0.974
 0.43 -0.013 0.954
 0.428 -0.013 0.934
 0.426 -0.012 0.916
 0.425 -0.012 0.9
 0.425 -0.012 0.884
 0.424 -0.012 0.869
 0.424 -0.012 0.856
 0.425 -0.012 0.845
 0.426 -0.012 0.834
 0.428 -0.012 0.825
 0.43 -0.012 0.816
 0.432 -0.012 0.808
 0.435 -0.012 0.801
 0.437 -0.012 0.794
 0.44 -0.012 0.787
 0.444 -0.012 0.783
 0.446 -0.012 0.774
 -0.379 -0.002 0.68
 -0.377 -0.002 0.687
 -0.393 -0.002 0.727
 -0.399 -0.002 0.75
 -0.404 -0.002 0.771
 -0.407 -0.002 0.788
 -0.404 -0.002 0.795
 -0.4 -0.002 0.799
 -0.395 -0.002 0.802
 -0.391 -0.002 0.805
 -0.386 -0.002 0.809
 -0.381 -0.002 0.812
 -0.377 -0.002 0.815
 -0.373 -0.002 0.819
 -0.368 -0.002 0.822
 -0.364 -0.002 0.826
 -0.36 -0.003 0.83
 -0.355 -0.003 0.833
 -0.35 -0.003 0.836
 -0.346 -0.003 0.839
 -0.341 -0.003 0.843
 -0.337 -0.003 0.845
 -0.332 -0.003 0.848
 -0.327 -0.003 0.85
 -0.321 -0.003 0.851
 -0.315 -0.003 0.85
 -0.31 -0.003 0.85
 -0.304 -0.003 0.85
 -0.298 -0.003 0.851
 -0.293 -0.003 0.852
 -0.288 -0.003 0.854
 -0.283 -0.003 0.856
 -0.279 -0.003 0.858
 -0.273 -0.003 0.86
 -0.268 -0.003 0.861
 -0.263 -0.003 0.861
 -0.257 -0.003 0.861
 -0.251 -0.003 0.86
 -0.246 -0.003 0.86
 -0.24 -0.003 0.859
 -0.235 -0.003 0.86
 -0.23 -0.003 0.86
 -0.225 -0.003 0.861
 -0.219 -0.003 0.861
 -0.214 -0.003 0.861
 -0.208 -0.003 0.86
 -0.203 -0.003 0.857
 -0.197 -0.003 0.855
 -0.191 -0.003 0.854
 -0.186 -0.003 0.853
 -0.181 -0.003 0.852
 -0.175 -0.003 0.852
 -0.17 -0.003 0.851
 -0.165 -0.003 0.852
 -0.16 -0.003 0.852
 -0.155 -0.003 0.853
 -0.151 -0.003 0.856
 -0.146 -0.004 0.858
 -0.141 -0.004 0.86
 -0.136 -0.004 0.863
 -0.133 -0.004 0.872
 -0.129 -0.004 0.885
 -0.129 -0.004 0.919
 -0.131 -0.004 0.98
 -0.134 -0.004 1.048
 -0.136 -0.004 1.114
 -0.136 -0.004 1.172
 -0.133 -0.004 1.206
 -0.126 -0.004 1.203
 -0.117 -0.004 1.182
 -0.107 -0.004 1.147
 -0.096 -0.004 1.101
 -0.085 -0.004 1.045
 -0.075 -0.004 0.985
 -0.065 -0.004 0.927
 -0.057 -0.004 0.879
 -0.049 -0.004 0.841
 -0.043 -0.004 0.818
 -0.038 -0.004 0.809
 -0.033 -0.004 0.808
 -0.029 -0.004 0.808
 -0.024 -0.004 0.81
 -0.02 -0.004 0.813
 -0.015 -0.004 0.817
 -0.01 -0.004 0.824
 -0.006 -0.004 0.838
 -0.001 -0.004 0.867
 0.003 -0.004 0.892
 0.009 -0.004 0.902
 0.014 -0.004 0.899
 0.019 -0.004 0.885
 0.023 -0.004 0.854
 0.027 -0.004 0.827
 0.031 -0.004 0.813
 0.036 -0.004 0.812
 0.042 -0.004 0.833
 0.049 -0.005 0.885
 0.061 -0.005 0.984
 0.076 -0.005 1.121
 0.091 -0.006 1.241
 0.105 -0.006 1.322
 0.116 -0.006 1.36
 0.121 -0.006 1.335
 0.124 -0.006 1.282
 0.134 -0.006 1.309
 0.148 -0.006 1.364
 0.163 -0.006 1.431
 0.181 -0.007 1.51
 0.198 -0.007 1.576
 0.207 -0.007 1.574
 0.214 -0.007 1.559
 0.221 -0.007 1.544
 0.228 -0.007 1.529
 0.235 -0.007 1.513
 0.241 -0.007 1.498
 0.247 -0.007 1.481
 0.253 -0.007 1.465
 0.259 -0.007 1.449
 0.265 -0.007 1.434
 0.27 -0.007 1.419
 0.276 -0.007 1.405
 0.282 -0.007 1.394
 0.289 -0.007 1.386
 0.296 -0.007 1.377
 0.302 -0.007 1.368
 0.308 -0.007 1.358
 0.314 -0.007 1.347
 0.319 -0.007 1.334
 0.324 -0.007 1.322
 0.33 -0.007 1.314
 0.337 -0.007 1.309
 0.344 -0.007 1.306
 0.352 -0.007 1.303
 0.359 -0.007 1.3
 0.365 -0.007 1.293
 0.369 -0.007 1.28
 0.372 -0.007 1.26
 0.373 -0.007 1.237
 0.373 -0.007 1.211
 0.372 -0.007 1.184
 0.37 -0.007 1.155
 0.371 -0.007 1.135
 0.371 -0.007 1.113
 0.37 -0.007 1.089
 0.372 -0.007 1.072
 0.375 -0.007 1.061
 0.371 -0.007 1.029
 0.373 -0.007 1.016
 0.376 -0.007 1.006
 0.369 -0.006 0.97
 0 0 0
 0 0 0
 0.361 -0.006 0.901
 0.386 -0.006 0.946
 0.398 -0.007 0.96
 0.407 -0.007 0.964
 0.413 -0.007 0.964
 0.425 -0.007 0.975
 0.429 -0.007 0.967
 0.431 -0.007 0.956
 0.432 -0.007 0.943
 0.432 -0.007 0.929
 0.432 -0.007 0.914
 0.431 -0.007 0.898
 0.43 -0.007 0.882
 0.429 -0.007 0.867
 0.43 -0.007 0.854
 0.43 -0.007 0.842
 0.431 -0.006 0.831
 0.432 -0.006 0.821
 0.434 -0.006 0.812
 0.437 -0.006 0.804
 0.439 -0.006 0.797
 0.441 -0.006 0.79
 0.445 -0.006 0.785
 0.445 -0.006 0.772
 -0.377 0.001 0.676
 -0.382 0.001 0.696
 -0.395 0.002 0.732
 -0.402 0.002 0.756
 -0.407 0.002 0.777
 -0.409 0.002 0.793
 -0.406 0.002 0.799
 -0.401 0.002 0.803
 -0.397 0.002 0.806
 -0.392 0.002 0.809
 -0.388 0.002 0.812
 -0.383 0.002 0.815
 -0.378 0.002 0.818
 -0.374 0.002 0.821
 -0.369 0.002 0.824
 -0.365 0.002 0.827
 -0.36 0.002 0.831
 -0.355 0.002 0.833
 -0.351 0.002 0.836
 -0.346 0.002 0.839
 -0.341 0.002 0.842
 -0.336 0.002 0.845
 -0.331 0.002 0.847
 -0.326 0.001 0.848
 -0.32 0.001 0.847
 -0.314 0.001 0.847
 -0.308 0.001 0.847
 -0.303 0.001 0.847
 -0.298 0.001 0.848
 -0.293 0.001 0.85
 -0.288 0.001 0.852
 -0.283 0.001 0.854
 -0.278 0.001 0.856
 -0.273 0.001 0.858
 -0.267 0.001 0.858
 -0.262 0.001 0.857
 -0.256 0.001 0.857
 -0.25 0.001 0.856
 -0.245 0.001 0.855
 -0.239 0.001 0.855
 -0.234 0.001 0.856
 -0.229 0.001 0.856
 -0.224 0.001 0.856
 -0.218 0.001 0.855
 -0.212 0.001 0.854
 -0.206 0.001 0.851
 -0.201 0.001 0.849
 -0.195 0.001 0.847
 -0.19 0.001 0.846
 -0.185 0.001 0.846
 -0.179 0.001 0.845
 -0.174 0.001 0.844
 -0.169 0.001 0.843
 -0.163 0.001 0.842
 -0.158 0.001 0.841
 -0.153 0 0.84
 -0.148 0 0.841
 -0.143 0 0.841
 -0.138 0 0.843
 -0.134 0 0.845
 -0.129 0 0.851
 -0.126 0 0.859
 -0.123 0 0.879
 -0.123 0.001 0.914
 -0.122 0.001 0.955
 -0.122 0.001 0.995
 -0.12 0.001 1.03
 -0.116 0.001 1.049
 -0.109 0.001 1.042
 -0.101 0.001 1.019
 -0.092 0.001 0.983
 -0.082 0 0.941
 -0.073 0 0.899
 -0.066 0 0.864
 -0.059 0 0.837
 -0.053 0 0.821
 -0.048 0 0.812
 -0.043 0 0.807
 -0.038 0 0.806
 -0.033 0 0.807
 -0.029 0 0.81
 -0.024 0 0.814
 -0.02 0 0.819
 -0.015 0 0.831
 -0.011 0 0.862
 -0.006 0 0.905
 -0.001 0 0.966
 0.004 0 1.022
 0.01 0 1.054
 0.016 0 1.03
 0.021 0 0.987
 0.025 0 0.923
 0.028 0 0.862
 0.031 0 0.817
 0.036 0 0.809
 0.04 0 0.808
 0.046 0 0.824
 0.055 0 0.888
 0.067 0 0.994
 0.081 0 1.101
 0.094 0 1.187
 0.106 0.001 1.244
 0.113 0 1.239
 0.117 0 1.208
 0.128 0 1.248
 0.143 0.001 1.318
 0.16 0.001 1.399
 0.179 0.001 1.494
 0.198 0.001 1.573
 0.207 0.001 1.573
 0.215 0.001 1.559
 0.222 0.001 1.546
 0.229 0.001 1.532
 0.235 0.001 1.515
 0.241 0.001 1.499
 0.248 0.001 1.483
 0.254 0.001 1.467
 0.259 0 1.451
 0.265 0 1.436
 0.271 0 1.422
 0.277 0 1.409
 0.283 0 1.398
 0.29 0 1.39
 0.296 0 1.379
 0.302 0 1.37
 0.308 0 1.358
 0.313 0 1.344
 0.318 0 1.331
 0.323 0 1.319
 0.33 0 1.312
 0.337 0 1.31
 0.345 0 1.31
 0.354 0 1.311
 0.361 0 1.307
 0.366 0 1.298
 0.369 0 1.278
 0.367 0 1.244
 0.366 0 1.214
 0.359 0 1.166
 0.356 0 1.134
 0.346 0 1.08
 0.341 0 1.041
 0.334 0 1.001
 0.331 0 0.973
 0.327 0 0.943
 0.33 0 0.934
 0.322 -0.001 0.895
 0.316 -0.001 0.861
 0.305 -0.001 0.816
 0.278 -0.001 0.73
 0.201 -0.001 0.517
 0.187 -0.001 0.473
 0.263 -0.001 0.654
 0.313 -0.001 0.766
 0.346 -0.001 0.834
 0.372 -0.001 0.881
 0.391 -0.001 0.912
 0.411 -0.001 0.943
 0.421 -0.001 0.95
 0.428 -0.001 0.95
 0.433 -0.001 0.945
 0.435 -0.001 0.935
 0.436 -0.001 0.922
 0.436 -0.001 0.907
 0.435 -0.001 0.891
 0.434 -0.001 0.875
 0.433 -0.001 0.861
 0.433 -0.001 0.848
 0.434 -0.001 0.836
 0.434 -0.001 0.824
 0.436 -0.001 0.815
 0.438 -0.001 0.806
 0.44 -0.001 0.798
 0.442 -0.001 0.79
 0.444 -0.001 0.783
 0.448 -0.001 0.779
 -0.376 0.006 0.674
 -0.382 0.006 0.697
 -0.396 0.006 0.733
 -0.403 0.007 0.758
 -0.408 0.007 0.779
 -0.41 0.007 0.796
 -0.407 0.007 0.802
 -0.403 0.007 0.806
 -0.398 0.007 0.809
 -0.394 0.007 0.812
 -0.389 0.007 0.814
 -0.384 0.007 0.817
