 -0.003 -0.446 1.692
 0.006 -0.447 1.695
 0.016 -0.447 1.698
 0.026 -0.448 1.702
 0.036 -0.449 1.704
 0.046 -0.45 1.706
 0.056 -0.45 1.708
 0.066 -0.451 1.71
 0.077 -0.452 1.711
 0.087 -0.452 1.712
 0.097 -0.452 1.712
 0.107 -0.453 1.714
 0.117 -0.453 1.713
 0.127 -0.452 1.71
 0.137 -0.451 1.706
 0.146 -0.45 1.7
 0.155 -0.447 1.689
 0.164 -0.444 1.677
 0.173 -0.441 1.664
 0.181 -0.437 1.649
 0.189 -0.434 1.633
 0.197 -0.43 1.618
 0.204 -0.426 1.601
 0.212 -0.422 1.585
 0.22 -0.42 1.576
 0.227 -0.416 1.56
 0.234 -0.412 1.544
 0.244 -0.413 1.547
 0.254 -0.415 1.552
 0.263 -0.414 1.549
 0.274 -0.417 1.559
 0.286 -0.421 1.571
 0.295 -0.42 1.567
 0.303 -0.419 1.56
 0.312 -0.418 1.555
 0.319 -0.415 1.544
 0.325 -0.411 1.525
 0.328 -0.404 1.498
 0.331 -0.396 1.467
 0.334 -0.391 1.444
 0.336 -0.383 1.412
 0.339 -0.377 1.389
 0.343 -0.373 1.37
 0.35 -0.371 1.362
 0.347 -0.36 1.319
 0 0 0
 0 0 0
 0 0 0
 0 0 0
 0 0 0
 0 0 0
 0 0 0
 0 0 0
 0 0 0
 0 0 0
 0 0 0
 0 0 0
 0 0 0
 0 0 0
 0.322 -0.249 0.885
 0.328 -0.25 0.886
 0.334 -0.25 0.884
 0.337 -0.248 0.876
 0.335 -0.244 0.857
 0.335 -0.239 0.839
 0.332 -0.234 0.819
 0.335 -0.233 0.811
 0.337 -0.231 0.803
 0.339 -0.229 0.793
 0.343 -0.228 0.789
 0.348 -0.228 0.786
 0.351 -0.226 0.779
 0.352 -0.224 0.769
 0.355 -0.223 0.764
 0.357 -0.221 0.754
 0.356 -0.218 0.74
 0.359 -0.216 0.734
 0.361 -0.215 0.727
 0.359 -0.211 0.711
 0.361 -0.209 0.703
 0.365 -0.209 0.7
 0.368 -0.209 0.696
 0.371 -0.207 0.69
 0.375 -0.207 0.687
 0.377 -0.206 0.68
 0.379 -0.205 0.674
 0.382 -0.204 0.669
 0.384 -0.202 0.662
 0.407 -0.212 0.693
 0.402 -0.207 0.673
 -0.319 -0.161 0.549
 -0.317 -0.162 0.553
 -0.32 -0.166 0.569
 -0.322 -0.169 0.58
 -0.323 -0.172 0.592
 -0.324 -0.174 0.603
 -0.324 -0.176 0.612
 -0.323 -0.178 0.62
 -0.322 -0.18 0.628
 -0.318 -0.179 0.629
 -0.312 -0.179 0.628
 -0.306 -0.178 0.626
 -0.3 -0.176 0.623
 -0.293 -0.175 0.619
 -0.291 -0.176 0.623
 -0.289 -0.177 0.629
 -0.289 -0.179 0.64
 -0.289 -0.182 0.652
 -0.29 -0.186 0.666
 -0.291 -0.189 0.679
 -0.29 -0.191 0.69
 -0.34 -0.227 0.825
 -0.397 -0.269 0.982
 -0.441 -0.304 1.114
 -0.476 -0.333 1.224
 -0.507 -0.36 1.329
 -0.522 -0.377 1.395
 -0.523 -0.384 1.425
 -0.523 -0.391 1.452
 -0.522 -0.397 1.477
 -0.517 -0.4 1.491
 -0.508 -0.4 1.495
 -0.499 -0.401 1.499
 -0.49 -0.401 1.503
 -0.481 -0.401 1.506
 -0.473 -0.402 1.51
 -0.464 -0.402 1.514
 -0.455 -0.402 1.517
 -0.446 -0.403 1.521
 -0.437 -0.403 1.524
 -0.428 -0.404 1.528
 -0.42 -0.404 1.532
 -0.411 -0.404 1.535
 -0.402 -0.405 1.538
 -0.393 -0.405 1.541
 -0.384 -0.405 1.545
 -0.375 -0.406 1.548
 -0.366 -0.406 1.552
 -0.357 -0.407 1.555
 -0.348 -0.407 1.558
 -0.339 -0.408 1.562
 -0.33 -0.408 1.565
 -0.321 -0.409 1.569
 -0.312 -0.41 1.573
 -0.303 -0.41 1.577
 -0.294 -0.411 1.58
 -0.285 -0.412 1.584
 -0.276 -0.412 1.587
 -0.267 -0.413 1.591
 -0.258 -0.413 1.595
 -0.249 -0.414 1.598
 -0.24 -0.415 1.602
 -0.231 -0.416 1.606
 -0.222 -0.416 1.61
 -0.213 -0.417 1.614
 -0.204 -0.418 1.618
 -0.194 -0.419 1.621
 -0.185 -0.419 1.625
 -0.176 -0.42 1.628
 -0.166 -0.421 1.631
 -0.157 -0.421 1.635
 -0.148 -0.422 1.639
 -0.138 -0.423 1.643
 -0.129 -0.424 1.647
 -0.119 -0.425 1.651
 -0.11 -0.426 1.654
 -0.1 -0.427 1.658
 -0.091 -0.427 1.661
 -0.081 -0.428 1.664
 -0.071 -0.429 1.667
 -0.062 -0.43 1.67
 -0.052 -0.431 1.674
 -0.042 -0.432 1.678
 -0.032 -0.433 1.682
 -0.023 -0.434 1.686
 -0.013 -0.435 1.689
 -0.003 -0.435 1.692
 0.006 -0.436 1.695
 0.016 -0.437 1.698
 0.026 -0.438 1.701
 0.036 -0.438 1.703
 0.046 -0.439 1.706
 0.056 -0.44 1.707
 0.066 -0.44 1.709
 0.076 -0.441 1.71
 0.087 -0.441 1.711
 0.097 -0.441 1.712
 0.107 -0.442 1.713
 0.117 -0.442 1.712
 0.127 -0.441 1.71
 0.137 -0.441 1.706
 0.146 -0.439 1.699
 0.155 -0.437 1.688
 0.164 -0.434 1.676
 0.173 -0.43 1.663
 0.181 -0.427 1.648
 0.189 -0.423 1.633
 0.197 -0.42 1.617
 0.204 -0.416 1.601
 0.212 -0.412 1.584
 0.22 -0.41 1.575
 0.227 -0.406 1.559
 0.234 -0.402 1.541
 0.243 -0.402 1.543
 0.254 -0.404 1.549
 0.262 -0.404 1.546
 0.274 -0.407 1.556
 0.286 -0.411 1.571
 0.295 -0.41 1.567
 0.303 -0.409 1.56
 0.311 -0.408 1.554
 0.318 -0.405 1.542
 0.324 -0.401 1.525
 0.328 -0.395 1.499
 0.33 -0.387 1.467
 0.334 -0.382 1.444
 0.335 -0.373 1.409
 0.338 -0.367 1.384
 0.341 -0.362 1.365
 0.344 -0.357 1.342
 0.343 -0.348 1.306
 0 0 0
 0 0 0
 0 0 0
 0 0 0
 0 0 0
 0 0 0
 0 0 0
 0 0 0
 0 0 0
 0 0 0
 0 0 0
 0 0 0
 0 0 0
 0.321 -0.247 0.901
 0.32 -0.243 0.883
 0.325 -0.243 0.88
 0.33 -0.242 0.877
 0.335 -0.242 0.874
 0.336 -0.239 0.86
 0.336 -0.235 0.845
 0.335 -0.231 0.826
 0.336 -0.228 0.814
 0.337 -0.225 0.803
 0.338 -0.223 0.792
 0.342 -0.222 0.786
 0.345 -0.221 0.781
 0.348 -0.22 0.774
 0.348 -0.217 0.762
 0.352 -0.216 0.758
 0.354 -0.215 0.75
 0.354 -0.212 0.738
 0.357 -0.211 0.733
 0.36 -0.21 0.726
 0.359 -0.206 0.712
 0.36 -0.205 0.704
 0.365 -0.205 0.703
 0.37 -0.205 0.7
 0.372 -0.203 0.693
 0.376 -0.203 0.691
 0.378 -0.202 0.684
 0.381 -0.201 0.678
 0.382 -0.199 0.669
 0.384 -0.198 0.663
 0.394 -0.201 0.67
 0.398 -0.201 0.668
 -0.32 -0.158 0.552
 -0.314 -0.157 0.55
 -0.319 -0.162 0.568
 -0.321 -0.164 0.579
 -0.323 -0.167 0.592
 -0.325 -0.17 0.604
 -0.325 -0.173 0.616
 -0.325 -0.175 0.624
 -0.321 -0.175 0.627
 -0.312 -0.172 0.619
 -0.304 -0.17 0.611
 -0.294 -0.167 0.602
 -0.286 -0.164 0.594
 -0.278 -0.162 0.587
 -0.277 -0.164 0.595
 -0.277 -0.166 0.604
 -0.279 -0.169 0.619
 -0.281 -0.173 0.635
 -0.29 -0.181 0.666
 -0.293 -0.186 0.684
 -0.306 -0.197 0.729
 -0.377 -0.246 0.918
 -0.432 -0.286 1.072
 -0.468 -0.315 1.185
 -0.492 -0.336 1.268
 -0.517 -0.359 1.358
 -0.525 -0.37 1.405
 -0.525 -0.377 1.432
 -0.524 -0.382 1.456
 -0.522 -0.388 1.479
 -0.516 -0.39 1.491
 -0.507 -0.39 1.495
 -0.498 -0.391 1.499
 -0.49 -0.391 1.503
 -0.481 -0.391 1.506
 -0.472 -0.392 1.51
 -0.463 -0.392 1.514
 -0.455 -0.393 1.518
 -0.446 -0.393 1.521
 -0.437 -0.393 1.525
 -0.428 -0.394 1.528
 -0.419 -0.394 1.531
 -0.41 -0.394 1.534
 -0.401 -0.395 1.537
 -0.392 -0.395 1.54
 -0.383 -0.395 1.544
 -0.374 -0.396 1.547
 -0.365 -0.396 1.551
 -0.356 -0.397 1.554
 -0.347 -0.397 1.557
 -0.338 -0.398 1.561
 -0.329 -0.398 1.565
 -0.321 -0.399 1.569
 -0.312 -0.4 1.573
 -0.303 -0.4 1.577
 -0.294 -0.401 1.58
 -0.285 -0.402 1.584
 -0.276 -0.402 1.586
 -0.267 -0.403 1.59
 -0.258 -0.403 1.595
 -0.249 -0.404 1.598
 -0.24 -0.405 1.602
 -0.231 -0.406 1.606
 -0.221 -0.406 1.61
 -0.212 -0.407 1.613
 -0.203 -0.408 1.618
 -0.194 -0.408 1.621
 -0.185 -0.409 1.625
 -0.175 -0.41 1.628
 -0.166 -0.41 1.631
 -0.157 -0.411 1.634
 -0.147 -0.412 1.638
 -0.138 -0.413 1.642
 -0.129 -0.414 1.646
 -0.119 -0.415 1.651
 -0.11 -0.416 1.654
 -0.1 -0.416 1.658
 -0.091 -0.417 1.661
 -0.081 -0.418 1.664
 -0.071 -0.419 1.667
 -0.062 -0.419 1.67
 -0.052 -0.42 1.674
 -0.042 -0.421 1.678
 -0.032 -0.422 1.682
 -0.023 -0.423 1.686
 -0.013 -0.424 1.689
 -0.003 -0.425 1.692
 0.006 -0.426 1.695
 0.016 -0.426 1.698
 0.026 -0.427 1.701
 0.036 -0.428 1.703
 0.046 -0.429 1.706
 0.056 -0.429 1.708
 0.066 -0.43 1.71
 0.076 -0.43 1.711
 0.087 -0.43 1.711
 0.097 -0.431 1.712
 0.107 -0.431 1.713
 0.117 -0.431 1.713
 0.127 -0.431 1.711
 0.137 -0.43 1.706
 0.146 -0.428 1.699
 0.155 -0.426 1.688
 0.164 -0.423 1.676
 0.172 -0.42 1.662
 0.181 -0.417 1.648
 0.189 -0.413 1.633
 0.196 -0.409 1.617
 0.204 -0.406 1.6
 0.211 -0.402 1.584
 0.22 -0.4 1.574
 0.227 -0.396 1.558
 0.233 -0.391 1.539
 0.242 -0.392 1.539
 0.253 -0.394 1.545
 0.262 -0.394 1.544
 0.273 -0.396 1.554
 0.285 -0.401 1.569
 0.294 -0.401 1.567
 0.303 -0.4 1.563
 0.311 -0.398 1.554
 0.318 -0.396 1.543
 0.324 -0.392 1.526
 0.328 -0.386 1.5
 0.33 -0.378 1.469
 0.333 -0.372 1.442
 0.333 -0.362 1.401
 0.334 -0.355 1.371
 0.338 -0.35 1.352
 0.339 -0.344 1.324
 0.342 -0.338 1.3
 0.345 -0.334 1.281
 0 0 0
 0 0 0
 0 0 0
 0 0 0
 0 0 0
 0 0 0
 0 0 0
 0 0 0
 0 0 0
 0 0 0
 0 0 0
 0 0 0
 0.321 -0.242 0.903
 0.322 -0.239 0.888
 0.324 -0.236 0.878
 0.328 -0.235 0.872
 0.332 -0.234 0.867
 0.334 -0.232 0.857
 0.335 -0.229 0.842
 0.336 -0.226 0.83
 0.338 -0.224 0.82
 0.339 -0.222 0.809
 0.34 -0.219 0.796
 0.341 -0.217 0.787
 0.343 -0.215 0.777
 0.344 -0.212 0.766
 0.346 -0.21 0.758
 0.35 -0.21 0.754
 0.352 -0.208 0.746
 0.353 -0.206 0.736
 0.356 -0.205 0.731
 0.359 -0.204 0.724
 0.358 -0.201 0.711
 0.361 -0.2 0.706
 0.366 -0.2 0.704
 0.369 -0.2 0.7
 0.371 -0.198 0.693
 0.376 -0.199 0.692
 0.379 -0.198 0.686
 0.381 -0.196 0.679
 0.383 -0.195 0.673
 0.386 -0.194 0.667
 0.39 -0.195 0.665
 0.377 -0.186 0.633
 -0.32 -0.154 0.552
 -0.317 -0.155 0.556
 -0.318 -0.157 0.567
 -0.32 -0.16 0.578
 -0.323 -0.163 0.592
 -0.325 -0.166 0.606
 -0.326 -0.169 0.617
 -0.324 -0.17 0.623
 -0.318 -0.169 0.621
 -0.305 -0.164 0.604
 -0.291 -0.159 0.586
 -0.278 -0.154 0.568
 -0.269 -0.151 0.559
 -0.261 -0.149 0.551
 -0.261 -0.151 0.56
 -0.263 -0.154 0.574
 -0.268 -0.159 0.596
 -0.271 -0.163 0.613
 -0.285 -0.174 0.656
 -0.292 -0.181 0.684
 -0.334 -0.21 0.799
 -0.422 -0.269 1.03
 -0.468 -0.302 1.163
 -0.491 -0.322 1.245
 -0.503 -0.336 1.299
 -0.523 -0.354 1.376
 -0.527 -0.363 1.414
 -0.526 -0.369 1.438
 -0.524 -0.374 1.459
 -0.521 -0.378 1.48
 -0.515 -0.38 1.491
 -0.507 -0.381 1.495
 -0.498 -0.381 1.499
 -0.489 -0.382 1.503
 -0.48 -0.382 1.507
 -0.472 -0.382 1.511
 -0.463 -0.383 1.515
 -0.454 -0.383 1.518
 -0.445 -0.383 1.522
 -0.436 -0.384 1.525
 -0.427 -0.384 1.528
 -0.418 -0.384 1.531
 -0.409 -0.385 1.534
 -0.4 -0.385 1.537
 -0.391 -0.385 1.541
 -0.383 -0.386 1.544
 -0.374 -0.386 1.548
 -0.365 -0.387 1.551
 -0.356 -0.387 1.554
 -0.347 -0.387 1.557
 -0.338 -0.388 1.56
 -0.329 -0.388 1.564
 -0.32 -0.389 1.568
 -0.311 -0.39 1.572
 -0.302 -0.39 1.576
 -0.293 -0.391 1.58
 -0.284 -0.392 1.583
 -0.275 -0.392 1.586
 -0.266 -0.393 1.59
 -0.257 -0.393 1.594
 -0.248 -0.394 1.598
 -0.239 -0.395 1.602
 -0.23 -0.395 1.605
 -0.221 -0.396 1.61
 -0.212 -0.397 1.613
 -0.203 -0.398 1.618
 -0.194 -0.398 1.62
 -0.184 -0.399 1.624
 -0.175 -0.4 1.627
 -0.166 -0.4 1.63
 -0.156 -0.401 1.634
 -0.147 -0.402 1.638
 -0.138 -0.403 1.642
 -0.128 -0.404 1.646
 -0.119 -0.404 1.65
 -0.109 -0.405 1.654
 -0.1 -0.406 1.657
 -0.09 -0.407 1.661
 -0.081 -0.408 1.664
 -0.071 -0.408 1.667
 -0.061 -0.409 1.67
 -0.052 -0.41 1.674
 -0.042 -0.411 1.678
 -0.032 -0.412 1.682
 -0.022 -0.413 1.685
 -0.013 -0.414 1.689
 -0.003 -0.414 1.692
 0.006 -0.415 1.695
 0.016 -0.416 1.698
 0.026 -0.417 1.7
 0.036 -0.417 1.703
 0.046 -0.418 1.705
 0.056 -0.418 1.707
 0.066 -0.419 1.709
 0.076 -0.42 1.71
 0.086 -0.42 1.711
 0.097 -0.42 1.711
 0.107 -0.421 1.713
 0.117 -0.421 1.712
 0.127 -0.42 1.711
 0.136 -0.419 1.706
 0.146 -0.418 1.699
 0.155 -0.416 1.688
 0.164 -0.413 1.676
 0.172 -0.41 1.662
 0.181 -0.407 1.648
 0.189 -0.403 1.634
 0.196 -0.399 1.617
 0.204 -0.395 1.6
 0.211 -0.392 1.583
 0.219 -0.39 1.573
 0.226 -0.386 1.558
 0.233 -0.382 1.541
 0.243 -0.383 1.542
 0.253 -0.384 1.546
 0.262 -0.385 1.546
 0.273 -0.387 1.555
 0.285 -0.391 1.569
 0.294 -0.39 1.565
 0.302 -0.39 1.561
 0.311 -0.388 1.554
 0.318 -0.386 1.541
 0.323 -0.382 1.524
 0.328 -0.377 1.503
 0.331 -0.37 1.473
 0.333 -0.363 1.442
 0.332 -0.353 1.399
 0.332 -0.345 1.366
 0.336 -0.34 1.344
 0.337 -0.333 1.314
 0.34 -0.328 1.295
 0.346 -0.327 1.287
 0 0 0
 0 0 0
 0 0 0
 0 0 0
 0 0 0
 0 0 0
 0 0 0
 0 0 0
 0.326 -0.257 0.993
 0.332 -0.257 0.991
 0.332 -0.253 0.973
 0.336 -0.251 0.965
 0.328 -0.241 0.925
 0.324 -0.234 0.895
 0.329 -0.234 0.892
 0.333 -0.233 0.887
 0.334 -0.23 0.873
 0.335 -0.227 0.861
 0.336 -0.225 0.848
 0.336 -0.221 0.832
 0.338 -0.219 0.821
 0.339 -0.216 0.81
 0.339 -0.213 0.797
 0.34 -0.211 0.785
 0.342 -0.209 0.777
 0.342 -0.206 0.763
 0.345 -0.205 0.757
 0.348 -0.204 0.752
 0.35 -0.203 0.744
 0.352 -0.201 0.735
 0.354 -0.199 0.728
 0.356 -0.198 0.721
 0.357 -0.196 0.711
 0.361 -0.196 0.707
 0.365 -0.195 0.704
 0.369 -0.195 0.7
 0.37 -0.193 0.692
 0.375 -0.194 0.691
 0.377 -0.192 0.685
 0.38 -0.191 0.678
 0.381 -0.19 0.671
 0.384 -0.189 0.666
 0.377 -0.184 0.643
 0.39 -0.188 0.656
 -0.32 -0.151 0.554
 -0.316 -0.151 0.555
 -0.317 -0.153 0.566
 -0.318 -0.155 0.577
 -0.321 -0.159 0.591
 -0.322 -0.161 0.601
 -0.321 -0.163 0.609
 -0.318 -0.163 0.613
 -0.309 -0.161 0.605
 -0.292 -0.154 0.579
 -0.275 -0.147 0.554
 -0.258 -0.14 0.528
 -0.247 -0.136 0.513
 -0.237 -0.132 0.5
 -0.235 -0.132 0.503
 -0.235 -0.134 0.512
 -0.238 -0.138 0.528
 -0.23 -0.135 0.519
 0 0 0
 0 0 0
 0 0 0
 -0.502 -0.312 1.231
 -0.516 -0.325 1.287
 -0.518 -0.332 1.315
 -0.516 -0.336 1.334
 -0.527 -0.348 1.388
 -0.529 -0.356 1.42
 -0.527 -0.361 1.442
 -0.525 -0.365 1.463
 -0.522 -0.369 1.483
 -0.515 -0.371 1.491
 -0.506 -0.371 1.495
 -0.497 -0.371 1.499
 -0.488 -0.372 1.503
 -0.479 -0.372 1.506
 -0.471 -0.373 1.51
 -0.462 -0.373 1.514
 -0.453 -0.373 1.518
 -0.444 -0.374 1.521
 -0.435 -0.374 1.524
 -0.426 -0.374 1.527
 -0.418 -0.374 1.531
 -0.409 -0.375 1.534
 -0.4 -0.375 1.536
 -0.391 -0.375 1.54
 -0.382 -0.376 1.544
 -0.373 -0.376 1.547
 -0.364 -0.377 1.55
 -0.355 -0.377 1.554
 -0.346 -0.378 1.557
 -0.337 -0.378 1.56
 -0.328 -0.378 1.564
 -0.32 -0.379 1.568
 -0.311 -0.38 1.572
 -0.302 -0.38 1.575
 -0.293 -0.381 1.579
 -0.284 -0.381 1.583
 -0.275 -0.382 1.586
 -0.266 -0.383 1.589
 -0.257 -0.383 1.593
 -0.248 -0.384 1.597
 -0.239 -0.385 1.601
 -0.23 -0.385 1.605
 -0.221 -0.386 1.608
 -0.212 -0.387 1.612
 -0.202 -0.387 1.616
 -0.193 -0.388 1.62
 -0.184 -0.389 1.623
 -0.175 -0.389 1.627
 -0.165 -0.39 1.63
 -0.156 -0.391 1.634
 -0.147 -0.392 1.638
 -0.137 -0.393 1.642
 -0.128 -0.393 1.646
 -0.119 -0.394 1.65
 -0.109 -0.395 1.653
 -0.1 -0.396 1.657
 -0.09 -0.397 1.66
 -0.081 -0.397 1.664
 -0.071 -0.398 1.667
 -0.061 -0.399 1.671
 -0.052 -0.4 1.674
 -0.042 -0.401 1.678
 -0.032 -0.402 1.682
 -0.022 -0.402 1.685
 -0.013 -0.403 1.688
 -0.003 -0.404 1.691
 0.006 -0.404 1.694
 0.016 -0.405 1.697
 0.026 -0.406 1.7
 0.036 -0.407 1.703
 0.046 -0.407 1.705
 0.056 -0.408 1.707
 0.066 -0.409 1.709
 0.076 -0.409 1.71
 0.086 -0.409 1.711
 0.096 -0.409 1.711
 0.107 -0.41 1.712
 0.117 -0.41 1.711
 0.127 -0.41 1.71
 0.136 -0.409 1.705
 0.146 -0.407 1.698
 0.155 -0.405 1.688
 0.164 -0.402 1.676
 0.172 -0.399 1.662
 0.18 -0.396 1.648
 0.188 -0.393 1.633
 0.196 -0.389 1.616
 0.203 -0.385 1.599
 0.211 -0.382 1.583
 0.219 -0.38 1.572
 0.226 -0.377 1.558
 0.233 -0.373 1.541
 0.242 -0.373 1.539
 0.252 -0.374 1.544
 0.261 -0.375 1.545
 0.272 -0.377 1.553
 0.284 -0.38 1.566
 0.294 -0.381 1.566
 0.302 -0.38 1.562
 0.31 -0.378 1.553
 0.317 -0.376 1.542
 0.324 -0.373 1.527
 0.328 -0.368 1.505
 0.331 -0.361 1.474
 0.332 -0.353 1.44
 0.331 -0.343 1.396
 0.332 -0.336 1.366
 0.334 -0.33 1.341
 0.336 -0.325 1.315
 0.338 -0.319 1.29
 0.345 -0.318 1.285
 0 0 0
 0 0 0
 0 0 0
 0 0 0
 0 0 0
 0 0 0
 0 0 0
 0 0 0
 0.327 -0.252 0.999
 0.333 -0.252 0.997
 0.33 -0.245 0.967
 0.332 -0.242 0.954
 0.327 -0.235 0.923
 0.321 -0.227 0.889
 0.326 -0.226 0.885
 0.331 -0.226 0.881
 0.332 -0.223 0.869
 0.334 -0.221 0.858
 0.337 -0.22 0.851
 0.338 -0.217 0.836
 0.339 -0.214 0.826
 0.34 -0.212 0.814
 0.34 -0.209 0.8
 0.339 -0.205 0.784
 0.342 -0.204 0.776
 0.341 -0.201 0.762
 0.344 -0.2 0.756
 0.349 -0.199 0.753
 0.352 -0.199 0.748
 0.353 -0.197 0.739
 0.354 -0.194 0.728
 0.357 -0.194 0.723
 0.356 -0.191 0.709
 0.359 -0.19 0.705
 0.364 -0.19 0.703
 0.368 -0.19 0.701
 0.37 -0.189 0.692
 0.376 -0.189 0.693
 0.378 -0.188 0.686
 0.379 -0.186 0.678
 0.38 -0.185 0.67
 0.382 -0.184 0.664
 0.392 -0.186 0.67
 0.389 -0.183 0.655
 -0.321 -0.148 0.556
 -0.318 -0.148 0.56
 -0.317 -0.149 0.566
 -0.317 -0.151 0.575
 -0.32 -0.154 0.589
 -0.32 -0.156 0.598
 -0.318 -0.157 0.603
 -0.312 -0.156 0.601
 -0.299 -0.151 0.585
 -0.279 -0.143 0.554
 -0.261 -0.136 0.525
 -0.246 -0.13 0.503
 -0.236 -0.126 0.49
 -0.23 -0.125 0.485
 -0.229 -0.126 0.491
 -0.231 -0.129 0.505
 -0.239 -0.135 0.532
 0 0 0
 0 0 0
 0 0 0
 -0.461 -0.275 1.11
 -0.505 -0.306 1.24
 -0.517 -0.318 1.291
 -0.518 -0.324 1.318
 -0.516 -0.328 1.337
 -0.53 -0.342 1.398
 -0.53 -0.348 1.425
 -0.528 -0.352 1.446
 -0.525 -0.356 1.466
 -0.522 -0.36 1.485
 -0.514 -0.361 1.492
 -0.505 -0.362 1.496
 -0.497 -0.362 1.5
 -0.488 -0.362 1.503
 -0.479 -0.362 1.507
 -0.47 -0.363 1.51
 -0.461 -0.363 1.513
 -0.452 -0.363 1.517
 -0.443 -0.364 1.52
 -0.435 -0.364 1.524
 -0.426 -0.364 1.527
 -0.417 -0.365 1.53
 -0.408 -0.365 1.533
 -0.399 -0.365 1.537
 -0.39 -0.366 1.54
 -0.382 -0.366 1.544
 -0.373 -0.367 1.547
 -0.364 -0.367 1.55
 -0.355 -0.367 1.553
 -0.346 -0.368 1.557
 -0.337 -0.368 1.56
 -0.328 -0.369 1.563
 -0.319 -0.369 1.567
 -0.31 -0.37 1.572
 -0.301 -0.37 1.575
 -0.293 -0.371 1.579
 -0.284 -0.372 1.582
 -0.275 -0.372 1.586
 -0.265 -0.373 1.589
 -0.256 -0.373 1.593
 -0.247 -0.374 1.596
 -0.238 -0.375 1.6
 -0.229 -0.375 1.604
 -0.22 -0.376 1.608
 -0.211 -0.377 1.611
 -0.202 -0.377 1.615
 -0.193 -0.378 1.619
 -0.184 -0.379 1.623
 -0.174 -0.379 1.626
 -0.165 -0.38 1.63
 -0.156 -0.381 1.633
 -0.147 -0.382 1.638
 -0.137 -0.382 1.642
 -0.128 -0.383 1.646
 -0.119 -0.384 1.65
 -0.109 -0.385 1.653
 -0.1 -0.385 1.656
 -0.09 -0.386 1.66
 -0.08 -0.387 1.664
 -0.071 -0.388 1.667
 -0.061 -0.389 1.671
 -0.052 -0.39 1.675
 -0.042 -0.39 1.678
 -0.032 -0.391 1.682
 -0.022 -0.392 1.685
 -0.012 -0.393 1.688
 -0.003 -0.393 1.691
 0.006 -0.394 1.694
 0.016 -0.395 1.696
 0.026 -0.395 1.699
 0.036 -0.396 1.702
 0.046 -0.397 1.705
 0.056 -0.398 1.707
 0.066 -0.398 1.709
 0.076 -0.398 1.71
 0.086 -0.399 1.71
 0.096 -0.399 1.71
 0.107 -0.399 1.712
 0.117 -0.399 1.711
 0.126 -0.399 1.709
 0.136 -0.398 1.705
 0.146 -0.397 1.698
 0.155 -0.395 1.687
 0.163 -0.392 1.676
 0.172 -0.389 1.662
 0.18 -0.386 1.648
 0.188 -0.383 1.633
 0.196 -0.379 1.616
 0.203 -0.376 1.599
 0.211 -0.372 1.582
 0.219 -0.37 1.572
 0.226 -0.367 1.558
 0.233 -0.363 1.541
 0.242 -0.363 1.539
 0.252 -0.364 1.544
 0.261 -0.365 1.545
 0.272 -0.367 1.551
 0.284 -0.37 1.565
 0.293 -0.371 1.564
 0.301 -0.37 1.559
 0.309 -0.368 1.549
 0.316 -0.366 1.539
 0.323 -0.363 1.525
 0.328 -0.359 1.507
 0.331 -0.353 1.477
 0.333 -0.345 1.445
 0.332 -0.336 1.403
 0.333 -0.329 1.373
 0.334 -0.322 1.342
 0.336 -0.316 1.315
 0.338 -0.311 1.29
 0.341 -0.307 1.272
 0 0 0
 0 0 0
 0 0 0
 0 0 0
 0 0 0
 0 0 0
 0 0 0
 0.32 -0.246 1
 0.325 -0.245 0.995
 0.326 -0.241 0.977
 0.325 -0.235 0.953
 0.327 -0.233 0.942
 0.324 -0.227 0.915
 0.32 -0.22 0.886
 0.326 -0.221 0.885
 0.329 -0.22 0.878
 0.33 -0.216 0.864
 0.333 -0.215 0.856
 0.337 -0.214 0.851
 0.337 -0.211 0.837
 0.338 -0.208 0.823
 0.339 -0.206 0.813
 0.34 -0.203 0.8
 0.337 -0.199 0.781
 0.339 -0.197 0.771
 0.34 -0.195 0.76
 0.342 -0.194 0.752
 0.345 -0.193 0.746
 0.35 -0.193 0.745
 0.351 -0.191 0.736
 0.351 -0.188 0.724
 0.356 -0.188 0.722
 0.356 -0.186 0.71
 0.358 -0.185 0.703
 0.363 -0.185 0.703
 0.368 -0.185 0.7
 0.368 -0.183 0.69
 0.374 -0.184 0.691
 0.376 -0.183 0.684
 0.376 -0.18 0.673
 0.377 -0.179 0.665
 0.381 -0.179 0.661
 0.378 -0.176 0.648
 0.377 -0.173 0.635
 -0.32 -0.143 0.555
 -0.32 -0.145 0.564
 -0.316 -0.145 0.566
 -0.316 -0.147 0.574
 -0.318 -0.149 0.587
 -0.318 -0.151 0.596
 -0.314 -0.151 0.597
 -0.306 -0.149 0.59
 -0.29 -0.143 0.568
 -0.271 -0.136 0.538
 -0.253 -0.129 0.511
 -0.239 -0.123 0.49
 -0.23 -0.12 0.479
 -0.225 -0.119 0.476
 -0.222 -0.119 0.477
 -0.221 -0.12 0.482
 0 0 0
 0 0 0
 0 0 0
 0 0 0
 -0.474 -0.276 1.145
 -0.509 -0.3 1.251
 -0.518 -0.311 1.296
 -0.519 -0.316 1.323
 -0.517 -0.32 1.34
 -0.531 -0.334 1.404
 -0.531 -0.339 1.428
 -0.528 -0.343 1.449
 -0.525 -0.347 1.468
 -0.521 -0.351 1.486
 -0.514 -0.352 1.493
 -0.505 -0.352 1.497
 -0.496 -0.352 1.5
 -0.487 -0.353 1.504
 -0.478 -0.353 1.507
 -0.47 -0.353 1.51
 -0.461 -0.353 1.513
 -0.452 -0.354 1.517
 -0.443 -0.354 1.52
 -0.434 -0.354 1.524
 -0.425 -0.355 1.527
 -0.416 -0.355 1.531
 -0.407 -0.355 1.533
 -0.399 -0.356 1.537
 -0.39 -0.356 1.54
 -0.381 -0.357 1.544
 -0.372 -0.357 1.547
 -0.363 -0.357 1.55
 -0.354 -0.358 1.553
 -0.345 -0.358 1.556
 -0.336 -0.358 1.56
 -0.328 -0.359 1.564
 -0.319 -0.359 1.567
 -0.31 -0.36 1.572
 -0.301 -0.361 1.575
 -0.292 -0.361 1.579
 -0.283 -0.362 1.582
 -0.274 -0.362 1.586
 -0.265 -0.363 1.589
 -0.256 -0.363 1.593
 -0.247 -0.364 1.596
 -0.238 -0.365 1.599
 -0.229 -0.365 1.603
 -0.22 -0.366 1.607
 -0.211 -0.366 1.61
 -0.202 -0.367 1.615
 -0.193 -0.368 1.619
 -0.183 -0.369 1.622
 -0.174 -0.369 1.626
 -0.165 -0.37 1.63
 -0.156 -0.371 1.634
 -0.146 -0.372 1.638
 -0.137 -0.372 1.641
 -0.128 -0.373 1.646
 -0.118 -0.374 1.649
 -0.109 -0.375 1.653
 -0.099 -0.375 1.656
 -0.09 -0.376 1.659
 -0.08 -0.377 1.663
 -0.071 -0.378 1.667
 -0.061 -0.379 1.671
 -0.051 -0.379 1.675
 -0.042 -0.38 1.678
 -0.032 -0.381 1.681
 -0.022 -0.382 1.684
 -0.012 -0.382 1.687
 -0.003 -0.383 1.691
 0.006 -0.384 1.694
 0.016 -0.384 1.696
 0.026 -0.385 1.699
 0.036 -0.386 1.702
 0.046 -0.386 1.705
 0.056 -0.387 1.707
 0.066 -0.388 1.708
 0.076 -0.388 1.71
 0.086 -0.388 1.71
 0.096 -0.388 1.71
 0.106 -0.389 1.711
 0.116 -0.389 1.71
 0.126 -0.388 1.708
 0.136 -0.388 1.704
 0.145 -0.386 1.697
 0.154 -0.384 1.687
 0.163 -0.382 1.676
 0.172 -0.379 1.662
 0.18 -0.376 1.648
 0.188 -0.373 1.633
 0.196 -0.369 1.616
 0.203 -0.366 1.599
 0.21 -0.362 1.582
 0.218 -0.36 1.571
 0.226 -0.357 1.556
 0.232 -0.353 1.538
 0.241 -0.352 1.534
 0.251 -0.354 1.539
 0.26 -0.355 1.542
 0.271 -0.357 1.55
 0.283 -0.36 1.563
 0.293 -0.361 1.564
 0.301 -0.36 1.557
 0.308 -0.358 1.547
 0.316 -0.356 1.538
 0.323 -0.354 1.526
 0.329 -0.351 1.511
 0.332 -0.345 1.483
 0.333 -0.337 1.448
 0.332 -0.328 1.406
 0.333 -0.32 1.371
 0.332 -0.312 1.335
 0.335 -0.307 1.312
 0.338 -0.304 1.294
 0.333 -0.293 1.244
 0.328 -0.282 1.195
 0.314 -0.264 1.117
 0.32 -0.264 1.116
 0.323 -0.26 1.099
 0.33 -0.261 1.1
 0.328 -0.255 1.071
 0 0 0
 0.325 -0.243 1.017
 0.325 -0.239 0.996
 0.324 -0.233 0.971
 0.322 -0.228 0.947
 0.325 -0.226 0.938
 0.321 -0.22 0.908
 0.318 -0.214 0.882
 0.323 -0.214 0.88
 0.327 -0.212 0.873
 0.327 -0.209 0.856
 0.331 -0.209 0.853
 0.335 -0.207 0.846
 0.335 -0.204 0.831
 0.336 -0.202 0.82
 0.338 -0.2 0.811
 0.339 -0.198 0.798
 0.338 -0.195 0.783
 0.34 -0.193 0.775
 0.341 -0.191 0.764
 0.344 -0.19 0.757
 0.346 -0.188 0.75
 0.349 -0.188 0.745
 0.35 -0.186 0.734
 0.351 -0.184 0.724
 0.355 -0.184 0.722
 0.355 -0.181 0.71
 0.358 -0.18 0.704
 0.362 -0.18 0.702
 0.366 -0.18 0.697
 0.366 -0.178 0.687
 0.372 -0.178 0.688
 0.376 -0.178 0.684
 0.375 -0.176 0.673
 0.377 -0.175 0.667
 0.381 -0.174 0.663
 0.374 -0.169 0.641
 0.39 -0.175 0.659
 -0.321 -0.14 0.558
 -0.317 -0.14 0.56
 -0.316 -0.141 0.566
 -0.315 -0.143 0.574
 -0.317 -0.145 0.585
 -0.316 -0.147 0.594
 -0.312 -0.146 0.594
 -0.302 -0.143 0.584
 -0.287 -0.138 0.563
 -0.269 -0.131 0.535
 -0.252 -0.125 0.508
 -0.238 -0.119 0.487
 -0.228 -0.116 0.475
 -0.221 -0.114 0.468
 -0.213 -0.111 0.457
 0 0 0
 0 0 0
 0 0 0
 0 0 0
 0 0 0
 -0.494 -0.28 1.195
 -0.52 -0.299 1.281
 -0.526 -0.307 1.317
 -0.525 -0.311 1.339
 -0.521 -0.314 1.354
 -0.532 -0.326 1.408
 -0.531 -0.33 1.431
 -0.528 -0.334 1.451
 -0.525 -0.338 1.469
 -0.521 -0.342 1.488
 -0.514 -0.343 1.494
 -0.505 -0.343 1.498
 -0.496 -0.343 1.501
 -0.487 -0.343 1.504
 -0.478 -0.343 1.507
 -0.469 -0.343 1.51
 -0.46 -0.344 1.513
 -0.451 -0.344 1.516
 -0.442 -0.344 1.519
 -0.433 -0.345 1.523
 -0.425 -0.345 1.527
 -0.416 -0.345 1.531
 -0.407 -0.346 1.534
 -0.398 -0.346 1.537
 -0.389 -0.346 1.54
 -0.38 -0.347 1.544
 -0.372 -0.347 1.547
 -0.363 -0.348 1.55
 -0.354 -0.348 1.553
 -0.345 -0.348 1.557
 -0.336 -0.349 1.56
 -0.327 -0.349 1.563
 -0.318 -0.35 1.567
 -0.31 -0.35 1.572
 -0.301 -0.351 1.575
 -0.292 -0.352 1.579
 -0.283 -0.352 1.582
 -0.274 -0.353 1.586
 -0.265 -0.353 1.588
 -0.256 -0.353 1.592
 -0.247 -0.354 1.595
 -0.238 -0.354 1.598
 -0.229 -0.355 1.602
 -0.219 -0.356 1.606
 -0.21 -0.356 1.61
 -0.201 -0.357 1.614
 -0.192 -0.358 1.618
 -0.183 -0.359 1.622
 -0.174 -0.359 1.626
 -0.165 -0.36 1.63
 -0.155 -0.361 1.633
 -0.146 -0.361 1.637
 -0.137 -0.362 1.641
 -0.127 -0.363 1.645
 -0.118 -0.364 1.648
 -0.109 -0.364 1.652
 -0.099 -0.365 1.655
 -0.09 -0.366 1.659
 -0.08 -0.367 1.663
 -0.071 -0.367 1.666
 -0.061 -0.368 1.67
 -0.051 -0.369 1.674
 -0.042 -0.37 1.678
 -0.032 -0.371 1.681
 -0.022 -0.371 1.684
 -0.012 -0.372 1.687
 -0.003 -0.373 1.69
 0.006 -0.373 1.693
 0.016 -0.374 1.696
 0.026 -0.375 1.699
 0.036 -0.375 1.701
 0.046 -0.376 1.704
 0.056 -0.377 1.706
 0.066 -0.377 1.708
 0.076 -0.377 1.709
 0.086 -0.378 1.71
 0.096 -0.378 1.71
 0.106 -0.378 1.711
 0.116 -0.378 1.71
 0.126 -0.378 1.708
 0.136 -0.377 1.704
 0.145 -0.376 1.697
 0.154 -0.374 1.687
 0.163 -0.372 1.675
 0.172 -0.369 1.662
 0.18 -0.366 1.647
 0.188 -0.363 1.632
 0.196 -0.359 1.616
 0.203 -0.356 1.599
 0.21 -0.352 1.582
 0.218 -0.35 1.571
 0.225 -0.347 1.557
 0.232 -0.344 1.538
 0.241 -0.343 1.535
 0.251 -0.344 1.54
 0.26 -0.345 1.542
 0.271 -0.347 1.547
 0.282 -0.35 1.56
 0.291 -0.35 1.559
 0.3 -0.349 1.553
 0.307 -0.347 1.544
 0.315 -0.346 1.535
 0.322 -0.344 1.523
 0.328 -0.341 1.509
 0.332 -0.335 1.482
 0.333 -0.328 1.45
 0.333 -0.32 1.41
 0.334 -0.313 1.379
 0.332 -0.304 1.337
 0.335 -0.3 1.315
 0.335 -0.293 1.281
 0.327 -0.28 1.223
 0.324 -0.271 1.183
 0.315 -0.258 1.123
 0.322 -0.258 1.121
 0.323 -0.254 1.102
 0.329 -0.254 1.098
 0.33 -0.249 1.077
 0.328 -0.243 1.049
 0.328 -0.239 1.027
 0.32 -0.229 0.982
 0.32 -0.225 0.961
 0.319 -0.22 0.94
 0.32 -0.217 0.924
 0.318 -0.212 0.901
 0.318 -0.208 0.883
 0.322 -0.207 0.877
 0.326 -0.206 0.872
 0.327 -0.204 0.859
 0.331 -0.203 0.854
 0.334 -0.202 0.846
 0.334 -0.199 0.832
 0.335 -0.196 0.819
 0.336 -0.194 0.806
 0.336 -0.191 0.792
 0.336 -0.188 0.779
 0.338 -0.187 0.771
 0.34 -0.185 0.762
 0.342 -0.184 0.755
 0.346 -0.184 0.751
 0.349 -0.183 0.745
 0.35 -0.181 0.735
 0.351 -0.179 0.725
 0.356 -0.179 0.723
 0.355 -0.177 0.711
 0.358 -0.176 0.705
 0.362 -0.176 0.703
 0.365 -0.175 0.697
 0.366 -0.173 0.688
 0.371 -0.173 0.688
 0.375 -0.173 0.684
 0.374 -0.171 0.673
 0.376 -0.17 0.666
 0.379 -0.169 0.661
 0.366 -0.161 0.627
 0.387 -0.169 0.655
 -0.318 -0.135 0.554
 -0.316 -0.136 0.558
 -0.316 -0.138 0.567
 -0.315 -0.139 0.574
 -0.315 -0.14 0.583
 -0.314 -0.142 0.59
 -0.31 -0.142 0.592
 -0.3 -0.139 0.58
 -0.285 -0.134 0.56
 -0.267 -0.127 0.533
 -0.252 -0.121 0.509
 -0.237 -0.116 0.486
 -0.228 -0.113 0.475
 -0.221 -0.111 0.468
 -0.215 -0.109 0.462
 0 0 0
 0 0 0
 0 0 0
 0 0 0
 0 0 0
 -0.516 -0.284 1.248
 -0.532 -0.298 1.312
 -0.533 -0.303 1.338
 -0.531 -0.306 1.356
 -0.526 -0.308 1.367
 -0.533 -0.318 1.411
 -0.531 -0.322 1.433
 -0.528 -0.326 1.453
 -0.525 -0.329 1.471
 -0.521 -0.332 1.489
 -0.513 -0.333 1.495
 -0.504 -0.333 1.499
 -0.495 -0.334 1.502
 -0.486 -0.334 1.504
 -0.477 -0.334 1.507
 -0.468 -0.334 1.51
 -0.459 -0.334 1.512
 -0.45 -0.334 1.516
 -0.442 -0.335 1.52
 -0.433 -0.335 1.523
 -0.424 -0.335 1.527
 -0.415 -0.336 1.531
 -0.406 -0.336 1.533
 -0.398 -0.336 1.537
 -0.389 -0.337 1.54
 -0.38 -0.337 1.543
 -0.371 -0.337 1.546
 -0.362 -0.338 1.55
 -0.353 -0.338 1.553
 -0.345 -0.339 1.557
 -0.336 -0.339 1.561
 -0.327 -0.34 1.564
 -0.318 -0.34 1.568
 -0.309 -0.341 1.572
 -0.3 -0.341 1.575
 -0.291 -0.342 1.579
 -0.282 -0.342 1.582
 -0.273 -0.343 1.585
 -0.264 -0.343 1.588
 -0.255 -0.344 1.591
 -0.246 -0.344 1.595
 -0.237 -0.345 1.598
 -0.228 -0.345 1.602
 -0.219 -0.346 1.606
 -0.21 -0.347 1.61
 -0.201 -0.347 1.613
 -0.192 -0.348 1.618
 -0.183 -0.349 1.621
 -0.174 -0.349 1.625
 -0.164 -0.35 1.629
 -0.155 -0.351 1.632
 -0.146 -0.351 1.636
 -0.137 -0.352 1.64
 -0.127 -0.353 1.644
 -0.118 -0.354 1.648
 -0.108 -0.354 1.651
 -0.099 -0.355 1.655
 -0.09 -0.356 1.659
 -0.08 -0.356 1.662
 -0.07 -0.357 1.666
 -0.061 -0.358 1.67
 -0.051 -0.359 1.674
 -0.042 -0.36 1.677
 -0.032 -0.36 1.68
 -0.022 -0.361 1.683
 -0.012 -0.362 1.686
 -0.002 -0.362 1.689
 0.006 -0.363 1.692
 0.016 -0.363 1.695
 0.026 -0.364 1.698
 0.036 -0.365 1.701
 0.046 -0.366 1.703
 0.056 -0.366 1.706
 0.066 -0.367 1.707
 0.076 -0.367 1.709
 0.086 -0.367 1.71
 0.096 -0.367 1.71
 0.106 -0.368 1.711
 0.116 -0.368 1.71
 0.126 -0.367 1.707
 0.136 -0.367 1.703
 0.145 -0.366 1.697
 0.154 -0.364 1.687
 0.163 -0.361 1.675
 0.172 -0.359 1.662
 0.18 -0.356 1.647
 0.188 -0.353 1.632
 0.195 -0.349 1.616
 0.203 -0.346 1.598
 0.21 -0.343 1.581
 0.218 -0.34 1.569
 0.225 -0.338 1.557
 0.231 -0.333 1.534
 0.24 -0.333 1.53
 0.25 -0.334 1.536
 0.259 -0.335 1.538
 0.269 -0.336 1.542
 0.282 -0.34 1.56
 0.292 -0.341 1.561
 0.3 -0.34 1.553
 0.307 -0.338 1.545
 0.315 -0.337 1.537
 0.322 -0.335 1.526
 0.328 -0.332 1.51
 0.332 -0.327 1.485
 0.334 -0.32 1.455
 0.335 -0.313 1.418
 0.335 -0.305 1.382
 0.332 -0.296 1.338
 0.335 -0.292 1.316
 0.334 -0.285 1.281
 0.327 -0.272 1.222
 0.327 -0.266 1.194
 0.315 -0.251 1.125
 0.319 -0.249 1.114
 0.321 -0.246 1.095
 0.325 -0.244 1.086
 0.324 -0.238 1.058
 0.324 -0.234 1.037
 0.326 -0.231 1.02
 0.316 -0.22 0.969
 0.315 -0.215 0.947
 0.316 -0.212 0.931
 0.318 -0.209 0.917
 0.317 -0.206 0.899
 0.319 -0.203 0.886
 0.32 -0.201 0.873
 0.323 -0.199 0.865
 0.324 -0.197 0.852
 0.328 -0.196 0.847
 0.332 -0.195 0.841
 0.334 -0.194 0.833
 0.336 -0.191 0.821
 0.337 -0.189 0.81
 0.337 -0.187 0.797
 0.337 -0.184 0.783
 0.339 -0.183 0.775
 0.341 -0.181 0.766
 0.342 -0.179 0.755
 0.345 -0.178 0.75
 0.348 -0.177 0.744
 0.349 -0.175 0.733
 0.349 -0.174 0.723
 0.355 -0.174 0.722
 0.355 -0.172 0.712
 0.356 -0.17 0.703
 0.36 -0.17 0.7
 0.364 -0.17 0.696
 0.366 -0.168 0.688
 0.37 -0.168 0.687
 0.375 -0.169 0.685
 0.375 -0.167 0.675
 0.377 -0.166 0.668
 0.38 -0.165 0.662
 0.385 -0.165 0.662
 0.376 -0.16 0.637
 -0.318 -0.132 0.555
 -0.316 -0.132 0.558
 -0.317 -0.134 0.569
 -0.315 -0.135 0.574
 -0.315 -0.136 0.583
 -0.315 -0.138 0.594
 -0.313 -0.139 0.599
 -0.303 -0.136 0.587
 -0.287 -0.131 0.565
 -0.27 -0.125 0.539
 -0.255 -0.119 0.516
 -0.24 -0.114 0.494
 -0.232 -0.112 0.484
 -0.229 -0.112 0.485
 0 0 0
 0 0 0
 0 0 0
 0 0 0
 0 0 0
 0 0 0
 -0.525 -0.281 1.272
 -0.538 -0.292 1.327
 -0.537 -0.297 1.349
 -0.533 -0.299 1.364
 -0.528 -0.301 1.375
 -0.533 -0.309 1.415
 -0.531 -0.313 1.435
 -0.528 -0.317 1.455
 -0.525 -0.32 1.472
 -0.521 -0.323 1.49
 -0.513 -0.324 1.495
 -0.504 -0.324 1.499
 -0.495 -0.324 1.502
 -0.486 -0.324 1.505
 -0.477 -0.324 1.508
 -0.468 -0.324 1.51
 -0.459 -0.325 1.513
 -0.45 -0.325 1.517
 -0.441 -0.325 1.52
 -0.432 -0.326 1.523
 -0.424 -0.326 1.527
 -0.415 -0.326 1.531
 -0.406 -0.327 1.534
 -0.397 -0.327 1.537
 -0.388 -0.327 1.54
 -0.379 -0.328 1.543
 -0.371 -0.328 1.547
 -0.362 -0.328 1.55
 -0.353 -0.329 1.553
 -0.344 -0.329 1.557
 -0.335 -0.33 1.561
 -0.326 -0.33 1.564
 -0.318 -0.331 1.568
 -0.309 -0.331 1.572
 -0.3 -0.332 1.575
 -0.291 -0.332 1.578
 -0.282 -0.333 1.582
 -0.273 -0.333 1.585
 -0.264 -0.333 1.588
 -0.255 -0.334 1.591
 -0.246 -0.334 1.595
 -0.237 -0.335 1.598
 -0.228 -0.336 1.602
 -0.219 -0.336 1.606
 -0.21 -0.337 1.61
 -0.201 -0.337 1.614
 -0.192 -0.338 1.618
 -0.183 -0.339 1.621
 -0.173 -0.339 1.625
 -0.164 -0.34 1.628
 -0.155 -0.341 1.632
 -0.146 -0.341 1.635
 -0.136 -0.342 1.639
 -0.127 -0.343 1.643
 -0.118 -0.343 1.647
 -0.108 -0.344 1.651
 -0.099 -0.345 1.655
 -0.089 -0.346 1.658
 -0.08 -0.346 1.662
 -0.07 -0.347 1.666
 -0.061 -0.348 1.669
 -0.051 -0.348 1.673
 -0.041 -0.349 1.676
 -0.032 -0.35 1.679
 -0.022 -0.35 1.682
 -0.012 -0.351 1.685
 -0.002 -0.352 1.688
 0.006 -0.352 1.691
 0.016 -0.353 1.694
 0.026 -0.354 1.697
 0.036 -0.354 1.7
 0.046 -0.355 1.703
 0.056 -0.356 1.705
 0.066 -0.356 1.707
 0.076 -0.357 1.709
 0.086 -0.357 1.71
 0.096 -0.357 1.709
 0.106 -0.357 1.711
 0.116 -0.357 1.71
 0.126 -0.357 1.707
 0.136 -0.356 1.703
 0.145 -0.355 1.697
 0.154 -0.353 1.686
 0.163 -0.351 1.675
 0.171 -0.349 1.662
 0.18 -0.346 1.647
 0.188 -0.343 1.632
 0.195 -0.34 1.616
 0.203 -0.336 1.598
 0.21 -0.333 1.581
 0.218 -0.331 1.569
 0.225 -0.329 1.559
 0.231 -0.324 1.534
 0.24 -0.324 1.533
 0.25 -0.325 1.538
 0.26 -0.326 1.541
 0.269 -0.327 1.542
 0.282 -0.331 1.561
 0.291 -0.331 1.56
 0.3 -0.33 1.555
 0.307 -0.329 1.545
 0.315 -0.327 1.537
 0.323 -0.326 1.529
 0.328 -0.323 1.513
 0.332 -0.318 1.487
 0.335 -0.312 1.459
 0.335 -0.305 1.423
 0.334 -0.297 1.382
 0.331 -0.287 1.334
 0.334 -0.283 1.312
 0.332 -0.275 1.272
 0.327 -0.265 1.225
 0.328 -0.26 1.2
 0.321 -0.249 1.147
 0.325 -0.247 1.136
 0.327 -0.243 1.115
 0.322 -0.235 1.077
 0.321 -0.23 1.048
 0.318 -0.223 1.018
 0.321 -0.222 1.008
 0.315 -0.214 0.969
 0.316 -0.21 0.95
 0.317 -0.207 0.935
 0.319 -0.204 0.922
 0.316 -0.2 0.897
 0.319 -0.198 0.888
 0.321 -0.196 0.877
 0.324 -0.194 0.867
 0.325 -0.192 0.856
 0.33 -0.192 0.853
 0.332 -0.19 0.843
 0.333 -0.188 0.831
 0.334 -0.186 0.819
 0.336 -0.184 0.807
 0.336 -0.181 0.795
 0.337 -0.179 0.784
 0.34 -0.178 0.777
 0.342 -0.177 0.769
 0.342 -0.175 0.757
 0.345 -0.173 0.75
 0.347 -0.172 0.743
 0.348 -0.17 0.733
 0.348 -0.168 0.722
 0.352 -0.168 0.718
 0.354 -0.167 0.711
 0.356 -0.166 0.703
 0.358 -0.165 0.697
 0.362 -0.164 0.693
 0.365 -0.163 0.687
 0.369 -0.163 0.684
 0.373 -0.163 0.682
 0.374 -0.162 0.674
 0.377 -0.161 0.669
 0.379 -0.16 0.663
 0.383 -0.16 0.659
 0.389 -0.161 0.66
 -0.322 -0.129 0.563
 -0.317 -0.129 0.562
 -0.317 -0.13 0.571
 -0.315 -0.131 0.576
 -0.315 -0.133 0.583
 -0.316 -0.135 0.595
 -0.316 -0.136 0.604
 -0.306 -0.134 0.595
 -0.292 -0.13 0.576
 -0.276 -0.124 0.552
 -0.26 -0.119 0.528
 -0.244 -0.113 0.502
 -0.234 -0.109 0.489
 -0.228 -0.108 0.484
 0 0 0
 0 0 0
 0 0 0
 0 0 0
 0 0 0
 0 0 0
 -0.535 -0.278 1.299
 -0.543 -0.287 1.342
 -0.54 -0.29 1.359
 -0.536 -0.292 1.372
 -0.53 -0.294 1.383
 -0.533 -0.301 1.417
 -0.531 -0.304 1.437
 -0.528 -0.308 1.457
 -0.524 -0.311 1.474
 -0.52 -0.314 1.49
 -0.512 -0.314 1.495
 -0.503 -0.314 1.499
 -0.494 -0.315 1.502
 -0.485 -0.315 1.505
 -0.476 -0.315 1.507
 -0.467 -0.315 1.51
 -0.458 -0.315 1.513
 -0.45 -0.315 1.517
 -0.441 -0.316 1.52
 -0.432 -0.316 1.524
 -0.423 -0.316 1.527
 -0.414 -0.317 1.53
 -0.406 -0.317 1.533
 -0.397 -0.317 1.537
 -0.388 -0.318 1.54
 -0.379 -0.318 1.543
 -0.37 -0.318 1.547
 -0.362 -0.319 1.551
 -0.353 -0.319 1.554
 -0.344 -0.32 1.557
 -0.335 -0.32 1.561
 -0.326 -0.32 1.564
 -0.317 -0.321 1.567
 -0.308 -0.321 1.571
 -0.3 -0.322 1.575
 -0.291 -0.322 1.578
 -0.282 -0.323 1.581
 -0.273 -0.323 1.584
 -0.264 -0.324 1.588
 -0.255 -0.324 1.591
 -0.246 -0.325 1.594
 -0.237 -0.325 1.598
 -0.228 -0.326 1.602
 -0.219 -0.326 1.605
 -0.21 -0.327 1.609
 -0.2 -0.327 1.613
 -0.191 -0.328 1.617
 -0.182 -0.329 1.62
 -0.173 -0.329 1.625
 -0.164 -0.33 1.628
 -0.155 -0.331 1.632
 -0.145 -0.331 1.635
 -0.136 -0.332 1.639
 -0.127 -0.333 1.642
 -0.117 -0.333 1.646
 -0.108 -0.334 1.65
 -0.099 -0.335 1.653
 -0.089 -0.335 1.657
 -0.08 -0.336 1.661
 -0.07 -0.337 1.665
 -0.061 -0.338 1.668
 -0.051 -0.338 1.672
 -0.041 -0.339 1.675
 -0.032 -0.34 1.678
 -0.022 -0.34 1.681
 -0.012 -0.341 1.685
 -0.002 -0.342 1.688
 0.007 -0.342 1.691
 0.016 -0.343 1.694
 0.026 -0.344 1.697
 0.036 -0.344 1.699
 0.046 -0.345 1.702
 0.056 -0.345 1.705
 0.066 -0.346 1.706
 0.076 -0.346 1.708
 0.086 -0.347 1.709
 0.096 -0.347 1.709
 0.106 -0.347 1.71
 0.116 -0.347 1.709
 0.126 -0.347 1.706
 0.136 -0.346 1.702
 0.145 -0.345 1.696
 0.154 -0.343 1.686
 0.163 -0.341 1.674
 0.171 -0.339 1.662
 0.179 -0.336 1.647
 0.187 -0.333 1.631
 0.195 -0.33 1.615
 0.202 -0.326 1.597
 0.21 -0.323 1.58
 0.217 -0.321 1.568
 0.225 -0.319 1.558
 0.23 -0.314 1.532
 0.239 -0.314 1.53
 0.249 -0.315 1.533
 0.259 -0.316 1.537
 0.268 -0.317 1.539
 0.281 -0.321 1.558
 0.291 -0.321 1.558
 0.299 -0.321 1.554
 0.307 -0.319 1.545
 0.315 -0.318 1.537
 0.322 -0.316 1.528
 0.328 -0.313 1.51
 0.331 -0.308 1.484
 0.334 -0.303 1.456
 0.334 -0.295 1.419
 0.332 -0.287 1.375
 0.33 -0.278 1.33
 0.331 -0.272 1.301
 0.329 -0.265 1.264
 0.325 -0.256 1.218
 0.326 -0.251 1.192
 0.317 -0.239 1.135
 0.321 -0.237 1.123
 0.321 -0.233 1.098
 0.314 -0.223 1.051
 0.317 -0.221 1.038
 0.318 -0.217 1.018
 0.323 -0.217 1.015
 0.315 -0.208 0.969
 0.318 -0.205 0.957
 0.318 -0.202 0.94
 0.319 -0.199 0.924
 0.317 -0.194 0.899
 0.321 -0.193 0.893
 0.32 -0.19 0.875
 0.324 -0.189 0.869
 0.326 -0.187 0.86
 0.329 -0.186 0.852
 0.331 -0.184 0.842
 0.334 -0.183 0.833
 0.334 -0.181 0.82
 0.335 -0.178 0.808
 0.336 -0.176 0.796
 0.336 -0.174 0.783
 0.339 -0.173 0.776
 0.341 -0.171 0.768
 0.342 -0.17 0.758
 0.345 -0.168 0.751
 0.348 -0.168 0.745
 0.35 -0.166 0.737
 0.35 -0.164 0.726
 0.353 -0.164 0.721
 0.356 -0.163 0.715
 0.357 -0.161 0.706
 0.359 -0.16 0.699
 0.362 -0.16 0.695
 0.366 -0.159 0.691
 0.369 -0.159 0.687
 0.373 -0.159 0.683
 0.375 -0.158 0.676
 0.378 -0.157 0.672
 0.38 -0.156 0.665
 0.386 -0.157 0.665
 0.387 -0.156 0.658
 -0.326 -0.127 0.57
 -0.317 -0.125 0.562
 -0.318 -0.127 0.573
 -0.316 -0.128 0.578
 -0.315 -0.129 0.585
 -0.316 -0.131 0.596
 -0.319 -0.134 0.611
 -0.31 -0.131 0.602
 -0.296 -0.128 0.585
 -0.279 -0.122 0.559
 -0.263 -0.116 0.535
 -0.244 -0.109 0.503
 -0.233 -0.106 0.488
 -0.223 -0.103 0.475
 0 0 0
 0 0 0
 0 0 0
 0 0 0
 0 0 0
 0 0 0
 -0.539 -0.272 1.31
 -0.546 -0.28 1.351
 -0.543 -0.283 1.367
 -0.538 -0.285 1.379
 -0.532 -0.286 1.389
 -0.535 -0.292 1.422
 -0.532 -0.296 1.44
 -0.528 -0.299 1.459
 -0.524 -0.302 1.475
 -0.52 -0.304 1.49
 -0.511 -0.305 1.495
 -0.502 -0.305 1.498
 -0.493 -0.305 1.501
 -0.484 -0.305 1.504
 -0.476 -0.305 1.507
 -0.467 -0.305 1.51
 -0.458 -0.306 1.513
 -0.449 -0.306 1.517
 -0.44 -0.306 1.52
 -0.432 -0.307 1.524
 -0.423 -0.307 1.527
 -0.414 -0.307 1.529
 -0.405 -0.307 1.533
 -0.396 -0.308 1.536
 -0.387 -0.308 1.54
 -0.379 -0.308 1.543
 -0.37 -0.309 1.547
 -0.361 -0.309 1.55
 -0.352 -0.31 1.553
 -0.343 -0.31 1.557
 -0.334 -0.31 1.56
 -0.326 -0.311 1.563
 -0.317 -0.311 1.567
 -0.308 -0.312 1.57
 -0.299 -0.312 1.574
 -0.29 -0.313 1.577
 -0.281 -0.313 1.581
 -0.272 -0.313 1.584
 -0.263 -0.314 1.587
 -0.254 -0.314 1.59
 -0.245 -0.315 1.594
 -0.236 -0.315 1.598
 -0.227 -0.316 1.602
 -0.218 -0.317 1.605
 -0.209 -0.317 1.609
 -0.2 -0.318 1.612
 -0.191 -0.318 1.616
 -0.182 -0.319 1.619
 -0.173 -0.319 1.624
 -0.164 -0.32 1.627
 -0.154 -0.321 1.631
 -0.145 -0.321 1.635
 -0.136 -0.322 1.638
 -0.127 -0.323 1.642
 -0.117 -0.323 1.645
 -0.108 -0.324 1.649
 -0.098 -0.325 1.653
 -0.089 -0.325 1.657
 -0.08 -0.326 1.661
 -0.07 -0.327 1.664
 -0.06 -0.327 1.668
 -0.051 -0.328 1.671
 -0.041 -0.329 1.675
 -0.032 -0.329 1.678
 -0.022 -0.33 1.681
 -0.012 -0.331 1.684
 -0.002 -0.331 1.688
 0.007 -0.332 1.69
 0.016 -0.333 1.693
 0.026 -0.333 1.696
 0.036 -0.334 1.699
 0.046 -0.334 1.702
 0.056 -0.335 1.704
 0.066 -0.335 1.706
 0.076 -0.336 1.708
 0.086 -0.336 1.709
 0.096 -0.336 1.709
 0.106 -0.337 1.709
 0.116 -0.337 1.709
 0.126 -0.336 1.706
 0.135 -0.336 1.702
 0.145 -0.334 1.695
 0.154 -0.333 1.685
 0.163 -0.331 1.673
 0.171 -0.328 1.66
 0.179 -0.325 1.645
 0.187 -0.323 1.63
 0.195 -0.32 1.613
 0.202 -0.317 1.596
 0.209 -0.313 1.579
 0.217 -0.311 1.568
 0.225 -0.31 1.559
 0.23 -0.305 1.531
 0.239 -0.305 1.53
 0.249 -0.306 1.533
 0.258 -0.306 1.535
 0.268 -0.307 1.536
 0.281 -0.311 1.557
 0.29 -0.311 1.556
 0.299 -0.311 1.554
 0.307 -0.31 1.545
 0.314 -0.308 1.537
 0.322 -0.307 1.529
 0.328 -0.304 1.512
 0.331 -0.299 1.486
 0.334 -0.294 1.458
 0.335 -0.287 1.422
 0.332 -0.278 1.375
 0.329 -0.27 1.33
 0.329 -0.263 1.296
 0.326 -0.255 1.253
 0.325 -0.248 1.218
 0.327 -0.245 1.198
 0.323 -0.237 1.156
 0.326 -0.234 1.139
 0.324 -0.228 1.108
 0.314 -0.216 1.05
 0.315 -0.213 1.032
 0.313 -0.208 1.004
 0.319 -0.208 1.003
 0.313 -0.2 0.963
 0.316 -0.199 0.954
 0.319 -0.196 0.942
 0.321 -0.194 0.929
 0.319 -0.19 0.906
 0.323 -0.189 0.9
 0.323 -0.186 0.884
 0.326 -0.185 0.876
 0.328 -0.183 0.865
 0.33 -0.181 0.854
 0.332 -0.179 0.844
 0.333 -0.177 0.832
 0.334 -0.175 0.819
 0.335 -0.173 0.809
 0.336 -0.171 0.796
 0.336 -0.169 0.782
 0.34 -0.168 0.778
 0.341 -0.166 0.768
 0.342 -0.165 0.758
 0.344 -0.163 0.75
 0.348 -0.163 0.746
 0.349 -0.161 0.736
 0.35 -0.16 0.726
 0.354 -0.159 0.722
 0.356 -0.158 0.716
 0.356 -0.157 0.706
 0.358 -0.156 0.699
 0.361 -0.155 0.693
 0.364 -0.154 0.688
 0.367 -0.153 0.683
 0.371 -0.153 0.68
 0.373 -0.152 0.674
 0.376 -0.152 0.669
 0.379 -0.151 0.664
 0.388 -0.153 0.671
 0.379 -0.148 0.645
 -0.33 -0.125 0.578
 -0.319 -0.122 0.566
 -0.319 -0.124 0.576
 -0.317 -0.124 0.58
 -0.316 -0.125 0.587
 -0.316 -0.127 0.598
 -0.32 -0.13 0.614
 -0.312 -0.129 0.609
 -0.299 -0.125 0.591
 -0.282 -0.119 0.565
 -0.264 -0.113 0.538
 -0.245 -0.107 0.506
 -0.232 -0.103 0.487
 -0.224 -0.1 0.476
 -0.219 -0.099 0.473
 0 0 0
 0 0 0
 0 0 0
 0 0 0
 0 0 0
 -0.545 -0.267 1.327
 -0.55 -0.274 1.362
 -0.545 -0.276 1.376
 -0.54 -0.277 1.386
 -0.534 -0.279 1.396
 -0.535 -0.284 1.425
 -0.532 -0.287 1.443
 -0.529 -0.29 1.461
 -0.524 -0.293 1.477
 -0.519 -0.295 1.491
 -0.511 -0.295 1.495
 -0.502 -0.295 1.498
 -0.493 -0.296 1.501
 -0.484 -0.296 1.504
 -0.475 -0.296 1.507
 -0.466 -0.296 1.51
 -0.457 -0.296 1.514
 -0.449 -0.297 1.517
 -0.44 -0.297 1.521
 -0.431 -0.297 1.524
 -0.422 -0.297 1.527
 -0.413 -0.298 1.53
 -0.405 -0.298 1.533
 -0.396 -0.298 1.536
 -0.387 -0.299 1.54
 -0.378 -0.299 1.543
 -0.369 -0.299 1.547
 -0.361 -0.3 1.55
 -0.352 -0.3 1.553
 -0.343 -0.3 1.556
 -0.334 -0.301 1.559
 -0.325 -0.301 1.563
 -0.316 -0.301 1.566
 -0.307 -0.302 1.57
 -0.299 -0.302 1.573
 -0.29 -0.303 1.577
 -0.281 -0.303 1.58
 -0.272 -0.304 1.584
 -0.263 -0.304 1.587
 -0.254 -0.305 1.591
 -0.245 -0.305 1.594
 -0.236 -0.306 1.598
 -0.227 -0.306 1.601
 -0.218 -0.307 1.604
 -0.209 -0.307 1.608
 -0.2 -0.308 1.612
 -0.191 -0.308 1.616
 -0.182 -0.309 1.619
 -0.173 -0.31 1.623
 -0.163 -0.31 1.627
 -0.154 -0.311 1.631
 -0.145 -0.311 1.634
 -0.136 -0.312 1.638
 -0.126 -0.313 1.642
 -0.117 -0.313 1.645
 -0.108 -0.314 1.649
 -0.098 -0.315 1.652
 -0.089 -0.315 1.657
 -0.079 -0.316 1.66
 -0.07 -0.317 1.664
 -0.06 -0.317 1.667
 -0.051 -0.318 1.671
 -0.041 -0.319 1.674
 -0.031 -0.319 1.678
 -0.022 -0.32 1.681
 -0.012 -0.321 1.684
 -0.002 -0.321 1.687
 0.007 -0.322 1.69
 0.016 -0.322 1.692
 0.026 -0.323 1.695
 0.036 -0.323 1.698
 0.046 -0.324 1.701
 0.056 -0.325 1.704
 0.066 -0.325 1.706
 0.076 -0.326 1.708
 0.086 -0.326 1.708
 0.096 -0.326 1.709
 0.106 -0.326 1.709
 0.116 -0.326 1.709
 0.126 -0.326 1.705
 0.135 -0.325 1.701
 0.145 -0.324 1.694
 0.154 -0.322 1.684
 0.162 -0.32 1.672
 0.171 -0.318 1.659
 0.179 -0.315 1.644
 0.187 -0.313 1.629
 0.195 -0.31 1.613
 0.202 -0.307 1.596
 0.209 -0.304 1.579
 0.217 -0.302 1.567
 0.225 -0.3 1.558
 0.23 -0.295 1.529
 0.239 -0.295 1.528
 0.248 -0.296 1.531
 0.258 -0.297 1.534
 0.268 -0.298 1.537
 0.281 -0.302 1.559
 0.29 -0.302 1.56
 0.299 -0.302 1.556
 0.307 -0.3 1.546
 0.314 -0.299 1.536
 0.322 -0.298 1.528
 0.327 -0.294 1.508
 0.33 -0.29 1.482
 0.333 -0.284 1.454
 0.333 -0.278 1.417
 0.33 -0.269 1.369
 0.328 -0.261 1.326
 0.327 -0.254 1.288
 0.324 -0.246 1.247
 0.323 -0.24 1.212
 0.325 -0.236 1.191
 0.323 -0.229 1.156
 0.325 -0.226 1.138
 0.324 -0.221 1.108
 0.313 -0.21 1.049
 0.312 -0.205 1.022
 0.31 -0.2 0.995
 0.316 -0.2 0.993
 0.313 -0.194 0.964
 0.316 -0.192 0.953
 0.318 -0.19 0.939
 0.321 -0.189 0.932
 0.32 -0.185 0.911
 0.324 -0.184 0.905
 0.324 -0.181 0.889
 0.327 -0.18 0.879
 0.328 -0.178 0.866
 0.328 -0.175 0.851
 0.33 -0.173 0.84
 0.331 -0.171 0.828
 0.333 -0.169 0.817
 0.334 -0.168 0.807
 0.336 -0.166 0.798
 0.337 -0.164 0.785
 0.341 -0.164 0.782
 0.341 -0.162 0.77
 0.343 -0.16 0.76
 0.344 -0.158 0.75
 0.347 -0.158 0.745
 0.348 -0.156 0.734
 0.349 -0.155 0.726
 0.352 -0.154 0.721
 0.355 -0.153 0.715
 0.356 -0.152 0.706
 0.358 -0.151 0.698
 0.361 -0.15 0.693
 0.363 -0.149 0.687
 0.365 -0.148 0.681
 0.368 -0.148 0.676
 0.371 -0.147 0.671
 0.374 -0.147 0.666
 0.378 -0.146 0.663
 0.38 -0.146 0.657
 0.391 -0.148 0.667
 -0.332 -0.122 0.581
 -0.322 -0.119 0.572
 -0.321 -0.12 0.579
 -0.318 -0.121 0.583
 -0.316 -0.122 0.589
 -0.318 -0.124 0.601
 -0.323 -0.127 0.621
 -0.319 -0.127 0.623
 -0.305 -0.123 0.605
 -0.289 -0.119 0.581
 -0.271 -0.113 0.553
 -0.251 -0.106 0.52
 -0.235 -0.101 0.494
 -0.228 -0.099 0.485
 -0.219 -0.096 0.473
 0 0 0
 0 0 0
 0 0 0
 0 0 0
 0 0 0
 -0.548 -0.261 1.337
 -0.552 -0.266 1.369
 -0.547 -0.268 1.382
 -0.541 -0.269 1.39
 -0.535 -0.271 1.401
 -0.536 -0.276 1.428
 -0.532 -0.278 1.445
 -0.528 -0.281 1.462
 -0.524 -0.284 1.478
 -0.519 -0.285 1.491
 -0.51 -0.286 1.495
 -0.501 -0.286 1.498
 -0.492 -0.286 1.501
 -0.483 -0.286 1.504
 -0.475 -0.286 1.507
 -0.466 -0.287 1.51
 -0.457 -0.287 1.514
 -0.448 -0.287 1.517
 -0.439 -0.287 1.521
 -0.431 -0.288 1.524
 -0.422 -0.288 1.527
 -0.413 -0.288 1.53
 -0.404 -0.289 1.533
 -0.395 -0.289 1.537
 -0.387 -0.289 1.54
 -0.378 -0.289 1.543
 -0.369 -0.29 1.547
 -0.36 -0.29 1.549
 -0.351 -0.29 1.552
 -0.342 -0.291 1.556
 -0.334 -0.291 1.559
 -0.325 -0.291 1.562
 -0.316 -0.292 1.565
 -0.307 -0.292 1.569
 -0.298 -0.293 1.573
 -0.289 -0.293 1.576
 -0.281 -0.294 1.58
 -0.272 -0.294 1.584
 -0.263 -0.295 1.587
 -0.254 -0.295 1.591
 -0.245 -0.295 1.594
 -0.236 -0.296 1.597
 -0.227 -0.296 1.6
 -0.218 -0.297 1.603
 -0.209 -0.297 1.607
 -0.2 -0.298 1.611
 -0.191 -0.299 1.615
 -0.182 -0.299 1.619
 -0.172 -0.3 1.624
 -0.163 -0.301 1.628
 -0.154 -0.301 1.632
 -0.145 -0.302 1.635
 -0.136 -0.302 1.638
 -0.126 -0.303 1.642
 -0.117 -0.303 1.645
 -0.107 -0.304 1.648
 -0.098 -0.304 1.651
 -0.089 -0.305 1.656
 -0.079 -0.306 1.659
 -0.07 -0.307 1.663
 -0.06 -0.307 1.667
 -0.051 -0.308 1.671
 -0.041 -0.309 1.674
 -0.031 -0.309 1.677
 -0.022 -0.31 1.68
 -0.012 -0.31 1.684
 -0.002 -0.311 1.687
 0.007 -0.312 1.69
 0.016 -0.312 1.693
 0.026 -0.313 1.696
 0.036 -0.313 1.698
 0.046 -0.314 1.701
 0.056 -0.315 1.704
 0.066 -0.315 1.706
 0.076 -0.315 1.708
 0.086 -0.316 1.709
 0.096 -0.316 1.709
 0.106 -0.316 1.709
 0.116 -0.316 1.709
 0.126 -0.316 1.705
 0.135 -0.315 1.701
 0.145 -0.314 1.694
 0.154 -0.312 1.683
 0.162 -0.31 1.671
 0.171 -0.308 1.658
 0.179 -0.305 1.644
 0.187 -0.303 1.629
 0.195 -0.3 1.614
 0.202 -0.297 1.597
 0.209 -0.294 1.58
 0.217 -0.292 1.568
 0.224 -0.291 1.556
 0.229 -0.286 1.528
 0.238 -0.286 1.526
 0.248 -0.286 1.53
 0.258 -0.287 1.533
 0.268 -0.288 1.537
 0.28 -0.292 1.557
 0.29 -0.293 1.558
 0.298 -0.292 1.553
 0.306 -0.291 1.543
 0.313 -0.289 1.533
 0.321 -0.288 1.526
 0.326 -0.285 1.506
 0.329 -0.28 1.479
 0.331 -0.275 1.449
 0.332 -0.268 1.412
 0.33 -0.26 1.366
 0.327 -0.252 1.324
 0.326 -0.246 1.287
 0.324 -0.239 1.248
 0.323 -0.232 1.211
 0.323 -0.228 1.185
 0.322 -0.222 1.153
 0.323 -0.218 1.134
 0.32 -0.212 1.097
 0.311 -0.202 1.042
 0.31 -0.198 1.018
 0.308 -0.192 0.99
 0.314 -0.192 0.987
 0.313 -0.188 0.963
 0.316 -0.187 0.954
 0.316 -0.184 0.937
 0.319 -0.182 0.927
 0.318 -0.178 0.905
 0.323 -0.178 0.901
 0.323 -0.175 0.885
 0.326 -0.174 0.878
 0.328 -0.172 0.866
 0.328 -0.17 0.852
 0.33 -0.168 0.84
 0.331 -0.166 0.83
 0.333 -0.164 0.818
 0.334 -0.162 0.806
 0.336 -0.161 0.799
 0.337 -0.159 0.787
 0.34 -0.158 0.78
 0.34 -0.156 0.769
 0.342 -0.155 0.76
 0.343 -0.153 0.749
 0.346 -0.153 0.743
 0.346 -0.151 0.733
 0.349 -0.15 0.725
 0.352 -0.149 0.72
 0.354 -0.148 0.713
 0.356 -0.147 0.706
 0.358 -0.146 0.699
 0.36 -0.145 0.693
 0.361 -0.144 0.685
 0.364 -0.143 0.679
 0.366 -0.142 0.672
 0.369 -0.142 0.668
 0.372 -0.142 0.664
 0.377 -0.142 0.662
 0.368 -0.137 0.637
 0.388 -0.143 0.661
 -0.337 -0.119 0.591
 -0.329 -0.118 0.586
 -0.322 -0.117 0.583
 -0.319 -0.117 0.586
 -0.318 -0.118 0.593
 -0.321 -0.121 0.608
 -0.329 -0.125 0.633
 -0.329 -0.127 0.642
 -0.315 -0.123 0.625
 -0.299 -0.119 0.603
 -0.281 -0.113 0.574
 -0.259 -0.106 0.537
 -0.237 -0.098 0.499
 -0.228 -0.096 0.487
 0 0 0
 0 0 0
 0 0 0
 0 0 0
 0 0 0
 0 0 0
 -0.553 -0.254 1.35
 -0.554 -0.259 1.377
 -0.549 -0.261 1.389
 -0.543 -0.262 1.397
 -0.537 -0.263 1.407
 -0.537 -0.267 1.432
 -0.533 -0.27 1.448
 -0.529 -0.272 1.464
 -0.524 -0.275 1.479
 -0.518 -0.276 1.491
 -0.509 -0.276 1.494
 -0.501 -0.277 1.498
 -0.492 -0.277 1.501
 -0.483 -0.277 1.504
 -0.474 -0.277 1.507
 -0.465 -0.277 1.51
 -0.456 -0.277 1.513
 -0.447 -0.278 1.516
 -0.439 -0.278 1.52
 -0.43 -0.278 1.524
 -0.421 -0.279 1.527
 -0.412 -0.279 1.53
 -0.404 -0.279 1.533
 -0.395 -0.279 1.536
 -0.386 -0.28 1.539
 -0.377 -0.28 1.543
 -0.369 -0.28 1.546
 -0.36 -0.281 1.549
 -0.351 -0.281 1.552
 -0.342 -0.281 1.556
 -0.333 -0.281 1.558
 -0.324 -0.282 1.562
 -0.315 -0.282 1.565
 -0.307 -0.283 1.569
 -0.298 -0.283 1.572
 -0.289 -0.284 1.576
 -0.28 -0.284 1.58
 -0.271 -0.284 1.583
 -0.262 -0.285 1.587
 -0.253 -0.285 1.59
 -0.244 -0.286 1.593
 -0.235 -0.286 1.597
 -0.226 -0.287 1.6
 -0.217 -0.287 1.604
 -0.208 -0.288 1.607
 -0.199 -0.288 1.612
 -0.191 -0.289 1.617
 -0.182 -0.29 1.622
 -0.173 -0.291 1.628
 -0.164 -0.292 1.633
 -0.154 -0.292 1.636
 -0.145 -0.293 1.639
 -0.136 -0.293 1.641
 -0.126 -0.293 1.643
 -0.117 -0.294 1.645
 -0.107 -0.294 1.648
 -0.098 -0.295 1.652
 -0.089 -0.295 1.656
