 0.027 0.12 1.21
 0.034 0.12 1.207
 0.041 0.119 1.2
 0.047 0.119 1.199
 0.055 0.12 1.211
 0.063 0.122 1.233
 0.072 0.125 1.264
 0.082 0.13 1.306
 0.093 0.135 1.361
 0.106 0.141 1.421
 0.118 0.147 1.475
 0.131 0.151 1.516
 0.141 0.153 1.539
 0.151 0.154 1.548
 0.16 0.154 1.545
 0.169 0.153 1.541
 0.177 0.153 1.535
 0.186 0.153 1.535
 0.194 0.152 1.531
 0.202 0.151 1.52
 0.207 0.149 1.497
 0.213 0.147 1.475
 0.218 0.145 1.451
 0.221 0.141 1.415
 0.221 0.136 1.362
 0.224 0.133 1.334
 0.227 0.13 1.306
 0.225 0.124 1.249
 0.223 0.119 1.199
 0.226 0.117 1.179
 0.22 0.111 1.113
 0.217 0.106 1.062
 0.224 0.106 1.065
 0.218 0.1 1.009
 0.199 0.089 0.894
 0.173 0.075 0.755
 0.15 0.063 0.638
 0.134 0.055 0.557
 0.111 0.044 0.447
 0.1 0.038 0.395
 0.097 0.036 0.373
 0.095 0.034 0.354
 0.094 0.033 0.343
 0.094 0.032 0.337
 0.095 0.032 0.331
 0.095 0.031 0.324
 0.096 0.031 0.319
 0.097 0.031 0.316
 0.097 0.03 0.31
 0.097 0.029 0.304
 0.098 0.029 0.3
 0.1 0.029 0.299
 0.101 0.029 0.298
 0.105 0.029 0.302
 0.109 0.03 0.308
 0.114 0.031 0.316
 0.118 0.031 0.322
 0.123 0.032 0.33
 0.127 0.033 0.336
 0.132 0.034 0.342
 0.135 0.034 0.343
 0.14 0.035 0.349
 0.143 0.035 0.35
 0.145 0.035 0.35
 0.148 0.035 0.351
 0.154 0.036 0.358
 0.159 0.037 0.363
 0.165 0.038 0.372
 0.171 0.038 0.38
 0.178 0.04 0.389
 0.182 0.04 0.392
 0.188 0.041 0.398
 0.195 0.042 0.405
 0.203 0.043 0.416
 0.208 0.043 0.42
 0.219 0.045 0.435
 0.225 0.046 0.44
 0.239 0.048 0.462
 0.27 0.054 0.515
 0.3 0.06 0.564
 0.318 0.063 0.589
 0.333 0.065 0.608
 0.35 0.067 0.63
 0.358 0.068 0.635
 0.433 0.082 0.758
 0.432 0.081 0.745
 -0.365 0.078 0.651
 -0.371 0.08 0.671
 -0.377 0.082 0.694
 -0.381 0.084 0.712
 -0.384 0.086 0.73
 -0.386 0.088 0.745
 -0.386 0.089 0.757
 -0.385 0.09 0.765
 -0.383 0.09 0.773
 -0.379 0.091 0.778
 -0.376 0.091 0.783
 -0.372 0.091 0.789
 -0.369 0.092 0.794
 -0.365 0.092 0.799
 -0.362 0.092 0.805
 -0.359 0.093 0.811
 -0.356 0.094 0.818
 -0.354 0.094 0.826
 -0.352 0.095 0.836
 -0.352 0.097 0.852
 -0.354 0.099 0.871
 -0.356 0.101 0.893
 -0.36 0.104 0.918
 -0.365 0.107 0.947
 -0.368 0.109 0.973
 -0.371 0.112 0.999
 -0.374 0.115 1.025
 -0.375 0.117 1.048
 -0.374 0.119 1.067
 -0.373 0.121 1.083
 -0.369 0.122 1.095
 -0.366 0.123 1.106
 -0.362 0.124 1.117
 -0.358 0.125 1.127
 -0.354 0.126 1.139
 -0.351 0.127 1.15
 -0.346 0.128 1.16
 -0.341 0.128 1.167
 -0.335 0.129 1.175
 -0.33 0.129 1.181
 -0.324 0.13 1.188
 -0.318 0.13 1.193
 -0.312 0.131 1.197
 -0.305 0.131 1.199
 -0.297 0.13 1.197
 -0.288 0.129 1.19
 -0.278 0.128 1.18
 -0.268 0.126 1.168
 -0.258 0.125 1.154
 -0.248 0.123 1.14
 -0.239 0.122 1.129
 -0.23 0.121 1.123
 -0.223 0.12 1.119
 -0.216 0.12 1.116
 -0.209 0.12 1.117
 -0.203 0.12 1.12
 -0.197 0.12 1.123
 -0.191 0.12 1.126
 -0.184 0.121 1.128
 -0.178 0.121 1.129
 -0.171 0.121 1.132
 -0.165 0.121 1.135
 -0.159 0.121 1.14
 -0.153 0.122 1.146
 -0.148 0.124 1.162
 -0.144 0.126 1.185
 -0.141 0.129 1.215
 -0.137 0.132 1.246
 -0.133 0.135 1.275
 -0.127 0.137 1.295
 -0.12 0.138 1.301
 -0.112 0.137 1.297
 -0.104 0.136 1.286
 -0.095 0.134 1.269
 -0.086 0.132 1.245
 -0.077 0.129 1.219
 -0.069 0.126 1.193
 -0.061 0.123 1.171
 -0.053 0.122 1.156
 -0.047 0.121 1.151
 -0.04 0.121 1.149
 -0.033 0.121 1.154
 -0.027 0.122 1.164
 -0.02 0.124 1.177
 -0.014 0.125 1.193
 -0.007 0.127 1.21
 0 0.129 1.23
 0.006 0.132 1.251
 0.014 0.133 1.264
 0.021 0.133 1.268
 0.028 0.133 1.269
 0.036 0.133 1.263
 0.043 0.132 1.254
 0.05 0.132 1.252
 0.057 0.133 1.264
 0.066 0.135 1.286
 0.075 0.138 1.317
 0.086 0.144 1.365
 0.098 0.15 1.423
 0.11 0.156 1.48
 0.123 0.161 1.529
 0.135 0.165 1.562
 0.145 0.166 1.575
 0.154 0.166 1.574
 0.162 0.165 1.567
 0.171 0.164 1.56
 0.179 0.164 1.554
 0.188 0.163 1.55
 0.196 0.163 1.544
 0.203 0.161 1.531
 0.209 0.159 1.509
 0.215 0.157 1.486
 0.22 0.154 1.461
 0.223 0.151 1.428
 0.224 0.146 1.381
 0.227 0.142 1.348
 0.23 0.14 1.322
 0.231 0.135 1.283
 0.23 0.131 1.237
 0.235 0.129 1.222
 0.228 0.121 1.151
 0.223 0.115 1.094
 0.229 0.115 1.088
 0.22 0.107 1.016
 0.203 0.096 0.913
 0.176 0.081 0.769
 0.149 0.067 0.636
 0.137 0.059 0.567
 0.111 0.046 0.449
 0.101 0.041 0.396
 0.097 0.038 0.372
 0.095 0.036 0.354
 0.093 0.035 0.342
 0.095 0.035 0.34
 0.097 0.035 0.337
 0.097 0.034 0.33
 0.097 0.033 0.325
 0.099 0.033 0.323
 0.099 0.033 0.317
 0.099 0.032 0.31
 0.1 0.031 0.305
 0.101 0.031 0.305
 0.103 0.031 0.302
 0.105 0.031 0.304
 0.109 0.032 0.308
 0.113 0.033 0.314
 0.117 0.033 0.318
 0.122 0.034 0.327
 0.127 0.035 0.333
 0.131 0.036 0.339
 0.135 0.036 0.342
 0.139 0.037 0.346
 0.14 0.036 0.343
 0.141 0.036 0.34
 0.145 0.036 0.342
 0.149 0.037 0.347
 0.154 0.038 0.354
 0.164 0.04 0.369
 0.172 0.041 0.381
 0.178 0.042 0.389
 0.182 0.042 0.391
 0.186 0.043 0.394
 0.19 0.043 0.395
 0.197 0.044 0.405
 0.202 0.045 0.407
 0.212 0.046 0.421
 0.216 0.047 0.423
 0.237 0.051 0.458
 0.279 0.059 0.532
 0.317 0.067 0.595
 0.339 0.071 0.627
 0.354 0.073 0.646
 0.373 0.076 0.67
 0.386 0.078 0.684
 0.411 0.082 0.717
 0.416 0.082 0.716
 -0.364 0.082 0.649
 -0.367 0.084 0.665
 -0.374 0.086 0.688
 -0.378 0.088 0.706
 -0.381 0.09 0.723
 -0.384 0.092 0.739
 -0.385 0.093 0.752
 -0.383 0.094 0.762
 -0.382 0.095 0.77
 -0.379 0.095 0.776
 -0.375 0.096 0.781
 -0.372 0.096 0.787
 -0.369 0.097 0.793
 -0.365 0.097 0.799
 -0.362 0.097 0.804
 -0.359 0.098 0.811
 -0.357 0.099 0.819
 -0.355 0.1 0.828
 -0.353 0.101 0.839
 -0.354 0.103 0.856
 -0.357 0.105 0.877
 -0.36 0.107 0.9
 -0.365 0.111 0.929
 -0.37 0.114 0.96
 -0.374 0.117 0.989
 -0.378 0.121 1.018
 -0.381 0.124 1.046
 -0.383 0.126 1.07
 -0.383 0.129 1.091
 -0.381 0.13 1.107
 -0.378 0.132 1.121
 -0.375 0.133 1.133
 -0.371 0.134 1.144
 -0.367 0.135 1.155
 -0.363 0.136 1.167
 -0.36 0.137 1.179
 -0.355 0.138 1.19
 -0.35 0.139 1.199
 -0.345 0.14 1.207
 -0.339 0.141 1.215
 -0.334 0.141 1.223
 -0.328 0.142 1.23
 -0.321 0.142 1.235
 -0.315 0.142 1.238
 -0.307 0.142 1.237
 -0.298 0.141 1.231
 -0.288 0.14 1.222
 -0.278 0.138 1.211
 -0.268 0.137 1.197
 -0.257 0.135 1.183
 -0.248 0.134 1.172
 -0.239 0.132 1.165
 -0.231 0.132 1.16
 -0.223 0.131 1.156
 -0.217 0.131 1.157
 -0.21 0.131 1.16
 -0.204 0.132 1.164
 -0.198 0.132 1.167
 -0.192 0.132 1.174
 -0.185 0.133 1.177
 -0.179 0.133 1.181
 -0.172 0.133 1.186
 -0.166 0.134 1.192
 -0.16 0.135 1.2
 -0.155 0.136 1.215
 -0.151 0.139 1.24
 -0.147 0.143 1.27
 -0.143 0.146 1.301
 -0.138 0.149 1.329
 -0.133 0.151 1.35
 -0.125 0.152 1.356
 -0.117 0.151 1.351
 -0.108 0.15 1.338
 -0.099 0.148 1.321
 -0.09 0.145 1.295
 -0.08 0.141 1.267
 -0.072 0.138 1.239
 -0.063 0.135 1.215
 -0.055 0.133 1.198
 -0.048 0.132 1.189
 -0.041 0.132 1.184
 -0.034 0.132 1.187
 -0.028 0.133 1.195
 -0.021 0.134 1.207
 -0.014 0.136 1.221
 -0.007 0.137 1.237
 0 0.139 1.255
 0.006 0.141 1.273
 0.014 0.143 1.286
 0.021 0.143 1.29
 0.029 0.143 1.29
 0.036 0.143 1.286
 0.043 0.142 1.28
 0.051 0.142 1.282
 0.059 0.144 1.297
 0.068 0.147 1.321
 0.077 0.15 1.355
 0.088 0.156 1.401
 0.1 0.162 1.454
 0.112 0.167 1.504
 0.124 0.172 1.546
 0.136 0.175 1.573
 0.146 0.176 1.584
 0.155 0.176 1.581
 0.163 0.175 1.575
 0.172 0.174 1.567
 0.18 0.174 1.561
 0.188 0.173 1.554
 0.197 0.172 1.547
 0.204 0.171 1.533
 0.21 0.168 1.512
 0.216 0.166 1.489
 0.22 0.163 1.464
 0.224 0.16 1.433
 0.226 0.155 1.394
 0.229 0.152 1.36
 0.233 0.149 1.339
 0.235 0.145 1.302
 0.235 0.141 1.26
 0.238 0.138 1.238
 0.233 0.131 1.177
 0.228 0.124 1.115
 0.228 0.121 1.084
 0.222 0.115 1.028
 0.214 0.107 0.96
 0.192 0.093 0.838
 0.163 0.077 0.693
 0.139 0.063 0.574
 0.113 0.05 0.455
 0.101 0.043 0.398
 0.097 0.041 0.373
 0.095 0.039 0.354
 0.094 0.037 0.342
 0.097 0.038 0.347
 0.099 0.038 0.346
 0.1 0.037 0.34
 0.101 0.037 0.336
 0.102 0.036 0.334
 0.101 0.035 0.323
 0.101 0.034 0.316
 0.102 0.034 0.313
 0.104 0.034 0.312
 0.105 0.034 0.308
 0.107 0.034 0.308
 0.11 0.034 0.312
 0.115 0.035 0.319
 0.118 0.035 0.321
 0.124 0.037 0.331
 0.129 0.038 0.338
 0.132 0.038 0.342
 0.135 0.038 0.342
 0.138 0.039 0.345
 0.138 0.038 0.337
 0.139 0.037 0.334
 0.142 0.038 0.336
 0.147 0.039 0.342
 0.153 0.04 0.351
 0.164 0.042 0.37
 0.171 0.043 0.38
 0.177 0.044 0.386
 0.18 0.044 0.387
 0.184 0.045 0.388
 0.187 0.045 0.389
 0.195 0.046 0.399
 0.199 0.046 0.4
 0.211 0.049 0.419
 0.218 0.05 0.426
 0.255 0.058 0.492
 0.306 0.069 0.583
 0.343 0.077 0.645
 0.363 0.08 0.671
 0.371 0.081 0.677
 0.383 0.083 0.689
 0.397 0.085 0.703
 0.381 0.08 0.664
 0.392 0.082 0.674
 -0.367 0.087 0.654
 -0.37 0.089 0.67
 -0.372 0.09 0.683
 -0.375 0.092 0.7
 -0.379 0.094 0.718
 -0.381 0.096 0.734
 -0.382 0.097 0.747
 -0.381 0.098 0.757
 -0.38 0.099 0.766
 -0.377 0.1 0.773
 -0.374 0.1 0.779
 -0.371 0.101 0.785
 -0.368 0.101 0.791
 -0.365 0.102 0.797
 -0.362 0.102 0.803
 -0.359 0.103 0.81
 -0.357 0.104 0.818
 -0.355 0.105 0.828
 -0.354 0.106 0.839
 -0.355 0.108 0.857
 -0.357 0.111 0.878
 -0.361 0.114 0.904
 -0.367 0.117 0.936
 -0.374 0.121 0.97
 -0.379 0.125 1.002
 -0.384 0.129 1.034
 -0.388 0.133 1.065
 -0.39 0.135 1.09
 -0.39 0.138 1.112
 -0.389 0.14 1.13
 -0.386 0.141 1.144
 -0.383 0.143 1.156
 -0.379 0.144 1.168
 -0.375 0.145 1.18
 -0.371 0.146 1.193
 -0.367 0.148 1.204
 -0.363 0.149 1.216
 -0.358 0.15 1.225
 -0.352 0.15 1.233
 -0.347 0.151 1.241
 -0.341 0.152 1.25
 -0.335 0.152 1.256
 -0.328 0.153 1.261
 -0.321 0.153 1.264
 -0.313 0.153 1.264
 -0.304 0.152 1.259
 -0.295 0.151 1.251
 -0.285 0.149 1.24
 -0.274 0.148 1.227
 -0.264 0.146 1.214
 -0.254 0.144 1.204
 -0.246 0.143 1.196
 -0.237 0.142 1.191
 -0.229 0.142 1.187
 -0.222 0.142 1.187
 -0.216 0.142 1.189
 -0.209 0.142 1.194
 -0.203 0.143 1.199
 -0.197 0.143 1.206
 -0.19 0.144 1.21
 -0.184 0.144 1.214
 -0.177 0.145 1.219
 -0.171 0.145 1.227
 -0.165 0.146 1.235
 -0.16 0.148 1.252
 -0.155 0.151 1.277
 -0.151 0.154 1.306
 -0.147 0.157 1.333
 -0.142 0.16 1.36
 -0.136 0.163 1.38
 -0.128 0.163 1.386
 -0.12 0.163 1.383
 -0.111 0.162 1.373
 -0.102 0.16 1.357
 -0.092 0.157 1.334
 -0.083 0.154 1.307
 -0.074 0.15 1.28
 -0.065 0.147 1.256
 -0.057 0.145 1.236
 -0.049 0.143 1.225
 -0.042 0.143 1.219
 -0.035 0.143 1.22
 -0.028 0.144 1.227
 -0.021 0.145 1.238
 -0.014 0.146 1.251
 -0.007 0.148 1.265
 0 0.15 1.28
 0.007 0.151 1.295
 0.014 0.153 1.306
 0.022 0.153 1.31
 0.029 0.153 1.311
 0.037 0.153 1.31
 0.045 0.153 1.308
 0.052 0.153 1.313
 0.061 0.155 1.33
 0.07 0.159 1.356
 0.08 0.163 1.39
 0.09 0.168 1.433
 0.102 0.173 1.48
 0.114 0.178 1.523
 0.126 0.182 1.559
 0.136 0.185 1.58
 0.146 0.186 1.589
 0.155 0.186 1.586
 0.164 0.185 1.579
 0.172 0.184 1.571
 0.181 0.183 1.563
 0.189 0.182 1.555
 0.197 0.181 1.546
 0.204 0.18 1.532
 0.21 0.177 1.513
 0.216 0.175 1.491
 0.221 0.172 1.465
 0.225 0.168 1.434
 0.227 0.164 1.399
 0.23 0.16 1.364
 0.233 0.157 1.337
 0.234 0.153 1.3
 0.235 0.148 1.264
 0.238 0.145 1.238
 0.236 0.14 1.19
 0.235 0.135 1.148
 0.227 0.127 1.078
 0.224 0.121 1.032
 0.222 0.117 0.998
 0.206 0.106 0.902
 0.181 0.09 0.768
 0.139 0.067 0.575
 0.111 0.052 0.449
 0.102 0.046 0.402
 0.098 0.043 0.376
 0.096 0.041 0.359
 0.096 0.04 0.351
 0.101 0.041 0.36
 0.102 0.041 0.356
 0.103 0.041 0.351
 0.104 0.04 0.348
 0.105 0.04 0.343
 0.103 0.038 0.331
 0.103 0.037 0.321
 0.104 0.037 0.318
 0.105 0.037 0.316
 0.107 0.036 0.315
 0.109 0.036 0.314
 0.114 0.037 0.321
 0.119 0.038 0.329
 0.121 0.039 0.331
 0.127 0.04 0.339
 0.131 0.041 0.345
 0.134 0.041 0.345
 0.134 0.04 0.34
 0.137 0.04 0.341
 0.134 0.039 0.327
 0.135 0.038 0.324
 0.138 0.039 0.326
 0.143 0.04 0.333
 0.15 0.041 0.343
 0.162 0.044 0.364
 0.169 0.045 0.375
 0.175 0.046 0.381
 0.178 0.046 0.381
 0.178 0.046 0.376
 0.181 0.046 0.375
 0.189 0.047 0.387
 0 0 0
 0 0 0
 0 0 0
 0 0 0
 0.325 0.078 0.619
 0.347 0.082 0.651
 0.358 0.084 0.663
 0.367 0.085 0.669
 0.376 0.086 0.676
 0.391 0.088 0.693
 0.386 0.086 0.673
 0.395 0.087 0.678
 -0.364 0.09 0.649
 -0.365 0.092 0.659
 -0.369 0.094 0.678
 -0.373 0.096 0.696
 -0.376 0.098 0.713
 -0.379 0.1 0.728
 -0.38 0.102 0.742
 -0.379 0.103 0.753
 -0.378 0.104 0.762
 -0.376 0.104 0.769
 -0.373 0.105 0.776
 -0.37 0.106 0.782
 -0.367 0.106 0.788
 -0.364 0.107 0.795
 -0.361 0.107 0.801
 -0.358 0.108 0.808
 -0.357 0.109 0.818
 -0.355 0.11 0.828
 -0.354 0.111 0.84
 -0.356 0.114 0.859
 -0.359 0.116 0.881
 -0.363 0.12 0.909
 -0.37 0.124 0.942
 -0.377 0.128 0.978
 -0.384 0.133 1.013
 -0.39 0.137 1.048
 -0.394 0.141 1.081
 -0.397 0.145 1.109
 -0.397 0.147 1.132
 -0.396 0.149 1.15
 -0.394 0.151 1.165
 -0.39 0.152 1.177
 -0.386 0.154 1.189
 -0.382 0.155 1.202
 -0.378 0.156 1.215
 -0.374 0.158 1.226
 -0.369 0.159 1.237
 -0.364 0.16 1.246
 -0.359 0.161 1.255
 -0.353 0.162 1.264
 -0.347 0.162 1.272
 -0.341 0.163 1.278
 -0.334 0.163 1.284
 -0.327 0.164 1.287
 -0.319 0.163 1.287
 -0.31 0.162 1.281
 -0.3 0.161 1.274
 -0.29 0.16 1.263
 -0.28 0.158 1.251
 -0.269 0.156 1.239
 -0.26 0.155 1.229
 -0.251 0.154 1.223
 -0.243 0.153 1.218
 -0.234 0.152 1.213
 -0.227 0.152 1.213
 -0.22 0.152 1.216
 -0.214 0.152 1.219
 -0.207 0.153 1.224
 -0.201 0.154 1.232
 -0.195 0.154 1.237
 -0.188 0.155 1.242
 -0.181 0.155 1.246
 -0.175 0.156 1.255
 -0.169 0.157 1.262
 -0.163 0.159 1.278
 -0.159 0.162 1.302
 -0.154 0.165 1.329
 -0.149 0.168 1.355
 -0.144 0.171 1.38
 -0.137 0.173 1.398
 -0.13 0.174 1.406
 -0.122 0.174 1.405
 -0.113 0.173 1.397
 -0.104 0.171 1.384
 -0.094 0.168 1.364
 -0.085 0.165 1.34
 -0.076 0.162 1.316
 -0.067 0.159 1.293
 -0.059 0.157 1.273
 -0.051 0.155 1.261
 -0.043 0.154 1.254
 -0.036 0.154 1.254
 -0.029 0.155 1.26
 -0.022 0.156 1.271
 -0.015 0.158 1.282
 -0.007 0.159 1.295
 0 0.161 1.307
 0.007 0.162 1.321
 0.015 0.163 1.33
 0.022 0.164 1.335
 0.03 0.164 1.337
 0.038 0.164 1.338
 0.046 0.164 1.339
 0.054 0.165 1.346
 0.062 0.167 1.363
 0.072 0.17 1.389
 0.081 0.174 1.421
 0.092 0.179 1.459
 0.103 0.184 1.5
 0.115 0.189 1.538
 0.126 0.193 1.568
 0.137 0.195 1.586
 0.147 0.196 1.591
 0.156 0.195 1.586
 0.164 0.194 1.578
 0.172 0.193 1.568
 0.18 0.192 1.56
 0.188 0.191 1.551
 0.196 0.19 1.542
 0.203 0.188 1.527
 0.21 0.186 1.509
 0.216 0.183 1.488
 0.221 0.18 1.463
 0.224 0.176 1.43
 0.227 0.172 1.397
 0.23 0.168 1.361
 0.232 0.164 1.33
 0.233 0.159 1.29
 0.237 0.157 1.268
 0.24 0.154 1.245
 0.244 0.152 1.228
 0.248 0.15 1.215
 0.233 0.137 1.105
 0.23 0.131 1.063
 0.237 0.131 1.062
 0 0 0
 0.21 0.11 0.892
 0 0 0
 0.096 0.047 0.387
 0.099 0.047 0.39
 0.1 0.046 0.382
 0.1 0.045 0.373
 0.101 0.045 0.37
 0.106 0.046 0.38
 0.107 0.045 0.373
 0.107 0.045 0.365
 0.107 0.044 0.357
 0.107 0.042 0.348
 0.104 0.04 0.332
 0.103 0.039 0.321
 0.104 0.039 0.319
 0.105 0.038 0.315
 0.108 0.039 0.316
 0.111 0.039 0.32
 0.116 0.04 0.327
 0.121 0.041 0.337
 0.126 0.042 0.343
 0.133 0.044 0.355
 0.137 0.045 0.36
 0.141 0.045 0.363
 0.145 0.046 0.367
 0.15 0.047 0.374
 0.147 0.045 0.36
 0.147 0.044 0.354
 0.151 0.045 0.358
 0.153 0.045 0.355
 0.154 0.044 0.352
 0.167 0.048 0.377
 0.178 0.05 0.394
 0.183 0.051 0.398
 0.185 0.051 0.396
 0 0 0
 0 0 0
 0 0 0
 0 0 0
 0 0 0
 0 0 0
 0 0 0
 0.307 0.077 0.583
 0.337 0.084 0.631
 0.353 0.087 0.652
 0.364 0.088 0.663
 0.373 0.089 0.669
 0.391 0.093 0.692
 0.414 0.097 0.721
 0.408 0.095 0.7
 -0.358 0.093 0.637
 -0.362 0.095 0.654
 -0.366 0.098 0.672
 -0.37 0.1 0.689
 -0.373 0.102 0.706
 -0.376 0.104 0.722
 -0.377 0.106 0.736
 -0.377 0.107 0.748
 -0.376 0.108 0.757
 -0.374 0.109 0.765
 -0.372 0.11 0.772
 -0.369 0.11 0.778
 -0.366 0.111 0.785
 -0.363 0.111 0.791
 -0.36 0.112 0.797
 -0.357 0.113 0.806
 -0.356 0.114 0.815
 -0.355 0.115 0.826
 -0.354 0.117 0.839
 -0.356 0.119 0.859
 -0.36 0.122 0.883
 -0.365 0.126 0.913
 -0.372 0.131 0.947
 -0.38 0.136 0.986
 -0.388 0.141 1.024
 -0.395 0.146 1.062
 -0.4 0.15 1.096
 -0.403 0.154 1.126
 -0.404 0.157 1.15
 -0.403 0.159 1.169
 -0.4 0.161 1.184
 -0.396 0.162 1.197
 -0.392 0.164 1.208
 -0.388 0.165 1.221
 -0.384 0.166 1.233
 -0.38 0.168 1.244
 -0.375 0.169 1.255
 -0.37 0.17 1.265
 -0.364 0.171 1.273
 -0.358 0.172 1.282
 -0.352 0.172 1.29
 -0.346 0.173 1.296
 -0.339 0.173 1.301
 -0.332 0.174 1.305
 -0.324 0.173 1.305
 -0.315 0.173 1.3
 -0.305 0.171 1.293
 -0.295 0.17 1.284
 -0.285 0.168 1.273
 -0.274 0.167 1.262
 -0.265 0.165 1.253
 -0.256 0.164 1.247
 -0.247 0.163 1.24
 -0.239 0.162 1.236
 -0.231 0.162 1.235
 -0.224 0.162 1.237
 -0.218 0.163 1.241
 -0.211 0.163 1.245
 -0.204 0.164 1.252
 -0.198 0.164 1.258
 -0.191 0.165 1.263
 -0.184 0.165 1.267
 -0.178 0.166 1.275
 -0.172 0.167 1.284
 -0.166 0.169 1.297
 -0.161 0.171 1.319
 -0.156 0.175 1.345
 -0.151 0.178 1.37
 -0.145 0.181 1.394
 -0.139 0.183 1.412
 -0.131 0.184 1.421
 -0.123 0.184 1.421
 -0.114 0.183 1.415
 -0.105 0.182 1.404
 -0.096 0.179 1.387
 -0.087 0.177 1.366
 -0.077 0.174 1.344
 -0.069 0.171 1.324
 -0.06 0.168 1.305
 -0.052 0.167 1.294
 -0.044 0.166 1.288
 -0.037 0.166 1.288
 -0.03 0.167 1.294
 -0.022 0.168 1.304
 -0.015 0.169 1.314
 -0.007 0.171 1.326
 0 0.172 1.337
 0.007 0.174 1.349
 0.015 0.175 1.357
 0.023 0.175 1.362
 0.031 0.175 1.364
 0.039 0.176 1.366
 0.047 0.176 1.368
 0.055 0.177 1.377
 0.064 0.179 1.393
 0.073 0.182 1.418
 0.083 0.186 1.447
 0.094 0.191 1.481
 0.105 0.195 1.516
 0.116 0.199 1.547
 0.127 0.202 1.571
 0.137 0.204 1.586
 0.147 0.205 1.59
 0.156 0.204 1.585
 0.164 0.203 1.577
 0.172 0.202 1.567
 0.18 0.201 1.559
 0.188 0.2 1.549
 0.196 0.199 1.54
 0.203 0.197 1.525
 0.21 0.194 1.506
 0.215 0.191 1.481
 0.22 0.188 1.456
 0.224 0.184 1.426
 0.227 0.18 1.393
 0.229 0.175 1.356
 0.232 0.171 1.326
 0.234 0.168 1.297
 0.238 0.165 1.276
 0.241 0.162 1.25
 0.246 0.16 1.236
 0.25 0.158 1.223
 0.231 0.142 1.094
 0.228 0.136 1.05
 0 0 0
 0 0 0
 0 0 0
 0 0 0
 0.092 0.047 0.368
 0.099 0.049 0.388
 0.099 0.048 0.38
 0.103 0.049 0.384
 0.105 0.049 0.384
 0.11 0.05 0.392
 0.111 0.049 0.385
 0.11 0.048 0.375
 0.109 0.047 0.364
 0.107 0.045 0.35
 0.105 0.043 0.334
 0.103 0.041 0.321
 0.105 0.041 0.32
 0.106 0.041 0.318
 0.109 0.041 0.321
 0.113 0.042 0.326
 0.118 0.043 0.335
 0.124 0.045 0.345
 0.129 0.045 0.35
 0.137 0.048 0.366
 0.142 0.049 0.374
 0.145 0.049 0.375
 0.151 0.05 0.382
 0.158 0.052 0.394
 0.152 0.049 0.373
 0.151 0.048 0.363
 0.155 0.048 0.367
 0.146 0.045 0.34
 0 0 0
 0 0 0
 0 0 0
 0 0 0
 0 0 0
 0 0 0
 0 0 0
 0 0 0
 0 0 0
 0 0 0
 0 0 0
 0 0 0
 0.296 0.078 0.563
 0.332 0.086 0.621
 0.352 0.091 0.649
 0.365 0.093 0.665
 0.378 0.095 0.677
 0.398 0.099 0.704
 0.416 0.103 0.725
 0.415 0.101 0.713
 -0.355 0.096 0.63
 -0.362 0.099 0.653
 -0.364 0.101 0.666
 -0.367 0.103 0.683
 -0.37 0.105 0.699
 -0.373 0.108 0.715
 -0.374 0.109 0.73
 -0.375 0.111 0.742
 -0.374 0.112 0.752
 -0.372 0.113 0.761
 -0.37 0.114 0.768
 -0.367 0.115 0.774
 -0.364 0.115 0.781
 -0.361 0.116 0.788
 -0.358 0.116 0.794
 -0.356 0.117 0.802
 -0.355 0.119 0.812
 -0.354 0.12 0.824
 -0.353 0.122 0.837
 -0.356 0.124 0.858
 -0.36 0.128 0.884
 -0.366 0.132 0.915
 -0.374 0.137 0.951
 -0.383 0.143 0.992
 -0.391 0.148 1.032
 -0.399 0.154 1.072
 -0.405 0.159 1.108
 -0.409 0.163 1.141
 -0.41 0.166 1.166
 -0.409 0.169 1.187
 -0.407 0.171 1.203
 -0.403 0.172 1.215
 -0.398 0.174 1.226
 -0.394 0.175 1.238
 -0.389 0.176 1.249
 -0.384 0.177 1.259
 -0.38 0.179 1.271
 -0.374 0.18 1.281
 -0.368 0.181 1.288
 -0.362 0.181 1.296
 -0.356 0.182 1.303
 -0.349 0.183 1.308
 -0.342 0.183 1.313
 -0.335 0.183 1.317
 -0.327 0.183 1.318
 -0.318 0.182 1.314
 -0.309 0.181 1.308
 -0.299 0.18 1.299
 -0.288 0.178 1.289
 -0.278 0.176 1.278
 -0.269 0.175 1.271
 -0.26 0.174 1.264
 -0.251 0.173 1.259
 -0.243 0.173 1.256
 -0.235 0.172 1.254
 -0.228 0.172 1.256
 -0.221 0.172 1.259
 -0.214 0.173 1.262
 -0.207 0.173 1.267
 -0.2 0.174 1.273
 -0.194 0.175 1.279
 -0.187 0.175 1.284
 -0.18 0.176 1.293
 -0.174 0.177 1.303
 -0.168 0.179 1.316
 -0.163 0.181 1.334
 -0.158 0.185 1.359
 -0.152 0.188 1.383
 -0.146 0.191 1.404
 -0.14 0.193 1.422
 -0.132 0.194 1.432
 -0.124 0.194 1.432
 -0.115 0.193 1.426
 -0.106 0.192 1.418
 -0.097 0.19 1.404
 -0.088 0.187 1.386
 -0.079 0.185 1.366
 -0.07 0.182 1.349
 -0.061 0.18 1.334
 -0.053 0.178 1.323
 -0.045 0.178 1.319
 -0.038 0.178 1.32
 -0.03 0.178 1.324
 -0.023 0.18 1.334
 -0.015 0.181 1.343
 -0.007 0.182 1.354
 0 0.184 1.363
 0.007 0.185 1.375
 0.015 0.186 1.382
 0.023 0.187 1.388
 0.032 0.187 1.391
 0.04 0.187 1.393
 0.048 0.188 1.396
 0.056 0.189 1.405
 0.065 0.191 1.42
 0.075 0.194 1.443
 0.084 0.198 1.47
 0.095 0.202 1.499
 0.106 0.206 1.528
 0.116 0.209 1.554
 0.127 0.212 1.573
 0.137 0.214 1.586
 0.147 0.214 1.589
 0.156 0.213 1.584
 0.164 0.213 1.577
 0.172 0.211 1.566
 0.18 0.21 1.557
 0.188 0.209 1.547
 0.196 0.207 1.538
 0.203 0.205 1.521
 0.209 0.203 1.503
 0.214 0.199 1.478
 0.219 0.196 1.452
 0.223 0.192 1.422
 0.226 0.187 1.387
 0.228 0.182 1.349
 0.23 0.178 1.315
 0.232 0.174 1.284
 0.236 0.171 1.264
 0.239 0.168 1.24
 0.244 0.166 1.228
 0.25 0.165 1.22
 0.229 0.147 1.087
 0.236 0.147 1.085
 0 0 0
 0.212 0.125 0.926
 0.218 0.125 0.924
 0 0 0
 0.117 0.063 0.471
 0.12 0.063 0.472
 0.112 0.057 0.428
 0.114 0.057 0.428
 0.114 0.056 0.416
 0.116 0.055 0.412
 0.113 0.053 0.394
 0.112 0.051 0.382
 0.111 0.05 0.369
 0.108 0.047 0.352
 0.105 0.045 0.335
 0.103 0.043 0.323
 0.105 0.043 0.32
 0.106 0.043 0.318
 0.11 0.044 0.324
 0.115 0.045 0.331
 0.121 0.046 0.341
 0.128 0.048 0.354
 0.133 0.049 0.362
 0.143 0.052 0.383
 0.148 0.053 0.388
 0.152 0.054 0.393
 0.159 0.055 0.402
 0.17 0.058 0.423
 0.165 0.056 0.404
 0 0 0
 0 0 0
 0 0 0
 0 0 0
 0 0 0
 0 0 0
 0 0 0
 0 0 0
 0 0 0
 0 0 0
 0 0 0
 0 0 0
 0 0 0
 0 0 0
 0.284 0.079 0.547
 0.294 0.081 0.559
 0.321 0.087 0.601
 0.345 0.093 0.637
 0.362 0.096 0.658
 0.378 0.1 0.678
 0.4 0.104 0.706
 0.405 0.104 0.705
 0.417 0.106 0.716
 -0.354 0.1 0.629
 -0.356 0.102 0.642
 -0.361 0.105 0.66
 -0.364 0.107 0.677
 -0.367 0.109 0.693
 -0.37 0.111 0.709
 -0.372 0.113 0.724
 -0.372 0.115 0.736
 -0.371 0.116 0.747
 -0.37 0.117 0.756
 -0.368 0.118 0.764
 -0.365 0.119 0.769
 -0.362 0.119 0.776
 -0.359 0.12 0.783
 -0.357 0.121 0.79
 -0.355 0.122 0.799
 -0.354 0.123 0.81
 -0.353 0.125 0.822
 -0.353 0.127 0.836
 -0.356 0.13 0.857
 -0.361 0.134 0.884
 -0.367 0.138 0.917
 -0.375 0.143 0.954
 -0.385 0.15 0.996
 -0.394 0.156 1.039
 -0.402 0.162 1.079
 -0.408 0.167 1.117
 -0.412 0.172 1.151
 -0.414 0.175 1.178
 -0.414 0.178 1.199
 -0.411 0.18 1.215
 -0.407 0.182 1.227
 -0.403 0.183 1.239
 -0.398 0.185 1.251
 -0.393 0.186 1.261
 -0.388 0.187 1.271
 -0.383 0.188 1.282
 -0.378 0.189 1.292
 -0.372 0.19 1.299
 -0.365 0.191 1.306
 -0.359 0.191 1.313
 -0.352 0.192 1.317
 -0.345 0.192 1.322
 -0.338 0.193 1.326
 -0.33 0.192 1.327
 -0.321 0.192 1.324
 -0.311 0.191 1.319
 -0.302 0.189 1.312
 -0.291 0.188 1.302
 -0.281 0.186 1.293
 -0.272 0.185 1.286
 -0.263 0.184 1.279
 -0.254 0.183 1.273
 -0.246 0.182 1.271
 -0.238 0.182 1.271
 -0.231 0.182 1.272
 -0.224 0.182 1.275
 -0.217 0.183 1.279
 -0.21 0.183 1.283
 -0.203 0.183 1.287
 -0.196 0.184 1.293
 -0.189 0.185 1.299
 -0.182 0.186 1.307
 -0.176 0.187 1.317
 -0.17 0.189 1.33
 -0.164 0.191 1.346
 -0.159 0.194 1.37
 -0.153 0.197 1.393
 -0.147 0.2 1.413
 -0.14 0.202 1.429
 -0.133 0.204 1.439
 -0.125 0.204 1.44
 -0.116 0.203 1.435
 -0.107 0.202 1.427
 -0.098 0.2 1.415
 -0.089 0.197 1.4
 -0.08 0.195 1.382
 -0.071 0.193 1.368
 -0.062 0.191 1.355
 -0.054 0.19 1.346
 -0.046 0.189 1.343
 -0.038 0.189 1.344
 -0.031 0.19 1.349
 -0.023 0.191 1.358
 -0.015 0.192 1.367
 -0.008 0.194 1.377
 0 0.195 1.386
 0.008 0.196 1.396
 0.016 0.197 1.403
 0.024 0.198 1.409
 0.032 0.198 1.412
 0.04 0.199 1.415
 0.049 0.199 1.418
 0.057 0.2 1.426
 0.066 0.202 1.44
 0.076 0.205 1.461
 0.085 0.209 1.484
 0.096 0.212 1.508
 0.106 0.216 1.534
 0.117 0.219 1.557
 0.127 0.221 1.572
 0.137 0.223 1.583
 0.147 0.223 1.585
 0.155 0.222 1.58
 0.164 0.221 1.571
 0.172 0.22 1.56
 0.18 0.218 1.55
 0.188 0.217 1.541
 0.195 0.215 1.53
 0.202 0.213 1.515
 0.209 0.211 1.498
 0.214 0.208 1.474
 0.219 0.204 1.449
 0.223 0.2 1.418
 0.225 0.195 1.381
 0.227 0.189 1.342
 0.228 0.184 1.304
 0.231 0.18 1.275
 0.234 0.177 1.25
 0.237 0.174 1.228
 0.241 0.171 1.212
 0.247 0.171 1.205
 0.232 0.156 1.099
 0.23 0.15 1.06
 0.226 0.143 1.01
 0.197 0.121 0.859
 0.194 0.116 0.821
 0.151 0.088 0.624
 0.126 0.071 0.507
 0.126 0.07 0.495
 0.117 0.063 0.446
 0.115 0.061 0.431
 0.116 0.059 0.423
 0.117 0.059 0.417
 0.114 0.056 0.398
 0.114 0.055 0.388
 0.112 0.053 0.373
 0.108 0.05 0.352
 0.105 0.047 0.335
 0.104 0.046 0.324
 0.105 0.045 0.32
 0.107 0.045 0.32
 0.112 0.046 0.328
 0.118 0.048 0.339
 0.124 0.05 0.351
 0.131 0.052 0.362
 0.138 0.054 0.376
 0.148 0.057 0.395
 0.151 0.057 0.397
 0.155 0.057 0.399
 0.163 0.06 0.413
 0.168 0.06 0.418
 0.164 0.058 0.401
 0.178 0.062 0.428
 0 0 0
 0 0 0
 0 0 0
 0 0 0
 0 0 0
 0 0 0
 0 0 0
 0 0 0
 0 0 0
 0 0 0
 0.238 0.071 0.478
 0.251 0.075 0.498
 0.265 0.078 0.518
 0.275 0.08 0.528
 0.29 0.083 0.549
 0.315 0.089 0.588
 0.34 0.096 0.627
 0.359 0.1 0.653
 0.378 0.104 0.677
 0.398 0.108 0.702
 0.414 0.111 0.72
 0.414 0.11 0.71
 -0.353 0.104 0.625
 -0.358 0.107 0.645
 -0.358 0.108 0.655
 -0.362 0.111 0.672
 -0.364 0.113 0.688
 -0.367 0.115 0.703
 -0.369 0.117 0.718
 -0.37 0.119 0.731
 -0.369 0.12 0.742
 -0.368 0.121 0.751
 -0.366 0.122 0.759
 -0.363 0.123 0.764
 -0.36 0.124 0.771
 -0.357 0.124 0.777
 -0.355 0.125 0.784
 -0.353 0.126 0.793
 -0.352 0.128 0.804
 -0.352 0.13 0.818
 -0.352 0.132 0.833
 -0.356 0.135 0.856
 -0.361 0.139 0.885
 -0.369 0.144 0.919
 -0.376 0.15 0.956
 -0.386 0.156 0.999
 -0.396 0.163 1.043
 -0.403 0.169 1.083
 -0.41 0.175 1.122
 -0.415 0.18 1.157
 -0.417 0.184 1.185
 -0.417 0.187 1.207
 -0.414 0.189 1.224
 -0.41 0.191 1.236
 -0.406 0.192 1.247
 -0.401 0.193 1.259
 -0.396 0.195 1.268
 -0.391 0.196 1.278
 -0.386 0.197 1.29
 -0.38 0.198 1.299
 -0.374 0.199 1.306
 -0.368 0.2 1.314
 -0.361 0.201 1.32
 -0.354 0.201 1.324
 -0.347 0.201 1.33
 -0.339 0.202 1.333
 -0.332 0.202 1.334
 -0.323 0.201 1.332
 -0.313 0.2 1.326
 -0.303 0.199 1.319
 -0.293 0.197 1.309
 -0.283 0.195 1.3
 -0.274 0.194 1.294
 -0.265 0.193 1.288
 -0.256 0.192 1.284
 -0.248 0.192 1.282
 -0.241 0.192 1.283
 -0.233 0.191 1.284
 -0.226 0.192 1.288
 -0.219 0.192 1.291
 -0.212 0.193 1.295
 -0.205 0.193 1.299
 -0.198 0.194 1.305
 -0.191 0.195 1.312
 -0.184 0.195 1.319
 -0.178 0.197 1.33
 -0.172 0.199 1.343
 -0.165 0.201 1.358
 -0.16 0.204 1.379
 -0.154 0.207 1.401
 -0.148 0.21 1.42
 -0.141 0.212 1.435
 -0.134 0.213 1.446
 -0.125 0.213 1.448
 -0.117 0.213 1.443
 -0.108 0.211 1.436
 -0.099 0.21 1.426
 -0.089 0.207 1.411
 -0.08 0.205 1.396
 -0.072 0.203 1.383
 -0.063 0.201 1.372
 -0.055 0.2 1.365
 -0.047 0.2 1.363
 -0.039 0.2 1.365
 -0.031 0.201 1.369
 -0.023 0.202 1.377
 -0.016 0.203 1.385
 -0.008 0.204 1.394
 0 0.206 1.404
 0.008 0.207 1.414
 0.016 0.208 1.42
 0.024 0.209 1.426
 0.033 0.209 1.43
 0.041 0.21 1.433
 0.049 0.21 1.436
 0.058 0.211 1.444
 0.067 0.213 1.456
 0.076 0.216 1.474
 0.086 0.219 1.495
 0.096 0.222 1.515
 0.107 0.225 1.538
 0.117 0.228 1.555
 0.127 0.23 1.569
 0.137 0.231 1.578
 0.146 0.231 1.58
 0.155 0.231 1.574
 0.163 0.23 1.566
 0.171 0.228 1.555
 0.179 0.227 1.545
 0.187 0.225 1.535
 0.194 0.223 1.523
 0.201 0.221 1.508
 0.208 0.219 1.491
 0.213 0.215 1.466
 0.218 0.211 1.439
 0.221 0.207 1.409
 0.224 0.202 1.372
 0.226 0.196 1.335
 0.228 0.191 1.3
 0.23 0.187 1.27
 0.233 0.183 1.245
 0.236 0.18 1.224
 0.241 0.178 1.208
 0.244 0.176 1.191
 0.238 0.166 1.124
 0.234 0.159 1.079
 0.23 0.152 1.027
 0.187 0.12 0.814
 0.179 0.112 0.757
 0.149 0.09 0.614
 0.134 0.079 0.54
 0.134 0.077 0.526
 0.125 0.07 0.479
 0.121 0.066 0.452
 0.12 0.064 0.439
 0.12 0.063 0.426
 0.117 0.06 0.407
 0.115 0.058 0.392
 0.113 0.055 0.377
 0.109 0.052 0.355
 0.106 0.05 0.338
 0.105 0.048 0.327
 0.105 0.047 0.322
 0.109 0.048 0.325
 0.113 0.049 0.332
 0.12 0.051 0.345
 0.127 0.053 0.358
 0.133 0.055 0.369
 0.141 0.057 0.383
 0.15 0.06 0.4
 0.151 0.06 0.397
 0.154 0.059 0.396
 0.159 0.061 0.404
 0.165 0.062 0.411
 0.168 0.062 0.412
 0.186 0.068 0.446
 0.194 0.07 0.459
 0.199 0.071 0.462
 0.201 0.07 0.459
 0 0 0
 0 0 0
 0.201 0.067 0.437
 0.2 0.066 0.427
 0.207 0.067 0.436
 0.215 0.069 0.445
 0.217 0.069 0.444
 0.232 0.073 0.466
 0.242 0.075 0.479
 0.254 0.078 0.496
 0.268 0.081 0.514
 0.282 0.084 0.534
 0.306 0.09 0.57
 0.333 0.097 0.612
 0.355 0.103 0.645
 0.377 0.108 0.673
 0.395 0.112 0.697
 0.402 0.113 0.697
 0.421 0.117 0.721
 -0.345 0.106 0.611
 -0.353 0.109 0.634
 -0.355 0.112 0.649
 -0.359 0.114 0.666
 -0.362 0.116 0.682
 -0.364 0.119 0.698
 -0.366 0.121 0.712
 -0.367 0.123 0.725
 -0.367 0.124 0.736
 -0.366 0.125 0.745
 -0.364 0.126 0.753
 -0.361 0.127 0.759
 -0.358 0.128 0.765
 -0.355 0.128 0.771
 -0.352 0.129 0.778
 -0.35 0.13 0.787
 -0.349 0.132 0.798
 -0.35 0.134 0.813
 -0.351 0.136 0.828
 -0.354 0.14 0.851
 -0.36 0.144 0.882
 -0.368 0.15 0.918
 -0.377 0.156 0.957
 -0.387 0.163 1.002
 -0.397 0.17 1.046
 -0.405 0.176 1.087
 -0.412 0.182 1.126
 -0.417 0.188 1.161
 -0.419 0.192 1.189
 -0.419 0.195 1.214
 -0.417 0.198 1.231
 -0.413 0.199 1.243
 -0.408 0.201 1.254
 -0.403 0.202 1.265
 -0.398 0.203 1.274
 -0.393 0.205 1.284
 -0.387 0.206 1.295
 -0.382 0.207 1.304
 -0.376 0.208 1.312
 -0.369 0.209 1.318
 -0.363 0.209 1.324
 -0.356 0.21 1.33
 -0.348 0.21 1.334
 -0.341 0.21 1.337
 -0.333 0.21 1.339
 -0.324 0.21 1.337
 -0.315 0.209 1.333
 -0.305 0.208 1.327
 -0.295 0.206 1.318
 -0.285 0.204 1.309
 -0.276 0.203 1.302
 -0.267 0.202 1.296
 -0.258 0.201 1.292
 -0.25 0.201 1.292
 -0.243 0.201 1.294
 -0.235 0.201 1.296
 -0.228 0.201 1.3
 -0.221 0.202 1.304
 -0.214 0.202 1.308
 -0.206 0.202 1.31
 -0.2 0.203 1.317
 -0.193 0.204 1.323
 -0.186 0.205 1.33
 -0.179 0.206 1.339
 -0.173 0.208 1.353
 -0.167 0.21 1.367
 -0.161 0.213 1.385
 -0.155 0.216 1.405
 -0.148 0.219 1.424
 -0.141 0.221 1.438
 -0.134 0.222 1.449
 -0.126 0.223 1.452
 -0.117 0.222 1.448
 -0.108 0.221 1.441
 -0.099 0.219 1.433
 -0.09 0.217 1.419
 -0.081 0.215 1.406
 -0.072 0.213 1.395
 -0.064 0.212 1.386
 -0.055 0.211 1.379
 -0.047 0.21 1.378
 -0.039 0.21 1.379
 -0.032 0.211 1.384
 -0.024 0.212 1.391
 -0.016 0.213 1.4
 -0.008 0.215 1.408
 0 0.216 1.419
 0.008 0.218 1.428
 0.016 0.218 1.433
 0.025 0.219 1.439
 0.033 0.22 1.443
 0.041 0.22 1.445
 0.05 0.221 1.448
 0.059 0.222 1.456
 0.068 0.224 1.468
 0.077 0.226 1.484
 0.087 0.229 1.502
 0.097 0.232 1.52
 0.107 0.235 1.539
 0.117 0.237 1.555
 0.127 0.239 1.566
 0.137 0.24 1.574
 0.146 0.24 1.575
 0.155 0.239 1.569
 0.163 0.238 1.561
 0.171 0.236 1.549
 0.179 0.235 1.538
 0.186 0.233 1.526
 0.193 0.231 1.514
 0.201 0.229 1.501
 0.207 0.227 1.485
 0.212 0.223 1.459
 0.217 0.219 1.431
 0.22 0.214 1.401
 0.222 0.208 1.362
 0.224 0.203 1.323
 0.226 0.197 1.29
 0.229 0.194 1.264
 0.232 0.19 1.239
 0.236 0.187 1.22
 0.24 0.185 1.204
 0.244 0.183 1.19
 0.24 0.174 1.136
 0.235 0.166 1.081
 0.21 0.144 0.94
 0.174 0.116 0.756
 0.169 0.109 0.714
 0.15 0.095 0.62
 0.139 0.085 0.558
 0.136 0.082 0.533
 0.128 0.075 0.489
 0.125 0.071 0.466
 0.124 0.069 0.452
 0.123 0.067 0.437
 0.12 0.064 0.418
 0.118 0.061 0.401
 0.116 0.059 0.384
 0.111 0.055 0.361
 0.108 0.053 0.345
 0.107 0.051 0.334
 0.109 0.051 0.331
 0.113 0.052 0.337
 0.116 0.052 0.34
 0.122 0.054 0.351
 0.129 0.056 0.364
 0.134 0.058 0.371
 0.141 0.06 0.383
 0.149 0.062 0.398
 0.152 0.062 0.397
 0.153 0.062 0.394
 0.158 0.062 0.398
 0.16 0.063 0.398
 0.162 0.062 0.396
 0.17 0.065 0.409
 0.176 0.066 0.416
 0.18 0.066 0.417
 0.181 0.066 0.413
 0.178 0.064 0.4
 0.184 0.065 0.407
 0.186 0.064 0.403
 0.19 0.065 0.405
 0.196 0.066 0.412
 0.21 0.07 0.435
 0.217 0.072 0.442
 0.232 0.076 0.466
 0.244 0.079 0.482
 0.257 0.082 0.501
 0.267 0.084 0.512
 0.28 0.087 0.529
 0.301 0.093 0.56
 0.326 0.099 0.6
 0.349 0.105 0.632
 0.373 0.111 0.666
 0.39 0.115 0.687
 0.401 0.117 0.696
 0.4 0.115 0.684
 -0.344 0.109 0.609
 -0.35 0.113 0.629
 -0.353 0.115 0.644
 -0.356 0.117 0.66
 -0.359 0.12 0.675
 -0.361 0.122 0.691
 -0.363 0.124 0.705
 -0.364 0.126 0.718
 -0.364 0.128 0.729
 -0.363 0.129 0.739
 -0.361 0.13 0.747
 -0.358 0.131 0.752
 -0.355 0.131 0.758
 -0.353 0.132 0.766
 -0.35 0.133 0.773
 -0.348 0.134 0.781
 -0.347 0.136 0.791
 -0.348 0.138 0.807
 -0.349 0.141 0.823
 -0.352 0.144 0.846
 -0.359 0.149 0.878
 -0.368 0.156 0.917
 -0.377 0.162 0.957
 -0.388 0.169 1.001
 -0.397 0.176 1.046
 -0.405 0.183 1.086
 -0.412 0.189 1.125
 -0.417 0.195 1.161
 -0.419 0.199 1.19
 -0.42 0.203 1.216
 -0.418 0.206 1.234
 -0.414 0.208 1.247
 -0.409 0.209 1.257
 -0.404 0.211 1.268
 -0.399 0.212 1.276
 -0.394 0.213 1.286
 -0.388 0.214 1.297
 -0.383 0.215 1.306
 -0.377 0.216 1.314
 -0.37 0.217 1.321
 -0.363 0.218 1.326
 -0.356 0.218 1.332
 -0.349 0.219 1.336
 -0.341 0.219 1.339
 -0.334 0.219 1.341
 -0.325 0.218 1.34
 -0.316 0.218 1.336
 -0.307 0.217 1.332
 -0.297 0.215 1.323
 -0.287 0.213 1.316
 -0.278 0.212 1.31
 -0.268 0.211 1.305
 -0.26 0.21 1.302
 -0.252 0.21 1.303
 -0.245 0.211 1.306
 -0.237 0.211 1.307
 -0.23 0.211 1.311
 -0.223 0.211 1.315
 -0.216 0.212 1.319
 -0.208 0.212 1.319
 -0.201 0.213 1.325
 -0.194 0.213 1.33
 -0.187 0.214 1.338
 -0.18 0.215 1.346
 -0.174 0.218 1.361
 -0.168 0.22 1.375
 -0.161 0.222 1.391
 -0.155 0.225 1.409
 -0.149 0.228 1.427
 -0.142 0.229 1.44
 -0.134 0.231 1.45
 -0.126 0.232 1.454
 -0.117 0.231 1.452
 -0.109 0.23 1.447
 -0.1 0.229 1.439
 -0.09 0.227 1.427
 -0.082 0.225 1.416
 -0.073 0.223 1.405
 -0.064 0.222 1.397
 -0.056 0.221 1.391
 -0.048 0.22 1.389
 -0.04 0.22 1.39
 -0.032 0.221 1.394
 -0.024 0.222 1.401
 -0.016 0.223 1.409
 -0.008 0.224 1.418
 0 0.226 1.428
 0.008 0.228 1.438
 0.016 0.228 1.443
 0.025 0.229 1.448
 0.033 0.23 1.453
 0.042 0.23 1.454
 0.05 0.231 1.458
 0.059 0.232 1.465
 0.068 0.233 1.475
 0.077 0.236 1.489
 0.087 0.238 1.505
 0.097 0.241 1.521
 0.107 0.244 1.539
 0.117 0.246 1.552
 0.127 0.248 1.564
 0.136 0.249 1.57
 0.146 0.249 1.569
 0.154 0.248 1.563
 0.162 0.246 1.554
 0.17 0.244 1.542
 0.178 0.242 1.529
 0.185 0.241 1.517
 0.192 0.238 1.502
 0.199 0.236 1.487
 0.206 0.234 1.472
 0.211 0.23 1.448
 0.215 0.225 1.419
 0.219 0.221 1.389
 0.221 0.215 1.351
 0.221 0.208 1.306
 0.223 0.202 1.27
 0.226 0.198 1.246
 0.229 0.194 1.221
 0.23 0.19 1.19
 0.235 0.188 1.178
 0.238 0.185 1.16
 0.233 0.176 1.1
 0.228 0.167 1.046
 0.21 0.15 0.939
 0.171 0.119 0.745
 0.165 0.111 0.699
 0.15 0.098 0.617
 0.141 0.09 0.564
 0.138 0.086 0.54
 0.131 0.08 0.501
 0.128 0.076 0.478
 0.127 0.074 0.463
 0.126 0.071 0.448
 0.123 0.068 0.428
 0.121 0.065 0.41
 0.118 0.062 0.391
 0.113 0.059 0.368
 0.11 0.056 0.35
 0.11 0.055 0.342
 0.111 0.054 0.338
 0.115 0.055 0.343
 0.119 0.056 0.349
 0.126 0.058 0.362
 0.132 0.06 0.373
 0.137 0.062 0.38
 0.143 0.063 0.388
 0.15 0.065 0.399
 0.151 0.064 0.396
 0.151 0.063 0.389
 0.155 0.064 0.39
 0.158 0.064 0.392
 0.16 0.064 0.391
 0.166 0.066 0.399
 0.173 0.067 0.407
 0.175 0.067 0.405
 0.176 0.066 0.4
 0.175 0.065 0.391
 0.181 0.066 0.399
 0.185 0.067 0.401
 0.19 0.068 0.406
 0.197 0.069 0.415
 0.209 0.073 0.432
 0.216 0.074 0.44
 0.229 0.078 0.459
 0.24 0.08 0.474
 0.253 0.084 0.492
 0.262 0.086 0.502
 0.276 0.089 0.521
 0.295 0.095 0.55
 0.322 0.102 0.59
 0.345 0.108 0.624
 0.369 0.114 0.658
 0.384 0.118 0.675
 0.403 0.122 0.699
 0.407 0.122 0.695
 -0.344 0.113 0.609
 -0.349 0.116 0.627
 -0.35 0.118 0.638
 -0.354 0.121 0.655
 -0.356 0.123 0.67
 -0.359 0.126 0.685
 -0.361 0.128 0.7
 -0.361 0.13 0.712
 -0.361 0.131 0.722
 -0.36 0.133 0.732
 -0.358 0.134 0.741
 -0.355 0.135 0.746
 -0.353 0.135 0.753
 -0.35 0.136 0.759
 -0.348 0.137 0.766
 -0.345 0.138 0.774
 -0.344 0.14 0.785
 -0.345 0.142 0.799
 -0.346 0.145 0.816
 -0.35 0.148 0.84
 -0.357 0.154 0.872
 -0.366 0.16 0.911
 -0.376 0.167 0.953
 -0.387 0.175 0.998
 -0.397 0.183 1.043
 -0.405 0.189 1.084
 -0.411 0.196 1.123
 -0.416 0.202 1.158
 -0.419 0.206 1.187
 -0.42 0.211 1.214
 -0.418 0.214 1.233
 -0.414 0.215 1.247
 -0.41 0.217 1.259
 -0.405 0.219 1.27
 -0.4 0.22 1.278
 -0.394 0.221 1.288
 -0.389 0.222 1.298
 -0.383 0.223 1.306
 -0.377 0.225 1.314
 -0.37 0.225 1.321
 -0.364 0.226 1.327
 -0.357 0.227 1.332
 -0.35 0.227 1.337
 -0.342 0.227 1.34
 -0.334 0.227 1.341
 -0.325 0.227 1.341
 -0.316 0.226 1.338
 -0.307 0.225 1.334
 -0.298 0.224 1.328
 -0.288 0.222 1.321
 -0.279 0.221 1.315
 -0.27 0.22 1.31
 -0.261 0.219 1.307
 -0.253 0.219 1.308
 -0.246 0.219 1.311
 -0.238 0.219 1.313
 -0.232 0.22 1.318
 -0.224 0.221 1.322
 -0.217 0.221 1.327
 -0.209 0.221 1.328
 -0.202 0.222 1.333
 -0.195 0.222 1.336
 -0.188 0.223 1.342
 -0.181 0.224 1.349
 -0.174 0.226 1.364
 -0.168 0.228 1.378
 -0.162 0.231 1.394
 -0.155 0.234 1.411
 -0.149 0.236 1.429
 -0.142 0.238 1.441
 -0.134 0.24 1.45
 -0.126 0.24 1.456
 -0.118 0.24 1.455
 -0.109 0.239 1.45
 -0.1 0.238 1.443
 -0.091 0.236 1.433
 -0.082 0.234 1.422
 -0.073 0.233 1.412
 -0.065 0.231 1.405
 -0.056 0.23 1.4
 -0.048 0.23 1.398
 -0.04 0.23 1.398
 -0.032 0.23 1.402
 -0.024 0.232 1.409
 -0.016 0.233 1.417
 -0.008 0.234 1.426
 0 0.236 1.435
 0.008 0.237 1.445
 0.016 0.238 1.449
 0.025 0.239 1.453
 0.033 0.239 1.457
 0.042 0.24 1.46
 0.051 0.24 1.462
 0.059 0.241 1.469
 0.068 0.242 1.477
 0.077 0.244 1.489
 0.087 0.247 1.502
 0.097 0.249 1.518
 0.107 0.252 1.534
 0.116 0.254 1.546
 0.126 0.256 1.556
 0.136 0.256 1.561
 0.145 0.256 1.559
 0.153 0.255 1.552
 0.161 0.253 1.542
 0.169 0.252 1.529
 0.176 0.249 1.516
 0.184 0.247 1.503
 0.19 0.245 1.486
 0.197 0.242 1.471
 0.203 0.24 1.455
 0.209 0.236 1.431
 0.213 0.231 1.404
 0.217 0.227 1.374
 0.218 0.22 1.336
 0.219 0.213 1.293
 0.22 0.207 1.256
 0.222 0.202 1.221
 0.222 0.196 1.186
 0.223 0.19 1.15
 0.222 0.184 1.113
 0.216 0.174 1.052
 0.217 0.17 1.025
 0.215 0.163 0.985
 0.212 0.156 0.944
 0.177 0.127 0.77
 0.164 0.114 0.692
 0.151 0.103 0.622
 0.143 0.095 0.572
 0.14 0.091 0.547
 0.134 0.084 0.511
 0.129 0.08 0.482
 0.129 0.078 0.468
 0.128 0.075 0.454
 0.125 0.072 0.434
 0.123 0.069 0.417
 0.12 0.066 0.399
 0.116 0.062 0.375
 0.113 0.06 0.359
 0.114 0.059 0.354
 0.115 0.058 0.35
 0.118 0.059 0.353
 0.123 0.06 0.36
 0.129 0.062 0.37
 0.135 0.064 0.379
 0.139 0.065 0.384
 0.144 0.066 0.391
 0.149 0.067 0.396
 0.152 0.067 0.397
 0.152 0.066 0.389
 0.155 0.066 0.391
 0.159 0.067 0.394
 0.162 0.067 0.395
 0.166 0.068 0.396
 0.173 0.07 0.408
 0.177 0.07 0.409
 0.175 0.069 0.399
 0.179 0.069 0.4
 0.183 0.07 0.403
 0.184 0.069 0.398
 0.189 0.07 0.402
 0.198 0.072 0.415
 0.208 0.075 0.429
 0.216 0.077 0.439
 0.229 0.081 0.459
 0.24 0.084 0.474
 0.25 0.086 0.486
 0.26 0.088 0.497
 0.274 0.092 0.516
 0.293 0.097 0.544
 0.316 0.104 0.578
 0.339 0.11 0.612
 0.361 0.116 0.643
 0.376 0.12 0.66
 0.392 0.123 0.678
 0.382 0.119 0.651
 -0.337 0.115 0.595
 -0.346 0.119 0.62
 -0.347 0.121 0.632
 -0.351 0.124 0.649
 -0.353 0.127 0.664
 -0.356 0.129 0.679
 -0.358 0.131 0.693
 -0.358 0.133 0.706
 -0.358 0.135 0.716
 -0.357 0.136 0.726
 -0.356 0.138 0.734
 -0.353 0.138 0.74
 -0.35 0.139 0.747
 -0.347 0.14 0.753
 -0.345 0.141 0.759
 -0.342 0.142 0.765
 -0.341 0.143 0.776
 -0.341 0.145 0.789
 -0.342 0.148 0.807
 -0.346 0.152 0.83
 -0.354 0.158 0.864
 -0.364 0.165 0.904
 -0.374 0.173 0.948
 -0.385 0.181 0.993
 -0.395 0.188 1.038
 -0.404 0.196 1.08
 -0.411 0.202 1.12
 -0.415 0.208 1.154
 -0.418 0.213 1.183
 -0.419 0.217 1.21
 -0.417 0.221 1.23
 -0.414 0.223 1.244
 -0.41 0.225 1.256
 -0.405 0.226 1.268
 -0.4 0.228 1.277
 -0.395 0.229 1.288
 -0.389 0.23 1.297
 -0.383 0.231 1.305
 -0.377 0.232 1.313
 -0.37 0.233 1.32
 -0.363 0.234 1.325
 -0.357 0.235 1.332
 -0.35 0.235 1.337
 -0.342 0.235 1.34
 -0.334 0.235 1.342
 -0.326 0.235 1.342
 -0.317 0.234 1.338
 -0.308 0.233 1.335
 -0.298 0.232 1.329
 -0.289 0.231 1.323
 -0.279 0.229 1.316
 -0.27 0.228 1.311
 -0.262 0.227 1.309
 -0.254 0.228 1.311
 -0.247 0.228 1.313
 -0.239 0.228 1.315
 -0.232 0.228 1.32
 -0.225 0.229 1.324
 -0.217 0.229 1.328
 -0.21 0.23 1.331
 -0.203 0.23 1.336
 -0.195 0.231 1.34
 -0.188 0.232 1.346
 -0.181 0.232 1.351
 -0.175 0.235 1.365
 -0.168 0.237 1.378
 -0.162 0.239 1.393
 -0.155 0.242 1.409
 -0.149 0.244 1.426
 -0.142 0.246 1.438
 -0.134 0.248 1.448
 -0.126 0.249 1.454
 -0.118 0.249 1.455
 -0.109 0.248 1.45
 -0.1 0.247 1.443
 -0.091 0.245 1.434
 -0.082 0.243 1.425
 -0.073 0.242 1.417
 -0.065 0.241 1.411
 -0.056 0.24 1.407
 -0.048 0.24 1.406
 -0.04 0.239 1.405
 -0.032 0.24 1.408
 -0.024 0.241 1.413
 -0.016 0.242 1.42
 -0.008 0.243 1.429
 0 0.245 1.438
 0.008 0.246 1.448
 0.017 0.247 1.453
 0.025 0.248 1.457
 0.034 0.248 1.46
 0.042 0.249 1.463
 0.051 0.249 1.464
 0.059 0.25 1.469
 0.068 0.251 1.478
 0.077 0.253 1.487
 0.087 0.255 1.5
 0.097 0.258 1.515
 0.106 0.26 1.529
 0.116 0.262 1.539
 0.126 0.263 1.547
 0.135 0.264 1.549
 0.144 0.264 1.548
 0.152 0.262 1.541
 0.16 0.261 1.532
 0.168 0.259 1.52
 0.175 0.257 1.507
 0.182 0.254 1.491
 0.189 0.251 1.473
 0.195 0.248 1.455
 0.201 0.245 1.437
 0.206 0.241 1.411
 0.21 0.236 1.382
 0.214 0.231 1.353
 0.215 0.225 1.314
 0.216 0.217 1.271
 0.217 0.211 1.234
 0.217 0.205 1.196
 0.217 0.198 1.154
 0.217 0.192 1.121
 0.215 0.185 1.078
 0.202 0.168 0.982
 0.196 0.159 0.925
 0.193 0.152 0.886
 0.19 0.145 0.845
 0.174 0.13 0.756
 0.159 0.115 0.67
 0.149 0.105 0.613
 0.142 0.098 0.57
 0.14 0.094 0.548
 0.134 0.088 0.512
 0.133 0.085 0.493
 0.132 0.082 0.479
 0.13 0.08 0.463
 0.128 0.077 0.445
 0.126 0.073 0.426
 0.122 0.07 0.404
 0.118 0.066 0.382
 0.117 0.064 0.37
 0.117 0.063 0.365
 0.119 0.063 0.364
 0.122 0.063 0.364
 0.126 0.064 0.369
 0.131 0.066 0.377
 0.137 0.067 0.385
 0.141 0.068 0.391
 0.144 0.068 0.391
 0.148 0.069 0.393
 0.152 0.07 0.396
 0.151 0.068 0.386
 0.153 0.068 0.385
 0.16 0.07 0.396
 0.165 0.071 0.401
 0.166 0.07 0.397
 0.172 0.072 0.405
 0.177 0.073 0.408
 0.175 0.071 0.399
 0.179 0.072 0.4
 0.185 0.073 0.408
 0.186 0.072 0.402
 0.187 0.072 0.399
 0.196 0.074 0.41
 0.203 0.076 0.419
 0.21 0.078 0.427
 0.225 0.082 0.449
 0.237 0.086 0.468
 0.249 0.089 0.483
 0.26 0.092 0.498
 0.275 0.096 0.518
 0.292 0.101 0.543
 0.312 0.106 0.571
 0.333 0.112 0.602
 0.353 0.117 0.627
 0.367 0.121 0.643
 0.382 0.125 0.66
 0.389 0.125 0.662
 -0.337 0.119 0.594
 -0.34 0.121 0.608
 -0.344 0.124 0.626
 -0.348 0.127 0.643
 -0.351 0.13 0.658
 -0.353 0.133 0.674
 -0.355 0.135 0.687
 -0.356 0.137 0.7
 -0.355 0.138 0.71
 -0.354 0.14 0.719
 -0.353 0.141 0.727
 -0.35 0.142 0.734
 -0.348 0.143 0.74
 -0.345 0.144 0.746
 -0.342 0.144 0.752
 -0.339 0.145 0.758
 -0.338 0.147 0.768
 -0.337 0.148 0.779
 -0.339 0.152 0.797
 -0.342 0.156 0.82
 -0.35 0.162 0.854
 -0.36 0.169 0.894
 -0.371 0.177 0.938
 -0.382 0.185 0.985
 -0.393 0.193 1.03
 -0.401 0.201 1.072
 -0.408 0.208 1.11
 -0.412 0.214 1.144
 -0.414 0.219 1.173
 -0.416 0.223 1.201
 -0.415 0.227 1.222
 -0.412 0.229 1.238
 -0.409 0.232 1.253
 -0.405 0.234 1.266
 -0.399 0.235 1.275
 -0.395 0.237 1.287
 -0.389 0.238 1.296
 -0.383 0.239 1.304
 -0.377 0.24 1.312
 -0.371 0.241 1.32
 -0.364 0.242 1.325
 -0.357 0.243 1.332
 -0.35 0.243 1.336
 -0.342 0.244 1.34
 -0.334 0.244 1.341
 -0.326 0.243 1.341
 -0.317 0.242 1.338
 -0.308 0.242 1.337
 -0.299 0.24 1.331
 -0.289 0.239 1.324
 -0.28 0.237 1.318
 -0.271 0.236 1.313
 -0.262 0.235 1.31
 -0.254 0.236 1.312
 -0.247 0.236 1.315
 -0.239 0.236 1.316
 -0.232 0.237 1.321
 -0.225 0.237 1.325
 -0.218 0.237 1.329
 -0.21 0.237 1.329
 -0.203 0.238 1.334
 -0.195 0.238 1.336
 -0.188 0.239 1.34
 -0.18 0.24 1.346
 -0.174 0.242 1.36
 -0.168 0.244 1.372
 -0.161 0.247 1.388
 -0.155 0.249 1.404
 -0.148 0.252 1.419
 -0.141 0.254 1.432
 -0.134 0.256 1.443
 -0.126 0.257 1.45
 -0.117 0.257 1.45
 -0.109 0.256 1.446
 -0.1 0.255 1.44
 -0.091 0.253 1.432
 -0.082 0.252 1.424
 -0.073 0.25 1.418
 -0.065 0.249 1.413
 -0.057 0.249 1.409
 -0.048 0.248 1.408
 -0.04 0.248 1.407
 -0.032 0.248 1.409
 -0.024 0.249 1.414
 -0.016 0.25 1.421
 -0.008 0.252 1.43
 0 0.254 1.44
 0.008 0.255 1.449
 0.017 0.256 1.455
 0.025 0.257 1.459
 0.034 0.257 1.461
 0.042 0.258 1.463
 0.051 0.258 1.463
 0.059 0.258 1.466
 0.068 0.259 1.472
 0.077 0.261 1.482
 0.087 0.263 1.493
 0.096 0.266 1.509
 0.106 0.268 1.521
 0.116 0.27 1.531
 0.125 0.271 1.536
 0.134 0.271 1.539
 0.143 0.27 1.534
 0.151 0.269 1.528
 0.159 0.268 1.519
 0.167 0.266 1.508
 0.174 0.264 1.495
 0.181 0.261 1.48
 0.187 0.258 1.46
 0.193 0.254 1.44
 0.199 0.251 1.422
 0.203 0.246 1.393
 0.207 0.241 1.363
 0.21 0.235 1.33
 0.211 0.228 1.288
 0.211 0.22 1.242
 0.212 0.213 1.203
 0.211 0.205 1.158
 0.208 0.196 1.108
 0.207 0.189 1.068
 0.202 0.179 1.009
 0.191 0.165 0.928
 0.189 0.158 0.891
 0.187 0.152 0.855
 0.183 0.144 0.813
 0.175 0.134 0.756
 0.162 0.122 0.685
 0.152 0.111 0.624
 0.143 0.102 0.572
 0.138 0.096 0.539
 0.132 0.089 0.502
 0.131 0.087 0.488
 0.131 0.085 0.476
 0.131 0.083 0.463
 0.13 0.08 0.451
 0.129 0.078 0.438
 0.125 0.074 0.414
 0.121 0.07 0.393
 0.12 0.068 0.381
 0.121 0.067 0.375
 0.122 0.067 0.373
 0.125 0.067 0.371
 0.128 0.068 0.375
 0.133 0.069 0.382
 0.138 0.07 0.387
 0.143 0.071 0.394
 0.144 0.071 0.391
 0.147 0.071 0.392
 0.152 0.072 0.398
 0.152 0.071 0.39
 0.153 0.07 0.386
 0.158 0.071 0.39
 0.161 0.072 0.391
 0.16 0.07 0.382
 0.166 0.072 0.389
 0.169 0.072 0.391
 0.172 0.072 0.389
 0.176 0.073 0.393
 0.182 0.074 0.399
 0.181 0.073 0.392
 0.184 0.073 0.391
 0.191 0.075 0.4
 0.198 0.077 0.408
 0.206 0.079 0.418
 0.222 0.084 0.444
 0.236 0.088 0.464
 0.248 0.091 0.481
 0.261 0.095 0.498
 0.276 0.1 0.52
 0.292 0.104 0.541
 0.31 0.109 0.567
 0.329 0.115 0.593
 0.346 0.119 0.615
 0.36 0.123 0.629
 0.389 0.131 0.672
 0.374 0.125 0.636
 -0.333 0.121 0.586
 -0.339 0.125 0.606
 -0.342 0.127 0.62
 -0.345 0.13 0.637
 -0.348 0.133 0.652
 -0.351 0.136 0.667
 -0.352 0.138 0.681
 -0.353 0.14 0.693
 -0.352 0.142 0.703
 -0.351 0.143 0.712
 -0.35 0.144 0.72
 -0.347 0.145 0.726
 -0.345 0.146 0.733
 -0.342 0.147 0.739
 -0.339 0.148 0.745
 -0.336 0.149 0.75
 -0.334 0.15 0.759
 -0.333 0.152 0.77
 -0.335 0.155 0.788
 -0.339 0.159 0.811
 -0.347 0.165 0.844
 -0.357 0.173 0.885
 -0.367 0.181 0.928
 -0.378 0.189 0.974
 -0.389 0.198 1.02
 -0.397 0.206 1.062
 -0.404 0.213 1.1
 -0.408 0.219 1.133
 -0.411 0.224 1.162
 -0.412 0.229 1.189
 -0.412 0.232 1.211
 -0.41 0.236 1.23
 -0.407 0.238 1.246
 -0.403 0.241 1.26
 -0.398 0.242 1.27
 -0.394 0.244 1.283
 -0.388 0.246 1.293
 -0.383 0.247 1.303
 -0.377 0.248 1.312
 -0.371 0.25 1.32
 -0.364 0.25 1.324
 -0.357 0.251 1.33
 -0.35 0.251 1.334
 -0.342 0.251 1.338
 -0.334 0.251 1.339
 -0.326 0.251 1.339
 -0.317 0.25 1.337
 -0.308 0.25 1.335
 -0.299 0.248 1.33
 -0.289 0.247 1.324
 -0.28 0.245 1.318
 -0.271 0.244 1.312
 -0.262 0.243 1.309
 -0.254 0.243 1.31
 -0.247 0.244 1.313
 -0.239 0.244 1.314
 -0.232 0.244 1.319
 -0.225 0.244 1.321
 -0.217 0.245 1.325
 -0.209 0.245 1.325
 -0.202 0.245 1.328
 -0.194 0.245 1.33
 -0.187 0.246 1.335
 -0.18 0.247 1.34
 -0.173 0.249 1.353
 -0.167 0.251 1.365
 -0.161 0.253 1.38
 -0.154 0.256 1.396
 -0.147 0.259 1.412
 -0.14 0.261 1.425
 -0.133 0.263 1.436
 -0.125 0.264 1.443
 -0.117 0.264 1.444
 -0.108 0.264 1.441
 -0.099 0.262 1.434
 -0.091 0.261 1.427
 -0.082 0.259 1.42
 -0.073 0.258 1.414
 -0.065 0.257 1.411
 -0.057 0.257 1.409
 -0.048 0.257 1.408
 -0.04 0.257 1.407
 -0.032 0.257 1.409
 -0.024 0.257 1.412
 -0.016 0.258 1.419
 -0.007 0.26 1.427
 0 0.262 1.436
 0.008 0.263 1.445
 0.017 0.264 1.452
 0.025 0.265 1.456
 0.034 0.265 1.458
 0.042 0.266 1.459
 0.051 0.265 1.459
 0.059 0.266 1.46
 0.068 0.267 1.465
 0.077 0.268 1.474
 0.086 0.27 1.484
 0.096 0.273 1.498
 0.105 0.275 1.509
 0.115 0.276 1.517
 0.124 0.277 1.522
 0.133 0.277 1.522
 0.141 0.276 1.516
 0.149 0.275 1.51
 0.157 0.274 1.502
 0.165 0.272 1.492
 0.173 0.27 1.482
 0.18 0.268 1.469
 0.186 0.264 1.448
 0.191 0.26 1.425
 0.197 0.256 1.402
 0.2 0.25 1.369
 0.203 0.244 1.335
 0.205 0.237 1.297
 0.206 0.229 1.253
 0.205 0.22 1.205
 0.205 0.213 1.166
 0.203 0.205 1.116
 0.201 0.196 1.067
 0.199 0.188 1.024
 0.194 0.178 0.968
 0.186 0.166 0.903
 0.183 0.158 0.861
 0.179 0.151 0.82
 0.177 0.145 0.787
 0.17 0.136 0.738
 0.16 0.124 0.674
 0.15 0.113 0.616
 0.143 0.105 0.571
 0.139 0.1 0.543
 0.133 0.093 0.505
 0.131 0.089 0.485
 0.131 0.088 0.476
 0.131 0.085 0.463
 0.131 0.083 0.452
 0.13 0.081 0.44
 0.127 0.078 0.42
 0.124 0.074 0.401
 0.123 0.072 0.39
 0.123 0.071 0.383
 0.125 0.07 0.379
 0.125 0.069 0.373
 0.131 0.071 0.381
 0.135 0.072 0.387
 0.14 0.074 0.393
 0.146 0.075 0.402
 0.148 0.075 0.401
 0.149 0.075 0.397
 0.153 0.075 0.4
 0.152 0.074 0.39
 0.152 0.072 0.382
 0.156 0.073 0.386
 0.161 0.074 0.391
 0.161 0.073 0.383
 0.167 0.075 0.392
 0.173 0.076 0.398
 0.174 0.075 0.394
 0.177 0.076 0.395
 0.184 0.078 0.403
 0.185 0.077 0.398
 0.187 0.077 0.397
 0.194 0.079 0.405
 0.198 0.079 0.407
 0.204 0.081 0.413
 0.218 0.085 0.436
 0.231 0.089 0.453
 0.242 0.092 0.469
 0.257 0.097 0.49
 0.274 0.102 0.515
 0.289 0.106 0.535
 0.307 0.112 0.56
 0.326 0.118 0.587
