 0.26 0.019 0.862
 0.264 0.019 0.858
 0.269 0.019 0.854
 0.273 0.019 0.851
 0.278 0.019 0.849
 0.283 0.019 0.847
 0.288 0.019 0.844
 0.292 0.019 0.84
 0.295 0.019 0.834
 0.299 0.018 0.829
 0.303 0.018 0.824
 0.307 0.018 0.819
 0.311 0.018 0.817
 0.316 0.018 0.815
 0.32 0.018 0.811
 0.324 0.018 0.807
 0.329 0.018 0.804
 0.333 0.018 0.801
 0.336 0.018 0.796
 0.342 0.018 0.795
 0.346 0.018 0.793
 0.352 0.018 0.792
 0.356 0.018 0.789
 0.362 0.018 0.789
 0.365 0.018 0.783
 0.369 0.017 0.779
 0.371 0.017 0.772
 0.375 0.017 0.768
 0.378 0.017 0.762
 0.383 0.017 0.761
 0.389 0.017 0.761
 0.395 0.017 0.76
 0.399 0.017 0.757
 0.403 0.017 0.753
 0.406 0.017 0.746
 0.408 0.017 0.739
 0.41 0.017 0.733
 0.415 0.017 0.731
 0.419 0.017 0.727
 0 0 0
 0 0 0
 -0.256 0.015 0.469
 -0.251 0.015 0.467
 -0.248 0.015 0.469
 -0.26 0.016 0.5
 -0.279 0.018 0.544
 -0.278 0.018 0.552
 -0.277 0.018 0.559
 -0.269 0.018 0.551
 -0.259 0.017 0.538
 -0.25 0.017 0.528
 -0.25 0.017 0.537
 -0.25 0.017 0.544
 -0.255 0.018 0.565
 -0.259 0.019 0.584
 -0.26 0.019 0.596
 -0.255 0.019 0.595
 -0.249 0.019 0.591
 -0.244 0.018 0.587
 -0.234 0.018 0.573
 -0.223 0.017 0.557
 -0.219 0.017 0.556
 -0.214 0.017 0.553
 -0.202 0.016 0.531
 -0.197 0.016 0.526
 -0.201 0.017 0.546
 -0.197 0.016 0.546
 -0.194 0.016 0.547
 -0.192 0.017 0.554
 -0.198 0.018 0.581
 -0.2 0.018 0.599
 -0.198 0.018 0.606
 -0.193 0.018 0.604
 -0.189 0.018 0.601
 -0.18 0.017 0.587
 -0.173 0.017 0.574
 -0.166 0.017 0.562
 -0.161 0.016 0.556
 -0.156 0.016 0.553
 -0.152 0.016 0.551
 -0.148 0.016 0.549
 -0.144 0.016 0.548
 -0.141 0.016 0.549
 0 0 0
 0 0 0
 0 0 0
 0 0 0
 0 0 0
 0 0 0
 0 0 0
 0 0 0
 0 0 0
 0 0 0
 0 0 0
 0 0 0
 0 0 0
 0 0 0
 0 0 0
 0 0 0
 0 0 0
 0 0 0
 0 0 0
 0 0 0
 0 0 0
 0 0 0
 0 0 0
 0 0 0
 0 0 0
 0 0 0
 0 0 0
 0 0 0
 0 0 0
 0 0 0
 0 0 0
 0 0 0
 0 0 0
 0 0 0
 0 0 0
 0 0 0
 -0.018 0.013 0.5
 -0.016 0.014 0.509
 -0.013 0.014 0.514
 -0.01 0.014 0.517
 -0.007 0.014 0.521
 -0.004 0.014 0.532
 -0.001 0.015 0.546
 0.002 0.015 0.571
 0.005 0.016 0.589
 0.009 0.016 0.595
 0.012 0.016 0.597
 0.016 0.016 0.598
 0.019 0.016 0.601
 0.023 0.016 0.604
 0.027 0.017 0.609
 0.03 0.017 0.616
 0.034 0.017 0.623
 0.039 0.017 0.632
 0.043 0.018 0.642
 0.048 0.018 0.653
 0.052 0.018 0.661
 0.057 0.018 0.669
 0.061 0.019 0.676
 0.066 0.019 0.682
 0.072 0.019 0.701
 0.075 0.019 0.699
 0.08 0.019 0.703
 0.085 0.02 0.708
 0.089 0.019 0.706
 0.092 0.019 0.697
 0.098 0.02 0.713
 0.103 0.02 0.719
 0.109 0.02 0.73
 0.117 0.021 0.754
 0.127 0.022 0.791
 0.137 0.023 0.82
 0.144 0.023 0.835
 0.152 0.024 0.85
 0.158 0.024 0.857
 0.165 0.024 0.863
 0.172 0.025 0.876
 0.18 0.025 0.885
 0.187 0.025 0.895
 0.193 0.025 0.896
 0.198 0.025 0.895
 0.202 0.025 0.89
 0.206 0.025 0.882
 0.209 0.025 0.871
 0.213 0.024 0.866
 0.218 0.024 0.864
 0.223 0.024 0.863
 0.228 0.024 0.864
 0.234 0.024 0.867
 0.24 0.025 0.868
 0.245 0.024 0.867
 0.251 0.024 0.866
 0.256 0.024 0.865
 0.26 0.024 0.862
 0.265 0.024 0.86
 0.27 0.024 0.858
 0.275 0.024 0.855
 0.279 0.024 0.852
 0.284 0.024 0.848
 0.287 0.024 0.843
 0.291 0.024 0.838
 0.295 0.024 0.834
 0.299 0.024 0.83
 0.304 0.023 0.827
 0.309 0.023 0.825
 0.314 0.023 0.823
 0.318 0.023 0.819
 0.321 0.023 0.814
 0.325 0.023 0.809
 0.329 0.023 0.805
 0.333 0.023 0.801
 0.337 0.023 0.798
 0.343 0.023 0.798
 0.348 0.023 0.796
 0.353 0.023 0.796
 0.358 0.023 0.794
 0.365 0.023 0.795
 0.368 0.023 0.789
 0.372 0.023 0.785
 0.374 0.022 0.777
 0.377 0.022 0.772
 0.38 0.022 0.765
 0.384 0.022 0.762
 0.389 0.022 0.76
 0.393 0.022 0.756
 0.397 0.022 0.752
 0.399 0.022 0.745
 0.402 0.021 0.739
 0.404 0.021 0.733
 0.408 0.021 0.729
 0.414 0.021 0.729
 0.418 0.021 0.725
 0 0 0
 0 0 0
 -0.255 0.018 0.467
 -0.251 0.018 0.466
 -0.252 0.018 0.476
 -0.25 0.018 0.48
 -0.268 0.02 0.523
 -0.27 0.021 0.535
 -0.269 0.021 0.541
 -0.263 0.021 0.538
 -0.258 0.02 0.536
 -0.25 0.02 0.527
 -0.249 0.02 0.534
 -0.251 0.021 0.546
 -0.251 0.021 0.557
 -0.257 0.022 0.579
 -0.258 0.022 0.592
 -0.253 0.022 0.589
 -0.248 0.022 0.588
 -0.244 0.022 0.587
 -0.235 0.021 0.576
 -0.225 0.021 0.56
 -0.221 0.021 0.561
 -0.216 0.021 0.558
 -0.205 0.02 0.537
 -0.198 0.019 0.529
 -0.201 0.02 0.546
 -0.198 0.02 0.548
 -0.194 0.02 0.549
 -0.195 0.02 0.561
 -0.2 0.021 0.589
 -0.202 0.022 0.606
 -0.198 0.022 0.605
 -0.194 0.022 0.605
 -0.188 0.022 0.599
 -0.18 0.021 0.584
 -0.172 0.02 0.573
 -0.166 0.02 0.561
 -0.161 0.02 0.557
 -0.156 0.019 0.553
 -0.152 0.019 0.551
 -0.148 0.019 0.549
 -0.144 0.019 0.548
 -0.141 0.019 0.55
 0 0 0
 0 0 0
 0 0 0
 0 0 0
 0 0 0
 0 0 0
 0 0 0
 0 0 0
 0 0 0
 0 0 0
 0 0 0
 0 0 0
 0 0 0
 0 0 0
 0 0 0
 0 0 0
 0 0 0
 0 0 0
 0 0 0
 0 0 0
 0 0 0
 0 0 0
 0 0 0
 0 0 0
 0 0 0
 0 0 0
 0 0 0
 0 0 0
 0 0 0
 0 0 0
 0 0 0
 0 0 0
 0 0 0
 0 0 0
 0 0 0
 0 0 0
 -0.018 0.016 0.506
 -0.016 0.017 0.511
 -0.013 0.017 0.517
 -0.01 0.017 0.521
 -0.007 0.017 0.525
 -0.004 0.018 0.537
 -0.001 0.018 0.553
 0.002 0.019 0.574
 0.005 0.02 0.591
 0.009 0.02 0.599
 0.012 0.02 0.601
 0.016 0.02 0.602
 0.019 0.02 0.605
 0.023 0.02 0.608
 0.027 0.02 0.612
 0.031 0.02 0.618
 0.035 0.021 0.625
 0.039 0.021 0.635
 0.043 0.021 0.645
 0.048 0.022 0.655
 0.052 0.022 0.664
 0.057 0.022 0.672
 0.061 0.023 0.678
 0.066 0.023 0.682
 0.07 0.023 0.69
 0.074 0.023 0.681
 0.077 0.023 0.677
 0.08 0.022 0.668
 0.081 0.021 0.646
 0.082 0.02 0.623
 0.086 0.021 0.628
 0.091 0.021 0.636
 0.098 0.022 0.654
 0.107 0.023 0.692
 0.119 0.025 0.741
 0.129 0.026 0.77
 0.137 0.027 0.794
 0.147 0.028 0.822
 0.155 0.029 0.84
 0.162 0.029 0.849
 0.171 0.03 0.869
 0.18 0.03 0.885
 0.188 0.031 0.901
 0.194 0.031 0.901
 0.199 0.031 0.899
 0.202 0.03 0.891
 0.206 0.03 0.881
 0.207 0.03 0.866
 0.211 0.029 0.86
 0.216 0.029 0.859
 0.222 0.029 0.858
 0.228 0.029 0.861
 0.234 0.03 0.866
 0.24 0.03 0.867
 0.245 0.03 0.865
 0.25 0.03 0.865
 0.256 0.03 0.864
 0.261 0.03 0.865
 0.267 0.03 0.865
 0.272 0.03 0.864
 0.277 0.03 0.861
 0.281 0.029 0.856
 0.284 0.029 0.849
 0.287 0.029 0.842
 0.292 0.029 0.84
 0.297 0.029 0.839
 0.303 0.029 0.84
 0.31 0.029 0.842
 0.315 0.029 0.842
 0.32 0.029 0.84
 0.324 0.029 0.836
 0.328 0.029 0.831
 0.332 0.029 0.827
 0.337 0.029 0.824
 0.342 0.029 0.822
 0.347 0.029 0.82
 0.352 0.029 0.819
 0.357 0.028 0.816
 0.361 0.028 0.812
 0.365 0.028 0.809
 0.37 0.028 0.806
 0.372 0.028 0.799
 0.376 0.028 0.793
 0.378 0.028 0.785
 0.38 0.027 0.776
 0.382 0.027 0.769
 0.385 0.027 0.764
 0.387 0.027 0.756
 0.391 0.027 0.751
 0.394 0.026 0.747
 0.397 0.026 0.74
 0.398 0.026 0.733
 0.403 0.026 0.73
 0.408 0.026 0.727
 0.412 0.026 0.725
 0.417 0.026 0.722
 0 0 0
 0 0 0
 -0.255 0.021 0.467
 -0.253 0.021 0.47
 -0.255 0.022 0.481
 -0.252 0.022 0.484
 -0.266 0.023 0.519
 -0.269 0.024 0.533
 -0.267 0.024 0.537
 -0.262 0.024 0.535
 -0.255 0.024 0.529
 -0.249 0.023 0.526
 -0.246 0.023 0.527
 -0.249 0.024 0.543
 -0.248 0.024 0.549
 -0.255 0.025 0.574
 -0.259 0.026 0.595
 -0.254 0.026 0.591
 -0.247 0.026 0.585
 -0.244 0.026 0.588
 -0.235 0.025 0.576
 -0.226 0.024 0.562
 -0.222 0.024 0.562
 -0.218 0.024 0.562
 -0.207 0.023 0.544
 -0.202 0.023 0.54
 -0.202 0.023 0.551
 -0.199 0.023 0.552
 -0.196 0.023 0.553
 -0.197 0.024 0.569
 -0.202 0.025 0.594
 -0.203 0.026 0.609
 -0.198 0.026 0.605
 -0.194 0.026 0.606
 -0.187 0.025 0.597
 -0.179 0.024 0.582
 -0.172 0.024 0.57
 -0.165 0.023 0.56
 -0.161 0.023 0.557
 -0.156 0.023 0.553
 -0.152 0.023 0.552
 -0.148 0.023 0.55
 -0.145 0.023 0.55
 -0.142 0.023 0.552
 0 0 0
 0 0 0
 0 0 0
 0 0 0
 0 0 0
 0 0 0
 0 0 0
 0 0 0
 0 0 0
 0 0 0
 0 0 0
 0 0 0
 0 0 0
 0 0 0
 0 0 0
 0 0 0
 0 0 0
 0 0 0
 0 0 0
 0 0 0
 0 0 0
 0 0 0
 0 0 0
 0 0 0
 0 0 0
 0 0 0
 0 0 0
 0 0 0
 0 0 0
 0 0 0
 0 0 0
 0 0 0
 0 0 0
 0 0 0
 0 0 0
 0 0 0
 -0.019 0.02 0.528
 -0.016 0.02 0.524
 -0.013 0.02 0.528
 -0.01 0.02 0.529
 -0.007 0.02 0.532
 -0.004 0.021 0.544
 -0.001 0.022 0.561
 0.002 0.022 0.577
 0.005 0.023 0.593
 0.009 0.023 0.602
 0.012 0.024 0.605
 0.016 0.024 0.606
 0.019 0.024 0.609
 0.023 0.024 0.612
 0.027 0.024 0.617
 0.031 0.024 0.622
 0.035 0.024 0.629
 0.039 0.025 0.639
 0.043 0.025 0.647
 0.048 0.026 0.657
 0.052 0.026 0.666
 0.057 0.026 0.673
 0.062 0.027 0.682
 0.066 0.027 0.681
 0.068 0.026 0.667
 0.071 0.026 0.66
 0.075 0.026 0.66
 0.077 0.025 0.645
 0.078 0.024 0.624
 0.078 0.023 0.595
 0.081 0.023 0.592
 0.089 0.024 0.618
 0.095 0.025 0.637
 0.103 0.026 0.661
 0.114 0.028 0.705
 0.124 0.029 0.741
 0.134 0.031 0.774
 0.145 0.032 0.812
 0.154 0.033 0.834
 0.161 0.034 0.844
 0.171 0.035 0.868
 0.18 0.035 0.886
 0.189 0.036 0.903
 0.194 0.036 0.902
 0.199 0.036 0.898
 0.202 0.036 0.889
 0.205 0.035 0.878
 0.207 0.035 0.863
 0.211 0.034 0.858
 0.216 0.034 0.857
 0.221 0.034 0.857
 0.227 0.035 0.861
 0.234 0.035 0.865
 0.24 0.035 0.866
 0.245 0.035 0.866
 0.251 0.035 0.865
 0.256 0.035 0.866
 0.262 0.035 0.867
 0.267 0.035 0.866
 0.27 0.035 0.858
 0.273 0.034 0.85
 0.277 0.034 0.844
 0.28 0.034 0.837
 0.282 0.033 0.827
 0.289 0.034 0.83
 0.294 0.034 0.829
 0.298 0.033 0.824
 0.303 0.033 0.825
 0.31 0.034 0.827
 0.315 0.034 0.826
 0.321 0.034 0.827
 0.33 0.034 0.835
 0.336 0.034 0.836
 0.342 0.034 0.836
 0.346 0.034 0.833
 0.351 0.034 0.831
 0.354 0.034 0.824
 0.357 0.034 0.816
 0.36 0.033 0.81
 0.363 0.033 0.804
 0.365 0.033 0.795
 0.365 0.032 0.783
 0.367 0.032 0.774
 0.368 0.032 0.764
 0.366 0.031 0.749
 0.368 0.031 0.74
 0.37 0.03 0.732
 0.37 0.03 0.723
 0.374 0.03 0.718
 0.377 0.03 0.714
 0.38 0.03 0.71
 0.385 0.03 0.707
 0.393 0.03 0.711
 0.399 0.03 0.712
 0.413 0.031 0.725
 0.42 0.031 0.728
 0 0 0
 0 0 0
 -0.254 0.024 0.465
 -0.249 0.024 0.463
 -0.251 0.024 0.474
 -0.251 0.025 0.482
 -0.265 0.027 0.516
 -0.268 0.027 0.532
 -0.264 0.027 0.53
 -0.26 0.027 0.531
 -0.255 0.027 0.53
 -0.249 0.027 0.525
 -0.245 0.027 0.525
 -0.25 0.028 0.545
 -0.249 0.028 0.552
 -0.254 0.029 0.571
 -0.258 0.03 0.591
 -0.253 0.03 0.589
 -0.247 0.029 0.586
 -0.243 0.029 0.586
 -0.235 0.029 0.575
 -0.226 0.028 0.562
 -0.22 0.027 0.557
 -0.216 0.027 0.557
 -0.207 0.027 0.543
 -0.201 0.026 0.537
 -0.204 0.027 0.555
 -0.201 0.027 0.557
 -0.197 0.027 0.558
 -0.2 0.028 0.576
 -0.205 0.029 0.602
 -0.203 0.03 0.61
 -0.198 0.029 0.606
 -0.194 0.029 0.607
 -0.187 0.029 0.595
 -0.179 0.028 0.58
 -0.171 0.027 0.568
 -0.165 0.027 0.56
 -0.161 0.026 0.558
 -0.156 0.026 0.554
 -0.153 0.026 0.553
 -0.149 0.026 0.551
 -0.145 0.026 0.551
 -0.143 0.026 0.555
 0 0 0
 0 0 0
 0 0 0
 0 0 0
 0 0 0
 0 0 0
 0 0 0
 0 0 0
 0 0 0
 0 0 0
 0 0 0
 0 0 0
 0 0 0
 0 0 0
 0 0 0
 0 0 0
 0 0 0
 0 0 0
 0 0 0
 0 0 0
 0 0 0
 0 0 0
 0 0 0
 0 0 0
 0 0 0
 0 0 0
 0 0 0
 0 0 0
 0 0 0
 0 0 0
 0 0 0
 0 0 0
 0 0 0
 0 0 0
 0 0 0
 -0.024 0.026 0.569
 -0.02 0.024 0.543
 -0.016 0.024 0.535
 -0.013 0.024 0.537
 -0.01 0.024 0.537
 -0.007 0.024 0.539
 -0.004 0.024 0.551
 -0.001 0.025 0.568
 0.002 0.026 0.582
 0.005 0.027 0.594
 0.009 0.027 0.606
 0.012 0.027 0.611
 0.016 0.027 0.611
 0.02 0.027 0.614
 0.023 0.028 0.617
 0.027 0.028 0.622
 0.031 0.028 0.627
 0.035 0.028 0.634
 0.039 0.029 0.645
 0.044 0.029 0.652
 0.048 0.03 0.661
 0.053 0.03 0.669
 0.058 0.031 0.684
 0.063 0.031 0.692
 0.066 0.031 0.68
 0.068 0.03 0.668
 0.071 0.03 0.66
 0.074 0.029 0.652
 0.076 0.028 0.636
 0.078 0.028 0.619
 0.079 0.027 0.602
 0.085 0.027 0.617
 0.09 0.028 0.627
 0.096 0.029 0.644
 0.104 0.03 0.67
 0.114 0.032 0.706
 0.123 0.033 0.736
 0.134 0.035 0.774
 0.145 0.037 0.807
 0.154 0.038 0.83
 0.16 0.038 0.84
 0.17 0.039 0.862
 0.178 0.04 0.878
 0.186 0.041 0.89
 0.192 0.041 0.89
 0.196 0.041 0.886
 0.199 0.04 0.877
 0.202 0.04 0.867
 0.204 0.039 0.853
 0.209 0.039 0.848
 0.214 0.039 0.849
 0.22 0.039 0.85
 0.226 0.039 0.855
 0.233 0.04 0.86
 0.238 0.04 0.861
 0.244 0.04 0.863
 0.251 0.04 0.866
 0.257 0.04 0.867
 0.263 0.04 0.871
 0.269 0.04 0.87
 0.269 0.04 0.855
 0.271 0.039 0.843
 0.275 0.039 0.837
 0.278 0.038 0.83
 0.277 0.038 0.81
 0.282 0.038 0.81
 0.285 0.037 0.804
 0.286 0.037 0.792
 0.291 0.037 0.789
 0.298 0.037 0.794
 0.303 0.037 0.795
 0.311 0.037 0.801
 0.323 0.038 0.818
 0.33 0.039 0.821
 0.335 0.039 0.819
 0.339 0.038 0.815
 0.344 0.038 0.814
 0.346 0.038 0.804
 0.347 0.037 0.793
 0.349 0.037 0.785
 0.351 0.037 0.777
 0.349 0.036 0.759
 0.347 0.035 0.744
 0.348 0.035 0.733
 0.348 0.034 0.721
 0.349 0.034 0.713
 0.353 0.034 0.711
 0.354 0.033 0.701
 0.354 0.033 0.69
 0.357 0.033 0.685
 0.357 0.032 0.675
 0.359 0.032 0.669
 0.367 0.032 0.673
 0.379 0.033 0.686
 0.386 0.033 0.689
 0.415 0.036 0.73
 0.425 0.036 0.737
 0 0 0
 0 0 0
 -0.253 0.027 0.464
 -0.251 0.027 0.466
 -0.251 0.027 0.474
 -0.249 0.028 0.478
 -0.256 0.029 0.498
 -0.262 0.03 0.519
 -0.255 0.03 0.513
 -0.257 0.03 0.524
 -0.256 0.03 0.532
 -0.252 0.03 0.531
 -0.246 0.03 0.526
 -0.253 0.031 0.552
 -0.25 0.031 0.553
 -0.256 0.033 0.576
 -0.258 0.034 0.592
 -0.254 0.033 0.591
 -0.247 0.033 0.585
 -0.245 0.033 0.59
 -0.236 0.032 0.578
 -0.228 0.032 0.568
 -0.223 0.031 0.566
 -0.221 0.032 0.571
 -0.209 0.03 0.548
 -0.202 0.03 0.539
 -0.205 0.031 0.558
 -0.202 0.031 0.559
 -0.198 0.031 0.56
 -0.203 0.032 0.585
 -0.207 0.033 0.609
 -0.204 0.033 0.611
 -0.198 0.033 0.607
 -0.194 0.033 0.606
 -0.186 0.032 0.593
 -0.178 0.031 0.578
 -0.171 0.03 0.567
 -0.165 0.03 0.561
 -0.161 0.03 0.558
 -0.157 0.03 0.554
 -0.153 0.029 0.554
 -0.149 0.029 0.552
 -0.145 0.029 0.552
 0 0 0
 0 0 0
 0 0 0
 0 0 0
 0 0 0
 0 0 0
 0 0 0
 0 0 0
 0 0 0
 0 0 0
 0 0 0
 0 0 0
 0 0 0
 0 0 0
 0 0 0
 0 0 0
 0 0 0
 0 0 0
 0 0 0
 0 0 0
 0 0 0
 0 0 0
 0 0 0
 0 0 0
 0 0 0
 0 0 0
 0 0 0
 0 0 0
 0 0 0
 0 0 0
 0 0 0
 0 0 0
 0 0 0
 0 0 0
 0 0 0
 -0.027 0.029 0.57
 -0.024 0.029 0.569
 -0.02 0.028 0.555
 -0.017 0.028 0.547
 -0.013 0.027 0.545
 -0.01 0.027 0.545
 -0.007 0.027 0.544
 -0.004 0.028 0.556
 -0.001 0.029 0.573
 0.002 0.03 0.587
 0.005 0.03 0.597
 0.009 0.031 0.609
 0.013 0.031 0.616
 0.016 0.031 0.617
 0.02 0.031 0.619
 0.024 0.032 0.623
 0.027 0.032 0.627
 0.031 0.032 0.633
 0.036 0.032 0.641
 0.04 0.033 0.65
 0.044 0.033 0.657
 0.049 0.034 0.665
 0.053 0.034 0.671
 0.058 0.035 0.686
 0.062 0.035 0.68
 0.064 0.034 0.666
 0.067 0.033 0.653
 0.07 0.033 0.65
 0.072 0.032 0.632
 0.074 0.031 0.617
 0.076 0.031 0.609
 0.081 0.031 0.613
 0.086 0.032 0.628
 0.094 0.033 0.652
 0.099 0.034 0.664
 0.108 0.035 0.694
 0.118 0.037 0.732
 0.127 0.039 0.758
 0.136 0.04 0.785
 0.145 0.042 0.81
 0.151 0.042 0.818
 0.156 0.042 0.817
 0.164 0.043 0.833
 0.172 0.044 0.844
 0.179 0.044 0.854
 0.184 0.044 0.854
 0.188 0.044 0.85
 0.191 0.043 0.839
 0.194 0.043 0.831
 0.197 0.042 0.82
 0.201 0.042 0.816
 0.206 0.042 0.818
 0.212 0.042 0.82
 0.218 0.043 0.823
 0.224 0.043 0.827
 0.23 0.043 0.828
 0.236 0.043 0.832
 0.242 0.044 0.836
 0.248 0.044 0.836
 0.253 0.044 0.838
 0.259 0.044 0.838
 0.259 0.043 0.821
 0.26 0.042 0.808
 0.263 0.042 0.8
 0.265 0.041 0.791
 0.263 0.04 0.77
 0.267 0.04 0.766
 0.271 0.04 0.763
 0.273 0.039 0.754
 0.278 0.04 0.756
 0.286 0.04 0.763
 0.292 0.04 0.765
 0.299 0.041 0.77
 0.312 0.042 0.788
 0.319 0.042 0.792
 0.323 0.042 0.789
 0.328 0.042 0.787
 0.335 0.042 0.792
 0.339 0.042 0.786
 0.341 0.042 0.779
 0.342 0.041 0.77
 0.343 0.041 0.759
 0.34 0.04 0.739
 0.338 0.039 0.723
 0.334 0.038 0.704
 0.333 0.037 0.689
 0.332 0.036 0.677
 0.336 0.036 0.676
 0.334 0.036 0.662
 0.334 0.035 0.651
 0.339 0.035 0.65
 0.342 0.035 0.645
 0.344 0.035 0.64
 0.354 0.035 0.65
 0.371 0.037 0.671
 0.38 0.037 0.677
 0.406 0.039 0.713
 0.388 0.037 0.671
 -0.323 0.038 0.576
 0 0 0
 -0.253 0.03 0.463
 -0.252 0.03 0.468
 -0.254 0.031 0.48
 -0.252 0.031 0.483
 -0.256 0.032 0.499
 -0.258 0.033 0.511
 -0.251 0.032 0.504
 -0.253 0.033 0.517
 -0.256 0.034 0.53
 -0.254 0.034 0.535
 -0.252 0.034 0.54
 -0.258 0.036 0.561
 -0.253 0.035 0.56
 -0.253 0.036 0.57
 -0.256 0.037 0.585
 -0.252 0.037 0.586
 -0.247 0.037 0.585
 -0.244 0.037 0.588
 -0.237 0.036 0.581
 -0.229 0.035 0.571
 -0.224 0.035 0.567
 -0.221 0.035 0.57
 -0.208 0.033 0.546
 -0.203 0.033 0.542
 -0.205 0.034 0.558
 -0.202 0.034 0.559
 -0.198 0.034 0.56
 -0.204 0.036 0.589
 -0.208 0.037 0.611
 -0.204 0.037 0.611
 -0.199 0.037 0.608
 -0.194 0.037 0.605
 -0.186 0.036 0.591
 -0.178 0.035 0.577
 -0.17 0.034 0.565
 -0.166 0.033 0.561
 -0.161 0.033 0.558
 -0.157 0.033 0.554
 -0.153 0.033 0.554
 -0.149 0.033 0.552
 -0.145 0.033 0.552
 0 0 0
 0 0 0
 0 0 0
 0 0 0
 0 0 0
 0 0 0
 0 0 0
 0 0 0
 0 0 0
 0 0 0
 0 0 0
 0 0 0
 0 0 0
 0 0 0
 0 0 0
 0 0 0
 0 0 0
 0 0 0
 0 0 0
 0 0 0
 0 0 0
 0 0 0
 0 0 0
 0 0 0
 0 0 0
 0 0 0
 0 0 0
 0 0 0
 0 0 0
 0 0 0
 0 0 0
 0 0 0
 0 0 0
 0 0 0
 0 0 0
 -0.027 0.032 0.568
 -0.024 0.032 0.57
 -0.02 0.032 0.562
 -0.017 0.031 0.556
 -0.014 0.031 0.553
 -0.01 0.031 0.553
 -0.007 0.031 0.551
 -0.004 0.031 0.559
 -0.001 0.032 0.575
 0.002 0.033 0.591
 0.005 0.034 0.601
 0.009 0.035 0.612
 0.013 0.035 0.621
 0.016 0.035 0.622
 0.02 0.035 0.625
 0.024 0.036 0.629
 0.028 0.036 0.635
 0.032 0.036 0.64
 0.036 0.037 0.647
 0.04 0.037 0.656
 0.044 0.037 0.661
 0.049 0.038 0.673
 0.054 0.038 0.679
 0.058 0.038 0.679
 0.061 0.038 0.67
 0.064 0.037 0.659
 0.066 0.036 0.641
 0.069 0.036 0.639
 0.072 0.035 0.629
 0.075 0.035 0.627
 0.078 0.035 0.623
 0.086 0.037 0.651
 0.092 0.038 0.671
 0.099 0.039 0.692
 0.107 0.041 0.714
 0.117 0.043 0.751
 0.126 0.045 0.783
 0.134 0.046 0.799
 0.141 0.047 0.813
 0.147 0.047 0.82
 0.152 0.047 0.821
 0.156 0.047 0.818
 0.162 0.047 0.823
 0.168 0.048 0.828
 0.174 0.048 0.829
 0.178 0.048 0.826
 0.182 0.047 0.822
 0.185 0.047 0.812
 0.187 0.046 0.802
 0.191 0.046 0.795
 0.195 0.046 0.792
 0.2 0.046 0.791
 0.205 0.046 0.792
 0.21 0.046 0.794
 0.216 0.046 0.796
 0.221 0.046 0.797
 0.227 0.046 0.801
 0.233 0.047 0.803
 0.237 0.046 0.801
 0.241 0.046 0.797
 0.246 0.046 0.796
 0.246 0.045 0.779
 0.246 0.044 0.765
 0.249 0.044 0.759
 0.251 0.044 0.75
 0.249 0.042 0.73
 0.252 0.042 0.725
 0.257 0.042 0.723
 0.26 0.042 0.717
 0.266 0.042 0.723
 0.274 0.043 0.73
 0.28 0.043 0.732
 0.286 0.043 0.735
 0.299 0.044 0.755
 0.306 0.045 0.76
 0.31 0.045 0.758
 0.316 0.045 0.758
 0.324 0.045 0.764
 0.326 0.045 0.756
 0.328 0.045 0.749
 0.329 0.044 0.738
 0.328 0.043 0.725
 0.324 0.042 0.705
 0.322 0.041 0.689
 0.318 0.04 0.669
 0.316 0.039 0.654
 0.314 0.038 0.64
 0.318 0.038 0.638
 0.317 0.038 0.627
 0.318 0.037 0.619
 0.323 0.037 0.619
 0.327 0.037 0.618
 0.332 0.037 0.617
 0.344 0.038 0.63
 0.362 0.04 0.654
 0.372 0.041 0.662
 0.399 0.043 0.701
 0.324 0.034 0.559
 0 0 0
 0 0 0
 -0.259 0.034 0.474
 -0.257 0.034 0.479
 -0.254 0.034 0.48
 -0.252 0.034 0.483
 -0.253 0.035 0.492
 -0.254 0.035 0.502
 -0.247 0.035 0.497
 -0.252 0.036 0.513
 -0.255 0.037 0.529
 -0.255 0.038 0.537
 -0.253 0.038 0.542
 -0.257 0.039 0.561
 -0.256 0.039 0.566
 -0.253 0.039 0.569
 -0.253 0.04 0.58
 -0.251 0.04 0.584
 -0.246 0.04 0.582
 -0.243 0.04 0.584
 -0.237 0.04 0.581
 -0.23 0.039 0.573
 -0.223 0.038 0.565
 -0.221 0.039 0.571
 -0.208 0.037 0.544
 -0.203 0.036 0.541
 -0.206 0.038 0.56
 -0.202 0.038 0.561
 -0.201 0.038 0.567
 -0.208 0.04 0.599
 -0.21 0.041 0.617
 -0.204 0.041 0.611
 -0.199 0.041 0.61
 -0.193 0.04 0.604
 -0.185 0.039 0.589
 -0.177 0.038 0.576
 -0.17 0.037 0.564
 -0.166 0.037 0.561
 -0.161 0.037 0.558
 -0.157 0.036 0.554
 -0.153 0.036 0.553
 -0.149 0.036 0.552
 -0.145 0.036 0.551
 0 0 0
 0 0 0
 0 0 0
 0 0 0
 0 0 0
 0 0 0
 0 0 0
 0 0 0
 0 0 0
 0 0 0
 0 0 0
 0 0 0
 0 0 0
 0 0 0
 0 0 0
 0 0 0
 0 0 0
 0 0 0
 0 0 0
 0 0 0
 0 0 0
 0 0 0
 0 0 0
 0 0 0
 0 0 0
 0 0 0
 0 0 0
 0 0 0
 0 0 0
 0 0 0
 0 0 0
 0 0 0
 0 0 0
 0 0 0
 -0.03 0.035 0.555
 -0.027 0.035 0.565
 -0.024 0.035 0.568
 -0.02 0.035 0.565
 -0.017 0.035 0.562
 -0.014 0.035 0.559
 -0.01 0.035 0.559
 -0.007 0.035 0.558
 -0.004 0.035 0.564
 -0.001 0.036 0.578
 0.002 0.037 0.594
 0.005 0.038 0.605
 0.009 0.038 0.616
 0.013 0.039 0.626
 0.017 0.039 0.63
 0.02 0.04 0.633
 0.024 0.04 0.639
 0.028 0.04 0.646
 0.032 0.041 0.651
 0.037 0.041 0.657
 0.041 0.042 0.665
 0.045 0.042 0.67
 0.05 0.042 0.678
 0.054 0.043 0.681
 0.057 0.042 0.672
 0.06 0.041 0.664
 0.063 0.041 0.657
 0.066 0.04 0.647
 0.07 0.041 0.649
 0.073 0.04 0.644
 0.079 0.041 0.659
 0.085 0.042 0.677
 0.094 0.045 0.711
 0.1 0.045 0.723
 0.108 0.047 0.752
 0.115 0.049 0.771
 0.124 0.05 0.798
 0.132 0.052 0.817
 0.139 0.053 0.831
 0.144 0.053 0.832
 0.148 0.052 0.826
 0.151 0.052 0.815
 0.154 0.051 0.806
 0.159 0.051 0.805
 0.163 0.051 0.802
 0.167 0.051 0.799
 0.171 0.05 0.795
 0.175 0.05 0.79
 0.178 0.049 0.78
 0.18 0.049 0.771
 0.184 0.049 0.766
 0.188 0.048 0.764
 0.193 0.048 0.763
 0.197 0.048 0.763
 0.203 0.049 0.765
 0.208 0.049 0.766
 0.213 0.049 0.768
 0.219 0.049 0.773
 0.225 0.049 0.774
 0.228 0.049 0.768
 0.23 0.049 0.76
 0.234 0.048 0.757
 0.234 0.047 0.74
 0.234 0.047 0.728
 0.238 0.046 0.723
 0.24 0.046 0.717
 0.238 0.045 0.697
 0.24 0.044 0.688
 0.243 0.044 0.684
 0.246 0.044 0.678
 0.252 0.044 0.683
 0.259 0.044 0.689
 0.264 0.045 0.691
 0.269 0.045 0.69
 0.281 0.046 0.71
 0.288 0.047 0.715
 0.292 0.046 0.711
 0.297 0.046 0.712
 0.304 0.047 0.718
 0.305 0.046 0.708
 0.307 0.046 0.701
 0.309 0.046 0.693
 0.309 0.045 0.682
 0.307 0.044 0.667
 0.306 0.043 0.653
 0.302 0.042 0.634
 0.3 0.041 0.62
 0.299 0.04 0.609
 0.302 0.04 0.606
 0.302 0.04 0.597
 0.305 0.039 0.593
 0.314 0.04 0.601
 0.321 0.041 0.606
 0.33 0.041 0.613
 0.342 0.042 0.626
 0.358 0.044 0.647
 0.366 0.044 0.651
 0.393 0.047 0.689
 0.393 0.047 0.68
 0 0 0
 -0.223 0.031 0.4
 -0.261 0.037 0.478
 -0.26 0.038 0.484
 -0.262 0.038 0.494
 -0.257 0.038 0.493
 -0.256 0.039 0.499
 -0.257 0.039 0.507
 -0.252 0.039 0.505
 -0.252 0.039 0.513
 -0.257 0.041 0.533
 -0.259 0.042 0.546
 -0.258 0.042 0.553
 -0.26 0.043 0.567
 -0.26 0.044 0.576
 -0.256 0.044 0.576
 -0.256 0.044 0.586
 -0.252 0.044 0.587
 -0.248 0.044 0.587
 -0.242 0.044 0.583
 -0.238 0.043 0.582
 -0.229 0.042 0.57
 -0.224 0.042 0.567
 -0.219 0.042 0.563
 -0.205 0.04 0.537
 -0.202 0.04 0.539
 -0.204 0.041 0.556
 -0.201 0.041 0.557
 -0.202 0.042 0.571
 -0.21 0.044 0.607
 -0.211 0.045 0.621
 -0.204 0.045 0.611
 -0.2 0.045 0.612
 -0.193 0.044 0.602
 -0.185 0.042 0.587
 -0.177 0.041 0.574
 -0.17 0.04 0.563
 -0.166 0.04 0.561
 -0.161 0.04 0.557
 -0.157 0.04 0.554
 -0.152 0.039 0.552
 -0.149 0.039 0.552
 -0.145 0.039 0.55
 0 0 0
 0 0 0
 0 0 0
 0 0 0
 0 0 0
 0 0 0
 0 0 0
 0 0 0
 0 0 0
 0 0 0
 0 0 0
 0 0 0
 0 0 0
 0 0 0
 0 0 0
 0 0 0
 0 0 0
 0 0 0
 0 0 0
 0 0 0
 0 0 0
 0 0 0
 0 0 0
 0 0 0
 0 0 0
 0 0 0
 0 0 0
 0 0 0
 0 0 0
 0 0 0
 0 0 0
 0 0 0
 0 0 0
 -0.033 0.037 0.548
 -0.03 0.038 0.553
 -0.027 0.038 0.561
 -0.024 0.039 0.566
 -0.02 0.039 0.568
 -0.017 0.039 0.567
 -0.014 0.038 0.565
 -0.011 0.038 0.565
 -0.007 0.038 0.564
 -0.004 0.039 0.569
 -0.001 0.04 0.582
 0.002 0.041 0.598
 0.005 0.042 0.611
 0.009 0.043 0.623
 0.013 0.043 0.634
 0.017 0.044 0.64
 0.021 0.044 0.644
 0.025 0.044 0.651
 0.029 0.045 0.66
 0.033 0.045 0.664
 0.037 0.046 0.669
 0.042 0.046 0.675
 0.046 0.046 0.677
 0.049 0.046 0.675
 0.053 0.046 0.672
 0.056 0.045 0.665
 0.06 0.045 0.663
 0.064 0.045 0.663
 0.068 0.045 0.66
 0.072 0.046 0.668
 0.077 0.046 0.671
 0.083 0.047 0.69
 0.089 0.048 0.704
 0.096 0.05 0.728
 0.102 0.051 0.742
 0.111 0.053 0.77
 0.118 0.055 0.791
 0.127 0.056 0.817
 0.134 0.058 0.832
 0.14 0.058 0.834
 0.143 0.057 0.826
 0.146 0.056 0.811
 0.148 0.055 0.796
 0.151 0.054 0.787
 0.155 0.054 0.783
 0.158 0.054 0.776
 0.162 0.053 0.771
 0.165 0.053 0.764
 0.167 0.052 0.752
 0.168 0.051 0.738
 0.17 0.05 0.728
 0.174 0.05 0.724
 0.177 0.05 0.72
 0.182 0.05 0.719
 0.186 0.05 0.719
 0.191 0.05 0.721
 0.196 0.05 0.723
 0.201 0.05 0.725
 0.207 0.051 0.729
 0.213 0.051 0.735
 0.217 0.051 0.732
 0.221 0.051 0.728
 0.226 0.051 0.729
 0.228 0.05 0.721
 0.228 0.05 0.708
 0.232 0.049 0.704
 0.234 0.049 0.698
 0.234 0.048 0.684
 0.236 0.048 0.678
 0.24 0.048 0.676
 0.243 0.047 0.671
 0.249 0.048 0.674
 0.255 0.048 0.677
 0.26 0.048 0.679
 0.265 0.048 0.68
 0.272 0.049 0.687
 0.277 0.049 0.686
 0.279 0.048 0.68
 0.283 0.048 0.678
 0.287 0.048 0.675
 0.289 0.048 0.669
 0.293 0.048 0.668
 0.296 0.048 0.663
 0.297 0.047 0.654
 0.298 0.047 0.646
 0.299 0.046 0.638
 0.297 0.045 0.624
 0.297 0.044 0.614
 0.299 0.044 0.609
 0.304 0.044 0.609
 0.305 0.044 0.602
 0.309 0.044 0.6
 0.316 0.044 0.606
 0.323 0.045 0.61
 0.331 0.045 0.614
 0.342 0.046 0.626
 0.356 0.048 0.642
 0.364 0.048 0.646
 0.377 0.049 0.66
 0.38 0.049 0.656
 -0.25 0.038 0.443
 -0.287 0.044 0.519
 -0.259 0.04 0.474
 -0.259 0.041 0.481
 -0.261 0.042 0.493
 -0.262 0.042 0.502
 -0.26 0.042 0.506
 -0.262 0.043 0.518
 -0.257 0.043 0.516
 -0.256 0.043 0.523
 -0.257 0.044 0.533
 -0.259 0.045 0.545
 -0.257 0.045 0.549
 -0.259 0.046 0.563
 -0.26 0.047 0.575
 -0.255 0.047 0.575
 -0.255 0.048 0.584
 -0.25 0.047 0.582
 -0.247 0.047 0.583
 -0.239 0.047 0.575
 -0.236 0.047 0.577
 -0.226 0.045 0.562
 -0.224 0.045 0.566
 -0.214 0.044 0.552
 -0.203 0.042 0.53
 -0.203 0.043 0.54
 -0.202 0.044 0.55
 -0.199 0.044 0.551
 -0.202 0.045 0.57
 -0.211 0.048 0.61
 -0.211 0.049 0.62
 -0.204 0.048 0.61
 -0.2 0.048 0.612
 -0.192 0.047 0.599
 -0.184 0.046 0.585
 -0.176 0.045 0.573
 -0.17 0.044 0.563
 -0.166 0.044 0.562
 -0.161 0.043 0.557
 -0.157 0.043 0.554
 -0.152 0.043 0.552
 -0.149 0.043 0.552
 -0.145 0.042 0.55
 0 0 0
 0 0 0
 0 0 0
 0 0 0
 0 0 0
 0 0 0
 0 0 0
 0 0 0
 0 0 0
 0 0 0
 0 0 0
 0 0 0
 0 0 0
 0 0 0
 0 0 0
 0 0 0
 0 0 0
 0 0 0
 0 0 0
 0 0 0
 0 0 0
 0 0 0
 0 0 0
 0 0 0
 0 0 0
 0 0 0
 0 0 0
 0 0 0
 0 0 0
 0 0 0
 0 0 0
 0 0 0
 0 0 0
 -0.032 0.04 0.546
 -0.03 0.041 0.551
 -0.027 0.041 0.558
 -0.024 0.042 0.565
 -0.021 0.042 0.57
 -0.017 0.042 0.572
 -0.014 0.042 0.573
 -0.011 0.042 0.573
 -0.007 0.042 0.573
 -0.004 0.043 0.577
 -0.001 0.043 0.587
 0.002 0.045 0.603
 0.006 0.046 0.619
 0.009 0.047 0.63
 0.013 0.048 0.642
 0.017 0.048 0.651
 0.021 0.049 0.656
 0.025 0.049 0.663
 0.03 0.05 0.672
 0.034 0.05 0.676
 0.038 0.05 0.679
 0.042 0.05 0.679
 0.046 0.05 0.676
 0.049 0.05 0.668
 0.053 0.05 0.667
 0.056 0.049 0.661
 0.06 0.049 0.666
 0.065 0.05 0.674
 0.069 0.05 0.677
 0.074 0.051 0.687
 0.08 0.052 0.698
 0.085 0.053 0.711
 0.091 0.054 0.721
 0.098 0.055 0.741
 0.105 0.057 0.758
 0.113 0.059 0.786
 0.121 0.061 0.809
 0.128 0.062 0.825
 0.134 0.062 0.831
 0.138 0.062 0.824
 0.141 0.061 0.813
 0.143 0.06 0.796
 0.144 0.058 0.778
 0.147 0.057 0.766
 0.15 0.057 0.761
 0.153 0.056 0.749
 0.155 0.055 0.738
 0.157 0.054 0.726
 0.157 0.053 0.708
 0.158 0.052 0.691
 0.159 0.051 0.679
 0.162 0.05 0.672
 0.164 0.05 0.667
 0.168 0.05 0.666
 0.172 0.05 0.665
 0.177 0.05 0.666
 0.181 0.05 0.667
 0.186 0.05 0.668
 0.19 0.05 0.67
 0.196 0.051 0.674
 0.201 0.051 0.676
 0.205 0.051 0.677
 0.21 0.051 0.678
 0.214 0.051 0.676
 0.217 0.051 0.671
 0.22 0.051 0.667
 0.222 0.05 0.661
 0.225 0.05 0.656
 0.228 0.05 0.653
 0.232 0.05 0.652
 0.236 0.05 0.65
 0.241 0.05 0.651
 0.245 0.05 0.652
 0.25 0.05 0.652
 0.254 0.05 0.651
 0.258 0.05 0.651
 0.262 0.05 0.649
 0.265 0.05 0.645
 0.269 0.05 0.643
 0.272 0.05 0.639
 0.274 0.049 0.635
 0.279 0.049 0.635
 0.282 0.049 0.632
 0.284 0.049 0.625
 0.286 0.049 0.62
 0.289 0.048 0.617
 0.288 0.048 0.606
 0.289 0.047 0.598
 0.291 0.047 0.591
 0.294 0.046 0.589
 0.296 0.046 0.584
 0.3 0.046 0.582
 0.306 0.047 0.586
 0.314 0.047 0.592
 0.32 0.048 0.594
 0.328 0.048 0.601
 0.338 0.049 0.61
 0.345 0.05 0.613
 0.376 0.054 0.659
 0.382 0.054 0.659
 0 0 0
 -0.234 0.038 0.42
 -0.257 0.043 0.47
 -0.257 0.043 0.477
 -0.261 0.045 0.491
 -0.265 0.046 0.508
 -0.264 0.046 0.514
 -0.264 0.047 0.522
 -0.259 0.047 0.52
 -0.255 0.047 0.52
 -0.253 0.047 0.524
 -0.256 0.048 0.538
 -0.254 0.048 0.544
 -0.256 0.049 0.556
 -0.258 0.051 0.571
 -0.252 0.05 0.565
 -0.251 0.05 0.573
 -0.245 0.05 0.57
 -0.243 0.05 0.575
 -0.234 0.049 0.561
 -0.232 0.049 0.566
 -0.222 0.048 0.551
 -0.221 0.048 0.559
 -0.207 0.046 0.532
 -0.2 0.045 0.525
 -0.205 0.047 0.546
 -0.201 0.047 0.547
 -0.198 0.047 0.548
 -0.203 0.049 0.575
 -0.212 0.052 0.612
 -0.21 0.053 0.617
 -0.203 0.052 0.609
 -0.2 0.052 0.611
 -0.192 0.051 0.597
 -0.184 0.049 0.584
 -0.176 0.048 0.573
 -0.17 0.047 0.563
 -0.166 0.047 0.562
 -0.161 0.047 0.557
 -0.157 0.046 0.554
 -0.152 0.046 0.55
 -0.149 0.046 0.551
 -0.145 0.046 0.549
 0 0 0
 0 0 0
 0 0 0
 0 0 0
 0 0 0
 0 0 0
 0 0 0
 0 0 0
 0 0 0
 0 0 0
 0 0 0
 0 0 0
 0 0 0
 0 0 0
 0 0 0
 0 0 0
 0 0 0
 0 0 0
 0 0 0
 0 0 0
 0 0 0
 0 0 0
 0 0 0
 0 0 0
 0 0 0
 0 0 0
 0 0 0
 0 0 0
 0 0 0
 0 0 0
 0 0 0
 0 0 0
 -0.035 0.043 0.541
 -0.032 0.044 0.544
 -0.03 0.044 0.551
 -0.027 0.044 0.555
 -0.024 0.045 0.564
 -0.021 0.046 0.575
 -0.017 0.046 0.581
 -0.014 0.047 0.583
 -0.011 0.047 0.583
 -0.007 0.047 0.585
 -0.004 0.047 0.587
 -0.001 0.047 0.593
 0.002 0.049 0.607
 0.006 0.05 0.625
 0.01 0.051 0.637
 0.014 0.052 0.649
 0.018 0.053 0.662
 0.022 0.054 0.668
 0.026 0.054 0.672
 0.03 0.054 0.679
 0.034 0.055 0.68
 0.038 0.054 0.679
 0.042 0.054 0.677
 0.045 0.054 0.674
 0.049 0.054 0.67
 0.053 0.054 0.672
 0.057 0.054 0.669
 0.062 0.054 0.679
 0.067 0.055 0.688
 0.071 0.056 0.692
 0.076 0.056 0.701
 0.082 0.058 0.718
 0.088 0.059 0.728
 0.093 0.059 0.738
 0.1 0.061 0.759
 0.108 0.063 0.779
 0.115 0.064 0.797
 0.122 0.066 0.815
 0.128 0.067 0.824
 0.134 0.067 0.826
 0.138 0.066 0.821
 0.141 0.066 0.813
 0.143 0.065 0.797
 0.146 0.063 0.785
 0.149 0.063 0.777
 0.152 0.062 0.77
 0.155 0.061 0.759
 0.157 0.061 0.748
 0.159 0.059 0.735
 0.159 0.058 0.717
 0.16 0.057 0.7
 0.162 0.056 0.691
 0.164 0.055 0.683
 0.167 0.055 0.679
 0.172 0.055 0.679
 0.176 0.055 0.679
 0.181 0.055 0.681
 0.185 0.055 0.682
 0.19 0.056 0.683
 0.195 0.056 0.685
 0.2 0.056 0.687
 0.204 0.056 0.688
 0.209 0.056 0.689
 0.214 0.056 0.69
 0.218 0.056 0.688
 0.221 0.056 0.685
 0.225 0.056 0.682
 0.228 0.056 0.679
 0.232 0.056 0.677
 0.236 0.056 0.675
 0.24 0.056 0.675
 0.244 0.056 0.674
 0.248 0.056 0.673
 0.252 0.056 0.671
 0.256 0.055 0.667
 0.259 0.055 0.663
 0.262 0.055 0.659
 0.264 0.055 0.654
 0.267 0.054 0.649
 0.269 0.054 0.644
 0.271 0.053 0.639
 0.274 0.053 0.633
 0.276 0.053 0.627
 0.278 0.052 0.623
 0.281 0.052 0.619
 0.284 0.052 0.615
 0.287 0.052 0.612
 0.291 0.052 0.61
 0.294 0.052 0.607
 0.297 0.051 0.604
 0.3 0.051 0.601
 0.304 0.051 0.599
 0.308 0.051 0.599
 0.315 0.052 0.602
 0.323 0.053 0.609
 0.332 0.053 0.616
 0.341 0.054 0.624
 0.35 0.055 0.631
 0.357 0.056 0.635
 0.37 0.057 0.647
 0.37 0.056 0.639
 -0.29 0.051 0.516
 -0.251 0.044 0.451
 -0.258 0.046 0.471
 -0.257 0.047 0.478
 -0.257 0.047 0.485
 -0.262 0.049 0.501
 -0.263 0.049 0.511
 -0.262 0.05 0.517
 -0.258 0.05 0.518
 -0.255 0.05 0.52
 -0.249 0.049 0.515
 -0.249 0.05 0.525
 -0.248 0.05 0.53
 -0.247 0.051 0.537
 -0.252 0.053 0.556
 -0.247 0.052 0.554
 -0.247 0.053 0.563
 -0.241 0.053 0.559
 -0.24 0.053 0.567
 -0.23 0.052 0.552
 -0.229 0.052 0.559
 -0.218 0.05 0.542
 -0.218 0.051 0.552
 -0.204 0.048 0.523
 -0.199 0.048 0.52
 -0.203 0.05 0.542
 -0.2 0.05 0.544
 -0.197 0.05 0.545
 -0.205 0.053 0.578
 -0.213 0.056 0.614
 -0.21 0.056 0.617
 -0.204 0.056 0.61
 -0.2 0.056 0.61
 -0.191 0.054 0.595
 -0.183 0.053 0.582
 -0.176 0.052 0.571
 -0.17 0.051 0.563
 -0.166 0.05 0.561
 -0.161 0.05 0.556
 -0.157 0.05 0.554
 -0.152 0.049 0.55
 -0.149 0.049 0.551
 -0.145 0.049 0.549
 0 0 0
 0 0 0
 0 0 0
 0 0 0
 0 0 0
 0 0 0
 0 0 0
 0 0 0
 0 0 0
 0 0 0
 0 0 0
 0 0 0
 0 0 0
 0 0 0
 0 0 0
 0 0 0
 0 0 0
 0 0 0
 0 0 0
 0 0 0
 0 0 0
 0 0 0
 0 0 0
 0 0 0
 0 0 0
 0 0 0
 0 0 0
 0 0 0
 0 0 0
 0 0 0
 0 0 0
 -0.039 0.047 0.551
 -0.036 0.047 0.547
 -0.033 0.047 0.549
 -0.03 0.048 0.554
 -0.027 0.048 0.557
 -0.024 0.048 0.564
 -0.021 0.05 0.578
 -0.018 0.051 0.588
 -0.014 0.051 0.593
 -0.011 0.051 0.595
 -0.008 0.051 0.597
 -0.004 0.051 0.597
 -0.001 0.052 0.6
 0.002 0.053 0.613
 0.006 0.054 0.63
 0.01 0.055 0.644
 0.014 0.056 0.656
 0.018 0.058 0.669
 0.022 0.058 0.674
 0.026 0.058 0.675
 0.03 0.058 0.678
 0.034 0.058 0.677
 0.038 0.058 0.676
 0.042 0.058 0.675
 0.046 0.058 0.674
 0.049 0.057 0.668
 0.053 0.058 0.671
 0.057 0.058 0.675
 0.062 0.059 0.684
 0.067 0.06 0.692
 0.072 0.061 0.705
 0.078 0.062 0.716
 0.084 0.063 0.731
 0.089 0.064 0.741
 0.095 0.065 0.754
 0.101 0.066 0.767
 0.108 0.068 0.781
 0.114 0.069 0.795
 0.121 0.07 0.81
 0.128 0.071 0.82
 0.133 0.071 0.823
 0.138 0.071 0.821
 0.142 0.071 0.815
 0.145 0.07 0.805
 0.148 0.069 0.797
 0.152 0.069 0.792
 0.156 0.068 0.787
 0.158 0.068 0.777
 0.161 0.067 0.768
 0.164 0.066 0.758
 0.165 0.065 0.743
 0.167 0.064 0.731
 0.17 0.063 0.727
 0.174 0.063 0.723
 0.178 0.063 0.722
 0.184 0.063 0.726
 0.189 0.064 0.729
 0.195 0.064 0.734
 0.201 0.065 0.738
 0.206 0.065 0.743
 0.212 0.065 0.746
 0.218 0.066 0.75
 0.224 0.066 0.754
 0.23 0.067 0.757
 0.235 0.067 0.758
 0.24 0.067 0.759
 0.245 0.067 0.758
 0.249 0.067 0.756
 0.253 0.067 0.754
 0.258 0.067 0.753
 0.263 0.067 0.753
 0.268 0.067 0.753
 0.272 0.067 0.751
 0.277 0.067 0.749
 0.28 0.067 0.746
 0.284 0.066 0.741
 0.287 0.066 0.735
 0.29 0.066 0.73
 0.292 0.065 0.724
 0.294 0.065 0.716
 0.296 0.064 0.709
 0.298 0.063 0.702
 0.3 0.063 0.695
 0.302 0.062 0.687
 0.305 0.062 0.682
 0.307 0.062 0.677
 0.311 0.061 0.673
 0.314 0.061 0.67
 0.318 0.061 0.668
 0.323 0.061 0.667
 0.326 0.061 0.664
 0.331 0.061 0.662
 0.336 0.061 0.662
 0.341 0.061 0.663
 0.349 0.062 0.668
 0.358 0.063 0.676
 0.368 0.064 0.684
 0.378 0.065 0.692
 0.388 0.066 0.7
 0.396 0.067 0.704
 0.266 0.043 0.464
 0.267 0.043 0.458
 -0.25 0.046 0.443
 0 0 0
 -0.253 0.048 0.462
 -0.251 0.048 0.466
 -0.255 0.05 0.479
 -0.256 0.051 0.49
 -0.257 0.052 0.499
 -0.26 0.053 0.513
 -0.262 0.054 0.525
 -0.256 0.053 0.521
 -0.249 0.053 0.515
 -0.248 0.053 0.522
 -0.246 0.053 0.526
 -0.246 0.054 0.533
 -0.248 0.055 0.547
 -0.243 0.055 0.546
 -0.244 0.056 0.556
 -0.235 0.055 0.545
 -0.233 0.055 0.551
 -0.223 0.053 0.536
 -0.221 0.054 0.54
 -0.21 0.052 0.522
 -0.212 0.053 0.535
 -0.2 0.05 0.513
 -0.199 0.051 0.521
 -0.203 0.053 0.542
 -0.2 0.053 0.543
 -0.197 0.053 0.544
 -0.205 0.057 0.578
 -0.213 0.06 0.613
 -0.209 0.06 0.615
 -0.204 0.059 0.61
 -0.199 0.059 0.608
 -0.191 0.058 0.594
 -0.183 0.056 0.581
 -0.176 0.055 0.571
 -0.17 0.054 0.564
 -0.166 0.054 0.562
 -0.161 0.053 0.556
 -0.157 0.053 0.554
 -0.152 0.053 0.551
 -0.149 0.053 0.552
 -0.145 0.052 0.549
 0 0 0
 0 0 0
 0 0 0
 0 0 0
 0 0 0
 0 0 0
 0 0 0
 0 0 0
 0 0 0
 0 0 0
 0 0 0
 0 0 0
 0 0 0
 0 0 0
 0 0 0
 0 0 0
 0 0 0
 0 0 0
 0 0 0
 0 0 0
 0 0 0
 0 0 0
 0 0 0
 0 0 0
 0 0 0
 0 0 0
 0 0 0
 0 0 0
 -0.051 0.053 0.576
 -0.048 0.053 0.578
 -0.044 0.053 0.573
 -0.04 0.052 0.566
 -0.037 0.051 0.56
 -0.033 0.051 0.557
 -0.03 0.051 0.56
 -0.027 0.052 0.563
 -0.024 0.052 0.57
 -0.021 0.054 0.585
 -0.018 0.055 0.598
 -0.015 0.056 0.605
 -0.011 0.056 0.607
 -0.008 0.056 0.609
 -0.004 0.056 0.609
 -0.001 0.056 0.611
 0.002 0.057 0.62
 0.006 0.058 0.634
 0.01 0.059 0.647
 0.014 0.06 0.657
 0.018 0.061 0.667
 0.022 0.062 0.671
 0.026 0.062 0.67
 0.03 0.062 0.671
 0.034 0.062 0.671
 0.038 0.062 0.671
 0.041 0.062 0.671
 0.045 0.062 0.671
 0.049 0.061 0.668
 0.053 0.062 0.67
 0.057 0.062 0.674
 0.062 0.063 0.683
 0.067 0.064 0.692
 0.072 0.065 0.704
 0.078 0.066 0.718
 0.084 0.067 0.731
 0.089 0.069 0.743
 0.095 0.07 0.754
 0.101 0.071 0.765
 0.108 0.072 0.778
 0.114 0.073 0.792
 0.121 0.075 0.806
 0.127 0.076 0.816
 0.133 0.076 0.821
 0.138 0.076 0.821
 0.142 0.076 0.819
 0.146 0.076 0.814
 0.15 0.075 0.81
 0.155 0.075 0.808
 0.159 0.075 0.805
 0.163 0.074 0.797
 0.166 0.074 0.791
 0.169 0.073 0.784
 0.172 0.072 0.774
 0.175 0.071 0.768
 0.18 0.072 0.768
 0.185 0.072 0.768
 0.19 0.072 0.771
 0.197 0.073 0.777
 0.203 0.073 0.784
 0.21 0.074 0.79
 0.217 0.075 0.797
 0.224 0.075 0.804
 0.23 0.076 0.81
 0.237 0.077 0.816
 0.244 0.077 0.822
 0.251 0.078 0.826
 0.257 0.078 0.829
 0.263 0.079 0.83
 0.268 0.079 0.83
 0.273 0.079 0.829
 0.278 0.079 0.829
 0.284 0.079 0.829
 0.29 0.079 0.831
 0.296 0.079 0.831
 0.301 0.079 0.83
 0.306 0.079 0.828
 0.31 0.079 0.824
 0.313 0.078 0.817
 0.316 0.078 0.81
 0.319 0.077 0.803
 0.322 0.077 0.797
 0.324 0.076 0.788
 0.326 0.075 0.779
 0.327 0.075 0.77
 0.329 0.074 0.762
 0.331 0.073 0.753
 0.333 0.073 0.747
 0.336 0.072 0.741
 0.34 0.072 0.737
 0.344 0.072 0.734
 0.349 0.072 0.732
 0.354 0.072 0.731
 0.358 0.072 0.729
 0.364 0.072 0.729
 0.37 0.072 0.73
 0.378 0.073 0.734
 0.387 0.074 0.741
 0.398 0.075 0.751
 0.41 0.076 0.762
 0.422 0.078 0.772
 0.432 0.079 0.78
 0.442 0.08 0.785
 0.437 0.078 0.764
 0.449 0.079 0.775
 -0.238 0.047 0.42
 0 0 0
 -0.253 0.051 0.462
 -0.25 0.051 0.463
 -0.244 0.05 0.459
 -0.245 0.051 0.467
 -0.249 0.053 0.482
 -0.254 0.055 0.502
 -0.258 0.056 0.518
 -0.257 0.057 0.523
 -0.246 0.055 0.508
 -0.242 0.055 0.509
 -0.239 0.055 0.511
 -0.242 0.056 0.525
 -0.244 0.058 0.538
 -0.239 0.057 0.535
 -0.237 0.058 0.541
 -0.231 0.057 0.536
 -0.229 0.057 0.539
 -0.22 0.056 0.526
 -0.218 0.056 0.532
 -0.21 0.055 0.52
 -0.209 0.055 0.526
 -0.197 0.053 0.506
 -0.199 0.054 0.519
 -0.201 0.056 0.536
 -0.198 0.056 0.538
 -0.197 0.057 0.544
 -0.206 0.06 0.58
 -0.213 0.064 0.613
 -0.209 0.064 0.613
 -0.204 0.063 0.611
 -0.198 0.063 0.606
 -0.19 0.061 0.593
 -0.183 0.06 0.58
 -0.176 0.058 0.57
 -0.171 0.058 0.564
 -0.166 0.057 0.562
 -0.161 0.057 0.556
 -0.157 0.056 0.554
 -0.153 0.056 0.551
 -0.149 0.056 0.552
 -0.145 0.056 0.549
 0 0 0
 0 0 0
 0 0 0
 0 0 0
 0 0 0
 0 0 0
 0 0 0
 0 0 0
 0 0 0
 0 0 0
 0 0 0
 0 0 0
 0 0 0
 0 0 0
 0 0 0
 0 0 0
 0 0 0
 0 0 0
 0 0 0
 0 0 0
 0 0 0
 0 0 0
 0 0 0
 0 0 0
 0 0 0
 -0.061 0.056 0.57
 -0.058 0.056 0.574
 -0.054 0.057 0.577
 -0.051 0.057 0.581
 -0.048 0.057 0.584
 -0.045 0.057 0.581
 -0.041 0.056 0.575
 -0.037 0.056 0.57
 -0.034 0.056 0.567
 -0.03 0.055 0.567
 -0.027 0.056 0.571
 -0.024 0.057 0.579
 -0.021 0.058 0.594
 -0.018 0.059 0.608
 -0.015 0.06 0.617
 -0.011 0.061 0.62
 -0.008 0.061 0.621
 -0.004 0.061 0.62
 -0.001 0.06 0.619
 0.002 0.061 0.623
 0.006 0.062 0.632
 0.01 0.063 0.642
 0.014 0.064 0.651
 0.018 0.064 0.658
 0.022 0.065 0.662
 0.025 0.065 0.663
 0.029 0.065 0.663
 0.033 0.065 0.663
 0.037 0.065 0.664
 0.041 0.065 0.665
 0.045 0.065 0.665
 0.049 0.065 0.666
 0.053 0.065 0.667
 0.057 0.066 0.671
 0.062 0.066 0.677
 0.067 0.067 0.687
 0.072 0.068 0.699
 0.077 0.07 0.712
 0.083 0.071 0.724
 0.089 0.072 0.737
 0.095 0.074 0.749
 0.101 0.075 0.761
 0.107 0.076 0.774
 0.114 0.078 0.788
 0.12 0.079 0.802
 0.127 0.08 0.813
 0.133 0.081 0.821
 0.139 0.081 0.825
 0.144 0.082 0.828
 0.149 0.082 0.828
 0.154 0.082 0.828
 0.159 0.082 0.828
 0.164 0.082 0.827
 0.168 0.081 0.823
 0.173 0.081 0.822
 0.177 0.081 0.819
 0.181 0.081 0.816
 0.186 0.081 0.816
 0.193 0.082 0.821
 0.199 0.082 0.825
 0.206 0.083 0.833
 0.213 0.084 0.843
 0.221 0.085 0.853
 0.229 0.086 0.863
 0.237 0.087 0.873
 0.245 0.088 0.882
 0.253 0.089 0.89
 0.261 0.09 0.898
 0.269 0.091 0.906
 0.277 0.092 0.912
 0.284 0.092 0.916
 0.291 0.093 0.918
 0.297 0.093 0.92
 0.303 0.093 0.92
 0.309 0.093 0.921
 0.316 0.094 0.923
 0.323 0.094 0.925
 0.329 0.094 0.926
 0.335 0.094 0.925
 0.34 0.094 0.922
 0.345 0.094 0.916
 0.348 0.093 0.909
 0.351 0.092 0.9
 0.354 0.092 0.892
 0.357 0.091 0.884
 0.359 0.09 0.874
 0.36 0.089 0.862
 0.362 0.088 0.851
 0.363 0.087 0.841
 0.365 0.086 0.831
 0.368 0.086 0.824
 0.371 0.085 0.818
 0.375 0.085 0.813
 0.38 0.085 0.81
 0.384 0.085 0.807
 0.39 0.085 0.806
 0.395 0.085 0.805
 0.402 0.085 0.805
 0.41 0.086 0.809
 0.42 0.087 0.816
 0.431 0.088 0.825
 0.444 0.089 0.837
 0.457 0.091 0.85
 0.47 0.093 0.861
 0.482 0.094 0.869
 0.492 0.095 0.875
 0.578 0.11 1.014
 0.582 0.11 1.006
 -0.217 0.045 0.383
 -0.266 0.057 0.479
 -0.255 0.055 0.464
 -0.254 0.055 0.47
 -0.246 0.054 0.461
 -0.235 0.052 0.447
 -0.235 0.053 0.455
 -0.234 0.053 0.46
 -0.243 0.056 0.486
 -0.243 0.057 0.494
 -0.239 0.056 0.492
 -0.229 0.055 0.48
 -0.231 0.056 0.492
 -0.234 0.058 0.507
 -0.237 0.059 0.523
 -0.233 0.059 0.521
 -0.232 0.06 0.528
 -0.227 0.059 0.525
 -0.224 0.059 0.528
 -0.217 0.058 0.52
 -0.215 0.059 0.524
 -0.209 0.058 0.518
 -0.211 0.059 0.532
 -0.203 0.058 0.521
 -0.203 0.059 0.532
 -0.204 0.06 0.543
 -0.201 0.06 0.544
 -0.199 0.061 0.551
 -0.208 0.065 0.587
 -0.214 0.068 0.615
 -0.209 0.067 0.612
 -0.204 0.067 0.611
 -0.198 0.066 0.604
 -0.19 0.065 0.591
 -0.182 0.063 0.579
 -0.176 0.062 0.569
 -0.171 0.061 0.565
 -0.166 0.061 0.562
 -0.161 0.06 0.556
 -0.157 0.06 0.553
 -0.153 0.059 0.551
 -0.149 0.059 0.551
 -0.145 0.059 0.549
 -0.141 0.059 0.548
 0 0 0
 0 0 0
 0 0 0
 0 0 0
 0 0 0
 0 0 0
 0 0 0
 0 0 0
 0 0 0
 0 0 0
 0 0 0
 0 0 0
 0 0 0
 0 0 0
 0 0 0
 0 0 0
 0 0 0
 0 0 0
 0 0 0
 0 0 0
 0 0 0
 0 0 0
 0 0 0
 -0.065 0.06 0.577
 -0.061 0.06 0.578
 -0.058 0.061 0.581
 -0.055 0.061 0.584
 -0.052 0.061 0.587
 -0.049 0.061 0.59
 -0.045 0.061 0.587
 -0.041 0.061 0.584
 -0.038 0.06 0.581
 -0.034 0.06 0.577
 -0.031 0.06 0.577
 -0.028 0.06 0.581
 -0.025 0.061 0.589
 -0.022 0.062 0.602
 -0.018 0.064 0.617
 -0.015 0.065 0.628
 -0.012 0.066 0.632
 -0.008 0.065 0.631
 -0.004 0.065 0.626
 0 0.064 0.621
 0.002 0.064 0.619
 0.006 0.064 0.623
 0.01 0.065 0.631
 0.013 0.066 0.639
 0.017 0.067 0.647
 0.021 0.068 0.652
 0.025 0.068 0.653
 0.029 0.068 0.652
 0.033 0.068 0.653
 0.037 0.068 0.653
 0.04 0.068 0.655
 0.044 0.068 0.657
 0.048 0.068 0.658
 0.052 0.068 0.659
 0.056 0.068 0.661
 0.061 0.069 0.666
 0.065 0.07 0.675
 0.071 0.071 0.686
 0.076 0.073 0.7
 0.082 0.074 0.715
 0.088 0.076 0.73
 0.094 0.077 0.743
 0.1 0.079 0.756
 0.107 0.08 0.77
 0.113 0.082 0.784
 0.12 0.083 0.798
 0.127 0.085 0.812
 0.133 0.086 0.823
 0.14 0.087 0.832
 0.146 0.088 0.84
 0.152 0.089 0.845
 0.158 0.089 0.849
 0.164 0.089 0.852
 0.169 0.09 0.855
 0.175 0.09 0.857
 0.181 0.091 0.861
 0.187 0.091 0.866
 0.194 0.092 0.871
 0.201 0.093 0.878
 0.209 0.094 0.889
 0.216 0.095 0.899
 0.225 0.096 0.911
 0.234 0.098 0.926
 0.244 0.1 0.94
 0.254 0.101 0.954
 0.263 0.103 0.968
 0.273 0.104 0.982
 0.283 0.106 0.993
 0.292 0.107 1.003
 0.301 0.108 1.014
 0.31 0.109 1.021
 0.318 0.11 1.027
 0.326 0.111 1.031
 0.334 0.111 1.035
 0.341 0.111 1.036
 0.349 0.112 1.038
 0.357 0.112 1.042
 0.365 0.113 1.046
 0.373 0.113 1.048
 0.38 0.113 1.047
 0.385 0.113 1.044
 0.39 0.113 1.038
 0.394 0.112 1.03
 0.398 0.111 1.021
 0.402 0.111 1.012
 0.405 0.11 1.004
 0.407 0.109 0.991
 0.409 0.107 0.979
 0.411 0.106 0.967
 0.413 0.105 0.955
 0.415 0.104 0.945
 0.418 0.104 0.937
 0.421 0.103 0.929
 0.426 0.103 0.923
 0.431 0.102 0.919
 0.436 0.102 0.916
 0.442 0.102 0.915
 0.449 0.103 0.915
 0.458 0.103 0.917
 0.468 0.104 0.924
 0.48 0.105 0.933
 0.494 0.107 0.946
 0.509 0.109 0.96
 0.524 0.111 0.975
 0.54 0.113 0.988
 0.553 0.114 0.998
 0.566 0.116 1.006
 0.608 0.123 1.065
 0.619 0.124 1.069
 -0.247 0.055 0.437
 -0.285 0.064 0.512
 -0.254 0.058 0.463
 -0.252 0.058 0.466
 -0.247 0.057 0.464
 -0.236 0.055 0.449
 -0.23 0.054 0.444
 -0.227 0.054 0.446
 -0.243 0.059 0.486
 -0.245 0.061 0.498
 -0.239 0.06 0.494
 -0.233 0.059 0.488
 0 0 0
 0 0 0
 -0.228 0.06 0.502
 -0.225 0.06 0.504
 -0.224 0.061 0.509
 -0.221 0.061 0.512
 -0.22 0.061 0.517
 -0.214 0.061 0.513
 -0.212 0.061 0.517
 -0.209 0.061 0.517
 -0.209 0.062 0.528
 -0.205 0.062 0.525
 -0.204 0.062 0.533
 -0.203 0.063 0.539
 -0.199 0.063 0.541
 -0.2 0.064 0.552
 -0.208 0.068 0.586
 -0.214 0.071 0.614
 -0.208 0.071 0.61
 -0.204 0.071 0.612
 -0.197 0.07 0.602
 -0.19 0.068 0.59
 -0.182 0.066 0.578
 -0.176 0.065 0.568
 -0.171 0.065 0.566
 -0.166 0.064 0.562
 -0.161 0.063 0.556
 -0.157 0.063 0.554
 -0.153 0.063 0.552
 -0.149 0.063 0.551
 -0.145 0.062 0.549
 -0.142 0.062 0.55
 0 0 0
 0 0 0
 0 0 0
 0 0 0
 0 0 0
 0 0 0
 0 0 0
 0 0 0
 0 0 0
 0 0 0
 0 0 0
 0 0 0
 0 0 0
 0 0 0
 0 0 0
 0 0 0
 0 0 0
 -0.083 0.063 0.564
 -0.08 0.063 0.566
 -0.077 0.063 0.569
 -0.074 0.063 0.572
 -0.071 0.063 0.574
 -0.068 0.064 0.576
 -0.065 0.064 0.579
 -0.062 0.064 0.581
 -0.059 0.064 0.584
 -0.055 0.065 0.587
 -0.052 0.065 0.591
 -0.049 0.065 0.594
 -0.046 0.065 0.595
 -0.042 0.065 0.593
 -0.038 0.065 0.592
 -0.035 0.065 0.589
 -0.031 0.065 0.589
 -0.028 0.065 0.592
 -0.025 0.066 0.598
 -0.022 0.067 0.608
 -0.019 0.068 0.621
 -0.015 0.069 0.631
 -0.012 0.07 0.635
 -0.008 0.069 0.632
 -0.004 0.069 0.625
 0 0.068 0.619
 0.002 0.067 0.613
 0.006 0.067 0.613
 0.009 0.068 0.619
 0.013 0.069 0.627
 0.017 0.069 0.632
 0.021 0.07 0.637
 0.025 0.07 0.639
 0.028 0.07 0.64
 0.032 0.07 0.641
 0.036 0.07 0.643
 0.04 0.071 0.645
 0.044 0.071 0.646
 0.047 0.071 0.645
 0.051 0.07 0.644
 0.055 0.071 0.646
 0.059 0.071 0.651
 0.064 0.072 0.661
 0.069 0.074 0.675
 0.075 0.076 0.692
 0.081 0.078 0.709
 0.087 0.08 0.725
 0.094 0.081 0.739
 0.1 0.083 0.752
 0.106 0.084 0.766
 0.113 0.086 0.779
 0.119 0.088 0.793
 0.126 0.089 0.807
 0.133 0.091 0.82
 0.14 0.092 0.83
 0.146 0.093 0.839
 0.153 0.094 0.847
 0.159 0.094 0.853
 0.165 0.095 0.858
 0.171 0.096 0.863
 0.177 0.096 0.868
 0.184 0.097 0.875
 0.191 0.098 0.884
 0.199 0.1 0.895
 0.207 0.101 0.906
 0.216 0.103 0.921
 0.226 0.105 0.936
 0.235 0.107 0.953
 0.246 0.109 0.97
 0.257 0.111 0.989
 0.267 0.113 1.006
 0.279 0.115 1.024
 0.289 0.117 1.04
 0.3 0.119 1.055
 0.311 0.12 1.067
 0.321 0.122 1.08
 0.331 0.123 1.089
 0.34 0.124 1.096
 0.349 0.125 1.102
 0.358 0.126 1.107
 0.366 0.126 1.11
 0.375 0.127 1.115
 0.384 0.128 1.12
 0.393 0.129 1.125
 0.401 0.129 1.128
 0.409 0.129 1.128
 0.416 0.129 1.125
 0.421 0.129 1.12
 0.426 0.128 1.113
 0.431 0.128 1.106
 0.436 0.127 1.099
 0.44 0.126 1.091
 0.444 0.125 1.08
 0.447 0.124 1.069
 0.449 0.123 1.057
 0.452 0.122 1.046
 0.455 0.121 1.035
 0.459 0.12 1.027
 0.462 0.12 1.019
 0.467 0.119 1.012
 0.471 0.119 1.006
 0.477 0.118 1.002
 0.483 0.118 0.999
 0.491 0.119 1
 0.501 0.119 1.004
 0.512 0.121 1.01
 0.525 0.122 1.02
 0.54 0.124 1.033
 0.554 0.126 1.045
 0.569 0.128 1.057
 0.583 0.129 1.068
 0.597 0.131 1.077
 0.61 0.132 1.084
 0.627 0.134 1.098
 0.641 0.136 1.108
 -0.254 0.059 0.449
 -0.284 0.067 0.512
 -0.252 0.06 0.458
 -0.247 0.059 0.457
 -0.242 0.059 0.455
 -0.226 0.055 0.429
 -0.221 0.055 0.427
 0 0 0
 0 0 0
 0 0 0
 0 0 0
 0 0 0
 0 0 0
 0 0 0
 0 0 0
 -0.228 0.064 0.511
 -0.227 0.065 0.515
 -0.223 0.065 0.516
 -0.219 0.064 0.515
 -0.216 0.064 0.515
 -0.212 0.064 0.514
 -0.207 0.063 0.511
 -0.208 0.065 0.525
 -0.207 0.066 0.532
 -0.206 0.067 0.539
 -0.203 0.067 0.54
 -0.2 0.067 0.541
 -0.203 0.069 0.56
 -0.209 0.072 0.589
 -0.213 0.075 0.613
 -0.208 0.074 0.609
 -0.204 0.074 0.61
 -0.197 0.073 0.6
 -0.189 0.071 0.588
 -0.182 0.07 0.576
 -0.176 0.069 0.568
 -0.171 0.068 0.566
 -0.166 0.068 0.562
 -0.161 0.067 0.557
 -0.157 0.067 0.555
 -0.153 0.066 0.554
 -0.15 0.066 0.553
 -0.146 0.066 0.552
 -0.143 0.066 0.552
 -0.139 0.066 0.553
 -0.136 0.066 0.552
 -0.132 0.065 0.551
 -0.128 0.065 0.549
 -0.124 0.065 0.547
 -0.121 0.065 0.548
 -0.118 0.065 0.547
 -0.115 0.065 0.55
 -0.112 0.065 0.552
 -0.109 0.065 0.555
 -0.106 0.066 0.56
 -0.104 0.066 0.563
 -0.1 0.066 0.565
 -0.098 0.067 0.567
 -0.094 0.067 0.569
 -0.091 0.067 0.568
 -0.088 0.067 0.569
 -0.084 0.066 0.569
 -0.081 0.066 0.57
 -0.078 0.067 0.572
 -0.075 0.067 0.573
 -0.072 0.067 0.577
 -0.068 0.067 0.579
 -0.065 0.068 0.582
 -0.062 0.068 0.585
 -0.059 0.068 0.588
 -0.056 0.069 0.591
 -0.053 0.069 0.595
 -0.049 0.069 0.598
 -0.046 0.07 0.6
 -0.043 0.07 0.601
 -0.039 0.07 0.601
 -0.035 0.069 0.6
 -0.032 0.069 0.6
 -0.029 0.07 0.602
 -0.025 0.07 0.607
 -0.022 0.071 0.613
 -0.019 0.072 0.622
 -0.015 0.073 0.63
 -0.011 0.073 0.631
 -0.008 0.072 0.626
 -0.004 0.072 0.62
 0 0.071 0.612
 0.002 0.07 0.604
 0.006 0.069 0.602
 0.009 0.07 0.606
 0.013 0.071 0.612
 0.017 0.071 0.617
 0.02 0.072 0.622
 0.024 0.072 0.626
 0.028 0.072 0.629
 0.032 0.073 0.63
 0.035 0.073 0.631
 0.039 0.073 0.631
 0.043 0.073 0.631
 0.046 0.073 0.631
 0.05 0.073 0.63
 0.054 0.073 0.633
 0.058 0.074 0.64
 0.063 0.075 0.652
 0.069 0.077 0.667
 0.075 0.079 0.686
 0.081 0.081 0.704
 0.087 0.083 0.721
 0.093 0.085 0.735
 0.099 0.087 0.749
 0.106 0.088 0.762
 0.112 0.09 0.775
 0.119 0.092 0.789
 0.126 0.093 0.803
 0.132 0.095 0.815
 0.139 0.096 0.826
 0.145 0.097 0.835
 0.152 0.098 0.843
 0.158 0.099 0.849
 0.164 0.1 0.854
 0.171 0.101 0.861
 0.177 0.101 0.867
 0.184 0.102 0.875
 0.192 0.104 0.884
 0.2 0.105 0.897
 0.208 0.107 0.91
 0.218 0.109 0.927
 0.227 0.111 0.943
 0.238 0.113 0.962
 0.249 0.116 0.982
 0.26 0.118 1.002
 0.272 0.121 1.021
 0.283 0.123 1.04
 0.295 0.125 1.058
 0.306 0.128 1.074
 0.317 0.129 1.087
 0.327 0.131 1.1
 0.337 0.132 1.11
 0.347 0.134 1.118
 0.356 0.134 1.124
 0.365 0.135 1.131
 0.374 0.136 1.135
 0.383 0.137 1.14
 0.393 0.138 1.146
 0.402 0.139 1.151
 0.411 0.139 1.154
 0.419 0.139 1.154
 0.426 0.139 1.151
 0.431 0.139 1.146
 0.436 0.138 1.139
 0.442 0.138 1.132
 0.446 0.137 1.124
 0.451 0.136 1.115
 0.454 0.135 1.105
