 -0.697 -1.609 4.052
 -0.686 -1.612 4.061
 -0.675 -1.617 4.076
 -0.664 -1.62 4.085
 -0.652 -1.622 4.091
 -0.639 -1.621 4.09
 -0.627 -1.622 4.093
 -0.614 -1.621 4.092
 -0.602 -1.623 4.098
 -0.591 -1.625 4.106
 -0.579 -1.628 4.115
 -0.567 -1.628 4.116
 -0.554 -1.628 4.118
 -0.541 -1.626 4.113
 -0.528 -1.624 4.109
 -0.514 -1.621 4.102
 -0.501 -1.62 4.1
 -0.489 -1.619 4.101
 -0.476 -1.618 4.098
 -0.464 -1.619 4.102
 -0.451 -1.619 4.104
 -0.439 -1.62 4.106
 -0.426 -1.62 4.107
 -0.414 -1.62 4.109
 -0.402 -1.623 4.118
 -0.39 -1.623 4.117
 -0.377 -1.622 4.116
 -0.364 -1.621 4.114
 -0.351 -1.619 4.111
 -0.338 -1.615 4.1
 -0.325 -1.614 4.099
 -0.314 -1.617 4.107
 -0.301 -1.615 4.102
 -0.288 -1.615 4.102
 -0.276 -1.616 4.106
 -0.264 -1.617 4.109
 -0.251 -1.615 4.105
 -0.238 -1.614 4.104
 -0.226 -1.617 4.111
 -0.214 -1.618 4.113
 -0.202 -1.621 4.121
 -0.189 -1.617 4.112
 -0.177 -1.617 4.113
 -0.164 -1.615 4.108
 -0.152 -1.615 4.109
 -0.139 -1.612 4.099
 -0.127 -1.616 4.11
 -0.114 -1.618 4.117
 -0.102 -1.621 4.123
 -0.09 -1.619 4.118
 -0.077 -1.618 4.115
 -0.065 -1.618 4.116
 -0.052 -1.616 4.112
 -0.04 -1.616 4.11
 -0.027 -1.617 4.114
 -0.015 -1.619 4.118
 -0.003 -1.615 4.108
 0.009 -1.615 4.108
 0.021 -1.615 4.107
 0.034 -1.614 4.105
 0.046 -1.613 4.102
 0.059 -1.618 4.116
 0.071 -1.622 4.123
 0.084 -1.623 4.128
 0.096 -1.625 4.133
 0.109 -1.627 4.137
 0.121 -1.625 4.13
 0.133 -1.621 4.12
 0.146 -1.62 4.117
 0.158 -1.618 4.111
 0.17 -1.614 4.101
 0.183 -1.615 4.102
 0.195 -1.615 4.101
 0.207 -1.615 4.1
 0.22 -1.614 4.099
 0.232 -1.615 4.099
 0.244 -1.613 4.094
 0.257 -1.617 4.102
 0.27 -1.617 4.104
 0.282 -1.618 4.105
 0.295 -1.622 4.113
 0.308 -1.622 4.114
 0.32 -1.622 4.112
 0.333 -1.622 4.109
 0.345 -1.619 4.103
 0.357 -1.619 4.1
 0.37 -1.621 4.105
 0.382 -1.619 4.099
 0.394 -1.619 4.098
 0.407 -1.622 4.104
 0.42 -1.623 4.106
 0.432 -1.62 4.096
 0.444 -1.618 4.091
 0.456 -1.617 4.087
 0.468 -1.618 4.088
 0.48 -1.615 4.079
 0.493 -1.616 4.08
 0.505 -1.617 4.081
 0.517 -1.616 4.076
 0.529 -1.615 4.071
 0.543 -1.619 4.08
 0.556 -1.62 4.082
 0.569 -1.622 4.084
 0.583 -1.627 4.096
 0.595 -1.624 4.088
 0.606 -1.622 4.079
 0.619 -1.622 4.079
 0.631 -1.621 4.075
 0.642 -1.618 4.064
 0.655 -1.62 4.068
 0.666 -1.618 4.06
 0.679 -1.619 4.061
 0.693 -1.623 4.069
 0.707 -1.625 4.072
 0.719 -1.625 4.071
 0.734 -1.629 4.079
 0.745 -1.628 4.074
 0.756 -1.625 4.064
 0.769 -1.624 4.061
 0.781 -1.625 4.059
 0.792 -1.622 4.051
 0.804 -1.621 4.046
 0.816 -1.62 4.042
 0.829 -1.622 4.043
 0.841 -1.621 4.039
 0.855 -1.623 4.041
 0.869 -1.626 4.046
 0.882 -1.628 4.049
 0.896 -1.63 4.051
 0.908 -1.629 4.047
 0.919 -1.627 4.038
 0.931 -1.626 4.033
 0.944 -1.627 4.033
 0.954 -1.622 4.019
 0.967 -1.624 4.019
 0.981 -1.627 4.024
 0.994 -1.628 4.025
 1.006 -1.627 4.018
 1.019 -1.628 4.019
 1.031 -1.627 4.015
 1.046 -1.631 4.021
 1.059 -1.632 4.019
 1.073 -1.635 4.023
 1.087 -1.637 4.025
 1.1 -1.638 4.026
 1.111 -1.635 4.015
 1.121 -1.632 4.005
 1.131 -1.629 3.992
 1.141 -1.624 3.978
 1.154 -1.625 3.978
 1.167 -1.627 3.978
 1.183 -1.632 3.987
 1.197 -1.633 3.987
 1.211 -1.636 3.991
 1.222 -1.634 3.981
 1.234 -1.633 3.976
 1.244 -1.63 3.966
 1.256 -1.63 3.96
 1.269 -1.63 3.958
 1.285 -1.635 3.966
 1.298 -1.635 3.963
 1.311 -1.636 3.961
 1.326 -1.638 3.963
 1.341 -1.642 3.968
 1.352 -1.64 3.959
 1.366 -1.642 3.959
 1.377 -1.641 3.953
 1.389 -1.64 3.946
 1.401 -1.639 3.941
 1.413 -1.638 3.935
 1.424 -1.637 3.927
 1.437 -1.638 3.925
 1.448 -1.636 3.916
 1.458 -1.633 3.905
 1.472 -1.635 3.905
 1.481 -1.631 3.892
 1.496 -1.633 3.893
 1.509 -1.634 3.891
 1.523 -1.636 3.89
 1.533 -1.633 3.88
 1.546 -1.634 3.878
 1.556 -1.632 3.867
 1.57 -1.633 3.866
 1.583 -1.634 3.862
 1.597 -1.636 3.862
 1.608 -1.634 3.854
 1.621 -1.634 3.849
 1.632 -1.633 3.842
 1.647 -1.636 3.843
 1.658 -1.634 3.834
 1.673 -1.637 3.835
 1.685 -1.636 3.83
 1.695 -1.634 3.82
 1.703 -1.629 3.803
 1.714 -1.628 3.795
 1.724 -1.626 3.786
 1.738 -1.627 3.783
 1.748 -1.626 3.774
 1.761 -1.626 3.769
 1.774 -1.626 3.765
 1.79 -1.63 3.769
 1.802 -1.63 3.762
 1.815 -1.63 3.758
 1.827 -1.63 3.751
 1.838 -1.628 3.742
 1.838 -1.618 3.713
 1.845 -1.613 3.696
 1.851 -1.608 3.679
 1.857 -1.602 3.659
 1.861 -1.595 3.639
 1.867 -1.59 3.621
 1.867 -1.58 3.592
 1.866 -1.569 3.561
 1.866 -1.56 3.534
 1.869 -1.552 3.511
 1.865 -1.539 3.476
 1.866 -1.53 3.45
 1.867 -1.521 3.425
 1.867 -1.512 3.398
 1.869 -1.504 3.375
 1.877 -1.502 3.363
 1.865 -1.483 3.316
 1.841 -1.455 3.247
 1.826 -1.435 3.197
 1.827 -1.427 3.173
 1.828 -1.42 3.151
 1.832 -1.414 3.134
 1.841 -1.413 3.126
 1.841 -1.405 3.102
 1.843 -1.398 3.082
 1.84 -1.388 3.054
 1.838 -1.379 3.026
 1.829 -1.365 2.99
 1.874 -1.39 3.041
 1.796 -1.325 2.891
 0 0 0
 -2.162 -1.609 3.636
 -2.181 -1.633 3.696
 -2.167 -1.633 3.701
 -2.163 -1.639 3.722
 -2.147 -1.636 3.722
 -2.127 -1.631 3.717
 -2.111 -1.628 3.716
 -2.1 -1.63 3.726
 -2.086 -1.629 3.731
 -2.079 -1.634 3.747
 -2.064 -1.632 3.749
 -2.055 -1.635 3.762
 -2.041 -1.634 3.765
 -2.028 -1.634 3.771
 -2.016 -1.635 3.779
 -2.009 -1.64 3.795
 -1.994 -1.637 3.796
 -1.979 -1.636 3.799
 -1.966 -1.636 3.804
 -1.95 -1.633 3.803
 -1.937 -1.633 3.808
 -1.922 -1.631 3.809
 -1.91 -1.632 3.816
 -1.894 -1.629 3.815
 -1.88 -1.628 3.817
 -1.865 -1.626 3.818
 -1.858 -1.631 3.836
 -1.847 -1.633 3.845
 -1.837 -1.635 3.857
 -1.827 -1.638 3.868
 -1.819 -1.642 3.883
 -1.804 -1.64 3.883
 -1.786 -1.635 3.876
 -1.772 -1.634 3.879
 -1.756 -1.631 3.877
 -1.742 -1.63 3.88
 -1.728 -1.629 3.882
 -1.721 -1.634 3.899
 -1.707 -1.633 3.901
 -1.697 -1.636 3.913
 -1.681 -1.633 3.91
 -1.669 -1.633 3.915
 -1.655 -1.633 3.919
 -1.643 -1.633 3.924
 -1.628 -1.631 3.924
 -1.617 -1.633 3.932
 -1.604 -1.632 3.936
 -1.591 -1.632 3.939
 -1.579 -1.633 3.946
 -1.563 -1.63 3.943
 -1.549 -1.629 3.944
 -1.536 -1.628 3.947
 -1.519 -1.623 3.939
 -1.505 -1.622 3.941
 -1.495 -1.625 3.952
 -1.48 -1.623 3.95
 -1.466 -1.621 3.95
 -1.455 -1.623 3.959
 -1.443 -1.623 3.963
 -1.429 -1.622 3.964
 -1.418 -1.625 3.975
 -1.409 -1.628 3.988
 -1.397 -1.629 3.994
 -1.386 -1.631 4.001
 -1.374 -1.633 4.009
 -1.361 -1.632 4.011
 -1.346 -1.629 4.008
 -1.335 -1.631 4.016
 -1.32 -1.629 4.014
 -1.304 -1.625 4.008
 -1.29 -1.623 4.007
 -1.279 -1.625 4.015
 -1.265 -1.623 4.014
 -1.25 -1.62 4.01
 -1.238 -1.621 4.014
 -1.228 -1.624 4.026
 -1.217 -1.627 4.036
 -1.2 -1.621 4.023
 -1.192 -1.627 4.043
 -1.181 -1.63 4.053
 -1.167 -1.627 4.05
 -1.15 -1.622 4.04
 -1.141 -1.626 4.053
 -1.126 -1.624 4.049
 -1.112 -1.622 4.049
 -1.099 -1.621 4.049
 -1.084 -1.618 4.043
 -1.07 -1.616 4.041
 -1.057 -1.615 4.041
 -1.044 -1.615 4.044
 -1.033 -1.617 4.051
 -1.024 -1.623 4.069
 -1.012 -1.624 4.074
 -0.999 -1.623 4.075
 -0.986 -1.623 4.076
 -0.972 -1.62 4.071
 -0.957 -1.617 4.067
 -0.945 -1.618 4.072
 -0.933 -1.618 4.074
 -0.92 -1.618 4.076
 -0.91 -1.622 4.088
 -0.898 -1.624 4.097
 -0.886 -1.625 4.1
 -0.874 -1.626 4.104
 -0.859 -1.623 4.099
 -0.846 -1.62 4.095
 -0.831 -1.617 4.089
 -0.818 -1.616 4.089
 -0.805 -1.615 4.088
 -0.794 -1.618 4.096
 -0.781 -1.618 4.099
 -0.769 -1.619 4.104
 -0.756 -1.617 4.1
 -0.742 -1.615 4.098
 -0.729 -1.613 4.093
 -0.715 -1.609 4.086
 -0.702 -1.609 4.086
 -0.69 -1.61 4.091
 -0.678 -1.612 4.099
 -0.667 -1.616 4.11
 -0.655 -1.616 4.112
 -0.641 -1.614 4.109
 -0.63 -1.617 4.117
 -0.618 -1.619 4.124
 -0.605 -1.619 4.124
 -0.594 -1.622 4.133
 -0.583 -1.625 4.143
 -0.569 -1.624 4.141
 -0.557 -1.623 4.141
 -0.544 -1.624 4.144
 -0.531 -1.621 4.139
 -0.518 -1.62 4.136
 -0.505 -1.619 4.134
 -0.492 -1.617 4.131
 -0.479 -1.615 4.127
 -0.467 -1.618 4.137
 -0.455 -1.619 4.14
 -0.442 -1.62 4.142
 -0.43 -1.62 4.143
 -0.417 -1.62 4.145
 -0.405 -1.621 4.149
 -0.392 -1.619 4.144
 -0.379 -1.62 4.146
 -0.366 -1.619 4.145
 -0.354 -1.617 4.141
 -0.34 -1.613 4.132
 -0.327 -1.611 4.128
 -0.315 -1.612 4.131
 -0.302 -1.611 4.127
 -0.289 -1.61 4.126
 -0.277 -1.612 4.132
 -0.265 -1.614 4.139
 -0.252 -1.611 4.131
 -0.24 -1.612 4.133
 -0.228 -1.614 4.14
 -0.215 -1.614 4.14
 -0.203 -1.615 4.143
 -0.19 -1.614 4.142
 -0.178 -1.614 4.14
 -0.165 -1.613 4.138
 -0.152 -1.613 4.14
 -0.14 -1.612 4.137
 -0.128 -1.615 4.145
 -0.115 -1.617 4.148
 -0.103 -1.616 4.148
 -0.09 -1.614 4.142
 -0.077 -1.612 4.138
 -0.065 -1.613 4.138
 -0.052 -1.611 4.134
 -0.04 -1.613 4.14
 -0.027 -1.615 4.144
 -0.015 -1.616 4.148
 -0.002 -1.612 4.138
 0.009 -1.616 4.147
 0.022 -1.614 4.142
 0.034 -1.613 4.137
 0.046 -1.611 4.133
 0.059 -1.614 4.14
 0.072 -1.615 4.143
 0.084 -1.618 4.151
 0.097 -1.62 4.156
 0.11 -1.622 4.16
 0.122 -1.623 4.161
 0.134 -1.618 4.149
 0.147 -1.615 4.14
 0.159 -1.614 4.137
 0.171 -1.611 4.128
 0.184 -1.61 4.127
 0.196 -1.613 4.132
 0.209 -1.615 4.136
 0.222 -1.616 4.138
 0.234 -1.618 4.143
 0.247 -1.616 4.137
 0.259 -1.616 4.138
 0.272 -1.616 4.137
 0.284 -1.616 4.134
 0.297 -1.616 4.135
 0.31 -1.619 4.142
 0.322 -1.619 4.139
 0.335 -1.618 4.137
 0.347 -1.616 4.131
 0.359 -1.618 4.133
 0.372 -1.618 4.133
 0.384 -1.616 4.128
 0.397 -1.617 4.127
 0.41 -1.62 4.135
 0.422 -1.62 4.132
 0.434 -1.618 4.126
 0.447 -1.617 4.124
 0.459 -1.615 4.117
 0.471 -1.615 4.116
 0.483 -1.613 4.109
 0.495 -1.613 4.107
 0.509 -1.615 4.113
 0.522 -1.616 4.114
 0.534 -1.616 4.11
 0.547 -1.619 4.117
 0.56 -1.62 4.117
 0.572 -1.619 4.114
 0.586 -1.621 4.118
 0.598 -1.62 4.113
 0.609 -1.617 4.104
 0.621 -1.616 4.1
 0.634 -1.616 4.097
 0.645 -1.614 4.09
 0.658 -1.616 4.093
 0.671 -1.617 4.093
 0.684 -1.617 4.093
 0.698 -1.62 4.098
 0.711 -1.623 4.103
 0.724 -1.622 4.1
 0.737 -1.625 4.104
 0.75 -1.625 4.104
 0.762 -1.624 4.097
 0.774 -1.622 4.092
 0.786 -1.623 4.09
 0.797 -1.618 4.077
 0.809 -1.618 4.075
 0.821 -1.618 4.071
 0.834 -1.618 4.068
 0.846 -1.617 4.064
 0.86 -1.62 4.068
 0.873 -1.621 4.07
 0.886 -1.623 4.071
 0.901 -1.626 4.076
 0.914 -1.627 4.076
 0.925 -1.624 4.068
 0.937 -1.624 4.065
 0.95 -1.625 4.065
 0.96 -1.621 4.052
 0.973 -1.621 4.047
 0.987 -1.624 4.052
 1.001 -1.626 4.054
 1.012 -1.625 4.049
 1.026 -1.626 4.049
 1.039 -1.626 4.048
 1.054 -1.63 4.054
 1.065 -1.629 4.049
 1.08 -1.632 4.052
 1.093 -1.634 4.053
 1.107 -1.634 4.052
 1.117 -1.631 4.042
 1.128 -1.629 4.033
 1.14 -1.628 4.026
 1.15 -1.625 4.016
 1.164 -1.627 4.018
 1.178 -1.628 4.018
 1.194 -1.634 4.029
 1.207 -1.634 4.024
 1.22 -1.635 4.024
 1.231 -1.632 4.014
 1.243 -1.632 4.008
 1.251 -1.626 3.992
 1.264 -1.627 3.99
 1.278 -1.629 3.99
 1.292 -1.631 3.993
 1.306 -1.632 3.991
 1.319 -1.633 3.99
 1.333 -1.635 3.99
 1.347 -1.637 3.99
 1.359 -1.636 3.986
 1.372 -1.637 3.983
 1.385 -1.637 3.98
 1.396 -1.635 3.971
 1.409 -1.636 3.968
 1.419 -1.633 3.958
 1.43 -1.631 3.949
 1.444 -1.632 3.947
 1.456 -1.632 3.941
 1.466 -1.629 3.932
 1.481 -1.632 3.934
 1.492 -1.63 3.925
 1.506 -1.632 3.925
 1.521 -1.634 3.926
 1.533 -1.634 3.921
 1.546 -1.635 3.918
 1.559 -1.635 3.914
 1.57 -1.633 3.905
 1.582 -1.633 3.9
 1.595 -1.633 3.896
 1.607 -1.633 3.89
 1.618 -1.631 3.882
 1.631 -1.632 3.878
 1.641 -1.63 3.868
 1.656 -1.632 3.869
 1.668 -1.632 3.863
 1.683 -1.634 3.864
 1.695 -1.633 3.857
 1.706 -1.632 3.849
 1.715 -1.629 3.836
 1.726 -1.627 3.827
 1.739 -1.627 3.822
 1.75 -1.627 3.815
 1.761 -1.625 3.806
 1.774 -1.626 3.802
 1.787 -1.626 3.798
 1.8 -1.626 3.793
 1.812 -1.626 3.787
 1.826 -1.627 3.785
 1.837 -1.626 3.777
 1.846 -1.624 3.765
 1.846 -1.613 3.734
 1.85 -1.605 3.712
 1.853 -1.597 3.686
 1.855 -1.589 3.661
 1.861 -1.583 3.642
 1.865 -1.576 3.621
 1.867 -1.567 3.596
 1.867 -1.558 3.568
 1.867 -1.548 3.54
 1.868 -1.539 3.514
 1.868 -1.53 3.486
 1.868 -1.52 3.458
 1.865 -1.508 3.425
 1.863 -1.497 3.395
 1.862 -1.487 3.366
 1.869 -1.484 3.354
 1.851 -1.461 3.296
 1.819 -1.427 3.214
 1.804 -1.407 3.162
 1.81 -1.404 3.149
 1.82 -1.403 3.141
 1.826 -1.399 3.128
 1.836 -1.398 3.121
 1.839 -1.393 3.102
 1.842 -1.387 3.085
 1.838 -1.376 3.054
 1.838 -1.369 3.032
 1.833 -1.357 3.001
 1.839 -1.354 2.988
 1.848 -1.353 2.98
 -2.254 -1.655 3.768
 0 0 0
 -2.205 -1.638 3.742
 -2.19 -1.637 3.746
 -2.185 -1.643 3.766
 -2.165 -1.638 3.76
 -2.147 -1.634 3.757
 -2.127 -1.628 3.751
 -2.116 -1.63 3.76
 -2.099 -1.626 3.758
 -2.092 -1.631 3.775
 -2.079 -1.631 3.782
 -2.07 -1.634 3.795
 -2.055 -1.633 3.797
 -2.044 -1.634 3.806
 -2.033 -1.635 3.815
 -2.021 -1.636 3.822
 -2.005 -1.634 3.822
 -1.992 -1.634 3.829
 -1.98 -1.634 3.835
 -1.962 -1.631 3.832
 -1.95 -1.631 3.838
 -1.935 -1.629 3.84
 -1.924 -1.631 3.849
 -1.911 -1.63 3.854
 -1.899 -1.631 3.861
 -1.883 -1.629 3.86
 -1.874 -1.632 3.874
 -1.861 -1.632 3.878
 -1.846 -1.631 3.88
 -1.835 -1.632 3.889
 -1.828 -1.637 3.906
 -1.814 -1.636 3.91
 -1.799 -1.634 3.91
 -1.786 -1.634 3.915
 -1.769 -1.631 3.911
 -1.756 -1.63 3.914
 -1.742 -1.629 3.917
 -1.732 -1.632 3.93
 -1.719 -1.632 3.933
 -1.708 -1.634 3.944
 -1.691 -1.63 3.939
 -1.677 -1.629 3.941
 -1.665 -1.629 3.946
 -1.653 -1.63 3.953
 -1.638 -1.629 3.954
 -1.628 -1.631 3.965
 -1.614 -1.63 3.966
 -1.599 -1.627 3.964
 -1.585 -1.627 3.967
 -1.569 -1.623 3.962
 -1.557 -1.624 3.969
 -1.545 -1.625 3.976
 -1.529 -1.621 3.97
 -1.515 -1.621 3.973
 -1.507 -1.625 3.988
 -1.489 -1.62 3.979
 -1.475 -1.619 3.98
 -1.464 -1.621 3.989
 -1.453 -1.622 3.996
 -1.44 -1.622 3.999
 -1.43 -1.625 4.012
 -1.42 -1.628 4.023
 -1.409 -1.631 4.034
 -1.397 -1.631 4.039
 -1.384 -1.631 4.041
 -1.37 -1.63 4.042
 -1.355 -1.627 4.039
 -1.342 -1.627 4.043
 -1.329 -1.627 4.046
 -1.315 -1.626 4.046
 -1.301 -1.623 4.044
 -1.289 -1.624 4.05
 -1.275 -1.624 4.052
 -1.261 -1.621 4.049
 -1.248 -1.622 4.053
 -1.24 -1.627 4.07
 -1.227 -1.627 4.073
 -1.21 -1.622 4.063
 -1.199 -1.625 4.073
 -1.187 -1.625 4.077
 -1.172 -1.622 4.073
 -1.157 -1.62 4.07
 -1.148 -1.624 4.084
 -1.135 -1.624 4.087
 -1.121 -1.622 4.085
 -1.108 -1.622 4.087
 -1.092 -1.618 4.079
 -1.078 -1.615 4.074
 -1.063 -1.612 4.069
 -1.051 -1.612 4.074
 -1.038 -1.612 4.075
 -1.03 -1.619 4.096
 -1.017 -1.62 4.1
 -1.005 -1.62 4.103
 -0.992 -1.62 4.106
 -0.979 -1.62 4.108
 -0.965 -1.618 4.106
 -0.954 -1.62 4.112
 -0.94 -1.618 4.111
 -0.927 -1.618 4.113
 -0.915 -1.618 4.116
 -0.902 -1.617 4.116
 -0.888 -1.616 4.113
 -0.876 -1.616 4.117
 -0.861 -1.612 4.109
 -0.847 -1.611 4.108
 -0.834 -1.61 4.107
 -0.822 -1.612 4.114
 -0.81 -1.613 4.119
 -0.8 -1.618 4.134
 -0.787 -1.617 4.133
 -0.776 -1.62 4.142
 -0.761 -1.615 4.132
 -0.747 -1.612 4.126
 -0.732 -1.608 4.117
 -0.719 -1.607 4.116
 -0.706 -1.607 4.118
 -0.695 -1.609 4.125
 -0.682 -1.609 4.127
 -0.671 -1.613 4.139
 -0.658 -1.612 4.138
 -0.644 -1.609 4.132
 -0.633 -1.612 4.139
 -0.622 -1.616 4.153
 -0.609 -1.616 4.153
 -0.597 -1.617 4.158
 -0.585 -1.62 4.168
 -0.573 -1.621 4.172
 -0.559 -1.618 4.164
 -0.547 -1.62 4.17
 -0.534 -1.619 4.169
 -0.52 -1.616 4.162
 -0.507 -1.613 4.157
 -0.495 -1.615 4.161
 -0.481 -1.61 4.15
 -0.469 -1.612 4.156
 -0.457 -1.615 4.165
 -0.444 -1.615 4.166
 -0.431 -1.614 4.166
 -0.419 -1.616 4.171
 -0.407 -1.617 4.174
 -0.394 -1.615 4.17
 -0.381 -1.615 4.172
 -0.368 -1.614 4.17
 -0.356 -1.615 4.172
 -0.342 -1.611 4.163
 -0.329 -1.609 4.16
 -0.317 -1.611 4.165
 -0.304 -1.611 4.165
 -0.292 -1.609 4.16
 -0.279 -1.61 4.165
 -0.267 -1.613 4.172
 -0.254 -1.609 4.163
 -0.241 -1.609 4.163
 -0.229 -1.61 4.165
 -0.216 -1.611 4.167
 -0.204 -1.61 4.168
 -0.191 -1.608 4.161
 -0.178 -1.608 4.163
 -0.166 -1.609 4.164
 -0.153 -1.61 4.167
 -0.141 -1.61 4.167
 -0.128 -1.612 4.173
 -0.116 -1.61 4.168
 -0.103 -1.61 4.167
 -0.09 -1.607 4.161
 -0.078 -1.605 4.155
 -0.065 -1.606 4.159
 -0.053 -1.607 4.161
 -0.04 -1.611 4.17
 -0.028 -1.611 4.17
 -0.015 -1.612 4.174
 -0.002 -1.61 4.167
 0.009 -1.613 4.175
 0.022 -1.61 4.169
 0.034 -1.611 4.169
 0.047 -1.61 4.166
 0.06 -1.612 4.172
 0.072 -1.613 4.175
 0.085 -1.613 4.175
 0.097 -1.615 4.178
 0.11 -1.617 4.182
 0.123 -1.618 4.185
 0.135 -1.614 4.174
 0.148 -1.613 4.173
 0.16 -1.611 4.167
 0.172 -1.608 4.157
 0.185 -1.607 4.155
 0.198 -1.61 4.161
 0.21 -1.61 4.16
 0.223 -1.613 4.167
 0.236 -1.616 4.176
 0.248 -1.614 4.168
 0.261 -1.613 4.166
 0.273 -1.613 4.166
 0.286 -1.612 4.16
 0.298 -1.612 4.16
 0.312 -1.616 4.169
 0.324 -1.615 4.166
 0.337 -1.615 4.166
 0.349 -1.612 4.157
 0.361 -1.612 4.155
 0.374 -1.611 4.153
 0.386 -1.611 4.152
 0.399 -1.613 4.156
 0.413 -1.617 4.165
 0.425 -1.618 4.165
 0.438 -1.616 4.16
 0.45 -1.614 4.153
 0.461 -1.611 4.143
 0.474 -1.612 4.144
 0.486 -1.61 4.137
 0.498 -1.609 4.134
 0.512 -1.614 4.144
 0.525 -1.615 4.145
 0.537 -1.614 4.142
 0.551 -1.617 4.149
 0.564 -1.618 4.149
 0.576 -1.616 4.144
 0.589 -1.618 4.146
 0.601 -1.617 4.141
 0.613 -1.615 4.134
 0.626 -1.616 4.135
 0.638 -1.615 4.131
 0.65 -1.614 4.127
 0.664 -1.616 4.131
 0.677 -1.617 4.132
 0.689 -1.616 4.128
 0.703 -1.619 4.133
 0.717 -1.622 4.138
 0.729 -1.622 4.135
 0.742 -1.623 4.137
 0.755 -1.624 4.136
 0.767 -1.623 4.132
 0.779 -1.62 4.121
 0.791 -1.619 4.118
 0.801 -1.615 4.105
 0.813 -1.613 4.098
 0.824 -1.611 4.09
 0.836 -1.61 4.085
 0.849 -1.61 4.084
 0.863 -1.614 4.09
 0.878 -1.617 4.096
 0.892 -1.62 4.102
 0.906 -1.624 4.107
 0.919 -1.624 4.105
 0.931 -1.622 4.097
 0.943 -1.621 4.092
 0.955 -1.621 4.089
 0.966 -1.618 4.08
 0.977 -1.616 4.072
 0.992 -1.619 4.076
 1.005 -1.621 4.078
 1.018 -1.62 4.074
 1.032 -1.622 4.076
 1.046 -1.624 4.079
 1.06 -1.627 4.083
 1.072 -1.627 4.078
 1.087 -1.629 4.082
 1.1 -1.63 4.082
 1.114 -1.632 4.083
 1.125 -1.63 4.074
 1.136 -1.628 4.065
 1.148 -1.627 4.06
 1.16 -1.626 4.055
 1.174 -1.628 4.055
 1.188 -1.63 4.058
 1.205 -1.636 4.069
 1.217 -1.635 4.064
 1.229 -1.635 4.058
 1.24 -1.631 4.047
 1.251 -1.63 4.039
 1.26 -1.624 4.023
 1.271 -1.624 4.017
 1.286 -1.627 4.021
 1.301 -1.629 4.022
 1.316 -1.632 4.025
 1.33 -1.633 4.026
 1.345 -1.637 4.031
 1.358 -1.637 4.028
 1.371 -1.637 4.023
 1.382 -1.635 4.014
 1.394 -1.635 4.01
 1.404 -1.631 3.997
 1.417 -1.631 3.993
 1.428 -1.63 3.986
 1.44 -1.63 3.98
 1.453 -1.63 3.978
 1.466 -1.63 3.973
 1.477 -1.628 3.964
 1.493 -1.632 3.969
 1.502 -1.629 3.956
 1.515 -1.629 3.954
 1.531 -1.632 3.957
 1.543 -1.632 3.951
 1.554 -1.63 3.943
 1.569 -1.632 3.943
 1.581 -1.632 3.937
 1.595 -1.633 3.936
 1.608 -1.634 3.932
 1.621 -1.634 3.929
 1.633 -1.633 3.922
 1.644 -1.632 3.913
 1.654 -1.63 3.904
 1.669 -1.632 3.903
 1.681 -1.631 3.896
 1.696 -1.633 3.897
 1.709 -1.634 3.893
 1.72 -1.632 3.884
 1.728 -1.628 3.868
 1.741 -1.629 3.865
 1.754 -1.629 3.861
 1.766 -1.628 3.853
 1.775 -1.625 3.842
 1.791 -1.628 3.842
 1.802 -1.627 3.834
 1.814 -1.626 3.827
 1.828 -1.627 3.825
 1.841 -1.628 3.82
 1.85 -1.625 3.807
 1.858 -1.621 3.793
 1.857 -1.609 3.76
 1.858 -1.599 3.731
 1.86 -1.591 3.706
 1.86 -1.58 3.675
 1.861 -1.571 3.647
 1.866 -1.565 3.629
 1.871 -1.559 3.608
 1.873 -1.55 3.583
 1.874 -1.542 3.557
 1.876 -1.534 3.533
 1.877 -1.525 3.507
 1.873 -1.513 3.473
 1.869 -1.5 3.437
 1.866 -1.488 3.405
 1.867 -1.48 3.38
 1.872 -1.475 3.363
 1.856 -1.454 3.309
 1.805 -1.405 3.193
 1.784 -1.38 3.131
 1.802 -1.386 3.138
 1.813 -1.386 3.133
 1.819 -1.383 3.12
 1.829 -1.382 3.113
 1.835 -1.379 3.099
 1.835 -1.371 3.077
 1.833 -1.361 3.049
 1.835 -1.355 3.029
 1.832 -1.346 3.002
 1.82 -1.33 2.961
 1.815 -1.318 2.93
 -2.223 -1.619 3.72
 0 0 0
 -2.218 -1.635 3.769
 -2.202 -1.633 3.77
 -2.195 -1.637 3.788
 -2.176 -1.633 3.784
 -2.159 -1.63 3.782
 -2.141 -1.626 3.781
 -2.132 -1.629 3.793
 -2.113 -1.625 3.789
 -2.105 -1.628 3.804
 -2.095 -1.63 3.815
 -2.086 -1.634 3.829
 -2.071 -1.632 3.83
 -2.062 -1.635 3.845
 -2.05 -1.636 3.852
 -2.033 -1.633 3.851
 -2.018 -1.631 3.852
 -2.005 -1.632 3.858
 -1.991 -1.631 3.862
 -1.975 -1.628 3.861
 -1.962 -1.628 3.868
 -1.948 -1.627 3.87
 -1.936 -1.628 3.879
 -1.924 -1.629 3.885
 -1.911 -1.629 3.891
 -1.897 -1.628 3.894
 -1.887 -1.63 3.906
 -1.874 -1.63 3.91
 -1.859 -1.629 3.912
 -1.847 -1.63 3.92
 -1.837 -1.633 3.932
 -1.823 -1.631 3.933
 -1.808 -1.63 3.935
 -1.796 -1.631 3.942
 -1.778 -1.626 3.935
 -1.766 -1.627 3.943
 -1.752 -1.626 3.946
 -1.741 -1.628 3.955
 -1.728 -1.627 3.959
 -1.719 -1.631 3.972
 -1.702 -1.627 3.968
 -1.689 -1.627 3.972
 -1.675 -1.627 3.976
 -1.663 -1.627 3.982
 -1.648 -1.625 3.982
 -1.636 -1.626 3.987
 -1.621 -1.625 3.989
 -1.606 -1.622 3.986
 -1.592 -1.621 3.989
 -1.577 -1.619 3.987
 -1.567 -1.622 3.999
 -1.555 -1.623 4.006
 -1.54 -1.62 4.004
 -1.526 -1.62 4.006
 -1.516 -1.622 4.017
 -1.499 -1.617 4.009
 -1.486 -1.618 4.015
 -1.476 -1.621 4.025
 -1.463 -1.621 4.029
 -1.452 -1.622 4.037
 -1.441 -1.625 4.048
 -1.43 -1.627 4.057
 -1.417 -1.627 4.06
 -1.405 -1.628 4.067
 -1.391 -1.627 4.068
 -1.379 -1.628 4.075
 -1.363 -1.624 4.069
 -1.352 -1.626 4.078
 -1.337 -1.624 4.075
 -1.323 -1.622 4.075
 -1.308 -1.62 4.073
 -1.296 -1.621 4.077
 -1.283 -1.62 4.079
 -1.27 -1.621 4.084
 -1.258 -1.622 4.089
 -1.247 -1.624 4.099
 -1.234 -1.625 4.104
 -1.218 -1.62 4.094
 -1.206 -1.621 4.101
 -1.193 -1.621 4.103
 -1.178 -1.618 4.1
 -1.165 -1.618 4.101
 -1.155 -1.622 4.116
 -1.143 -1.623 4.12
 -1.129 -1.622 4.121
 -1.118 -1.623 4.127
 -1.102 -1.619 4.12
 -1.086 -1.615 4.112
 -1.071 -1.611 4.105
 -1.058 -1.611 4.106
 -1.044 -1.608 4.103
 -1.035 -1.615 4.123
 -1.023 -1.616 4.128
 -1.009 -1.615 4.127
 -0.997 -1.616 4.133
 -0.985 -1.617 4.139
 -0.97 -1.613 4.131
 -0.958 -1.615 4.137
 -0.945 -1.615 4.139
 -0.931 -1.613 4.136
 -0.918 -1.611 4.134
 -0.905 -1.611 4.136
 -0.892 -1.61 4.136
 -0.88 -1.611 4.142
 -0.866 -1.61 4.139
 -0.853 -1.61 4.142
 -0.84 -1.609 4.141
 -0.828 -1.609 4.145
 -0.816 -1.611 4.151
 -0.805 -1.616 4.165
 -0.792 -1.614 4.162
 -0.78 -1.616 4.169
 -0.766 -1.613 4.163
 -0.751 -1.609 4.155
 -0.736 -1.603 4.142
 -0.723 -1.602 4.141
 -0.71 -1.603 4.144
 -0.698 -1.604 4.15
 -0.685 -1.603 4.149
 -0.674 -1.607 4.16
 -0.661 -1.606 4.159
 -0.648 -1.605 4.157
 -0.635 -1.606 4.162
 -0.625 -1.611 4.176
 -0.611 -1.61 4.175
 -0.599 -1.612 4.181
 -0.587 -1.613 4.186
 -0.575 -1.615 4.191
 -0.561 -1.612 4.185
 -0.549 -1.613 4.191
 -0.537 -1.614 4.193
 -0.523 -1.611 4.188
 -0.51 -1.61 4.186
 -0.498 -1.611 4.19
 -0.484 -1.607 4.18
 -0.471 -1.608 4.184
 -0.459 -1.611 4.193
 -0.446 -1.609 4.188
 -0.433 -1.609 4.188
 -0.421 -1.609 4.19
 -0.408 -1.608 4.188
 -0.394 -1.604 4.18
 -0.382 -1.607 4.188
 -0.37 -1.607 4.19
 -0.357 -1.61 4.196
 -0.344 -1.608 4.193
 -0.332 -1.608 4.194
 -0.319 -1.61 4.198
 -0.306 -1.608 4.194
 -0.293 -1.605 4.187
 -0.28 -1.604 4.185
 -0.268 -1.605 4.188
 -0.254 -1.6 4.175
 -0.242 -1.6 4.177
 -0.229 -1.601 4.18
 -0.217 -1.605 4.189
 -0.205 -1.606 4.193
 -0.192 -1.604 4.187
 -0.179 -1.604 4.188
 -0.166 -1.604 4.189
 -0.154 -1.604 4.19
 -0.141 -1.604 4.189
 -0.129 -1.605 4.191
 -0.116 -1.603 4.187
 -0.103 -1.602 4.184
 -0.09 -1.6 4.179
 -0.078 -1.597 4.172
 -0.065 -1.6 4.18
 -0.053 -1.6 4.179
 -0.04 -1.605 4.192
 -0.028 -1.605 4.193
 -0.015 -1.607 4.198
 -0.002 -1.606 4.195
 0.009 -1.611 4.208
 0.022 -1.608 4.201
 0.035 -1.609 4.202
 0.047 -1.609 4.201
 0.06 -1.61 4.204
 0.073 -1.609 4.201
 0.085 -1.61 4.204
 0.098 -1.609 4.201
 0.111 -1.61 4.202
 0.123 -1.611 4.204
 0.136 -1.607 4.195
 0.148 -1.607 4.193
 0.161 -1.608 4.194
 0.173 -1.603 4.183
 0.186 -1.601 4.175
 0.198 -1.604 4.183
 0.211 -1.602 4.177
 0.224 -1.604 4.182
 0.237 -1.61 4.197
 0.25 -1.609 4.192
 0.262 -1.607 4.187
 0.275 -1.607 4.186
 0.287 -1.605 4.179
 0.299 -1.604 4.176
 0.313 -1.608 4.186
 0.325 -1.608 4.184
 0.338 -1.609 4.186
 0.35 -1.607 4.181
 0.363 -1.606 4.178
 0.375 -1.607 4.177
 0.388 -1.607 4.177
 0.401 -1.609 4.182
 0.414 -1.611 4.186
 0.427 -1.612 4.187
 0.44 -1.612 4.184
 0.452 -1.611 4.18
 0.464 -1.607 4.171
 0.477 -1.608 4.171
 0.489 -1.606 4.163
 0.501 -1.605 4.162
 0.515 -1.609 4.17
 0.528 -1.611 4.174
 0.541 -1.611 4.172
 0.554 -1.613 4.176
 0.566 -1.612 4.171
 0.579 -1.611 4.166
 0.591 -1.612 4.166
 0.604 -1.61 4.161
 0.616 -1.61 4.159
 0.629 -1.611 4.159
 0.641 -1.608 4.151
 0.653 -1.608 4.148
 0.667 -1.611 4.153
 0.68 -1.612 4.154
 0.694 -1.614 4.159
 0.708 -1.617 4.164
 0.722 -1.62 4.17
 0.733 -1.618 4.162
 0.747 -1.619 4.163
 0.758 -1.617 4.155
 0.772 -1.619 4.158
 0.783 -1.616 4.147
 0.796 -1.617 4.149
 0.806 -1.612 4.134
 0.819 -1.612 4.13
 0.829 -1.608 4.118
 0.841 -1.607 4.113
 0.854 -1.607 4.112
 0.868 -1.61 4.117
 0.883 -1.613 4.123
 0.897 -1.617 4.129
 0.911 -1.618 4.131
 0.923 -1.618 4.127
 0.935 -1.617 4.122
 0.947 -1.615 4.114
 0.959 -1.615 4.11
 0.971 -1.614 4.105
 0.983 -1.613 4.1
 0.997 -1.615 4.103
 1.012 -1.618 4.108
 1.025 -1.618 4.106
 1.039 -1.62 4.108
 1.052 -1.622 4.109
 1.066 -1.624 4.111
 1.079 -1.624 4.108
 1.093 -1.625 4.109
 1.106 -1.626 4.108
 1.119 -1.627 4.107
 1.131 -1.625 4.099
 1.143 -1.624 4.094
 1.156 -1.625 4.092
 1.168 -1.625 4.088
 1.182 -1.627 4.089
 1.196 -1.629 4.091
 1.211 -1.631 4.093
 1.222 -1.629 4.085
 1.236 -1.63 4.083
 1.246 -1.627 4.073
 1.258 -1.626 4.066
 1.269 -1.624 4.057
 1.281 -1.623 4.052
 1.294 -1.624 4.05
 1.308 -1.625 4.049
 1.323 -1.627 4.051
 1.335 -1.627 4.048
 1.351 -1.631 4.054
 1.364 -1.631 4.05
 1.376 -1.63 4.043
 1.387 -1.629 4.036
 1.4 -1.629 4.031
 1.409 -1.624 4.015
 1.422 -1.625 4.014
 1.435 -1.626 4.011
 1.447 -1.625 4.005
 1.462 -1.627 4.006
 1.475 -1.628 4.004
 1.486 -1.626 3.995
 1.501 -1.629 3.997
 1.511 -1.626 3.986
 1.524 -1.626 3.982
 1.54 -1.629 3.985
 1.553 -1.629 3.98
 1.563 -1.627 3.97
 1.579 -1.63 3.973
 1.591 -1.63 3.968
 1.605 -1.631 3.965
 1.618 -1.631 3.962
 1.631 -1.631 3.957
 1.641 -1.629 3.946
 1.652 -1.627 3.938
 1.662 -1.625 3.926
 1.675 -1.625 3.921
 1.688 -1.626 3.919
 1.704 -1.628 3.92
 1.717 -1.629 3.917
 1.729 -1.628 3.909
 1.74 -1.626 3.899
 1.754 -1.627 3.897
 1.767 -1.628 3.893
 1.778 -1.626 3.884
 1.789 -1.625 3.876
 1.804 -1.627 3.875
 1.814 -1.625 3.865
 1.826 -1.624 3.858
 1.839 -1.624 3.852
 1.85 -1.623 3.843
 1.857 -1.618 3.826
 1.863 -1.612 3.807
 1.862 -1.601 3.775
 1.864 -1.592 3.747
 1.865 -1.582 3.719
 1.865 -1.572 3.69
 1.865 -1.562 3.66
 1.869 -1.555 3.638
 1.873 -1.548 3.617
 1.873 -1.539 3.589
 1.874 -1.53 3.562
 1.879 -1.524 3.543
 1.882 -1.517 3.52
 1.878 -1.505 3.486
 1.876 -1.493 3.454
 1.876 -1.484 3.427
 1.877 -1.476 3.403
 1.886 -1.474 3.393
 0 0 0
 0 0 0
 1.765 -1.355 3.102
 1.791 -1.367 3.123
 1.809 -1.373 3.131
 1.819 -1.372 3.123
 1.829 -1.371 3.117
 1.838 -1.37 3.108
 1.84 -1.364 3.089
 1.834 -1.352 3.055
 1.833 -1.343 3.03
 1.832 -1.335 3.007
 1.853 -1.343 3.018
 1.841 -1.327 2.976
 -2.269 -1.64 3.803
 -2.229 -1.62 3.764
 -2.231 -1.632 3.797
 -2.218 -1.632 3.804
 -2.21 -1.635 3.818
 -2.19 -1.63 3.812
 -2.175 -1.629 3.816
 -2.156 -1.625 3.812
 -2.147 -1.628 3.825
 -2.127 -1.622 3.819
 -2.118 -1.625 3.832
 -2.105 -1.625 3.838
 -2.097 -1.629 3.854
 -2.082 -1.627 3.855
 -2.075 -1.633 3.874
 -2.065 -1.635 3.885
 -2.049 -1.633 3.886
 -2.035 -1.632 3.89
 -2.02 -1.631 3.892
 -2.003 -1.628 3.891
 -1.988 -1.626 3.893
 -1.976 -1.627 3.9
 -1.962 -1.626 3.904
 -1.951 -1.628 3.913
 -1.94 -1.63 3.924
 -1.927 -1.63 3.929
 -1.91 -1.626 3.925
 -1.898 -1.627 3.933
 -1.886 -1.628 3.941
 -1.87 -1.626 3.941
 -1.856 -1.624 3.943
 -1.846 -1.628 3.956
 -1.831 -1.626 3.957
 -1.817 -1.625 3.96
 -1.803 -1.624 3.963
 -1.788 -1.622 3.962
 -1.776 -1.623 3.969
 -1.762 -1.622 3.972
 -1.749 -1.623 3.979
 -1.737 -1.623 3.985
 -1.726 -1.625 3.994
 -1.711 -1.623 3.995
 -1.698 -1.623 3.999
 -1.685 -1.623 4.005
 -1.673 -1.624 4.01
 -1.659 -1.623 4.012
 -1.645 -1.622 4.015
 -1.633 -1.623 4.022
 -1.617 -1.62 4.018
 -1.604 -1.62 4.022
 -1.589 -1.618 4.023
 -1.579 -1.621 4.034
 -1.565 -1.62 4.037
 -1.551 -1.619 4.039
 -1.536 -1.617 4.038
 -1.525 -1.619 4.046
 -1.51 -1.617 4.045
 -1.5 -1.62 4.055
 -1.488 -1.621 4.064
 -1.477 -1.623 4.072
 -1.464 -1.624 4.078
 -1.451 -1.623 4.08
 -1.438 -1.623 4.084
 -1.423 -1.621 4.082
 -1.41 -1.621 4.086
 -1.396 -1.62 4.088
 -1.385 -1.622 4.096
 -1.368 -1.618 4.089
 -1.357 -1.62 4.097
 -1.343 -1.618 4.098
 -1.329 -1.617 4.099
 -1.317 -1.618 4.103
 -1.304 -1.618 4.107
 -1.291 -1.618 4.112
 -1.278 -1.618 4.115
 -1.267 -1.62 4.123
 -1.254 -1.62 4.126
 -1.242 -1.622 4.134
 -1.226 -1.617 4.126
 -1.213 -1.618 4.13
 -1.199 -1.617 4.13
 -1.185 -1.615 4.129
 -1.171 -1.614 4.129
 -1.162 -1.618 4.143
 -1.149 -1.618 4.147
 -1.135 -1.618 4.147
 -1.124 -1.62 4.156
 -1.109 -1.617 4.15
 -1.093 -1.613 4.143
 -1.079 -1.611 4.14
 -1.066 -1.611 4.144
 -1.052 -1.608 4.14
 -1.043 -1.614 4.157
 -1.03 -1.615 4.163
 -1.018 -1.615 4.166
 -1.005 -1.615 4.169
 -0.992 -1.616 4.172
 -0.976 -1.61 4.16
 -0.963 -1.61 4.163
 -0.95 -1.61 4.163
 -0.937 -1.609 4.164
 -0.924 -1.609 4.166
 -0.911 -1.609 4.17
 -0.898 -1.61 4.172
 -0.886 -1.61 4.175
 -0.871 -1.607 4.17
 -0.859 -1.608 4.175
 -0.846 -1.608 4.177
 -0.832 -1.606 4.173
 -0.821 -1.608 4.181
 -0.81 -1.612 4.193
 -0.795 -1.608 4.185
 -0.783 -1.609 4.19
 -0.77 -1.609 4.19
 -0.756 -1.606 4.185
 -0.741 -1.602 4.178
 -0.729 -1.603 4.181
 -0.715 -1.602 4.18
 -0.703 -1.603 4.183
 -0.689 -1.6 4.178
 -0.677 -1.603 4.187
 -0.664 -1.602 4.187
 -0.652 -1.602 4.189
 -0.641 -1.606 4.201
 -0.63 -1.611 4.214
 -0.616 -1.609 4.211
 -0.603 -1.609 4.212
 -0.59 -1.609 4.214
 -0.577 -1.608 4.212
 -0.564 -1.606 4.209
 -0.551 -1.605 4.207
 -0.538 -1.606 4.212
 -0.525 -1.606 4.211
 -0.512 -1.605 4.211
 -0.499 -1.605 4.211
 -0.486 -1.604 4.209
 -0.473 -1.603 4.208
 -0.461 -1.604 4.213
 -0.447 -1.6 4.202
 -0.434 -1.599 4.2
 -0.421 -1.598 4.199
 -0.408 -1.597 4.198
 -0.395 -1.594 4.191
 -0.383 -1.6 4.206
 -0.371 -1.601 4.21
 -0.359 -1.603 4.216
 -0.346 -1.603 4.216
 -0.333 -1.604 4.22
 -0.32 -1.602 4.217
 -0.307 -1.601 4.215
 -0.294 -1.599 4.21
 -0.281 -1.598 4.207
 -0.269 -1.598 4.207
 -0.255 -1.594 4.198
 -0.243 -1.594 4.197
 -0.23 -1.593 4.195
 -0.217 -1.595 4.202
 -0.205 -1.596 4.205
 -0.192 -1.595 4.201
 -0.18 -1.596 4.204
 -0.167 -1.597 4.207
 -0.154 -1.598 4.211
 -0.142 -1.598 4.21
 -0.129 -1.598 4.21
 -0.116 -1.596 4.206
 -0.103 -1.595 4.203
 -0.091 -1.593 4.198
 -0.078 -1.591 4.192
 -0.065 -1.594 4.2
 -0.053 -1.594 4.2
 -0.04 -1.597 4.21
 -0.028 -1.598 4.211
 -0.015 -1.599 4.213
 -0.002 -1.597 4.208
 0.009 -1.601 4.218
 0.022 -1.599 4.213
 0.035 -1.599 4.213
 0.047 -1.598 4.211
 0.06 -1.599 4.212
 0.073 -1.597 4.208
 0.085 -1.598 4.209
 0.098 -1.597 4.207
 0.111 -1.599 4.212
 0.124 -1.601 4.216
 0.136 -1.599 4.209
 0.149 -1.599 4.211
 0.162 -1.599 4.208
 0.174 -1.596 4.2
 0.186 -1.593 4.193
 0.199 -1.598 4.203
 0.212 -1.597 4.2
 0.225 -1.6 4.209
 0.238 -1.604 4.219
 0.251 -1.602 4.212
 0.263 -1.6 4.206
 0.276 -1.599 4.203
 0.288 -1.596 4.195
 0.3 -1.597 4.196
 0.314 -1.601 4.206
 0.327 -1.601 4.204
 0.339 -1.601 4.204
 0.352 -1.601 4.203
 0.364 -1.599 4.195
 0.377 -1.601 4.199
 0.39 -1.6 4.197
 0.403 -1.604 4.207
 0.416 -1.605 4.208
 0.429 -1.606 4.208
 0.441 -1.604 4.202
 0.454 -1.603 4.198
 0.465 -1.598 4.184
 0.478 -1.599 4.184
 0.49 -1.597 4.179
 0.503 -1.598 4.178
 0.516 -1.601 4.186
 0.53 -1.605 4.193
 0.543 -1.605 4.192
 0.556 -1.606 4.194
 0.568 -1.604 4.187
 0.581 -1.604 4.187
 0.593 -1.604 4.184
 0.606 -1.604 4.184
 0.619 -1.604 4.181
 0.632 -1.605 4.182
 0.644 -1.603 4.175
 0.657 -1.604 4.175
 0.67 -1.605 4.176
 0.684 -1.607 4.18
 0.698 -1.61 4.186
 0.711 -1.612 4.188
 0.725 -1.614 4.191
 0.736 -1.611 4.182
 0.749 -1.612 4.183
 0.761 -1.61 4.174
 0.775 -1.612 4.178
 0.785 -1.608 4.164
 0.799 -1.609 4.166
 0.809 -1.605 4.153
 0.822 -1.605 4.151
 0.833 -1.602 4.141
 0.846 -1.603 4.141
 0.86 -1.605 4.142
 0.874 -1.607 4.147
 0.888 -1.61 4.153
 0.902 -1.612 4.153
 0.915 -1.612 4.152
 0.928 -1.613 4.151
 0.94 -1.613 4.148
 0.952 -1.61 4.14
 0.965 -1.611 4.138
 0.977 -1.61 4.133
 0.988 -1.608 4.124
 1.002 -1.61 4.128
 1.017 -1.613 4.133
 1.03 -1.613 4.13
 1.044 -1.616 4.135
 1.058 -1.618 4.137
 1.071 -1.618 4.134
 1.083 -1.618 4.129
 1.098 -1.621 4.134
 1.111 -1.621 4.131
 1.124 -1.622 4.13
 1.136 -1.621 4.124
 1.149 -1.62 4.12
 1.162 -1.621 4.118
 1.175 -1.621 4.115
 1.189 -1.622 4.115
 1.203 -1.624 4.116
 1.217 -1.626 4.117
 1.229 -1.624 4.11
 1.243 -1.626 4.111
 1.255 -1.625 4.105
 1.266 -1.623 4.095
 1.278 -1.622 4.091
 1.29 -1.622 4.086
 1.303 -1.622 4.082
 1.317 -1.623 4.08
 1.332 -1.626 4.085
 1.345 -1.627 4.082
 1.36 -1.629 4.085
 1.372 -1.628 4.078
 1.385 -1.628 4.074
 1.397 -1.627 4.067
 1.408 -1.625 4.059
 1.419 -1.623 4.05
 1.433 -1.625 4.05
 1.446 -1.624 4.044
 1.457 -1.623 4.036
 1.472 -1.626 4.039
 1.485 -1.626 4.035
 1.496 -1.624 4.026
 1.511 -1.626 4.026
 1.522 -1.624 4.017
 1.534 -1.623 4.011
 1.551 -1.627 4.017
 1.564 -1.628 4.014
 1.576 -1.627 4.007
 1.591 -1.63 4.009
 1.605 -1.63 4.005
 1.616 -1.629 3.996
 1.629 -1.629 3.993
 1.64 -1.628 3.984
 1.651 -1.625 3.974
 1.663 -1.625 3.968
 1.672 -1.622 3.955
 1.685 -1.622 3.95
 1.699 -1.623 3.947
 1.714 -1.625 3.947
 1.726 -1.624 3.941
 1.74 -1.625 3.938
 1.751 -1.623 3.929
 1.767 -1.626 3.931
 1.779 -1.626 3.924
 1.79 -1.625 3.916
 1.802 -1.624 3.908
 1.817 -1.626 3.907
 1.826 -1.623 3.895
 1.838 -1.622 3.888
 1.849 -1.62 3.878
 1.858 -1.617 3.866
 1.863 -1.611 3.844
 1.872 -1.608 3.832
 1.872 -1.597 3.8
 1.874 -1.588 3.773
 1.875 -1.578 3.743
 1.873 -1.567 3.711
 1.867 -1.551 3.668
 1.867 -1.541 3.639
 1.871 -1.535 3.618
 1.873 -1.527 3.593
 1.875 -1.518 3.567
 1.88 -1.513 3.549
 1.888 -1.51 3.536
 1.888 -1.5 3.508
 1.885 -1.489 3.475
 1.888 -1.482 3.454
 0 0 0
 0 0 0
 0 0 0
 0 0 0
 0 0 0
 1.795 -1.359 3.134
 1.81 -1.362 3.136
 1.819 -1.361 3.127
 1.825 -1.358 3.115
 1.835 -1.357 3.107
 1.837 -1.351 3.088
 1.834 -1.341 3.06
 1.832 -1.332 3.034
 1.833 -1.325 3.012
 1.831 -1.316 2.985
 1.839 -1.315 2.976
 -2.242 -1.608 3.763
 -2.202 -1.588 3.723
 -2.245 -1.629 3.825
 -2.227 -1.625 3.824
 -2.219 -1.629 3.84
 -2.198 -1.623 3.831
 -2.185 -1.624 3.839
 -2.168 -1.621 3.838
 -2.162 -1.626 3.856
 -2.141 -1.62 3.848
 -2.131 -1.622 3.86
 -2.116 -1.621 3.863
 -2.106 -1.623 3.875
 -2.09 -1.621 3.876
 -2.084 -1.626 3.895
 -2.073 -1.628 3.905
 -2.06 -1.629 3.912
 -2.048 -1.629 3.919
 -2.033 -1.628 3.923
 -2.019 -1.627 3.926
 -2.006 -1.627 3.932
 -1.992 -1.627 3.937
 -1.978 -1.626 3.94
 -1.967 -1.628 3.95
 -1.954 -1.628 3.957
 -1.939 -1.627 3.959
 -1.923 -1.624 3.958
 -1.913 -1.627 3.969
 -1.899 -1.626 3.973
 -1.883 -1.624 3.973
 -1.869 -1.623 3.975
 -1.857 -1.624 3.983
 -1.84 -1.621 3.981
 -1.827 -1.621 3.986
 -1.815 -1.622 3.993
 -1.801 -1.621 3.997
 -1.791 -1.623 4.008
 -1.78 -1.625 4.017
 -1.766 -1.625 4.022
 -1.75 -1.622 4.02
 -1.737 -1.622 4.025
 -1.723 -1.621 4.027
 -1.707 -1.619 4.025
 -1.693 -1.618 4.028
 -1.683 -1.621 4.039
 -1.669 -1.62 4.042
 -1.655 -1.619 4.044
 -1.643 -1.62 4.051
 -1.629 -1.619 4.054
 -1.616 -1.619 4.058
 -1.601 -1.617 4.057
 -1.59 -1.619 4.067
 -1.578 -1.62 4.074
 -1.563 -1.618 4.073
 -1.546 -1.615 4.068
 -1.536 -1.617 4.079
 -1.52 -1.615 4.077
 -1.508 -1.615 4.082
 -1.496 -1.617 4.089
 -1.487 -1.621 4.104
 -1.474 -1.621 4.108
 -1.459 -1.62 4.109
 -1.446 -1.619 4.111
 -1.43 -1.616 4.109
 -1.416 -1.615 4.109
 -1.401 -1.613 4.107
 -1.39 -1.615 4.117
 -1.375 -1.613 4.115
 -1.364 -1.615 4.123
 -1.352 -1.616 4.13
 -1.34 -1.617 4.136
 -1.327 -1.618 4.141
 -1.314 -1.618 4.145
 -1.301 -1.618 4.148
 -1.286 -1.616 4.146
 -1.274 -1.616 4.15
 -1.26 -1.615 4.151
 -1.248 -1.616 4.158
 -1.232 -1.613 4.151
 -1.219 -1.613 4.155
 -1.205 -1.611 4.153
 -1.191 -1.61 4.153
 -1.176 -1.608 4.151
 -1.166 -1.611 4.163
 -1.153 -1.612 4.167
 -1.141 -1.613 4.173
 -1.13 -1.616 4.183
 -1.115 -1.612 4.177
 -1.1 -1.609 4.172
 -1.085 -1.607 4.17
 -1.072 -1.606 4.17
 -1.056 -1.602 4.162
 -1.046 -1.607 4.176
 -1.033 -1.606 4.177
 -1.02 -1.606 4.179
 -1.007 -1.606 4.183
 -0.996 -1.608 4.191
 -0.98 -1.604 4.181
 -0.968 -1.606 4.189
 -0.956 -1.607 4.195
 -0.943 -1.607 4.197
 -0.929 -1.606 4.195
 -0.917 -1.607 4.2
 -0.903 -1.604 4.196
 -0.888 -1.601 4.19
 -0.874 -1.599 4.187
 -0.862 -1.601 4.193
 -0.85 -1.602 4.198
 -0.837 -1.602 4.202
 -0.826 -1.605 4.212
 -0.814 -1.607 4.218
 -0.799 -1.604 4.213
 -0.786 -1.604 4.214
 -0.772 -1.602 4.21
 -0.759 -1.6 4.207
 -0.745 -1.599 4.206
 -0.733 -1.599 4.208
 -0.719 -1.598 4.207
 -0.708 -1.601 4.217
 -0.694 -1.598 4.212
 -0.681 -1.599 4.215
 -0.668 -1.598 4.213
 -0.655 -1.597 4.212
 -0.642 -1.598 4.216
 -0.63 -1.6 4.224
 -0.617 -1.598 4.219
 -0.604 -1.598 4.221
 -0.591 -1.598 4.222
 -0.578 -1.597 4.22
 -0.564 -1.595 4.218
 -0.551 -1.594 4.217
 -0.539 -1.596 4.223
 -0.526 -1.595 4.222
 -0.513 -1.595 4.222
 -0.5 -1.595 4.224
 -0.488 -1.596 4.227
 -0.474 -1.594 4.223
 -0.462 -1.596 4.23
 -0.449 -1.595 4.227
 -0.436 -1.594 4.225
 -0.423 -1.592 4.22
 -0.41 -1.59 4.218
 -0.396 -1.587 4.21
 -0.384 -1.591 4.221
 -0.372 -1.592 4.224
 -0.359 -1.594 4.23
 -0.347 -1.595 4.234
 -0.334 -1.597 4.239
 -0.321 -1.594 4.233
 -0.308 -1.594 4.232
 -0.295 -1.593 4.23
 -0.282 -1.591 4.225
 -0.269 -1.59 4.225
 -0.256 -1.588 4.218
 -0.243 -1.587 4.216
 -0.231 -1.586 4.214
 -0.218 -1.588 4.219
 -0.205 -1.589 4.223
 -0.193 -1.587 4.219
 -0.18 -1.587 4.22
 -0.167 -1.587 4.219
 -0.155 -1.588 4.223
 -0.142 -1.587 4.219
 -0.129 -1.587 4.22
 -0.116 -1.587 4.221
 -0.104 -1.587 4.22
 -0.091 -1.584 4.212
 -0.078 -1.583 4.211
 -0.066 -1.586 4.218
 -0.053 -1.585 4.216
 -0.04 -1.588 4.222
 -0.028 -1.59 4.227
 -0.015 -1.589 4.225
 -0.002 -1.589 4.225
 0.01 -1.593 4.236
 0.022 -1.593 4.234
 0.035 -1.593 4.235
 0.048 -1.593 4.235
 0.06 -1.59 4.227
 0.073 -1.587 4.219
 0.086 -1.589 4.222
 0.098 -1.587 4.219
 0.111 -1.589 4.223
 0.124 -1.592 4.23
 0.137 -1.591 4.226
 0.149 -1.59 4.224
 0.162 -1.589 4.22
 0.174 -1.588 4.217
 0.187 -1.586 4.212
 0.2 -1.589 4.22
 0.213 -1.588 4.216
 0.226 -1.591 4.222
 0.239 -1.594 4.231
 0.251 -1.593 4.226
 0.263 -1.589 4.216
 0.276 -1.589 4.215
 0.289 -1.589 4.213
 0.301 -1.589 4.211
 0.315 -1.592 4.22
 0.328 -1.592 4.22
 0.34 -1.593 4.219
 0.353 -1.592 4.216
 0.365 -1.591 4.212
 0.378 -1.591 4.212
 0.391 -1.592 4.212
 0.404 -1.595 4.22
 0.417 -1.596 4.222
 0.43 -1.594 4.216
 0.442 -1.594 4.214
 0.455 -1.594 4.211
 0.466 -1.59 4.199
 0.479 -1.589 4.196
 0.491 -1.587 4.191
 0.504 -1.588 4.191
 0.518 -1.592 4.199
 0.532 -1.595 4.207
 0.545 -1.596 4.208
 0.558 -1.599 4.215
 0.571 -1.598 4.21
 0.583 -1.598 4.208
 0.596 -1.597 4.203
 0.609 -1.598 4.206
 0.622 -1.598 4.203
 0.635 -1.599 4.202
 0.647 -1.598 4.198
 0.661 -1.6 4.203
 0.673 -1.6 4.2
 0.687 -1.602 4.203
 0.7 -1.603 4.205
 0.713 -1.603 4.202
 0.725 -1.603 4.2
 0.738 -1.601 4.194
 0.75 -1.601 4.192
 0.762 -1.6 4.186
 0.776 -1.602 4.189
 0.788 -1.6 4.182
 0.801 -1.601 4.182
 0.812 -1.598 4.173
 0.825 -1.598 4.17
 0.837 -1.596 4.162
 0.849 -1.596 4.16
 0.863 -1.597 4.16
 0.877 -1.601 4.167
 0.892 -1.604 4.173
 0.906 -1.607 4.178
 0.919 -1.607 4.176
 0.933 -1.609 4.178
 0.945 -1.607 4.172
 0.956 -1.604 4.161
 0.968 -1.604 4.158
 0.982 -1.606 4.159
 0.992 -1.602 4.146
 1.006 -1.603 4.148
 1.021 -1.607 4.153
 1.034 -1.607 4.153
 1.048 -1.608 4.152
 1.062 -1.611 4.155
 1.075 -1.611 4.154
 1.088 -1.612 4.152
 1.102 -1.613 4.151
 1.116 -1.614 4.152
 1.129 -1.615 4.151
 1.141 -1.615 4.146
 1.154 -1.614 4.141
 1.167 -1.615 4.141
 1.181 -1.616 4.141
 1.195 -1.618 4.141
 1.21 -1.621 4.146
 1.224 -1.622 4.144
 1.236 -1.621 4.139
 1.25 -1.622 4.138
 1.264 -1.624 4.138
 1.274 -1.621 4.128
 1.287 -1.621 4.125
 1.3 -1.621 4.121
 1.314 -1.622 4.119
 1.326 -1.621 4.112
 1.342 -1.625 4.119
 1.355 -1.625 4.117
 1.369 -1.626 4.115
 1.379 -1.623 4.103
 1.392 -1.624 4.1
 1.402 -1.62 4.086
 1.414 -1.619 4.08
 1.426 -1.618 4.075
 1.441 -1.621 4.076
 1.453 -1.62 4.07
 1.467 -1.621 4.068
 1.481 -1.622 4.067
 1.494 -1.623 4.064
 1.506 -1.621 4.056
 1.52 -1.623 4.056
 1.532 -1.622 4.049
 1.544 -1.621 4.041
 1.56 -1.624 4.045
 1.575 -1.626 4.046
 1.587 -1.626 4.04
 1.602 -1.627 4.04
 1.616 -1.629 4.038
 1.626 -1.626 4.027
 1.637 -1.624 4.017
 1.649 -1.623 4.01
 1.66 -1.621 4.001
 1.673 -1.622 3.997
 1.685 -1.621 3.989
 1.697 -1.62 3.983
 1.71 -1.62 3.978
 1.724 -1.621 3.975
 1.735 -1.62 3.966
 1.749 -1.62 3.963
 1.76 -1.619 3.954
 1.776 -1.622 3.955
 1.789 -1.622 3.95
 1.802 -1.622 3.945
 1.813 -1.62 3.936
 1.829 -1.623 3.938
 1.837 -1.619 3.922
 1.846 -1.616 3.909
 1.856 -1.614 3.898
 1.866 -1.611 3.886
 1.87 -1.604 3.864
 1.878 -1.6 3.848
 1.882 -1.592 3.823
 1.879 -1.58 3.787
 1.877 -1.568 3.753
 1.876 -1.557 3.721
 1.873 -1.544 3.684
 1.872 -1.533 3.652
 1.877 -1.527 3.633
 1.881 -1.521 3.612
 1.882 -1.512 3.586
 1.885 -1.505 3.563
 1.893 -1.502 3.55
 1.898 -1.496 3.532
 1.897 -1.487 3.503
 0 0 0
 0 0 0
 0 0 0
 0 0 0
 0 0 0
 0 0 0
 1.781 -1.338 3.114
 1.797 -1.342 3.118
 1.809 -1.343 3.115
 1.819 -1.342 3.107
 1.828 -1.341 3.099
 1.833 -1.337 3.084
 1.834 -1.331 3.064
 1.835 -1.324 3.042
 1.837 -1.317 3.022
 1.829 -1.304 2.986
 1.825 -1.295 2.958
 -2.275 -1.618 3.824
 0 0 0
 -2.254 -1.622 3.845
 -2.238 -1.62 3.847
 -2.23 -1.624 3.863
 -2.212 -1.621 3.862
 -2.201 -1.622 3.871
 -2.187 -1.621 3.876
 -2.176 -1.623 3.888
 -2.157 -1.619 3.883
 -2.145 -1.62 3.891
 -2.13 -1.618 3.894
 -2.12 -1.621 3.906
 -2.106 -1.62 3.911
 -2.098 -1.624 3.927
 -2.086 -1.626 3.935
 -2.072 -1.625 3.94
 -2.061 -1.626 3.949
 -2.044 -1.624 3.949
 -2.029 -1.622 3.951
 -2.018 -1.624 3.961
 -2.003 -1.623 3.964
 -1.989 -1.622 3.968
 -1.982 -1.628 3.987
 -1.971 -1.629 3.996
 -1.956 -1.628 3.999
 -1.943 -1.628 4.004
 -1.93 -1.628 4.01
 -1.913 -1.625 4.008
 -1.899 -1.624 4.012
 -1.883 -1.622 4.01
 -1.868 -1.621 4.013
 -1.855 -1.62 4.017
 -1.842 -1.621 4.024
 -1.825 -1.618 4.021
 -1.814 -1.619 4.03
 -1.803 -1.622 4.041
 -1.79 -1.622 4.047
 -1.778 -1.623 4.053
 -1.766 -1.624 4.061
 -1.752 -1.623 4.063
 -1.738 -1.622 4.067
 -1.72 -1.618 4.061
 -1.705 -1.617 4.062
 -1.693 -1.617 4.069
 -1.679 -1.616 4.071
 -1.664 -1.615 4.072
 -1.652 -1.616 4.08
 -1.638 -1.615 4.081
 -1.626 -1.616 4.087
 -1.612 -1.615 4.09
 -1.6 -1.616 4.097
 -1.588 -1.617 4.104
 -1.574 -1.617 4.108
 -1.558 -1.614 4.105
 -1.546 -1.616 4.112
 -1.532 -1.614 4.113
 -1.519 -1.615 4.119
 -1.508 -1.617 4.127
 -1.498 -1.62 4.141
 -1.483 -1.618 4.14
 -1.468 -1.617 4.139
 -1.454 -1.615 4.139
 -1.438 -1.612 4.136
 -1.423 -1.61 4.133
 -1.41 -1.61 4.137
 -1.399 -1.613 4.149
 -1.384 -1.61 4.145
 -1.371 -1.611 4.15
 -1.359 -1.611 4.155
 -1.346 -1.612 4.161
 -1.332 -1.61 4.161
 -1.318 -1.61 4.163
 -1.307 -1.612 4.17
 -1.293 -1.61 4.171
 -1.279 -1.61 4.173
 -1.265 -1.609 4.172
 -1.253 -1.61 4.181
 -1.237 -1.607 4.174
 -1.224 -1.607 4.177
 -1.209 -1.604 4.174
 -1.197 -1.605 4.179
 -1.184 -1.605 4.183
 -1.173 -1.608 4.194
 -1.159 -1.607 4.193
 -1.146 -1.607 4.195
 -1.134 -1.609 4.204
 -1.119 -1.605 4.198
 -1.104 -1.603 4.193
 -1.091 -1.602 4.195
 -1.078 -1.603 4.199
 -1.062 -1.598 4.19
 -1.051 -1.601 4.2
 -1.037 -1.6 4.198
 -1.024 -1.599 4.2
 -1.011 -1.6 4.205
 -0.999 -1.602 4.212
 -0.984 -1.598 4.205
 -0.973 -1.601 4.214
 -0.96 -1.601 4.218
 -0.947 -1.601 4.221
 -0.933 -1.599 4.217
 -0.92 -1.599 4.22
 -0.905 -1.596 4.212
 -0.89 -1.593 4.207
 -0.877 -1.591 4.204
 -0.865 -1.593 4.212
 -0.853 -1.595 4.22
 -0.841 -1.597 4.226
 -0.83 -1.601 4.238
 -0.817 -1.601 4.241
 -0.803 -1.598 4.235
 -0.789 -1.596 4.232
 -0.775 -1.594 4.229
 -0.761 -1.592 4.223
 -0.748 -1.591 4.224
 -0.734 -1.589 4.221
 -0.721 -1.589 4.221
 -0.709 -1.591 4.23
 -0.695 -1.589 4.226
 -0.682 -1.589 4.226
 -0.669 -1.589 4.227
 -0.657 -1.589 4.229
 -0.644 -1.59 4.234
 -0.632 -1.591 4.239
 -0.619 -1.59 4.238
 -0.606 -1.59 4.238
 -0.592 -1.589 4.237
 -0.579 -1.587 4.232
 -0.565 -1.585 4.228
 -0.552 -1.584 4.228
 -0.54 -1.587 4.236
 -0.527 -1.587 4.237
 -0.515 -1.588 4.241
 -0.503 -1.59 4.248
 -0.49 -1.589 4.247
 -0.476 -1.587 4.242
 -0.464 -1.588 4.246
 -0.45 -1.586 4.243
 -0.437 -1.585 4.239
 -0.424 -1.584 4.239
 -0.411 -1.583 4.235
 -0.397 -1.58 4.228
 -0.385 -1.581 4.233
 -0.372 -1.582 4.236
 -0.36 -1.583 4.239
 -0.347 -1.585 4.245
 -0.335 -1.588 4.253
 -0.322 -1.587 4.254
 -0.309 -1.586 4.251
 -0.296 -1.585 4.247
 -0.283 -1.581 4.239
 -0.27 -1.58 4.235
 -0.257 -1.578 4.231
 -0.244 -1.577 4.228
 -0.231 -1.575 4.224
 -0.218 -1.576 4.228
 -0.206 -1.578 4.231
 -0.193 -1.575 4.224
 -0.18 -1.576 4.227
 -0.167 -1.576 4.228
 -0.155 -1.577 4.232
 -0.142 -1.575 4.227
 -0.129 -1.576 4.228
 -0.116 -1.576 4.23
 -0.104 -1.578 4.233
 -0.091 -1.576 4.228
 -0.078 -1.576 4.228
 -0.066 -1.578 4.234
 -0.053 -1.578 4.234
 -0.04 -1.578 4.235
 -0.028 -1.58 4.241
 -0.015 -1.58 4.24
 -0.002 -1.581 4.241
 0.01 -1.582 4.243
 0.022 -1.582 4.245
 0.035 -1.583 4.246
 0.048 -1.582 4.245
 0.061 -1.58 4.237
 0.073 -1.579 4.234
 0.086 -1.579 4.234
 0.099 -1.576 4.227
 0.111 -1.579 4.233
 0.124 -1.579 4.234
 0.137 -1.579 4.232
 0.15 -1.579 4.234
 0.162 -1.579 4.232
 0.175 -1.577 4.226
 0.187 -1.576 4.221
 0.2 -1.579 4.229
 0.213 -1.577 4.224
 0.226 -1.579 4.229
 0.239 -1.583 4.238
 0.252 -1.583 4.238
 0.264 -1.58 4.229
 0.277 -1.581 4.231
 0.29 -1.581 4.23
 0.302 -1.581 4.228
 0.315 -1.582 4.23
 0.328 -1.581 4.227
 0.34 -1.58 4.223
 0.353 -1.58 4.223
 0.366 -1.579 4.219
 0.379 -1.58 4.221
 0.392 -1.582 4.225
 0.405 -1.585 4.232
 0.418 -1.586 4.232
 0.431 -1.585 4.229
 0.443 -1.584 4.226
 0.455 -1.583 4.221
 0.467 -1.58 4.211
 0.48 -1.578 4.205
 0.491 -1.576 4.198
 0.505 -1.577 4.2
 0.518 -1.579 4.204
 0.531 -1.582 4.21
 0.544 -1.583 4.21
 0.558 -1.586 4.218
 0.571 -1.585 4.212
 0.583 -1.585 4.211
 0.596 -1.585 4.211
 0.61 -1.587 4.214
 0.623 -1.588 4.213
 0.636 -1.59 4.217
 0.649 -1.591 4.218
 0.663 -1.593 4.222
 0.676 -1.594 4.222
 0.689 -1.594 4.221
 0.703 -1.596 4.223
 0.715 -1.595 4.219
 0.727 -1.593 4.211
 0.739 -1.592 4.207
 0.752 -1.592 4.205
 0.764 -1.591 4.199
 0.777 -1.59 4.197
 0.789 -1.59 4.193
 0.802 -1.59 4.191
 0.814 -1.588 4.183
 0.826 -1.587 4.18
 0.838 -1.586 4.175
 0.852 -1.588 4.176
 0.865 -1.589 4.176
 0.88 -1.593 4.185
 0.895 -1.596 4.19
 0.909 -1.598 4.194
 0.921 -1.598 4.191
 0.935 -1.6 4.193
 0.946 -1.597 4.183
 0.958 -1.595 4.174
 0.971 -1.595 4.171
 0.985 -1.597 4.174
 0.996 -1.594 4.164
 1.01 -1.596 4.167
 1.024 -1.598 4.169
 1.038 -1.6 4.17
 1.05 -1.6 4.167
 1.065 -1.603 4.173
 1.078 -1.603 4.17
 1.092 -1.604 4.171
 1.105 -1.605 4.169
 1.12 -1.608 4.174
 1.133 -1.608 4.171
 1.146 -1.609 4.169
 1.159 -1.609 4.165
 1.172 -1.609 4.163
 1.185 -1.609 4.16
 1.198 -1.609 4.157
 1.213 -1.612 4.16
 1.227 -1.613 4.159
 1.239 -1.613 4.155
 1.253 -1.613 4.153
 1.267 -1.615 4.155
 1.28 -1.615 4.149
 1.294 -1.616 4.149
 1.307 -1.616 4.146
 1.321 -1.617 4.145
 1.332 -1.616 4.137
 1.348 -1.619 4.142
 1.361 -1.62 4.139
 1.374 -1.62 4.136
 1.386 -1.618 4.127
 1.401 -1.62 4.129
 1.41 -1.616 4.115
 1.422 -1.615 4.108
 1.435 -1.615 4.104
 1.448 -1.616 4.101
 1.461 -1.615 4.095
 1.474 -1.616 4.093
 1.488 -1.617 4.091
 1.503 -1.619 4.091
 1.515 -1.618 4.086
 1.529 -1.619 4.083
 1.542 -1.619 4.078
 1.553 -1.618 4.071
 1.568 -1.62 4.072
 1.584 -1.623 4.075
 1.596 -1.622 4.068
 1.611 -1.623 4.067
 1.626 -1.625 4.067
 1.636 -1.623 4.056
 1.647 -1.621 4.047
 1.661 -1.622 4.045
 1.672 -1.62 4.035
 1.684 -1.619 4.028
 1.696 -1.619 4.02
 1.708 -1.618 4.014
 1.718 -1.615 4.001
 1.734 -1.617 4.002
 1.746 -1.617 3.996
 1.758 -1.616 3.989
 1.771 -1.616 3.983
 1.79 -1.621 3.991
 1.801 -1.62 3.983
 1.815 -1.621 3.98
 1.828 -1.621 3.974
 1.839 -1.619 3.965
 1.844 -1.612 3.942
 1.855 -1.61 3.932
 1.862 -1.606 3.915
 1.868 -1.6 3.895
 1.874 -1.594 3.875
 1.883 -1.591 3.862
 1.883 -1.581 3.831
 1.881 -1.569 3.796
 1.883 -1.559 3.768
 1.882 -1.549 3.737
 1.877 -1.535 3.696
 1.878 -1.525 3.668
 1.882 -1.519 3.648
 1.884 -1.511 3.623
 1.885 -1.502 3.596
 1.89 -1.497 3.577
 1.895 -1.491 3.558
 1.901 -1.486 3.541
 0 0 0
 0 0 0
 0 0 0
 0 0 0
 0 0 0
 0 0 0
 0 0 0
 1.781 -1.328 3.118
 1.793 -1.329 3.115
 1.806 -1.33 3.114
 1.816 -1.33 3.107
 1.825 -1.329 3.099
 1.832 -1.326 3.087
 1.837 -1.322 3.073
 1.839 -1.316 3.052
 1.838 -1.308 3.028
 1.809 -1.28 2.958
 1.836 -1.292 2.979
 -2.338 -1.65 3.935
 -2.269 -1.61 3.848
 -2.267 -1.618 3.872
 -2.249 -1.615 3.872
 -2.241 -1.619 3.887
 -2.225 -1.617 3.89
 -2.214 -1.618 3.9
 -2.199 -1.617 3.904
 -2.191 -1.621 3.918
 -2.174 -1.618 3.918
 -2.162 -1.62 3.928
 -2.146 -1.617 3.928
 -2.132 -1.617 3.934
 -2.119 -1.617 3.939
 -2.109 -1.62 3.953
 -2.097 -1.621 3.961
 -2.085 -1.622 3.969
 -2.075 -1.624 3.981
 -2.059 -1.623 3.983
 -2.044 -1.621 3.984
 -2.032 -1.622 3.993
 -2.016 -1.62 3.995
 -2.003 -1.62 4
 -1.994 -1.623 4.014
 -1.981 -1.624 4.021
 -1.965 -1.622 4.02
 -1.953 -1.623 4.03
 -1.939 -1.623 4.034
 -1.925 -1.622 4.038
 -1.913 -1.623 4.047
 -1.898 -1.622 4.048
 -1.883 -1.621 4.051
 -1.87 -1.621 4.056
 -1.857 -1.62 4.06
 -1.84 -1.618 4.059
 -1.829 -1.62 4.07
 -1.819 -1.623 4.082
 -1.807 -1.623 4.089
 -1.794 -1.624 4.095
 -1.781 -1.624 4.101
 -1.767 -1.623 4.103
 -1.751 -1.622 4.103
 -1.732 -1.616 4.094
 -1.716 -1.613 4.092
 -1.704 -1.614 4.099
 -1.689 -1.613 4.1
 -1.673 -1.611 4.099
 -1.664 -1.614 4.113
 -1.651 -1.615 4.118
 -1.639 -1.616 4.126
 -1.627 -1.617 4.134
