 0.599 -1.609 3.941
 0.613 -1.614 3.951
 0.625 -1.613 3.948
 0.643 -1.629 3.985
 0.656 -1.631 3.988
 0.662 -1.614 3.944
 0.685 -1.64 4.008
 0.676 -1.591 3.884
 0.714 -1.65 4.027
 0.711 -1.616 3.941
 0.731 -1.634 3.983
 0.75 -1.648 4.016
 0.758 -1.639 3.991
 0.765 -1.628 3.964
 0.774 -1.621 3.943
 0.78 -1.61 3.913
 0.799 -1.623 3.945
 0.805 -1.612 3.914
 0.823 -1.623 3.939
 0.838 -1.629 3.951
 0.839 -1.607 3.895
 0.875 -1.652 4.002
 0.874 -1.628 3.941
 0.889 -1.633 3.951
 0.899 -1.629 3.939
 0.9 -1.609 3.889
 0.933 -1.645 3.974
 0.94 -1.636 3.949
 0.945 -1.625 3.918
 0.968 -1.643 3.958
 0.986 -1.653 3.98
 0.991 -1.64 3.945
 1.005 -1.643 3.95
 1 -1.615 3.881
 1.014 -1.619 3.887
 1.03 -1.625 3.899
 1.034 -1.611 3.863
 1.069 -1.647 3.946
 1.078 -1.642 3.93
 1.08 -1.627 3.892
 1.1 -1.639 3.916
 1.128 -1.662 3.968
 1.119 -1.631 3.891
 1.145 -1.651 3.935
 1.151 -1.642 3.911
 1.15 -1.623 3.862
 1.178 -1.645 3.911
 1.189 -1.644 3.905
 1.174 -1.606 3.811
 1.206 -1.633 3.871
 1.208 -1.62 3.837
 1.229 -1.631 3.861
 1.242 -1.632 3.86
 1.236 -1.609 3.801
 1.268 -1.635 3.859
 1.29 -1.647 3.883
 1.304 -1.649 3.884
 1.31 -1.641 3.863
 1.333 -1.655 3.892
 1.354 -1.665 3.912
 1.352 -1.648 3.867
 1.364 -1.648 3.863
 1.372 -1.643 3.847
 1.381 -1.639 3.833
 1.389 -1.634 3.817
 1.408 -1.641 3.831
 1.41 -1.63 3.8
 1.421 -1.629 3.794
 1.465 -1.664 3.872
 1.429 -1.611 3.743
 1.441 -1.611 3.739
 1.447 -1.603 3.717
 1.479 -1.626 3.765
 1.516 -1.652 3.822
 1.507 -1.63 3.766
 1.506 -1.616 3.728
 1.542 -1.641 3.783
 1.56 -1.648 3.793
 1.574 -1.649 3.792
 1.571 -1.633 3.75
 1.581 -1.631 3.74
 1.625 -1.664 3.811
 1.594 -1.62 3.706
 1.629 -1.643 3.755
 1.644 -1.646 3.755
 1.687 -1.676 3.819
 1.638 -1.616 3.676
 1.71 -1.675 3.806
 1.695 -1.647 3.739
 1.683 -1.624 3.681
 1.738 -1.666 3.77
 1.689 -1.607 3.633
 1.74 -1.644 3.711
 1.745 -1.637 3.689
 1.742 -1.624 3.654
 1.786 -1.653 3.714
 1.768 -1.625 3.647
 1.795 -1.638 3.671
 1.797 -1.629 3.645
 1.865 -1.68 3.753
 1.807 -1.617 3.606
 1.816 -1.614 3.595
 1.802 -1.591 3.538
 1.852 -1.624 3.607
 1.847 -1.61 3.568
 1.873 -1.622 3.59
 1.864 -1.604 3.545
 0 0 0
 1.845 -1.567 3.452
 1.855 -1.566 3.444
 1.844 -1.547 3.397
 1.878 -1.566 3.432
 1.796 -1.489 3.257
 1.876 -1.545 3.375
 1.881 -1.54 3.358
 1.834 -1.492 3.248
 1.879 -1.52 3.302
 0 0 0
 1.876 -1.5 3.247
 1.861 -1.479 3.196
 1.834 -1.449 3.124
 1.819 -1.429 3.076
 1.834 -1.432 3.078
 1.819 -1.412 3.029
 1.828 -1.411 3.021
 1.86 -1.428 3.051
 1.827 -1.395 2.974
 1.831 -1.39 2.959
 1.819 -1.373 2.917
 -2.103 -1.593 3.496
 -2.14 -1.63 3.584
 -2.129 -1.631 3.592
 -2.112 -1.629 3.592
 -2.102 -1.63 3.601
 -2.094 -1.634 3.616
 -2.084 -1.636 3.627
 -2.069 -1.634 3.628
 -2.061 -1.637 3.641
 -2.049 -1.638 3.649
 -2.03 -1.632 3.643
 -2.017 -1.632 3.649
 -2.004 -1.631 3.652
 -1.987 -1.628 3.651
 -1.971 -1.625 3.65
 -1.962 -1.628 3.662
 -1.949 -1.628 3.667
 -1.939 -1.63 3.677
 -1.929 -1.632 3.688
 -1.921 -1.636 3.701
 -1.912 -1.638 3.713
 -1.899 -1.638 3.717
 -1.89 -1.641 3.73
 -1.878 -1.641 3.736
 -1.868 -1.644 3.747
 -1.855 -1.644 3.752
 -1.841 -1.642 3.754
 -1.824 -1.638 3.75
 -1.812 -1.639 3.757
 -1.798 -1.638 3.759
 -1.787 -1.639 3.767
 -1.776 -1.641 3.776
 -1.766 -1.643 3.786
 -1.751 -1.641 3.786
 -1.737 -1.639 3.788
 -1.724 -1.639 3.792
 -1.709 -1.636 3.79
 -1.695 -1.635 3.793
 -1.682 -1.635 3.797
 -1.671 -1.636 3.805
 -1.656 -1.634 3.804
 -1.646 -1.636 3.813
 -1.636 -1.638 3.823
 -1.626 -1.641 3.834
 -1.612 -1.64 3.836
 -1.602 -1.643 3.847
 -1.59 -1.643 3.851
 -1.575 -1.64 3.85
 -1.56 -1.638 3.849
 -1.545 -1.636 3.847
 -1.532 -1.634 3.849
 -1.518 -1.633 3.851
 -1.505 -1.632 3.851
 -1.489 -1.629 3.848
 -1.479 -1.631 3.857
 -1.467 -1.631 3.862
 -1.456 -1.633 3.871
 -1.445 -1.635 3.879
 -1.433 -1.635 3.884
 -1.417 -1.632 3.88
 -1.405 -1.632 3.884
 -1.391 -1.631 3.884
 -1.377 -1.628 3.881
 -1.368 -1.632 3.895
 -1.359 -1.637 3.911
 -1.346 -1.636 3.912
 -1.332 -1.635 3.911
 -1.32 -1.635 3.917
 -1.305 -1.632 3.913
 -1.291 -1.63 3.911
 -1.279 -1.63 3.914
 -1.267 -1.631 3.92
 -1.255 -1.632 3.925
 -1.241 -1.63 3.924
 -1.229 -1.63 3.928
 -1.217 -1.631 3.932
 -1.204 -1.63 3.934
 -1.193 -1.632 3.941
 -1.181 -1.632 3.946
 -1.169 -1.633 3.952
 -1.156 -1.633 3.953
 -1.145 -1.634 3.959
 -1.13 -1.631 3.955
 -1.116 -1.628 3.95
 -1.101 -1.625 3.947
 -1.089 -1.625 3.949
 -1.075 -1.623 3.946
 -1.063 -1.623 3.95
 -1.052 -1.625 3.957
 -1.04 -1.626 3.963
 -1.028 -1.627 3.967
 -1.015 -1.625 3.966
 -1.001 -1.623 3.964
 -0.99 -1.625 3.97
 -0.976 -1.623 3.967
 -0.962 -1.619 3.961
 -0.95 -1.621 3.967
 -0.939 -1.623 3.974
 -0.928 -1.624 3.981
 -0.916 -1.626 3.987
 -0.904 -1.627 3.993
 -0.891 -1.625 3.99
 -0.879 -1.627 3.996
 -0.865 -1.623 3.988
 -0.851 -1.619 3.981
 -0.837 -1.616 3.977
 -0.826 -1.618 3.984
 -0.813 -1.618 3.985
 -0.802 -1.621 3.994
 -0.79 -1.622 3.999
 -0.78 -1.626 4.011
 -0.768 -1.627 4.014
 -0.754 -1.624 4.008
 -0.741 -1.622 4.006
 -0.729 -1.623 4.011
 -0.717 -1.623 4.013
 -0.706 -1.627 4.024
 -0.694 -1.628 4.029
 -0.682 -1.628 4.029
 -0.67 -1.63 4.037
 -0.658 -1.629 4.036
 -0.645 -1.628 4.034
 -0.631 -1.625 4.029
 -0.619 -1.626 4.032
 -0.605 -1.622 4.023
 -0.592 -1.619 4.019
 -0.58 -1.621 4.023
 -0.568 -1.622 4.029
 -0.556 -1.622 4.029
 -0.545 -1.625 4.038
 -0.533 -1.627 4.045
 -0.52 -1.625 4.039
 -0.508 -1.625 4.041
 -0.495 -1.625 4.043
 -0.483 -1.626 4.047
 -0.471 -1.625 4.046
 -0.458 -1.623 4.042
 -0.446 -1.626 4.05
 -0.434 -1.625 4.047
 -0.42 -1.621 4.039
 -0.408 -1.622 4.043
 -0.396 -1.622 4.044
 -0.383 -1.619 4.036
 -0.371 -1.622 4.044
 -0.36 -1.625 4.052
 -0.347 -1.624 4.051
 -0.335 -1.624 4.052
 -0.323 -1.625 4.054
 -0.31 -1.624 4.053
 -0.298 -1.623 4.052
 -0.285 -1.622 4.051
 -0.273 -1.623 4.053
 -0.261 -1.623 4.053
 -0.249 -1.625 4.059
 -0.236 -1.623 4.053
 -0.224 -1.622 4.052
 -0.211 -1.622 4.053
 -0.199 -1.624 4.059
 -0.187 -1.621 4.05
 -0.175 -1.623 4.057
 -0.162 -1.623 4.056
 -0.15 -1.622 4.055
 -0.138 -1.619 4.048
 -0.125 -1.619 4.048
 -0.113 -1.617 4.042
 -0.101 -1.618 4.046
 -0.088 -1.619 4.048
 -0.076 -1.619 4.048
 -0.064 -1.619 4.049
 -0.052 -1.621 4.053
 -0.039 -1.618 4.046
 -0.027 -1.619 4.047
 -0.015 -1.619 4.048
 -0.003 -1.621 4.053
 0.009 -1.62 4.051
 0.021 -1.624 4.059
 0.033 -1.62 4.048
 0.045 -1.622 4.053
 0.058 -1.623 4.057
 0.07 -1.628 4.069
 0.083 -1.627 4.067
 0.095 -1.633 4.079
 0.107 -1.629 4.069
 0.119 -1.625 4.059
 0.131 -1.62 4.046
 0.143 -1.617 4.039
 0.156 -1.618 4.041
 0.168 -1.62 4.045
 0.18 -1.622 4.048
 0.192 -1.62 4.045
 0.205 -1.623 4.051
 0.217 -1.619 4.039
 0.229 -1.619 4.04
 0.241 -1.62 4.041
 0.254 -1.621 4.043
 0.266 -1.619 4.037
 0.279 -1.623 4.046
 0.291 -1.622 4.042
 0.302 -1.619 4.033
 0.314 -1.618 4.031
 0.327 -1.621 4.037
 0.339 -1.619 4.03
 0.351 -1.617 4.025
 0.364 -1.619 4.029
 0.376 -1.62 4.03
 0.388 -1.619 4.026
 0.4 -1.617 4.021
 0.413 -1.619 4.025
 0.425 -1.62 4.024
 0.437 -1.62 4.024
 0.449 -1.619 4.021
 0.462 -1.621 4.025
 0.474 -1.621 4.022
 0.486 -1.62 4.019
 0.497 -1.616 4.008
 0.509 -1.616 4.007
 0.521 -1.615 4.002
 0.534 -1.617 4.004
 0.546 -1.616 4
 0.558 -1.617 4.003
 0.571 -1.618 4.003
 0.582 -1.616 3.995
 0.594 -1.614 3.989
 0.607 -1.616 3.994
 0.619 -1.617 3.994
 0.632 -1.617 3.993
 0.646 -1.622 4.002
 0.658 -1.623 4.002
 0.67 -1.621 3.997
 0.684 -1.626 4.007
 0.698 -1.63 4.015
 0.711 -1.632 4.017
 0.724 -1.632 4.016
 0.737 -1.635 4.021
 0.748 -1.632 4.012
 0.76 -1.631 4.007
 0.771 -1.63 4.001
 0.784 -1.629 3.998
 0.794 -1.626 3.988
 0.804 -1.621 3.973
 0.816 -1.62 3.968
 0.827 -1.617 3.96
 0.839 -1.619 3.96
 0.854 -1.623 3.969
 0.869 -1.628 3.979
 0.881 -1.629 3.978
 0.894 -1.63 3.979
 0.906 -1.629 3.974
 0.917 -1.627 3.967
 0.929 -1.626 3.961
 0.942 -1.627 3.962
 0.955 -1.629 3.962
 0.968 -1.63 3.961
 0.982 -1.633 3.966
 0.994 -1.632 3.962
 1.005 -1.631 3.957
 1.019 -1.633 3.957
 1.031 -1.632 3.953
 1.042 -1.631 3.947
 1.056 -1.634 3.952
 1.068 -1.634 3.948
 1.082 -1.635 3.949
 1.096 -1.638 3.953
 1.11 -1.64 3.954
 1.122 -1.64 3.951
 1.134 -1.64 3.948
 1.145 -1.637 3.938
 1.156 -1.636 3.931
 1.167 -1.635 3.925
 1.177 -1.631 3.912
 1.188 -1.63 3.905
 1.201 -1.631 3.905
 1.214 -1.631 3.903
 1.225 -1.63 3.896
 1.239 -1.632 3.897
 1.253 -1.634 3.899
 1.266 -1.636 3.899
 1.279 -1.636 3.897
 1.293 -1.638 3.897
 1.309 -1.643 3.906
 1.324 -1.646 3.908
 1.337 -1.647 3.907
 1.351 -1.65 3.909
 1.364 -1.65 3.906
 1.376 -1.65 3.902
 1.386 -1.647 3.891
 1.397 -1.645 3.882
 1.407 -1.642 3.871
 1.418 -1.641 3.864
 1.428 -1.638 3.854
 1.44 -1.638 3.849
 1.45 -1.635 3.838
 1.461 -1.634 3.831
 1.472 -1.633 3.824
 1.484 -1.632 3.818
 1.496 -1.632 3.813
 1.511 -1.635 3.816
 1.524 -1.635 3.812
 1.536 -1.636 3.809
 1.548 -1.635 3.803
 1.56 -1.635 3.798
 1.571 -1.634 3.79
 1.586 -1.637 3.792
 1.598 -1.636 3.786
 1.611 -1.637 3.783
 1.622 -1.636 3.775
 1.633 -1.635 3.768
 1.641 -1.63 3.752
 1.652 -1.629 3.745
 1.665 -1.63 3.742
 1.678 -1.631 3.739
 1.694 -1.634 3.741
 1.708 -1.636 3.741
 1.721 -1.637 3.738
 1.732 -1.636 3.73
 1.746 -1.637 3.728
 1.756 -1.635 3.718
 1.767 -1.634 3.711
 1.781 -1.636 3.709
 1.794 -1.636 3.705
 1.81 -1.64 3.707
 1.825 -1.642 3.706
 1.833 -1.638 3.693
 1.84 -1.634 3.677
 1.846 -1.628 3.659
 1.846 -1.618 3.629
 1.849 -1.61 3.606
 1.856 -1.605 3.59
 1.857 -1.595 3.563
 1.858 -1.587 3.538
 1.857 -1.576 3.507
 1.854 -1.564 3.474
 1.857 -1.556 3.452
 1.86 -1.549 3.43
 1.861 -1.54 3.405
 1.864 -1.533 3.385
 1.864 -1.524 3.357
 1.86 -1.512 3.325
 1.855 -1.498 3.289
 1.848 -1.484 3.253
 1.843 -1.471 3.218
 1.844 -1.463 3.195
 1.841 -1.452 3.166
 1.845 -1.447 3.149
 1.842 -1.436 3.119
 1.838 -1.424 3.088
 1.839 -1.417 3.067
 1.835 -1.406 3.038
 1.832 -1.395 3.009
 1.827 -1.384 2.978
 1.842 -1.388 2.98
 1.782 -1.335 2.861
 -2.218 -1.667 3.692
 -2.18 -1.648 3.657
 -2.143 -1.63 3.622
 -2.127 -1.627 3.622
 -2.117 -1.629 3.633
 -2.106 -1.63 3.642
 -2.097 -1.634 3.655
 -2.087 -1.635 3.664
 -2.078 -1.638 3.677
 -2.063 -1.637 3.679
 -2.047 -1.634 3.679
 -2.036 -1.635 3.687
 -2.02 -1.632 3.687
 -2.005 -1.63 3.689
 -1.99 -1.628 3.69
 -1.979 -1.63 3.699
 -1.965 -1.629 3.702
 -1.953 -1.629 3.708
 -1.942 -1.63 3.717
 -1.935 -1.635 3.732
 -1.926 -1.638 3.745
 -1.911 -1.636 3.747
 -1.901 -1.639 3.758
 -1.89 -1.64 3.766
 -1.878 -1.641 3.774
 -1.86 -1.635 3.767
 -1.845 -1.634 3.768
 -1.83 -1.631 3.768
 -1.817 -1.631 3.773
 -1.805 -1.631 3.778
 -1.794 -1.633 3.788
 -1.787 -1.638 3.803
 -1.775 -1.638 3.81
 -1.76 -1.636 3.81
 -1.745 -1.634 3.81
 -1.734 -1.636 3.818
 -1.719 -1.634 3.818
 -1.706 -1.633 3.821
 -1.694 -1.633 3.827
 -1.682 -1.634 3.833
 -1.667 -1.632 3.834
 -1.654 -1.632 3.838
 -1.643 -1.633 3.845
 -1.632 -1.635 3.854
 -1.619 -1.634 3.856
 -1.608 -1.636 3.865
 -1.597 -1.637 3.873
 -1.584 -1.637 3.878
 -1.569 -1.634 3.875
 -1.554 -1.632 3.873
 -1.541 -1.631 3.876
 -1.527 -1.631 3.878
 -1.515 -1.63 3.882
 -1.501 -1.629 3.883
 -1.492 -1.633 3.897
 -1.48 -1.634 3.903
 -1.469 -1.636 3.911
 -1.458 -1.637 3.919
 -1.446 -1.638 3.926
 -1.431 -1.635 3.921
 -1.416 -1.633 3.92
 -1.402 -1.631 3.918
 -1.386 -1.627 3.914
 -1.377 -1.631 3.928
 -1.368 -1.635 3.941
 -1.355 -1.635 3.943
 -1.341 -1.633 3.942
 -1.328 -1.632 3.944
 -1.312 -1.628 3.938
 -1.298 -1.626 3.936
 -1.285 -1.626 3.94
 -1.273 -1.626 3.942
 -1.262 -1.628 3.952
 -1.25 -1.629 3.957
 -1.238 -1.629 3.961
 -1.226 -1.63 3.965
 -1.213 -1.629 3.968
 -1.202 -1.631 3.975
 -1.189 -1.631 3.978
 -1.177 -1.632 3.984
 -1.165 -1.632 3.986
 -1.154 -1.635 3.996
 -1.139 -1.631 3.989
 -1.124 -1.627 3.983
 -1.111 -1.627 3.985
 -1.098 -1.627 3.988
 -1.084 -1.623 3.983
 -1.071 -1.623 3.984
 -1.059 -1.623 3.988
 -1.046 -1.623 3.989
 -1.033 -1.623 3.991
 -1.02 -1.621 3.991
 -1.007 -1.62 3.991
 -0.996 -1.622 3.999
 -0.982 -1.621 3.997
 -0.968 -1.617 3.991
 -0.957 -1.62 4
 -0.946 -1.622 4.009
 -0.935 -1.625 4.018
 -0.923 -1.625 4.02
 -0.912 -1.628 4.029
 -0.898 -1.627 4.029
 -0.886 -1.627 4.03
 -0.871 -1.622 4.02
 -0.857 -1.619 4.016
 -0.843 -1.615 4.009
 -0.831 -1.616 4.013
 -0.818 -1.617 4.016
 -0.806 -1.617 4.02
 -0.795 -1.618 4.025
 -0.784 -1.622 4.037
 -0.772 -1.623 4.04
 -0.758 -1.621 4.036
 -0.746 -1.621 4.039
 -0.735 -1.623 4.045
 -0.723 -1.624 4.051
 -0.712 -1.628 4.062
 -0.699 -1.627 4.06
 -0.686 -1.626 4.059
 -0.674 -1.627 4.064
 -0.661 -1.625 4.061
 -0.647 -1.622 4.054
 -0.635 -1.622 4.056
 -0.623 -1.623 4.059
 -0.609 -1.62 4.053
 -0.596 -1.618 4.051
 -0.584 -1.619 4.054
 -0.572 -1.62 4.059
 -0.56 -1.621 4.061
 -0.548 -1.623 4.069
 -0.536 -1.623 4.07
 -0.523 -1.622 4.069
 -0.511 -1.622 4.07
 -0.498 -1.621 4.068
 -0.486 -1.622 4.072
 -0.473 -1.621 4.071
 -0.461 -1.621 4.071
 -0.449 -1.625 4.082
 -0.437 -1.624 4.081
 -0.423 -1.621 4.074
 -0.411 -1.622 4.078
 -0.399 -1.621 4.076
 -0.385 -1.617 4.067
 -0.374 -1.62 4.075
 -0.362 -1.624 4.086
 -0.35 -1.624 4.088
 -0.337 -1.624 4.088
 -0.325 -1.622 4.084
 -0.312 -1.622 4.084
 -0.3 -1.621 4.081
 -0.287 -1.618 4.076
 -0.274 -1.618 4.076
 -0.262 -1.62 4.082
 -0.25 -1.621 4.084
 -0.237 -1.618 4.078
 -0.225 -1.619 4.079
 -0.213 -1.62 4.082
 -0.201 -1.622 4.089
 -0.188 -1.619 4.082
 -0.176 -1.621 4.087
 -0.163 -1.62 4.085
 -0.151 -1.62 4.083
 -0.138 -1.617 4.077
 -0.126 -1.618 4.079
 -0.113 -1.615 4.072
 -0.101 -1.617 4.079
 -0.089 -1.62 4.085
 -0.077 -1.62 4.084
 -0.064 -1.618 4.081
 -0.052 -1.619 4.084
 -0.04 -1.617 4.077
 -0.027 -1.615 4.073
 -0.015 -1.615 4.073
 -0.003 -1.618 4.079
 0.009 -1.619 4.083
 0.021 -1.622 4.09
 0.033 -1.62 4.084
 0.046 -1.622 4.09
 0.058 -1.623 4.091
 0.071 -1.627 4.102
 0.083 -1.625 4.096
 0.096 -1.628 4.104
 0.108 -1.626 4.097
 0.12 -1.624 4.093
 0.132 -1.619 4.079
 0.145 -1.619 4.079
 0.157 -1.62 4.079
 0.169 -1.621 4.082
 0.182 -1.619 4.077
 0.194 -1.619 4.075
 0.207 -1.622 4.082
 0.218 -1.618 4.072
 0.231 -1.617 4.069
 0.243 -1.619 4.074
 0.256 -1.62 4.076
 0.267 -1.617 4.066
 0.28 -1.62 4.074
 0.293 -1.621 4.076
 0.305 -1.618 4.065
 0.317 -1.617 4.064
 0.33 -1.619 4.068
 0.342 -1.618 4.064
 0.353 -1.616 4.058
 0.366 -1.619 4.065
 0.379 -1.62 4.065
 0.391 -1.618 4.06
 0.403 -1.617 4.055
 0.415 -1.617 4.054
 0.428 -1.618 4.055
 0.44 -1.618 4.055
 0.453 -1.62 4.058
 0.466 -1.623 4.063
 0.478 -1.622 4.061
 0.49 -1.621 4.056
 0.502 -1.619 4.05
 0.514 -1.618 4.045
 0.526 -1.616 4.04
 0.539 -1.618 4.044
 0.551 -1.618 4.043
 0.563 -1.619 4.043
 0.576 -1.619 4.041
 0.587 -1.616 4.032
 0.599 -1.614 4.026
 0.611 -1.615 4.026
 0.624 -1.616 4.026
 0.636 -1.617 4.028
 0.65 -1.619 4.031
 0.662 -1.62 4.032
 0.674 -1.618 4.024
 0.688 -1.622 4.032
 0.701 -1.624 4.034
 0.714 -1.627 4.04
 0.727 -1.627 4.039
 0.741 -1.631 4.045
 0.751 -1.627 4.034
 0.764 -1.626 4.03
 0.776 -1.627 4.028
 0.788 -1.627 4.026
 0.8 -1.625 4.02
 0.811 -1.622 4.011
 0.823 -1.623 4.01
 0.834 -1.62 4
 0.846 -1.62 3.998
 0.861 -1.623 4.004
 0.874 -1.626 4.008
 0.887 -1.626 4.006
 0.9 -1.627 4.006
 0.912 -1.628 4.006
 0.923 -1.625 3.995
 0.934 -1.622 3.986
 0.947 -1.623 3.986
 0.96 -1.624 3.986
 0.972 -1.625 3.984
 0.987 -1.628 3.99
 0.999 -1.628 3.987
 1.011 -1.628 3.983
 1.023 -1.627 3.979
 1.035 -1.627 3.974
 1.047 -1.627 3.971
 1.062 -1.63 3.978
 1.074 -1.63 3.973
 1.088 -1.632 3.976
 1.102 -1.635 3.98
 1.116 -1.637 3.982
 1.129 -1.638 3.98
 1.141 -1.637 3.975
 1.152 -1.635 3.966
 1.163 -1.633 3.959
 1.175 -1.633 3.955
 1.184 -1.629 3.941
 1.197 -1.629 3.939
 1.21 -1.631 3.939
 1.222 -1.63 3.935
 1.234 -1.63 3.93
 1.248 -1.631 3.929
 1.261 -1.633 3.93
 1.275 -1.634 3.928
 1.289 -1.636 3.931
 1.302 -1.637 3.929
 1.319 -1.643 3.94
 1.334 -1.646 3.943
 1.349 -1.649 3.946
 1.363 -1.651 3.946
 1.374 -1.65 3.94
 1.386 -1.649 3.933
 1.395 -1.645 3.92
 1.405 -1.642 3.908
 1.415 -1.639 3.898
 1.428 -1.639 3.895
 1.44 -1.639 3.89
 1.453 -1.64 3.887
 1.462 -1.637 3.875
 1.474 -1.636 3.869
 1.484 -1.633 3.858
 1.493 -1.63 3.846
 1.504 -1.628 3.837
 1.52 -1.632 3.842
 1.53 -1.63 3.833
 1.546 -1.633 3.836
 1.558 -1.633 3.832
 1.571 -1.634 3.829
 1.583 -1.634 3.823
 1.599 -1.637 3.827
 1.61 -1.636 3.82
 1.624 -1.638 3.818
 1.635 -1.637 3.811
 1.646 -1.635 3.802
 1.654 -1.63 3.786
 1.666 -1.63 3.781
 1.677 -1.629 3.774
 1.69 -1.63 3.771
 1.705 -1.632 3.771
 1.72 -1.635 3.772
 1.731 -1.634 3.764
 1.744 -1.634 3.76
 1.757 -1.635 3.757
 1.769 -1.635 3.751
 1.78 -1.633 3.741
 1.794 -1.635 3.74
 1.806 -1.635 3.735
 1.822 -1.638 3.737
 1.833 -1.637 3.728
 1.84 -1.632 3.711
 1.847 -1.627 3.695
 1.85 -1.619 3.671
 1.847 -1.606 3.636
 1.852 -1.6 3.617
 1.86 -1.596 3.603
 1.86 -1.586 3.574
 1.859 -1.575 3.544
 1.856 -1.563 3.51
 1.852 -1.55 3.475
 1.854 -1.542 3.451
 1.857 -1.534 3.429
 1.858 -1.526 3.404
 1.866 -1.523 3.391
 1.867 -1.515 3.368
 1.864 -1.503 3.337
 1.858 -1.489 3.299
 1.85 -1.474 3.26
 1.843 -1.46 3.223
 1.842 -1.45 3.196
 1.838 -1.439 3.165
 1.843 -1.434 3.149
 1.84 -1.423 3.119
 1.834 -1.41 3.085
 1.835 -1.403 3.064
 1.836 -1.396 3.043
 1.833 -1.386 3.015
 1.829 -1.375 2.986
 1.821 -1.361 2.95
 1.82 -1.353 2.926
 -2.195 -1.637 3.659
 -2.214 -1.661 3.718
 -2.158 -1.629 3.652
 -2.146 -1.629 3.659
 -2.136 -1.631 3.67
 -2.124 -1.632 3.678
 -2.116 -1.635 3.692
 -2.109 -1.64 3.708
 -2.096 -1.64 3.714
 -2.081 -1.638 3.715
 -2.064 -1.634 3.714
 -2.048 -1.632 3.714
 -2.035 -1.632 3.719
 -2.022 -1.632 3.725
 -2.007 -1.63 3.726
 -1.995 -1.63 3.733
 -1.986 -1.633 3.746
 -1.968 -1.629 3.742
 -1.954 -1.628 3.746
 -1.946 -1.632 3.76
 -1.937 -1.635 3.772
 -1.922 -1.633 3.774
 -1.913 -1.636 3.786
 -1.902 -1.637 3.795
 -1.89 -1.638 3.801
 -1.874 -1.635 3.801
 -1.859 -1.633 3.802
 -1.843 -1.63 3.799
 -1.829 -1.63 3.803
 -1.819 -1.631 3.812
 -1.808 -1.633 3.821
 -1.798 -1.635 3.832
 -1.788 -1.638 3.843
 -1.775 -1.638 3.848
 -1.759 -1.635 3.845
 -1.749 -1.637 3.856
 -1.736 -1.637 3.86
 -1.721 -1.635 3.861
 -1.708 -1.635 3.865
 -1.694 -1.633 3.866
 -1.678 -1.63 3.864
 -1.663 -1.628 3.864
 -1.652 -1.63 3.872
 -1.643 -1.633 3.885
 -1.63 -1.632 3.887
 -1.62 -1.636 3.9
 -1.609 -1.637 3.907
 -1.594 -1.635 3.907
 -1.576 -1.629 3.898
 -1.563 -1.629 3.902
 -1.549 -1.627 3.901
 -1.535 -1.626 3.902
 -1.522 -1.626 3.906
 -1.51 -1.626 3.911
 -1.5 -1.629 3.922
 -1.487 -1.629 3.926
 -1.476 -1.631 3.935
 -1.466 -1.634 3.946
 -1.453 -1.634 3.949
 -1.437 -1.63 3.944
 -1.424 -1.629 3.947
 -1.411 -1.629 3.95
 -1.397 -1.627 3.947
 -1.388 -1.632 3.963
 -1.379 -1.635 3.976
 -1.364 -1.633 3.975
 -1.35 -1.631 3.973
 -1.337 -1.631 3.978
 -1.321 -1.626 3.968
 -1.307 -1.625 3.968
 -1.295 -1.626 3.975
 -1.284 -1.627 3.981
 -1.271 -1.628 3.986
 -1.259 -1.628 3.991
 -1.248 -1.63 3.999
 -1.235 -1.63 4
 -1.22 -1.627 3.997
 -1.209 -1.628 4.004
 -1.198 -1.63 4.012
 -1.186 -1.632 4.018
 -1.173 -1.632 4.022
 -1.164 -1.636 4.034
 -1.149 -1.633 4.03
 -1.134 -1.63 4.025
 -1.119 -1.627 4.021
 -1.106 -1.626 4.022
 -1.09 -1.621 4.013
 -1.076 -1.619 4.01
 -1.064 -1.619 4.012
 -1.051 -1.619 4.014
 -1.04 -1.62 4.021
 -1.027 -1.62 4.023
 -1.015 -1.621 4.028
 -1.004 -1.623 4.035
 -0.99 -1.62 4.032
 -0.975 -1.617 4.026
 -0.964 -1.619 4.033
 -0.953 -1.621 4.042
 -0.941 -1.623 4.049
 -0.929 -1.624 4.054
 -0.917 -1.625 4.058
 -0.904 -1.624 4.057
 -0.891 -1.623 4.057
 -0.876 -1.62 4.051
 -0.862 -1.616 4.045
 -0.849 -1.614 4.042
 -0.836 -1.615 4.046
 -0.825 -1.616 4.051
 -0.811 -1.614 4.048
 -0.8 -1.616 4.055
 -0.788 -1.618 4.061
 -0.776 -1.619 4.065
 -0.762 -1.615 4.059
 -0.75 -1.617 4.064
 -0.738 -1.618 4.069
 -0.727 -1.622 4.08
 -0.716 -1.624 4.088
 -0.703 -1.625 4.091
 -0.69 -1.624 4.09
 -0.679 -1.625 4.095
 -0.664 -1.621 4.085
 -0.651 -1.618 4.08
 -0.638 -1.617 4.08
 -0.625 -1.616 4.079
 -0.611 -1.613 4.072
 -0.599 -1.614 4.076
 -0.587 -1.616 4.082
 -0.575 -1.615 4.082
 -0.563 -1.619 4.093
 -0.552 -1.622 4.101
 -0.54 -1.622 4.104
 -0.527 -1.622 4.104
 -0.515 -1.623 4.108
 -0.502 -1.621 4.104
 -0.49 -1.623 4.109
 -0.476 -1.62 4.104
 -0.464 -1.62 4.105
 -0.452 -1.622 4.111
 -0.439 -1.619 4.105
 -0.425 -1.616 4.098
 -0.413 -1.618 4.104
 -0.4 -1.616 4.098
 -0.387 -1.614 4.094
 -0.376 -1.617 4.104
 -0.364 -1.621 4.115
 -0.352 -1.621 4.115
 -0.339 -1.621 4.116
 -0.326 -1.619 4.113
 -0.314 -1.617 4.108
 -0.301 -1.614 4.101
 -0.288 -1.613 4.097
 -0.275 -1.612 4.096
 -0.263 -1.614 4.101
 -0.251 -1.615 4.106
 -0.238 -1.612 4.098
 -0.226 -1.614 4.103
 -0.214 -1.616 4.108
 -0.202 -1.619 4.117
 -0.189 -1.618 4.115
 -0.177 -1.623 4.127
 -0.165 -1.622 4.126
 -0.152 -1.621 4.123
 -0.139 -1.618 4.115
 -0.127 -1.617 4.113
 -0.114 -1.614 4.106
 -0.102 -1.615 4.108
 -0.089 -1.615 4.109
 -0.077 -1.614 4.107
 -0.065 -1.615 4.109
 -0.052 -1.616 4.111
 -0.04 -1.614 4.106
 -0.027 -1.614 4.106
 -0.015 -1.614 4.107
 -0.003 -1.615 4.108
 0.009 -1.616 4.11
 0.021 -1.619 4.119
 0.034 -1.617 4.114
 0.046 -1.62 4.12
 0.059 -1.624 4.13
 0.071 -1.625 4.133
 0.084 -1.621 4.123
 0.096 -1.623 4.127
 0.109 -1.621 4.121
 0.121 -1.617 4.11
 0.133 -1.614 4.102
 0.145 -1.615 4.105
 0.158 -1.616 4.107
 0.17 -1.617 4.109
 0.183 -1.617 4.108
 0.195 -1.618 4.109
 0.208 -1.622 4.118
 0.22 -1.619 4.112
 0.233 -1.619 4.11
 0.245 -1.619 4.11
 0.258 -1.62 4.111
 0.269 -1.614 4.095
 0.282 -1.617 4.101
 0.294 -1.617 4.1
 0.306 -1.613 4.089
 0.319 -1.614 4.091
 0.332 -1.619 4.103
 0.344 -1.618 4.098
 0.356 -1.615 4.09
 0.369 -1.618 4.097
 0.381 -1.616 4.092
 0.393 -1.613 4.082
 0.405 -1.611 4.077
 0.417 -1.612 4.078
 0.43 -1.614 4.08
 0.442 -1.614 4.08
 0.456 -1.618 4.089
 0.469 -1.62 4.093
 0.482 -1.621 4.093
 0.493 -1.619 4.088
 0.506 -1.62 4.088
 0.517 -1.616 4.076
 0.53 -1.617 4.078
 0.543 -1.618 4.079
 0.555 -1.619 4.078
 0.568 -1.619 4.078
 0.581 -1.621 4.081
 0.592 -1.619 4.073
 0.604 -1.617 4.067
 0.617 -1.618 4.068
 0.629 -1.617 4.064
 0.641 -1.617 4.062
 0.654 -1.619 4.064
 0.668 -1.621 4.067
 0.68 -1.621 4.066
 0.694 -1.625 4.074
 0.708 -1.627 4.078
 0.721 -1.629 4.081
 0.733 -1.629 4.078
 0.746 -1.629 4.076
 0.756 -1.625 4.064
 0.768 -1.623 4.058
 0.78 -1.623 4.055
 0.793 -1.623 4.053
 0.805 -1.623 4.05
 0.817 -1.622 4.046
 0.83 -1.623 4.046
 0.842 -1.621 4.04
 0.853 -1.62 4.034
 0.867 -1.622 4.036
 0.879 -1.623 4.035
 0.892 -1.622 4.032
 0.905 -1.624 4.034
 0.918 -1.625 4.034
 0.929 -1.622 4.024
 0.941 -1.622 4.02
 0.954 -1.623 4.02
 0.966 -1.622 4.015
 0.979 -1.623 4.014
 0.993 -1.627 4.021
 1.006 -1.626 4.018
 1.018 -1.627 4.016
 1.031 -1.627 4.014
 1.044 -1.627 4.011
 1.056 -1.627 4.008
 1.071 -1.631 4.015
 1.083 -1.631 4.012
 1.098 -1.634 4.015
 1.111 -1.635 4.014
 1.124 -1.636 4.013
 1.137 -1.636 4.011
 1.148 -1.634 4.002
 1.159 -1.632 3.994
 1.17 -1.631 3.989
 1.183 -1.631 3.986
 1.193 -1.628 3.974
 1.206 -1.629 3.973
 1.219 -1.63 3.973
 1.232 -1.631 3.97
 1.244 -1.63 3.964
 1.257 -1.631 3.963
 1.271 -1.633 3.965
 1.283 -1.632 3.96
 1.298 -1.635 3.963
 1.311 -1.636 3.962
 1.328 -1.641 3.97
 1.341 -1.642 3.969
 1.357 -1.646 3.974
 1.371 -1.648 3.975
 1.384 -1.648 3.971
 1.396 -1.647 3.965
 1.406 -1.645 3.955
 1.416 -1.642 3.943
 1.426 -1.639 3.934
 1.438 -1.638 3.927
 1.449 -1.637 3.919
 1.461 -1.637 3.915
 1.473 -1.635 3.907
 1.485 -1.636 3.904
 1.496 -1.634 3.895
 1.506 -1.631 3.884
 1.518 -1.63 3.877
 1.533 -1.634 3.881
 1.542 -1.629 3.866
 1.557 -1.632 3.868
 1.57 -1.633 3.865
 1.582 -1.633 3.861
 1.593 -1.631 3.851
 1.608 -1.634 3.852
 1.62 -1.633 3.846
 1.634 -1.635 3.847
 1.644 -1.632 3.835
 1.652 -1.629 3.821
 1.662 -1.626 3.81
 1.671 -1.623 3.798
 1.683 -1.622 3.791
 1.697 -1.624 3.791
 1.714 -1.628 3.795
 1.729 -1.631 3.796
 1.742 -1.632 3.793
 1.755 -1.632 3.788
 1.77 -1.634 3.788
 1.781 -1.633 3.781
 1.792 -1.631 3.771
 1.805 -1.633 3.769
 1.819 -1.634 3.766
 1.831 -1.634 3.76
 1.844 -1.634 3.755
 1.85 -1.628 3.736
 1.857 -1.623 3.719
 1.857 -1.613 3.69
 1.855 -1.601 3.656
 1.857 -1.592 3.631
 1.864 -1.587 3.614
 1.862 -1.575 3.581
 1.861 -1.565 3.552
 1.857 -1.552 3.517
 1.856 -1.541 3.486
 1.857 -1.532 3.46
 1.861 -1.526 3.442
 1.862 -1.517 3.415
 1.872 -1.516 3.407
 1.874 -1.509 3.385
 1.872 -1.498 3.354
 1.854 -1.474 3.296
 1.844 -1.458 3.254
 1.832 -1.44 3.208
 1.834 -1.433 3.185
 1.834 -1.424 3.161
 1.84 -1.421 3.148
 1.837 -1.411 3.12
 1.837 -1.402 3.094
 1.837 -1.394 3.072
 1.838 -1.386 3.049
 1.832 -1.375 3.017
 1.828 -1.364 2.988
 1.848 -1.371 2.997
 1.787 -1.318 2.877
 -2.207 -1.634 3.685
 0 0 0
 -2.177 -1.63 3.69
 -2.163 -1.629 3.693
 -2.151 -1.63 3.701
 -2.138 -1.63 3.707
 -2.126 -1.631 3.715
 -2.119 -1.635 3.732
 -2.107 -1.636 3.739
 -2.092 -1.634 3.741
 -2.077 -1.632 3.743
 -2.063 -1.631 3.746
 -2.049 -1.63 3.75
 -2.035 -1.629 3.754
 -2.021 -1.628 3.757
 -2.008 -1.628 3.763
 -1.997 -1.629 3.772
 -1.98 -1.626 3.77
 -1.966 -1.625 3.774
 -1.955 -1.626 3.782
 -1.943 -1.628 3.79
 -1.93 -1.627 3.795
 -1.921 -1.63 3.808
 -1.913 -1.634 3.822
 -1.902 -1.636 3.832
 -1.889 -1.635 3.836
 -1.874 -1.633 3.836
 -1.858 -1.631 3.835
 -1.845 -1.631 3.84
 -1.834 -1.632 3.849
 -1.821 -1.632 3.854
 -1.813 -1.636 3.869
 -1.801 -1.637 3.876
 -1.788 -1.637 3.88
 -1.771 -1.633 3.877
 -1.76 -1.635 3.885
 -1.747 -1.635 3.891
 -1.732 -1.632 3.89
 -1.718 -1.631 3.892
 -1.704 -1.63 3.895
 -1.691 -1.63 3.897
 -1.674 -1.626 3.893
 -1.665 -1.629 3.906
 -1.656 -1.633 3.92
 -1.642 -1.632 3.923
 -1.632 -1.635 3.934
 -1.62 -1.636 3.94
 -1.605 -1.634 3.94
 -1.587 -1.628 3.929
 -1.574 -1.628 3.934
 -1.559 -1.626 3.933
 -1.546 -1.626 3.937
 -1.536 -1.628 3.946
 -1.524 -1.629 3.954
 -1.512 -1.63 3.96
 -1.5 -1.63 3.964
 -1.489 -1.632 3.974
 -1.477 -1.633 3.98
 -1.464 -1.633 3.983
 -1.449 -1.63 3.98
 -1.436 -1.631 3.985
 -1.421 -1.628 3.982
 -1.407 -1.626 3.981
 -1.396 -1.629 3.992
 -1.387 -1.633 4.005
 -1.371 -1.629 4
 -1.356 -1.626 3.997
 -1.342 -1.624 3.995
 -1.325 -1.619 3.986
 -1.312 -1.619 3.99
 -1.3 -1.62 3.994
 -1.289 -1.622 4.004
 -1.278 -1.624 4.013
 -1.266 -1.625 4.017
 -1.254 -1.625 4.022
 -1.242 -1.626 4.028
 -1.228 -1.624 4.026
 -1.216 -1.626 4.034
 -1.207 -1.63 4.048
 -1.194 -1.631 4.051
 -1.18 -1.629 4.049
 -1.169 -1.631 4.059
 -1.155 -1.628 4.055
 -1.139 -1.625 4.049
 -1.126 -1.623 4.048
 -1.114 -1.625 4.055
 -1.1 -1.622 4.052
 -1.085 -1.62 4.049
 -1.072 -1.619 4.048
 -1.058 -1.617 4.047
 -1.046 -1.617 4.049
 -1.033 -1.617 4.051
 -1.021 -1.618 4.057
 -1.01 -1.621 4.068
 -0.996 -1.619 4.063
 -0.982 -1.617 4.061
 -0.97 -1.617 4.063
 -0.958 -1.618 4.069
 -0.946 -1.619 4.074
 -0.933 -1.619 4.077
 -0.921 -1.62 4.081
 -0.908 -1.619 4.081
 -0.895 -1.619 4.082
 -0.88 -1.614 4.074
 -0.867 -1.613 4.071
 -0.854 -1.612 4.071
 -0.842 -1.614 4.078
 -0.829 -1.612 4.075
 -0.816 -1.612 4.079
 -0.805 -1.615 4.088
 -0.793 -1.615 4.09
 -0.78 -1.614 4.09
 -0.767 -1.613 4.089
 -0.754 -1.612 4.089
 -0.742 -1.614 4.094
 -0.731 -1.618 4.106
 -0.72 -1.622 4.117
 -0.708 -1.622 4.121
 -0.695 -1.622 4.121
 -0.682 -1.622 4.122
 -0.667 -1.615 4.107
 -0.653 -1.613 4.103
 -0.641 -1.612 4.104
 -0.628 -1.613 4.106
 -0.615 -1.611 4.103
 -0.603 -1.613 4.109
 -0.591 -1.613 4.112
 -0.578 -1.612 4.11
 -0.567 -1.616 4.12
 -0.554 -1.616 4.122
 -0.542 -1.618 4.13
 -0.53 -1.618 4.13
 -0.518 -1.62 4.135
 -0.504 -1.617 4.13
 -0.493 -1.621 4.141
 -0.479 -1.618 4.134
 -0.467 -1.618 4.136
 -0.454 -1.619 4.138
 -0.441 -1.616 4.133
 -0.428 -1.612 4.124
 -0.416 -1.615 4.131
 -0.403 -1.614 4.129
 -0.39 -1.614 4.13
 -0.379 -1.618 4.143
 -0.367 -1.622 4.153
 -0.355 -1.622 4.155
 -0.342 -1.621 4.153
 -0.329 -1.619 4.148
 -0.316 -1.616 4.141
 -0.303 -1.613 4.134
 -0.289 -1.609 4.125
 -0.276 -1.607 4.119
 -0.264 -1.607 4.12
 -0.252 -1.608 4.123
 -0.239 -1.606 4.118
 -0.227 -1.608 4.125
 -0.215 -1.614 4.14
 -0.203 -1.618 4.15
 -0.191 -1.618 4.152
 -0.179 -1.623 4.164
 -0.166 -1.623 4.164
 -0.153 -1.621 4.158
 -0.14 -1.617 4.15
 -0.128 -1.615 4.145
 -0.115 -1.612 4.136
 -0.102 -1.612 4.137
 -0.09 -1.612 4.136
 -0.077 -1.613 4.14
 -0.065 -1.613 4.139
 -0.052 -1.615 4.146
 -0.04 -1.614 4.141
 -0.027 -1.613 4.138
 -0.015 -1.611 4.135
 -0.002 -1.614 4.141
 0.009 -1.613 4.139
 0.022 -1.614 4.142
 0.034 -1.615 4.143
 0.047 -1.617 4.149
 0.059 -1.619 4.152
 0.072 -1.62 4.156
 0.084 -1.619 4.153
 0.097 -1.619 4.154
 0.109 -1.616 4.144
 0.121 -1.612 4.134
 0.134 -1.608 4.123
 0.146 -1.61 4.127
 0.159 -1.611 4.13
 0.171 -1.614 4.136
 0.184 -1.616 4.14
 0.197 -1.617 4.143
 0.209 -1.618 4.145
 0.222 -1.615 4.137
 0.234 -1.614 4.134
 0.246 -1.614 4.132
 0.259 -1.616 4.137
 0.271 -1.613 4.127
 0.284 -1.616 4.136
 0.297 -1.617 4.137
 0.309 -1.613 4.125
 0.321 -1.612 4.121
 0.334 -1.615 4.128
 0.346 -1.612 4.12
 0.358 -1.609 4.111
 0.371 -1.613 4.12
 0.383 -1.613 4.118
 0.395 -1.611 4.113
 0.408 -1.611 4.111
 0.42 -1.611 4.112
 0.433 -1.613 4.114
 0.446 -1.614 4.115
 0.459 -1.617 4.122
 0.472 -1.617 4.121
 0.485 -1.619 4.126
 0.497 -1.619 4.123
 0.51 -1.62 4.124
 0.521 -1.616 4.112
 0.535 -1.62 4.121
 0.548 -1.621 4.121
 0.56 -1.62 4.118
 0.573 -1.62 4.116
 0.586 -1.622 4.119
 0.597 -1.619 4.11
 0.609 -1.617 4.103
 0.621 -1.616 4.1
 0.634 -1.616 4.098
 0.646 -1.617 4.097
 0.659 -1.616 4.094
 0.671 -1.617 4.095
 0.684 -1.617 4.094
 0.698 -1.62 4.099
 0.711 -1.622 4.102
 0.724 -1.624 4.104
 0.737 -1.624 4.103
 0.75 -1.625 4.104
 0.761 -1.622 4.092
 0.773 -1.62 4.086
 0.786 -1.621 4.087
 0.798 -1.621 4.084
 0.81 -1.619 4.077
 0.823 -1.62 4.078
 0.836 -1.622 4.08
 0.847 -1.619 4.069
 0.859 -1.619 4.066
 0.873 -1.622 4.071
 0.885 -1.62 4.065
 0.898 -1.621 4.064
 0.911 -1.623 4.066
 0.925 -1.624 4.067
 0.936 -1.622 4.06
 0.948 -1.621 4.054
 0.96 -1.621 4.051
 0.972 -1.62 4.047
 0.986 -1.622 4.047
 0.999 -1.623 4.047
 1.011 -1.623 4.045
 1.025 -1.624 4.044
 1.038 -1.625 4.045
 1.05 -1.625 4.041
 1.064 -1.626 4.042
 1.078 -1.629 4.046
 1.089 -1.627 4.037
 1.102 -1.628 4.037
 1.117 -1.631 4.04
 1.129 -1.63 4.036
 1.143 -1.632 4.038
 1.157 -1.635 4.04
 1.169 -1.633 4.033
 1.18 -1.632 4.026
 1.193 -1.632 4.022
 1.203 -1.628 4.011
 1.214 -1.627 4.004
 1.228 -1.629 4.005
 1.24 -1.628 4
 1.253 -1.629 3.998
 1.266 -1.629 3.995
 1.28 -1.631 3.995
 1.292 -1.63 3.99
 1.305 -1.631 3.989
 1.318 -1.632 3.988
 1.335 -1.637 3.995
 1.348 -1.638 3.993
 1.364 -1.642 3.999
 1.379 -1.645 4.002
 1.392 -1.645 3.998
 1.405 -1.645 3.995
 1.418 -1.646 3.992
 1.428 -1.644 3.983
 1.439 -1.641 3.973
 1.449 -1.639 3.963
 1.459 -1.635 3.95
 1.468 -1.632 3.937
 1.478 -1.629 3.927
 1.492 -1.63 3.926
 1.504 -1.63 3.919
 1.516 -1.629 3.914
 1.529 -1.629 3.91
 1.544 -1.632 3.912
 1.554 -1.63 3.901
 1.569 -1.633 3.904
 1.583 -1.634 3.902
 1.598 -1.636 3.902
 1.608 -1.634 3.893
 1.622 -1.635 3.89
 1.633 -1.633 3.882
 1.646 -1.634 3.878
 1.654 -1.63 3.864
 1.663 -1.627 3.851
 1.671 -1.622 3.836
 1.681 -1.62 3.825
 1.693 -1.619 3.818
 1.707 -1.621 3.818
 1.723 -1.624 3.821
 1.739 -1.628 3.823
 1.754 -1.63 3.824
 1.766 -1.629 3.816
 1.78 -1.631 3.815
 1.793 -1.631 3.81
 1.804 -1.63 3.802
 1.816 -1.629 3.795
 1.827 -1.629 3.788
 1.837 -1.626 3.776
 1.846 -1.623 3.764
 1.853 -1.619 3.748
 1.858 -1.612 3.727
 1.862 -1.605 3.705
 1.861 -1.594 3.673
 1.865 -1.586 3.651
 1.869 -1.58 3.63
 1.867 -1.568 3.597
 1.866 -1.557 3.565
 1.86 -1.542 3.527
 1.859 -1.532 3.497
 1.859 -1.522 3.469
 1.864 -1.517 3.451
 1.864 -1.508 3.424
 1.877 -1.509 3.422
 1.88 -1.502 3.4
 1.88 -1.493 3.374
 1.857 -1.465 3.306
 1.84 -1.444 3.251
 1.822 -1.421 3.194
 1.825 -1.415 3.174
 1.829 -1.41 3.157
 1.836 -1.407 3.145
 1.837 -1.4 3.123
 1.837 -1.391 3.1
 1.839 -1.385 3.079
 1.839 -1.377 3.056
 1.833 -1.365 3.023
 1.831 -1.355 2.997
 1.814 -1.336 2.947
 1.82 -1.333 2.935
 -2.233 -1.64 3.732
 0 0 0
 -2.196 -1.632 3.727
 -2.183 -1.631 3.733
 -2.17 -1.631 3.739
 -2.16 -1.633 3.75
 -2.145 -1.632 3.753
 -2.135 -1.635 3.765
 -2.121 -1.634 3.769
 -2.107 -1.633 3.773
 -2.092 -1.631 3.775
 -2.078 -1.63 3.779
 -2.066 -1.631 3.786
 -2.054 -1.631 3.794
 -2.039 -1.63 3.796
 -2.026 -1.63 3.802
 -2.016 -1.632 3.813
 -1.998 -1.628 3.809
 -1.984 -1.627 3.813
 -1.973 -1.629 3.823
 -1.959 -1.628 3.826
 -1.946 -1.628 3.831
 -1.935 -1.63 3.841
 -1.926 -1.632 3.852
 -1.913 -1.633 3.859
 -1.901 -1.633 3.865
 -1.886 -1.631 3.866
 -1.871 -1.629 3.867
 -1.857 -1.629 3.871
 -1.846 -1.63 3.88
 -1.833 -1.63 3.884
 -1.823 -1.633 3.896
 -1.812 -1.634 3.904
 -1.8 -1.635 3.913
 -1.786 -1.634 3.914
 -1.774 -1.635 3.922
 -1.761 -1.635 3.926
 -1.744 -1.632 3.923
 -1.73 -1.63 3.925
 -1.715 -1.628 3.925
 -1.701 -1.627 3.927
 -1.687 -1.626 3.929
 -1.677 -1.629 3.94
 -1.668 -1.632 3.953
 -1.654 -1.632 3.956
 -1.644 -1.634 3.966
 -1.629 -1.632 3.966
 -1.615 -1.631 3.968
 -1.597 -1.625 3.959
 -1.583 -1.625 3.962
 -1.569 -1.624 3.963
 -1.557 -1.624 3.969
 -1.544 -1.624 3.974
 -1.533 -1.625 3.981
 -1.521 -1.626 3.987
 -1.507 -1.625 3.988
 -1.496 -1.628 3.999
 -1.486 -1.63 4.008
 -1.473 -1.63 4.012
 -1.459 -1.629 4.015
 -1.447 -1.63 4.021
 -1.432 -1.627 4.017
 -1.417 -1.625 4.015
 -1.405 -1.626 4.023
 -1.393 -1.627 4.028
 -1.379 -1.625 4.027
 -1.365 -1.624 4.027
 -1.351 -1.622 4.027
 -1.335 -1.619 4.022
 -1.323 -1.619 4.027
 -1.309 -1.618 4.027
 -1.296 -1.618 4.03
 -1.283 -1.617 4.031
 -1.269 -1.616 4.032
 -1.257 -1.617 4.037
 -1.247 -1.62 4.048
 -1.234 -1.619 4.05
 -1.224 -1.624 4.065
 -1.214 -1.627 4.077
 -1.201 -1.626 4.077
 -1.185 -1.623 4.071
 -1.174 -1.625 4.08
 -1.159 -1.623 4.077
 -1.146 -1.621 4.077
 -1.133 -1.621 4.08
 -1.122 -1.623 4.088
 -1.107 -1.621 4.084
 -1.093 -1.618 4.08
 -1.078 -1.615 4.074
 -1.063 -1.612 4.069
 -1.05 -1.612 4.073
 -1.039 -1.613 4.079
 -1.027 -1.615 4.085
 -1.016 -1.618 4.097
 -1.003 -1.617 4.095
 -0.988 -1.614 4.091
 -0.975 -1.613 4.09
 -0.962 -1.613 4.092
 -0.95 -1.614 4.097
 -0.938 -1.615 4.103
 -0.926 -1.616 4.107
 -0.913 -1.615 4.109
 -0.902 -1.618 4.116
 -0.887 -1.613 4.107
 -0.873 -1.611 4.104
 -0.86 -1.611 4.106
 -0.848 -1.612 4.11
 -0.835 -1.611 4.109
 -0.822 -1.61 4.109
 -0.81 -1.612 4.117
 -0.797 -1.611 4.116
 -0.784 -1.61 4.116
 -0.77 -1.608 4.112
 -0.759 -1.611 4.122
 -0.747 -1.614 4.13
 -0.736 -1.617 4.142
 -0.725 -1.621 4.152
 -0.713 -1.621 4.154
 -0.699 -1.619 4.151
 -0.686 -1.618 4.15
 -0.671 -1.613 4.138
 -0.658 -1.61 4.134
 -0.645 -1.611 4.136
 -0.632 -1.61 4.136
 -0.619 -1.608 4.131
 -0.607 -1.61 4.138
 -0.595 -1.611 4.143
 -0.582 -1.61 4.141
 -0.57 -1.614 4.152
 -0.557 -1.613 4.151
 -0.545 -1.614 4.155
 -0.532 -1.612 4.152
 -0.52 -1.613 4.157
 -0.506 -1.61 4.148
 -0.495 -1.614 4.161
 -0.482 -1.613 4.159
 -0.469 -1.615 4.164
 -0.457 -1.614 4.165
 -0.444 -1.615 4.167
 -0.431 -1.613 4.161
 -0.419 -1.613 4.164
 -0.406 -1.612 4.162
 -0.393 -1.612 4.163
 -0.381 -1.616 4.174
 -0.369 -1.617 4.177
 -0.357 -1.619 4.184
 -0.344 -1.62 4.187
 -0.331 -1.618 4.182
 -0.318 -1.614 4.173
 -0.305 -1.612 4.167
 -0.291 -1.606 4.153
 -0.278 -1.603 4.145
 -0.266 -1.604 4.148
 -0.253 -1.605 4.151
 -0.24 -1.603 4.147
 -0.228 -1.606 4.155
 -0.216 -1.61 4.166
 -0.204 -1.612 4.173
 -0.191 -1.614 4.177
 -0.179 -1.619 4.192
 -0.167 -1.619 4.191
 -0.154 -1.618 4.188
 -0.141 -1.615 4.181
 -0.128 -1.612 4.174
 -0.115 -1.608 4.164
 -0.103 -1.608 4.162
 -0.09 -1.607 4.16
 -0.078 -1.609 4.165
 -0.065 -1.608 4.164
 -0.053 -1.611 4.171
 -0.04 -1.61 4.168
 -0.027 -1.609 4.165
 -0.015 -1.608 4.163
 -0.002 -1.61 4.168
 0.009 -1.609 4.165
 0.022 -1.61 4.167
 0.034 -1.612 4.173
 0.047 -1.614 4.177
 0.06 -1.614 4.178
 0.072 -1.616 4.181
 0.085 -1.616 4.182
 0.097 -1.613 4.173
 0.11 -1.61 4.166
 0.122 -1.607 4.158
 0.134 -1.604 4.148
 0.147 -1.607 4.156
 0.16 -1.61 4.163
 0.173 -1.612 4.167
 0.185 -1.614 4.172
 0.198 -1.616 4.178
 0.211 -1.614 4.171
 0.223 -1.612 4.164
 0.235 -1.61 4.159
 0.248 -1.61 4.158
 0.261 -1.612 4.163
 0.273 -1.611 4.159
 0.286 -1.615 4.168
 0.299 -1.615 4.167
 0.311 -1.612 4.16
 0.323 -1.61 4.154
 0.336 -1.612 4.157
 0.348 -1.61 4.151
 0.36 -1.608 4.146
 0.374 -1.611 4.153
 0.386 -1.612 4.152
 0.398 -1.611 4.149
 0.411 -1.611 4.149
 0.424 -1.611 4.147
 0.437 -1.613 4.152
 0.449 -1.613 4.15
 0.462 -1.615 4.154
 0.474 -1.613 4.147
 0.488 -1.616 4.153
 0.499 -1.613 4.143
 0.512 -1.614 4.145
 0.524 -1.611 4.135
 0.538 -1.617 4.15
 0.551 -1.617 4.148
 0.564 -1.618 4.148
 0.577 -1.618 4.148
 0.59 -1.62 4.151
 0.602 -1.618 4.144
 0.614 -1.617 4.139
 0.626 -1.616 4.135
 0.638 -1.615 4.13
 0.65 -1.614 4.126
 0.661 -1.61 4.114
 0.675 -1.613 4.12
 0.688 -1.614 4.121
 0.702 -1.617 4.127
 0.715 -1.618 4.128
 0.729 -1.621 4.134
 0.741 -1.62 4.128
 0.755 -1.622 4.132
 0.766 -1.619 4.121
 0.778 -1.619 4.119
 0.792 -1.621 4.122
 0.803 -1.619 4.114
 0.815 -1.618 4.11
 0.829 -1.62 4.112
 0.842 -1.621 4.113
 0.853 -1.618 4.104
 0.867 -1.62 4.107
 0.879 -1.62 4.104
 0.891 -1.619 4.098
 0.904 -1.619 4.095
 0.917 -1.62 4.097
 0.93 -1.62 4.093
 0.941 -1.619 4.087
 0.954 -1.619 4.085
 0.967 -1.62 4.084
 0.98 -1.62 4.082
 0.993 -1.621 4.081
 1.007 -1.623 4.083
 1.019 -1.622 4.078
 1.032 -1.623 4.078
 1.045 -1.623 4.076
 1.058 -1.624 4.074
 1.071 -1.626 4.076
 1.084 -1.626 4.073
 1.096 -1.625 4.067
 1.109 -1.625 4.064
 1.123 -1.627 4.068
 1.135 -1.626 4.061
 1.15 -1.629 4.066
 1.164 -1.632 4.069
 1.175 -1.63 4.061
 1.186 -1.628 4.052
 1.2 -1.629 4.051
 1.211 -1.627 4.042
 1.223 -1.625 4.036
 1.237 -1.628 4.039
 1.25 -1.628 4.035
 1.262 -1.628 4.031
 1.274 -1.627 4.025
 1.287 -1.628 4.023
 1.3 -1.628 4.02
 1.313 -1.629 4.018
 1.327 -1.63 4.019
 1.343 -1.634 4.024
 1.357 -1.636 4.024
 1.372 -1.639 4.029
 1.387 -1.641 4.029
 1.399 -1.64 4.024
 1.412 -1.641 4.021
 1.423 -1.639 4.013
 1.435 -1.639 4.007
 1.446 -1.636 3.997
 1.457 -1.635 3.989
 1.467 -1.632 3.978
 1.478 -1.63 3.968
 1.488 -1.627 3.958
 1.503 -1.63 3.959
 1.515 -1.629 3.953
 1.527 -1.629 3.948
 1.542 -1.631 3.95
 1.556 -1.633 3.948
 1.567 -1.63 3.938
 1.582 -1.633 3.94
 1.595 -1.634 3.937
 1.609 -1.635 3.935
 1.62 -1.633 3.925
 1.633 -1.633 3.922
 1.644 -1.632 3.913
 1.656 -1.631 3.907
 1.664 -1.627 3.892
 1.674 -1.625 3.882
 1.684 -1.622 3.871
 1.694 -1.619 3.858
 1.706 -1.619 3.852
 1.721 -1.622 3.854
 1.735 -1.623 3.852
 1.75 -1.625 3.851
 1.766 -1.628 3.853
 1.776 -1.626 3.843
 1.788 -1.625 3.836
 1.802 -1.627 3.834
 1.813 -1.625 3.826
 1.823 -1.623 3.815
 1.837 -1.624 3.812
 1.845 -1.62 3.797
 1.851 -1.615 3.778
 1.857 -1.609 3.76
 1.863 -1.603 3.74
 1.866 -1.596 3.717
 1.866 -1.585 3.687
 1.87 -1.579 3.666
 1.873 -1.571 3.642
 1.871 -1.559 3.608
 1.868 -1.546 3.573
 1.864 -1.534 3.538
 1.86 -1.52 3.502
 1.861 -1.512 3.477
 1.865 -1.506 3.457
 1.864 -1.495 3.427
 1.876 -1.496 3.424
 1.88 -1.49 3.405
 1.881 -1.482 3.38
 1.855 -1.453 3.307
 1.832 -1.426 3.241
 1.812 -1.402 3.181
 1.815 -1.397 3.162
 1.821 -1.393 3.148
 1.827 -1.389 3.133
 1.831 -1.384 3.117
 1.835 -1.379 3.1
 1.837 -1.373 3.08
 1.839 -1.366 3.06
 1.834 -1.355 3.029
 1.83 -1.344 2.999
 1.814 -1.325 2.95
 1.785 -1.297 2.881
 -2.174 -1.584 3.639
 -2.211 -1.62 3.729
 -2.207 -1.627 3.75
 -2.193 -1.626 3.755
 -2.184 -1.629 3.768
 -2.177 -1.633 3.784
 -2.162 -1.632 3.788
 -2.154 -1.636 3.804
 -2.138 -1.634 3.804
 -2.122 -1.632 3.805
 -2.109 -1.631 3.81
 -2.093 -1.629 3.812
 -2.078 -1.627 3.813
 -2.067 -1.629 3.824
 -2.054 -1.629 3.83
 -2.039 -1.628 3.832
 -2.029 -1.63 3.842
 -2.011 -1.626 3.84
 -1.996 -1.624 3.841
 -1.983 -1.624 3.847
 -1.97 -1.624 3.852
 -1.957 -1.624 3.857
 -1.946 -1.626 3.868
 -1.936 -1.628 3.879
 -1.925 -1.63 3.888
 -1.911 -1.629 3.892
 -1.896 -1.627 3.892
 -1.884 -1.628 3.899
 -1.869 -1.626 3.901
 -1.857 -1.627 3.908
 -1.845 -1.628 3.915
 -1.837 -1.632 3.93
 -1.824 -1.633 3.937
 -1.814 -1.635 3.949
 -1.802 -1.636 3.955
 -1.789 -1.636 3.96
 -1.774 -1.635 3.962
 -1.758 -1.632 3.959
 -1.743 -1.629 3.959
 -1.727 -1.627 3.958
 -1.714 -1.627 3.962
 -1.699 -1.625 3.962
 -1.689 -1.627 3.973
 -1.678 -1.63 3.983
 -1.665 -1.63 3.988
 -1.655 -1.632 3.998
 -1.642 -1.632 4.004
 -1.629 -1.632 4.007
 -1.612 -1.628 4.002
 -1.599 -1.628 4.007
 -1.584 -1.626 4.004
 -1.568 -1.623 4.002
 -1.553 -1.621 4.001
 -1.541 -1.622 4.008
 -1.526 -1.62 4.007
 -1.514 -1.62 4.011
 -1.504 -1.623 4.023
 -1.492 -1.625 4.031
 -1.479 -1.624 4.034
 -1.466 -1.624 4.039
 -1.455 -1.626 4.046
 -1.44 -1.623 4.044
 -1.427 -1.624 4.049
 -1.415 -1.624 4.054
 -1.402 -1.625 4.059
 -1.388 -1.623 4.058
 -1.374 -1.622 4.058
 -1.358 -1.618 4.053
 -1.344 -1.617 4.053
 -1.331 -1.617 4.058
 -1.316 -1.614 4.054
 -1.304 -1.615 4.059
 -1.29 -1.614 4.06
 -1.277 -1.613 4.061
 -1.264 -1.613 4.064
 -1.254 -1.616 4.075
 -1.24 -1.615 4.075
 -1.231 -1.62 4.092
 -1.219 -1.621 4.098
 -1.205 -1.62 4.098
 -1.191 -1.617 4.095
 -1.18 -1.621 4.108
 -1.165 -1.618 4.102
 -1.153 -1.618 4.106
 -1.14 -1.618 4.109
 -1.128 -1.619 4.115
 -1.113 -1.616 4.11
 -1.099 -1.615 4.108
 -1.083 -1.61 4.099
 -1.069 -1.609 4.099
 -1.056 -1.608 4.1
 -1.044 -1.609 4.106
 -1.032 -1.61 4.109
 -1.021 -1.614 4.122
 -1.008 -1.612 4.12
 -0.993 -1.609 4.116
 -0.98 -1.608 4.114
 -0.966 -1.606 4.113
 -0.954 -1.607 4.117
 -0.941 -1.607 4.12
 -0.929 -1.609 4.127
 -0.917 -1.61 4.13
 -0.906 -1.613 4.141
 -0.892 -1.611 4.139
 -0.879 -1.611 4.14
 -0.866 -1.61 4.14
 -0.853 -1.609 4.141
 -0.84 -1.608 4.139
 -0.825 -1.605 4.134
 -0.814 -1.607 4.14
 -0.801 -1.607 4.143
 -0.788 -1.607 4.145
 -0.775 -1.605 4.142
 -0.764 -1.609 4.154
 -0.752 -1.612 4.163
 -0.741 -1.614 4.169
 -0.728 -1.615 4.173
 -0.716 -1.616 4.178
 -0.702 -1.614 4.174
 -0.688 -1.611 4.169
 -0.675 -1.61 4.168
 -0.662 -1.61 4.168
 -0.65 -1.61 4.172
 -0.637 -1.61 4.173
 -0.624 -1.61 4.174
 -0.612 -1.61 4.176
 -0.599 -1.611 4.179
 -0.586 -1.608 4.174
 -0.574 -1.611 4.182
 -0.561 -1.61 4.18
 -0.548 -1.609 4.179
 -0.535 -1.608 4.179
 -0.522 -1.609 4.183
 -0.509 -1.607 4.177
 -0.497 -1.609 4.184
 -0.484 -1.609 4.184
 -0.472 -1.611 4.192
 -0.459 -1.61 4.19
 -0.446 -1.61 4.192
 -0.433 -1.609 4.189
 -0.421 -1.61 4.194
 -0.407 -1.606 4.184
 -0.395 -1.608 4.19
 -0.383 -1.611 4.198
 -0.37 -1.611 4.2
 -0.358 -1.613 4.204
 -0.345 -1.613 4.205
 -0.332 -1.61 4.199
 -0.319 -1.608 4.193
 -0.306 -1.606 4.189
 -0.292 -1.6 4.175
 -0.279 -1.599 4.172
 -0.267 -1.6 4.174
 -0.254 -1.6 4.176
 -0.241 -1.599 4.173
 -0.229 -1.601 4.18
 -0.217 -1.605 4.19
 -0.205 -1.608 4.199
 -0.192 -1.608 4.199
 -0.18 -1.613 4.213
 -0.168 -1.615 4.217
 -0.155 -1.613 4.213
 -0.142 -1.608 4.199
 -0.129 -1.606 4.194
 -0.116 -1.602 4.184
 -0.103 -1.601 4.183
 -0.091 -1.602 4.185
 -0.078 -1.604 4.191
 -0.065 -1.605 4.191
 -0.053 -1.606 4.196
 -0.04 -1.603 4.188
 -0.028 -1.602 4.185
 -0.015 -1.602 4.185
 -0.002 -1.605 4.192
 0.009 -1.605 4.191
 0.022 -1.605 4.192
 0.035 -1.606 4.195
 0.047 -1.608 4.199
 0.06 -1.606 4.195
 0.073 -1.607 4.196
 0.085 -1.61 4.202
 0.098 -1.606 4.194
 0.11 -1.604 4.186
 0.123 -1.601 4.179
 0.135 -1.598 4.171
 0.148 -1.601 4.177
 0.16 -1.601 4.178
 0.173 -1.603 4.182
 0.186 -1.606 4.188
 0.199 -1.608 4.195
 0.211 -1.606 4.188
 0.224 -1.607 4.189
 0.236 -1.605 4.184
 0.249 -1.605 4.181
 0.262 -1.607 4.186
 0.274 -1.605 4.182
 0.287 -1.608 4.189
 0.3 -1.609 4.19
 0.313 -1.608 4.187
 0.325 -1.606 4.179
 0.338 -1.607 4.181
 0.35 -1.604 4.174
 0.362 -1.605 4.173
 0.375 -1.606 4.177
 0.388 -1.607 4.176
 0.401 -1.606 4.174
 0.413 -1.606 4.173
 0.426 -1.606 4.171
 0.439 -1.608 4.175
 0.451 -1.608 4.173
 0.465 -1.61 4.178
 0.478 -1.611 4.178
 0.491 -1.612 4.181
 0.503 -1.611 4.175
 0.516 -1.613 4.179
 0.528 -1.611 4.172
 0.542 -1.614 4.18
 0.554 -1.614 4.177
 0.567 -1.615 4.179
 0.58 -1.614 4.174
 0.593 -1.615 4.175
 0.605 -1.615 4.174
 0.618 -1.616 4.173
 0.63 -1.614 4.168
 0.643 -1.615 4.169
 0.656 -1.614 4.164
 0.666 -1.608 4.148
 0.679 -1.61 4.15
 0.692 -1.61 4.148
 0.705 -1.612 4.151
 0.718 -1.613 4.151
 0.733 -1.616 4.158
 0.744 -1.614 4.151
 0.759 -1.618 4.158
 0.77 -1.614 4.146
 0.782 -1.614 4.144
 0.795 -1.614 4.141
 0.807 -1.613 4.136
 0.819 -1.611 4.13
 0.833 -1.616 4.139
 0.847 -1.617 4.141
 0.859 -1.617 4.137
 0.872 -1.618 4.136
 0.886 -1.619 4.138
 0.897 -1.616 4.128
 0.91 -1.616 4.125
 0.924 -1.619 4.13
 0.936 -1.619 4.126
 0.947 -1.615 4.115
 0.959 -1.615 4.111
 0.972 -1.615 4.107
 0.985 -1.615 4.106
 0.998 -1.616 4.107
 1.012 -1.618 4.107
 1.025 -1.619 4.108
 1.039 -1.622 4.111
 1.052 -1.621 4.108
 1.065 -1.622 4.107
 1.079 -1.624 4.109
 1.091 -1.623 4.103
 1.103 -1.623 4.099
 1.117 -1.623 4.097
 1.13 -1.624 4.096
 1.142 -1.623 4.09
 1.157 -1.626 4.095
 1.17 -1.628 4.095
 1.182 -1.626 4.087
 1.194 -1.625 4.081
 1.207 -1.625 4.079
 1.218 -1.623 4.07
 1.23 -1.622 4.064
 1.243 -1.623 4.063
 1.256 -1.623 4.06
 1.269 -1.624 4.058
 1.283 -1.625 4.057
 1.296 -1.625 4.054
 1.309 -1.626 4.052
 1.323 -1.627 4.051
 1.337 -1.629 4.052
 1.351 -1.631 4.052
 1.366 -1.633 4.055
 1.381 -1.636 4.057
 1.395 -1.638 4.058
 1.407 -1.637 4.051
 1.42 -1.637 4.047
 1.43 -1.634 4.035
 1.442 -1.633 4.03
 1.453 -1.632 4.022
 1.464 -1.63 4.012
 1.476 -1.629 4.006
 1.488 -1.627 3.998
 1.498 -1.625 3.987
 1.511 -1.626 3.985
 1.524 -1.626 3.981
 1.537 -1.626 3.977
 1.552 -1.629 3.979
 1.567 -1.631 3.98
 1.577 -1.629 3.97
 1.593 -1.631 3.971
 1.606 -1.631 3.967
 1.619 -1.632 3.963
 1.629 -1.629 3.952
 1.643 -1.63 3.95
 1.655 -1.63 3.944
 1.666 -1.628 3.935
 1.676 -1.625 3.923
 1.687 -1.624 3.915
 1.697 -1.622 3.905
 1.708 -1.62 3.895
 1.72 -1.62 3.89
 1.734 -1.621 3.887
 1.749 -1.623 3.887
 1.764 -1.625 3.887
 1.778 -1.627 3.885
 1.789 -1.625 3.875
 1.803 -1.626 3.872
 1.815 -1.625 3.866
 1.825 -1.624 3.856
 1.835 -1.621 3.845
 1.848 -1.621 3.839
 1.853 -1.615 3.819
 1.859 -1.609 3.798
 1.864 -1.603 3.779
 1.866 -1.594 3.752
 1.869 -1.586 3.728
 1.869 -1.576 3.698
 1.87 -1.566 3.67
 1.873 -1.559 3.647
 1.875 -1.55 3.62
 1.874 -1.539 3.589
 1.868 -1.525 3.551
 1.868 -1.515 3.523
 1.868 -1.505 3.494
 1.869 -1.498 3.47
 1.864 -1.484 3.433
 1.882 -1.489 3.438
 1.879 -1.478 3.406
 0 0 0
 0 0 0
 0 0 0
 1.802 -1.383 3.166
 1.813 -1.383 3.161
 1.821 -1.381 3.151
 1.827 -1.378 3.138
 1.836 -1.377 3.129
 1.842 -1.373 3.115
 1.842 -1.366 3.092
 1.843 -1.359 3.071
 1.838 -1.347 3.04
 1.833 -1.336 3.008
 1.802 -1.306 2.936
 1.857 -1.338 3.001
 -2.295 -1.659 3.848
 0 0 0
 -2.218 -1.622 3.774
 -2.207 -1.623 3.784
 -2.197 -1.626 3.796
 -2.19 -1.63 3.813
 -2.172 -1.627 3.811
 -2.163 -1.63 3.825
 -2.146 -1.627 3.823
 -2.134 -1.628 3.832
 -2.121 -1.627 3.837
 -2.106 -1.626 3.839
 -2.092 -1.626 3.845
 -2.08 -1.627 3.853
 -2.067 -1.626 3.859
 -2.054 -1.626 3.864
 -2.045 -1.629 3.878
 -2.029 -1.627 3.878
 -2.013 -1.625 3.879
 -1.998 -1.624 3.881
 -1.982 -1.621 3.881
 -1.967 -1.619 3.882
 -1.957 -1.621 3.893
 -1.946 -1.624 3.904
 -1.937 -1.627 3.917
 -1.925 -1.628 3.924
 -1.912 -1.628 3.931
 -1.898 -1.627 3.934
 -1.884 -1.626 3.937
 -1.868 -1.624 3.936
 -1.858 -1.626 3.947
 -1.848 -1.629 3.959
 -1.838 -1.632 3.972
 -1.828 -1.635 3.983
 -1.817 -1.636 3.993
 -1.801 -1.633 3.991
 -1.785 -1.631 3.99
 -1.768 -1.627 3.985
 -1.752 -1.625 3.983
 -1.737 -1.623 3.985
 -1.723 -1.623 3.988
 -1.711 -1.623 3.994
 -1.7 -1.625 4.005
 -1.69 -1.628 4.015
 -1.678 -1.629 4.022
 -1.667 -1.631 4.032
 -1.652 -1.629 4.033
 -1.637 -1.627 4.033
 -1.623 -1.626 4.034
 -1.61 -1.626 4.038
 -1.594 -1.624 4.037
 -1.58 -1.623 4.038
 -1.565 -1.62 4.037
 -1.55 -1.619 4.036
 -1.535 -1.616 4.035
 -1.524 -1.617 4.042
 -1.511 -1.618 4.047
 -1.499 -1.619 4.055
 -1.487 -1.62 4.062
 -1.474 -1.62 4.065
 -1.463 -1.622 4.075
 -1.451 -1.623 4.08
 -1.438 -1.623 4.085
 -1.425 -1.624 4.09
 -1.413 -1.624 4.094
 -1.397 -1.62 4.089
 -1.381 -1.617 4.085
 -1.366 -1.615 4.081
 -1.351 -1.613 4.08
 -1.339 -1.613 4.085
 -1.324 -1.611 4.082
 -1.313 -1.613 4.092
 -1.3 -1.613 4.094
 -1.286 -1.612 4.095
 -1.272 -1.611 4.096
 -1.262 -1.614 4.108
 -1.247 -1.611 4.103
 -1.237 -1.615 4.115
 -1.224 -1.615 4.12
 -1.211 -1.615 4.123
 -1.196 -1.612 4.117
 -1.186 -1.616 4.131
 -1.172 -1.614 4.13
 -1.16 -1.616 4.137
 -1.145 -1.613 4.133
 -1.134 -1.616 4.142
 -1.119 -1.613 4.138
 -1.105 -1.611 4.137
 -1.089 -1.607 4.128
 -1.077 -1.608 4.133
 -1.064 -1.607 4.133
 -1.052 -1.609 4.141
 -1.04 -1.609 4.145
 -1.028 -1.611 4.153
 -1.015 -1.61 4.153
 -1.001 -1.61 4.154
 -0.986 -1.606 4.146
 -0.972 -1.604 4.144
 -0.959 -1.604 4.145
 -0.946 -1.603 4.147
 -0.933 -1.603 4.148
 -0.921 -1.604 4.152
 -0.91 -1.607 4.163
 -0.897 -1.608 4.168
 -0.885 -1.608 4.17
 -0.872 -1.609 4.174
 -0.86 -1.609 4.178
 -0.846 -1.607 4.175
 -0.832 -1.605 4.171
 -0.819 -1.604 4.171
 -0.806 -1.604 4.172
 -0.793 -1.604 4.175
 -0.78 -1.604 4.175
 -0.768 -1.606 4.183
 -0.758 -1.61 4.196
 -0.745 -1.612 4.202
 -0.732 -1.611 4.201
 -0.72 -1.612 4.206
 -0.706 -1.61 4.204
 -0.692 -1.608 4.198
 -0.679 -1.607 4.197
 -0.667 -1.607 4.2
 -0.654 -1.607 4.2
 -0.64 -1.605 4.198
 -0.627 -1.605 4.198
 -0.614 -1.603 4.196
 -0.601 -1.603 4.197
 -0.588 -1.602 4.195
 -0.576 -1.606 4.206
 -0.563 -1.605 4.204
 -0.551 -1.606 4.209
 -0.538 -1.605 4.208
 -0.525 -1.605 4.209
 -0.512 -1.603 4.205
 -0.499 -1.603 4.207
 -0.486 -1.602 4.204
 -0.473 -1.602 4.206
 -0.46 -1.601 4.204
 -0.447 -1.601 4.206
 -0.435 -1.602 4.21
 -0.423 -1.604 4.214
 -0.409 -1.601 4.209
 -0.397 -1.604 4.216
