 1.643 -1.63 4.011
 1.668 -1.629 4
 1.694 -1.629 3.99
 1.718 -1.628 3.977
 1.742 -1.627 3.963
 1.766 -1.625 3.949
 1.786 -1.62 3.925
 1.802 -1.612 3.895
 1.816 -1.602 3.859
 1.826 -1.588 3.816
 1.832 -1.572 3.766
 1.836 -1.555 3.713
 1.842 -1.54 3.666
 1.842 -1.519 3.606
 1.845 -1.503 3.555
 1.846 -1.484 3.5
 1.833 -1.456 3.422
 1.769 -1.388 3.251
 1.756 -1.361 3.177
 1.758 -1.346 3.131
 1.768 -1.337 3.1
 1.774 -1.326 3.064
 1.773 -1.31 3.016
 1.768 -1.292 2.962
 1.771 -1.279 2.923
 1.75 -1.25 2.845
 -2.265 -1.609 3.823
 -2.251 -1.618 3.858
 -2.226 -1.619 3.873
 -2.2 -1.619 3.887
 -2.176 -1.621 3.904
 -2.149 -1.621 3.916
 -2.119 -1.619 3.922
 -2.091 -1.618 3.932
 -2.064 -1.617 3.943
 -2.036 -1.616 3.951
 -2.01 -1.616 3.964
 -1.985 -1.618 3.978
 -1.959 -1.618 3.991
 -1.934 -1.619 4.003
 -1.907 -1.619 4.013
 -1.882 -1.62 4.027
 -1.856 -1.621 4.04
 -1.832 -1.623 4.056
 -1.803 -1.621 4.061
 -1.775 -1.62 4.067
 -1.744 -1.616 4.067
 -1.716 -1.614 4.071
 -1.686 -1.611 4.073
 -1.662 -1.612 4.086
 -1.634 -1.611 4.092
 -1.61 -1.613 4.107
 -1.583 -1.613 4.114
 -1.554 -1.611 4.117
 -1.526 -1.609 4.12
 -1.501 -1.61 4.131
 -1.473 -1.608 4.134
 -1.444 -1.605 4.133
 -1.418 -1.606 4.144
 -1.392 -1.605 4.15
 -1.365 -1.604 4.154
 -1.338 -1.603 4.159
 -1.313 -1.604 4.169
 -1.286 -1.604 4.174
 -1.26 -1.605 4.183
 -1.235 -1.606 4.193
 -1.208 -1.605 4.196
 -1.181 -1.604 4.199
 -1.154 -1.603 4.203
 -1.126 -1.6 4.2
 -1.099 -1.598 4.202
 -1.073 -1.599 4.209
 -1.048 -1.601 4.22
 -1.022 -1.601 4.224
 -0.996 -1.6 4.227
 -0.97 -1.6 4.232
 -0.943 -1.599 4.235
 -0.915 -1.595 4.229
 -0.887 -1.592 4.224
 -0.862 -1.593 4.231
 -0.834 -1.589 4.226
 -0.808 -1.588 4.227
 -0.781 -1.588 4.229
 -0.757 -1.59 4.239
 -0.73 -1.589 4.241
 -0.705 -1.589 4.244
 -0.679 -1.589 4.246
 -0.653 -1.589 4.249
 -0.627 -1.588 4.25
 -0.6 -1.587 4.25
 -0.574 -1.586 4.251
 -0.548 -1.585 4.25
 -0.522 -1.585 4.252
 -0.496 -1.581 4.245
 -0.469 -1.58 4.243
 -0.444 -1.581 4.249
 -0.418 -1.581 4.25
 -0.393 -1.582 4.253
 -0.368 -1.583 4.258
 -0.342 -1.585 4.264
 -0.316 -1.583 4.262
 -0.291 -1.583 4.263
 -0.265 -1.582 4.261
 -0.239 -1.581 4.259
 -0.213 -1.579 4.254
 -0.187 -1.579 4.255
 -0.162 -1.58 4.257
 -0.136 -1.579 4.256
 -0.111 -1.579 4.257
 -0.085 -1.58 4.259
 -0.06 -1.579 4.257
 -0.034 -1.578 4.253
 -0.008 -1.578 4.253
 0.016 -1.578 4.252
 0.042 -1.578 4.252
 0.067 -1.577 4.248
 0.093 -1.578 4.251
 0.118 -1.578 4.25
 0.144 -1.578 4.249
 0.169 -1.579 4.25
 0.195 -1.579 4.25
 0.221 -1.58 4.251
 0.246 -1.579 4.247
 0.272 -1.58 4.247
 0.297 -1.578 4.241
 0.322 -1.579 4.241
 0.348 -1.579 4.239
 0.374 -1.582 4.245
 0.399 -1.581 4.241
 0.426 -1.583 4.245
 0.451 -1.584 4.244
 0.476 -1.582 4.236
 0.502 -1.581 4.231
 0.527 -1.582 4.228
 0.553 -1.582 4.227
 0.579 -1.584 4.229
 0.605 -1.586 4.23
 0.631 -1.586 4.227
 0.657 -1.588 4.229
 0.683 -1.587 4.224
 0.708 -1.587 4.22
 0.735 -1.589 4.221
 0.761 -1.591 4.221
 0.788 -1.593 4.221
 0.814 -1.595 4.223
 0.84 -1.596 4.219
 0.866 -1.596 4.215
 0.893 -1.598 4.215
 0.919 -1.599 4.214
 0.945 -1.599 4.208
 0.971 -1.6 4.206
 0.998 -1.602 4.204
 1.024 -1.602 4.2
 1.049 -1.601 4.192
 1.076 -1.603 4.191
 1.103 -1.604 4.187
 1.129 -1.605 4.184
 1.157 -1.608 4.185
 1.183 -1.608 4.177
 1.209 -1.609 4.172
 1.235 -1.609 4.166
 1.262 -1.609 4.161
 1.286 -1.608 4.149
 1.315 -1.612 4.151
 1.342 -1.613 4.147
 1.369 -1.614 4.142
 1.396 -1.615 4.137
 1.423 -1.617 4.134
 1.45 -1.618 4.127
 1.477 -1.619 4.122
 1.504 -1.62 4.116
 1.53 -1.621 4.108
 1.557 -1.621 4.101
 1.585 -1.623 4.097
 1.61 -1.623 4.087
 1.638 -1.624 4.081
 1.663 -1.624 4.07
 1.689 -1.623 4.058
 1.713 -1.622 4.046
 1.739 -1.622 4.035
 1.761 -1.618 4.015
 1.784 -1.615 3.998
 1.802 -1.609 3.971
 1.816 -1.598 3.934
 1.827 -1.585 3.891
 1.836 -1.572 3.846
 1.842 -1.555 3.795
 1.846 -1.538 3.742
 1.855 -1.525 3.699
 1.856 -1.507 3.643
 1.859 -1.489 3.59
 1.859 -1.471 3.534
 0 0 0
 1.747 -1.348 3.217
 1.737 -1.324 3.149
 1.751 -1.319 3.127
 1.764 -1.313 3.101
 1.773 -1.305 3.07
 1.776 -1.291 3.028
 1.773 -1.274 2.978
 1.755 -1.247 2.903
 1.755 -1.234 2.86
 -2.31 -1.614 3.91
 -2.278 -1.611 3.915
 -2.263 -1.619 3.948
 -2.235 -1.619 3.96
 -2.21 -1.62 3.976
 -2.182 -1.619 3.986
 -2.15 -1.615 3.989
 -2.121 -1.614 3.997
 -2.094 -1.614 4.01
 -2.067 -1.614 4.022
 -2.039 -1.613 4.032
 -2.014 -1.614 4.046
 -1.987 -1.615 4.058
 -1.96 -1.615 4.069
 -1.931 -1.612 4.074
 -1.906 -1.614 4.089
 -1.881 -1.616 4.104
 -1.857 -1.618 4.121
 -1.828 -1.617 4.127
 -1.8 -1.616 4.135
 -1.769 -1.612 4.135
 -1.741 -1.61 4.14
 -1.711 -1.608 4.142
 -1.685 -1.608 4.153
 -1.656 -1.606 4.156
 -1.631 -1.608 4.17
 -1.603 -1.607 4.176
 -1.574 -1.604 4.177
 -1.545 -1.602 4.181
 -1.52 -1.603 4.193
 -1.489 -1.599 4.19
 -1.46 -1.597 4.191
 -1.435 -1.598 4.202
 -1.409 -1.598 4.21
 -1.381 -1.597 4.215
 -1.355 -1.598 4.223
 -1.329 -1.598 4.231
 -1.302 -1.597 4.235
 -1.275 -1.596 4.24
 -1.248 -1.597 4.246
 -1.22 -1.595 4.249
 -1.191 -1.591 4.245
 -1.164 -1.59 4.247
 -1.135 -1.587 4.244
 -1.108 -1.585 4.245
 -1.082 -1.585 4.251
 -1.057 -1.588 4.264
 -1.031 -1.588 4.268
 -1.004 -1.587 4.271
 -0.977 -1.586 4.275
 -0.951 -1.586 4.277
 -0.922 -1.582 4.272
 -0.894 -1.579 4.267
 -0.868 -1.579 4.272
 -0.84 -1.576 4.268
 -0.814 -1.575 4.269
 -0.787 -1.573 4.269
 -0.762 -1.575 4.276
 -0.735 -1.574 4.277
 -0.709 -1.573 4.278
 -0.682 -1.571 4.277
 -0.656 -1.571 4.28
 -0.63 -1.57 4.281
 -0.603 -1.569 4.28
 -0.577 -1.569 4.281
 -0.551 -1.567 4.28
 -0.525 -1.567 4.282
 -0.498 -1.564 4.275
 -0.472 -1.562 4.273
 -0.446 -1.562 4.274
 -0.42 -1.561 4.274
 -0.394 -1.561 4.274
 -0.368 -1.561 4.277
 -0.343 -1.563 4.282
 -0.317 -1.563 4.284
 -0.291 -1.562 4.283
 -0.265 -1.561 4.283
 -0.24 -1.561 4.282
 -0.213 -1.558 4.275
 -0.188 -1.557 4.273
 -0.162 -1.558 4.276
 -0.136 -1.557 4.273
 -0.111 -1.557 4.275
 -0.085 -1.558 4.276
 -0.06 -1.557 4.274
 -0.034 -1.555 4.269
 -0.008 -1.555 4.269
 0.016 -1.554 4.266
 0.042 -1.555 4.267
 0.067 -1.554 4.263
 0.093 -1.555 4.265
 0.119 -1.555 4.266
 0.144 -1.556 4.268
 0.17 -1.557 4.268
 0.196 -1.559 4.272
 0.222 -1.56 4.275
 0.247 -1.559 4.271
 0.273 -1.56 4.272
 0.298 -1.558 4.265
 0.324 -1.558 4.262
 0.349 -1.558 4.261
 0.375 -1.56 4.264
 0.4 -1.558 4.256
 0.426 -1.56 4.259
 0.452 -1.561 4.258
 0.477 -1.558 4.249
 0.503 -1.558 4.246
 0.529 -1.56 4.247
 0.555 -1.561 4.248
 0.581 -1.563 4.249
 0.608 -1.565 4.253
 0.633 -1.565 4.249
 0.66 -1.567 4.251
 0.685 -1.566 4.244
 0.711 -1.567 4.243
 0.737 -1.567 4.239
 0.763 -1.569 4.239
 0.789 -1.57 4.238
 0.816 -1.572 4.238
 0.841 -1.571 4.232
 0.868 -1.572 4.23
 0.894 -1.574 4.229
 0.921 -1.576 4.229
 0.947 -1.576 4.226
 0.974 -1.578 4.225
 1.001 -1.581 4.226
 1.028 -1.583 4.226
 1.055 -1.583 4.221
 1.082 -1.584 4.219
 1.109 -1.587 4.218
 1.135 -1.587 4.213
 1.163 -1.589 4.213
 1.188 -1.588 4.203
 1.216 -1.591 4.202
 1.242 -1.591 4.196
 1.27 -1.593 4.196
 1.294 -1.592 4.184
 1.324 -1.596 4.188
 1.351 -1.598 4.185
 1.378 -1.599 4.18
 1.406 -1.6 4.176
 1.435 -1.603 4.175
 1.461 -1.604 4.169
 1.489 -1.606 4.166
 1.517 -1.608 4.162
 1.544 -1.608 4.153
 1.571 -1.61 4.148
 1.6 -1.612 4.146
 1.626 -1.612 4.135
 1.654 -1.614 4.13
 1.681 -1.615 4.123
 1.707 -1.614 4.112
 1.732 -1.613 4.099
 1.758 -1.613 4.087
 1.78 -1.608 4.066
 1.8 -1.603 4.042
 1.814 -1.592 4.004
 1.826 -1.581 3.964
 1.835 -1.567 3.918
 1.843 -1.552 3.87
 1.848 -1.535 3.816
 1.855 -1.52 3.768
 1.864 -1.508 3.726
 1.867 -1.491 3.674
 1.866 -1.471 3.612
 0 0 0
 0 0 0
 1.717 -1.304 3.17
 1.737 -1.303 3.158
 1.752 -1.299 3.136
 1.766 -1.293 3.112
 1.777 -1.286 3.084
 1.782 -1.275 3.046
 1.782 -1.261 3.001
 1.777 -1.243 2.948
 1.777 -1.229 2.904
 -2.373 -1.631 4.027
 -2.311 -1.607 3.981
 -2.204 -1.551 3.854
 -2.269 -1.616 4.03
 -2.243 -1.617 4.045
 -2.214 -1.616 4.056
 -2.181 -1.612 4.058
 -2.151 -1.61 4.065
 -2.123 -1.609 4.076
 -2.096 -1.609 4.088
 -2.069 -1.61 4.101
 -2.042 -1.61 4.113
 -2.016 -1.611 4.126
 -1.987 -1.61 4.135
 -1.958 -1.608 4.141
 -1.931 -1.608 4.152
 -1.904 -1.609 4.165
 -1.878 -1.61 4.178
 -1.851 -1.61 4.189
 -1.823 -1.609 4.196
 -1.793 -1.607 4.2
 -1.764 -1.605 4.205
 -1.734 -1.603 4.208
 -1.706 -1.602 4.216
 -1.678 -1.6 4.221
 -1.65 -1.6 4.229
 -1.622 -1.599 4.234
 -1.593 -1.597 4.238
 -1.563 -1.594 4.239
 -1.536 -1.594 4.248
 -1.505 -1.59 4.244
 -1.476 -1.587 4.245
 -1.449 -1.587 4.251
 -1.421 -1.586 4.256
 -1.393 -1.584 4.259
 -1.367 -1.585 4.269
 -1.339 -1.584 4.273
 -1.311 -1.582 4.274
 -1.283 -1.581 4.279
 -1.255 -1.579 4.28
 -1.226 -1.576 4.278
 -1.198 -1.574 4.278
 -1.17 -1.572 4.28
 -1.142 -1.57 4.279
 -1.115 -1.569 4.281
 -1.088 -1.569 4.287
 -1.063 -1.57 4.296
 -1.036 -1.57 4.3
 -1.009 -1.568 4.301
 -0.982 -1.568 4.305
 -0.955 -1.568 4.308
 -0.927 -1.564 4.304
 -0.899 -1.561 4.3
 -0.873 -1.562 4.305
 -0.845 -1.559 4.301
 -0.818 -1.557 4.299
 -0.791 -1.555 4.298
 -0.765 -1.555 4.303
 -0.738 -1.553 4.301
 -0.711 -1.552 4.301
 -0.684 -1.551 4.3
 -0.658 -1.551 4.303
 -0.631 -1.549 4.302
 -0.605 -1.547 4.3
 -0.579 -1.547 4.301
 -0.552 -1.545 4.298
 -0.526 -1.544 4.298
 -0.499 -1.541 4.292
 -0.473 -1.541 4.293
 -0.447 -1.539 4.29
 -0.421 -1.539 4.291
 -0.395 -1.539 4.292
 -0.369 -1.539 4.295
 -0.343 -1.54 4.299
 -0.318 -1.54 4.3
 -0.291 -1.538 4.297
 -0.265 -1.537 4.294
 -0.24 -1.536 4.293
 -0.213 -1.532 4.282
 -0.188 -1.532 4.282
 -0.162 -1.532 4.284
 -0.136 -1.531 4.281
 -0.111 -1.531 4.282
 -0.085 -1.532 4.284
 -0.059 -1.532 4.283
 -0.034 -1.532 4.283
 -0.008 -1.532 4.282
 0.016 -1.531 4.28
 0.042 -1.531 4.281
 0.068 -1.529 4.275
 0.093 -1.529 4.273
 0.119 -1.53 4.275
 0.144 -1.531 4.276
 0.17 -1.53 4.273
 0.196 -1.532 4.277
 0.222 -1.534 4.282
 0.247 -1.533 4.278
 0.273 -1.533 4.276
 0.298 -1.533 4.272
 0.324 -1.533 4.273
 0.35 -1.534 4.272
 0.376 -1.535 4.274
 0.401 -1.533 4.267
 0.427 -1.535 4.268
 0.452 -1.534 4.265
 0.477 -1.533 4.257
 0.503 -1.534 4.256
 0.529 -1.536 4.259
 0.555 -1.537 4.26
 0.582 -1.539 4.262
 0.608 -1.541 4.265
 0.634 -1.541 4.262
 0.661 -1.543 4.264
 0.686 -1.543 4.258
 0.712 -1.543 4.256
 0.738 -1.543 4.252
 0.764 -1.545 4.252
 0.79 -1.546 4.251
 0.817 -1.548 4.253
 0.843 -1.548 4.246
 0.869 -1.548 4.244
 0.895 -1.55 4.243
 0.922 -1.552 4.242
 0.948 -1.552 4.238
 0.975 -1.554 4.238
 1.003 -1.556 4.239
 1.03 -1.559 4.24
 1.056 -1.559 4.236
 1.084 -1.562 4.236
 1.112 -1.564 4.237
 1.139 -1.566 4.234
 1.166 -1.567 4.231
 1.192 -1.567 4.225
 1.22 -1.57 4.225
 1.246 -1.57 4.22
 1.274 -1.572 4.218
 1.3 -1.572 4.21
 1.329 -1.575 4.211
 1.356 -1.577 4.208
 1.384 -1.579 4.206
 1.412 -1.581 4.203
 1.442 -1.585 4.206
 1.47 -1.587 4.201
 1.499 -1.589 4.2
 1.527 -1.592 4.198
 1.555 -1.593 4.193
 1.582 -1.594 4.185
 1.612 -1.597 4.185
 1.638 -1.596 4.173
 1.665 -1.598 4.166
 1.692 -1.598 4.158
 1.719 -1.599 4.15
 1.744 -1.598 4.136
 1.769 -1.596 4.123
 1.79 -1.591 4.099
 1.808 -1.584 4.071
 1.822 -1.573 4.032
 1.834 -1.561 3.99
 1.843 -1.548 3.944
 1.853 -1.534 3.899
 1.859 -1.519 3.849
 1.868 -1.506 3.805
 1.874 -1.491 3.755
 1.879 -1.475 3.704
 0 0 0
 0 0 0
 0 0 0
 0 0 0
 1.734 -1.28 3.16
 1.753 -1.278 3.145
 1.765 -1.271 3.118
 1.777 -1.265 3.092
 1.786 -1.256 3.06
 1.79 -1.245 3.021
 1.776 -1.221 2.952
 1.774 -1.206 2.905
 -2.389 -1.614 4.065
 -2.342 -1.601 4.044
 -1.859 -1.287 3.258
 -1.927 -1.35 3.43
 -1.813 -1.285 3.275
 -1.79 -1.284 3.283
 -1.852 -1.346 3.452
 -1.826 -1.344 3.458
 -1.89 -1.408 3.635
 -1.865 -1.408 3.644
 -1.925 -1.473 3.823
 -1.899 -1.472 3.832
 -1.957 -1.537 4.014
 -1.93 -1.537 4.024
 -1.983 -1.601 4.204
 -1.955 -1.601 4.215
 -1.928 -1.601 4.226
 -1.9 -1.601 4.236
 -1.873 -1.601 4.248
 -1.843 -1.6 4.253
 -1.813 -1.597 4.257
 -1.783 -1.595 4.261
 -1.754 -1.594 4.267
 -1.725 -1.592 4.271
 -1.695 -1.59 4.275
 -1.667 -1.589 4.281
 -1.639 -1.588 4.288
 -1.608 -1.585 4.289
 -1.577 -1.581 4.286
 -1.549 -1.581 4.293
 -1.518 -1.576 4.29
 -1.488 -1.574 4.29
 -1.461 -1.573 4.295
 -1.433 -1.572 4.302
 -1.405 -1.571 4.304
 -1.377 -1.57 4.31
 -1.348 -1.567 4.309
 -1.319 -1.565 4.309
 -1.29 -1.562 4.309
 -1.261 -1.56 4.309
 -1.232 -1.557 4.308
 -1.204 -1.555 4.309
 -1.176 -1.554 4.309
 -1.148 -1.551 4.31
 -1.12 -1.55 4.311
 -1.094 -1.55 4.316
 -1.067 -1.55 4.321
 -1.039 -1.548 4.322
 -1.012 -1.547 4.323
 -0.985 -1.546 4.325
 -0.958 -1.545 4.328
 -0.93 -1.543 4.326
 -0.902 -1.54 4.323
 -0.875 -1.538 4.322
 -0.846 -1.535 4.317
 -0.819 -1.532 4.313
 -0.791 -1.53 4.31
 -0.765 -1.531 4.316
 -0.738 -1.529 4.313
 -0.712 -1.528 4.315
 -0.685 -1.526 4.312
 -0.659 -1.526 4.315
 -0.632 -1.523 4.311
 -0.605 -1.522 4.309
 -0.578 -1.52 4.308
 -0.552 -1.519 4.307
 -0.526 -1.518 4.305
 -0.499 -1.515 4.3
 -0.473 -1.514 4.3
 -0.446 -1.513 4.298
 -0.42 -1.512 4.296
 -0.394 -1.512 4.297
 -0.369 -1.512 4.299
 -0.343 -1.513 4.303
 -0.317 -1.513 4.304
 -0.291 -1.511 4.3
 -0.265 -1.51 4.297
 -0.239 -1.509 4.297
 -0.213 -1.507 4.292
 -0.187 -1.506 4.29
 -0.162 -1.507 4.292
 -0.136 -1.506 4.291
 -0.111 -1.506 4.29
 -0.085 -1.505 4.289
 -0.059 -1.506 4.29
 -0.034 -1.505 4.289
 -0.008 -1.505 4.286
 0.017 -1.504 4.285
 0.042 -1.505 4.286
 0.068 -1.502 4.279
 0.093 -1.502 4.277
 0.119 -1.503 4.278
 0.144 -1.503 4.278
 0.17 -1.503 4.276
 0.196 -1.505 4.28
 0.221 -1.506 4.283
 0.247 -1.506 4.28
 0.273 -1.506 4.279
 0.298 -1.506 4.277
 0.324 -1.506 4.277
 0.35 -1.507 4.277
 0.375 -1.508 4.278
 0.401 -1.507 4.272
 0.427 -1.508 4.273
 0.452 -1.508 4.27
 0.477 -1.507 4.264
 0.503 -1.508 4.263
 0.529 -1.509 4.264
 0.555 -1.509 4.263
 0.581 -1.51 4.261
 0.607 -1.512 4.263
 0.633 -1.512 4.261
 0.659 -1.514 4.262
 0.685 -1.514 4.258
 0.711 -1.516 4.259
 0.737 -1.516 4.256
 0.764 -1.518 4.256
 0.79 -1.519 4.255
 0.816 -1.52 4.254
 0.842 -1.52 4.25
 0.868 -1.521 4.248
 0.895 -1.523 4.248
 0.922 -1.525 4.249
 0.949 -1.527 4.249
 0.976 -1.529 4.249
 1.003 -1.531 4.25
 1.03 -1.533 4.248
 1.057 -1.534 4.246
 1.084 -1.535 4.244
 1.112 -1.538 4.245
 1.139 -1.539 4.242
 1.166 -1.541 4.241
 1.193 -1.542 4.237
 1.221 -1.545 4.238
 1.248 -1.546 4.233
 1.276 -1.548 4.232
 1.302 -1.548 4.224
 1.331 -1.551 4.226
 1.359 -1.554 4.225
 1.388 -1.556 4.224
 1.415 -1.558 4.221
 1.446 -1.563 4.226
 1.474 -1.564 4.222
 1.502 -1.566 4.219
 1.532 -1.57 4.219
 1.562 -1.573 4.219
 1.589 -1.574 4.213
 1.619 -1.578 4.212
 1.646 -1.578 4.204
 1.674 -1.579 4.197
 1.7 -1.579 4.187
 1.727 -1.579 4.178
 1.752 -1.577 4.163
 1.777 -1.576 4.149
 1.797 -1.571 4.125
 1.816 -1.564 4.096
 1.828 -1.552 4.054
 1.841 -1.541 4.014
 1.851 -1.528 3.969
 1.86 -1.515 3.924
 1.87 -1.502 3.88
 1.885 -1.494 3.847
 1.895 -1.482 3.805
 0 0 0
 0 0 0
 0 0 0
 0 0 0
 0 0 0
 1.734 -1.258 3.167
 1.754 -1.257 3.154
 1.766 -1.251 3.127
 1.781 -1.246 3.105
 1.793 -1.24 3.08
 1.8 -1.231 3.044
 1.813 -1.226 3.022
 1.848 -1.235 3.034
 -0.02 -0.015 0.022
 -2.4 -1.612 4.155
 -1.422 -0.967 2.494
 -1.493 -1.028 2.66
 -1.382 -0.963 2.499
 -1.363 -0.962 2.504
 -1.431 -1.022 2.67
 -1.409 -1.019 2.67
 -1.477 -1.082 2.845
 -1.458 -1.082 2.853
 -1.608 -1.209 3.199
 -1.585 -1.207 3.203
 -1.646 -1.271 3.383
 -1.704 -1.334 3.56
 -1.841 -1.461 3.91
 -1.814 -1.46 3.918
 -1.867 -1.524 4.101
 -1.916 -1.587 4.281
 -1.888 -1.587 4.292
 -1.859 -1.585 4.298
 -1.827 -1.582 4.3
 -1.796 -1.58 4.302
 -1.768 -1.579 4.309
 -1.737 -1.576 4.311
 -1.706 -1.573 4.312
 -1.678 -1.572 4.319
 -1.649 -1.571 4.326
 -1.619 -1.569 4.327
 -1.588 -1.565 4.325
 -1.559 -1.563 4.329
 -1.527 -1.558 4.323
 -1.497 -1.556 4.324
 -1.467 -1.553 4.324
 -1.44 -1.553 4.332
 -1.411 -1.55 4.332
 -1.383 -1.55 4.337
 -1.354 -1.547 4.337
 -1.325 -1.545 4.338
 -1.294 -1.541 4.332
 -1.265 -1.538 4.332
 -1.236 -1.536 4.331
 -1.207 -1.533 4.328
 -1.178 -1.529 4.324
 -1.15 -1.528 4.327
 -1.122 -1.526 4.327
 -1.095 -1.525 4.329
 -1.067 -1.524 4.332
 -1.04 -1.523 4.335
 -1.013 -1.522 4.335
 -0.985 -1.52 4.336
 -0.958 -1.519 4.337
 -0.93 -1.516 4.334
 -0.902 -1.513 4.329
 -0.874 -1.511 4.326
 -0.846 -1.508 4.322
 -0.818 -1.505 4.318
 -0.791 -1.503 4.316
 -0.765 -1.504 4.321
 -0.738 -1.502 4.32
 -0.711 -1.501 4.319
 -0.684 -1.499 4.316
 -0.658 -1.498 4.316
 -0.631 -1.496 4.314
 -0.604 -1.494 4.31
 -0.578 -1.493 4.311
 -0.552 -1.493 4.313
 -0.525 -1.491 4.311
 -0.499 -1.489 4.307
 -0.472 -1.488 4.306
 -0.446 -1.487 4.304
 -0.42 -1.486 4.304
 -0.394 -1.486 4.306
 -0.368 -1.486 4.307
 -0.343 -1.488 4.314
 -0.317 -1.488 4.314
 -0.291 -1.485 4.308
 -0.265 -1.483 4.303
 -0.239 -1.482 4.302
 -0.213 -1.479 4.293
 -0.187 -1.478 4.291
 -0.161 -1.479 4.292
 -0.136 -1.479 4.294
 -0.11 -1.479 4.293
 -0.085 -1.478 4.292
 -0.059 -1.478 4.293
 -0.033 -1.478 4.293
 -0.008 -1.478 4.291
 0.017 -1.478 4.291
 0.042 -1.478 4.292
 0.068 -1.477 4.286
 0.093 -1.476 4.284
 0.119 -1.477 4.285
 0.145 -1.477 4.284
 0.17 -1.476 4.279
 0.196 -1.478 4.284
 0.221 -1.479 4.287
 0.247 -1.478 4.282
 0.272 -1.478 4.281
 0.298 -1.479 4.28
 0.323 -1.478 4.277
 0.349 -1.479 4.277
 0.375 -1.479 4.276
 0.4 -1.478 4.271
 0.426 -1.48 4.274
 0.452 -1.481 4.274
 0.477 -1.48 4.268
 0.503 -1.481 4.269
 0.529 -1.483 4.27
 0.555 -1.483 4.267
 0.581 -1.483 4.266
 0.607 -1.485 4.267
 0.633 -1.486 4.268
 0.659 -1.488 4.269
 0.685 -1.489 4.268
 0.712 -1.49 4.268
 0.738 -1.491 4.266
 0.763 -1.491 4.262
 0.789 -1.491 4.259
 0.815 -1.492 4.257
 0.841 -1.493 4.253
 0.868 -1.494 4.252
 0.895 -1.496 4.254
 0.922 -1.498 4.255
 0.949 -1.501 4.256
 0.976 -1.502 4.255
 1.003 -1.504 4.256
 1.03 -1.506 4.253
 1.057 -1.507 4.251
 1.083 -1.508 4.248
 1.111 -1.51 4.248
 1.138 -1.511 4.245
 1.165 -1.513 4.245
 1.193 -1.516 4.245
 1.222 -1.519 4.248
 1.249 -1.52 4.244
 1.277 -1.523 4.243
 1.303 -1.523 4.237
 1.331 -1.525 4.235
 1.359 -1.527 4.233
 1.388 -1.53 4.232
 1.415 -1.531 4.229
 1.445 -1.535 4.231
 1.474 -1.537 4.229
 1.503 -1.54 4.228
 1.532 -1.543 4.227
 1.563 -1.547 4.23
 1.591 -1.549 4.226
 1.621 -1.552 4.225
 1.648 -1.552 4.216
 1.677 -1.555 4.212
 1.703 -1.555 4.203
 1.731 -1.555 4.195
 1.756 -1.555 4.182
 1.782 -1.554 4.17
 1.803 -1.548 4.145
 1.823 -1.543 4.12
 1.836 -1.532 4.079
 1.85 -1.522 4.042
 1.86 -1.51 3.998
 1.873 -1.499 3.958
 1.88 -1.484 3.908
 1.897 -1.478 3.88
 0 0 0
 0 0 0
 0 0 0
 0 0 0
 0 0 0
 0 0 0
 1.818 -1.296 3.328
 1.804 -1.27 3.25
 1.768 -1.231 3.138
 1.784 -1.227 3.118
 1.797 -1.222 3.093
 1.806 -1.214 3.062
 1.806 -1.201 3.017
 1.84 -1.21 3.029
 -0.042 -0.029 0.059
 -2.403 -1.586 4.17
 -0.976 -0.653 1.713
 -1.054 -0.713 1.878
 -0.945 -0.647 1.709
 -0.931 -0.646 1.71
 -1.005 -0.706 1.876
 -0.989 -0.703 1.874
 -1.061 -0.764 2.044
 -1.048 -0.765 2.052
 -1.203 -0.889 2.396
 -1.184 -0.887 2.396
 -1.249 -0.948 2.568
 -1.393 -1.072 2.914
 -1.532 -1.195 3.26
 -1.588 -1.256 3.436
 -1.722 -1.382 3.791
 -1.85 -1.506 4.143
 -1.823 -1.505 4.152
 -1.869 -1.566 4.331
 -1.838 -1.564 4.335
 -1.806 -1.561 4.336
 -1.777 -1.559 4.341
 -1.746 -1.557 4.344
 -1.715 -1.554 4.344
 -1.685 -1.551 4.347
 -1.656 -1.55 4.353
 -1.626 -1.548 4.354
 -1.594 -1.544 4.351
 -1.564 -1.541 4.353
 -1.532 -1.537 4.349
 -1.502 -1.534 4.348
 -1.471 -1.53 4.345
 -1.443 -1.529 4.349
 -1.413 -1.526 4.348
 -1.384 -1.524 4.349
 -1.353 -1.52 4.345
 -1.325 -1.518 4.347
 -1.294 -1.514 4.341
 -1.264 -1.511 4.338
 -1.235 -1.508 4.336
 -1.206 -1.505 4.334
 -1.177 -1.502 4.331
 -1.15 -1.501 4.335
 -1.122 -1.499 4.335
 -1.094 -1.498 4.337
 -1.067 -1.497 4.338
 -1.039 -1.495 4.337
 -1.01 -1.492 4.334
 -0.983 -1.491 4.334
 -0.955 -1.489 4.333
 -0.927 -1.486 4.33
 -0.899 -1.483 4.326
 -0.871 -1.481 4.323
 -0.844 -1.478 4.32
 -0.816 -1.476 4.318
 -0.79 -1.475 4.318
 -0.763 -1.475 4.321
 -0.737 -1.474 4.321
 -0.71 -1.473 4.323
 -0.683 -1.471 4.319
 -0.657 -1.47 4.318
 -0.63 -1.469 4.318
 -0.603 -1.467 4.316
 -0.577 -1.466 4.316
 -0.551 -1.466 4.317
 -0.525 -1.464 4.316
 -0.498 -1.463 4.313
 -0.472 -1.462 4.312
 -0.446 -1.46 4.309
 -0.42 -1.46 4.31
 -0.394 -1.459 4.309
 -0.368 -1.458 4.308
 -0.342 -1.459 4.311
 -0.316 -1.458 4.31
 -0.29 -1.456 4.307
 -0.264 -1.455 4.305
 -0.239 -1.455 4.305
 -0.213 -1.453 4.3
 -0.187 -1.453 4.298
 -0.161 -1.453 4.3
 -0.136 -1.453 4.3
 -0.11 -1.453 4.3
 -0.084 -1.452 4.299
 -0.059 -1.452 4.299
 -0.033 -1.452 4.297
 -0.008 -1.452 4.296
 0.017 -1.451 4.295
 0.043 -1.452 4.298
 0.068 -1.45 4.291
 0.094 -1.45 4.29
 0.119 -1.45 4.289
 0.145 -1.45 4.288
 0.17 -1.45 4.285
 0.196 -1.451 4.288
 0.221 -1.452 4.288
 0.247 -1.451 4.286
 0.272 -1.452 4.286
 0.298 -1.452 4.284
 0.323 -1.452 4.282
 0.349 -1.452 4.281
 0.374 -1.452 4.278
 0.4 -1.451 4.272
 0.426 -1.452 4.274
 0.451 -1.453 4.276
 0.477 -1.453 4.272
 0.503 -1.455 4.274
 0.529 -1.455 4.273
 0.554 -1.456 4.27
 0.58 -1.455 4.266
 0.606 -1.457 4.268
 0.633 -1.459 4.271
 0.659 -1.461 4.272
 0.685 -1.462 4.271
 0.711 -1.464 4.273
 0.737 -1.464 4.27
 0.762 -1.463 4.263
 0.788 -1.464 4.26
 0.815 -1.465 4.259
 0.841 -1.465 4.256
 0.867 -1.467 4.257
 0.895 -1.47 4.26
 0.922 -1.472 4.262
 0.949 -1.474 4.261
 0.975 -1.475 4.259
 1.002 -1.477 4.259
 1.029 -1.478 4.256
 1.055 -1.479 4.253
 1.082 -1.48 4.252
 1.11 -1.483 4.254
 1.137 -1.484 4.25
 1.164 -1.486 4.248
 1.192 -1.489 4.25
 1.221 -1.492 4.253
 1.249 -1.494 4.252
 1.277 -1.496 4.251
 1.304 -1.497 4.247
 1.332 -1.499 4.245
 1.36 -1.501 4.242
 1.388 -1.503 4.241
 1.416 -1.505 4.237
 1.445 -1.508 4.239
 1.473 -1.51 4.236
 1.502 -1.513 4.234
 1.531 -1.515 4.233
 1.562 -1.52 4.236
 1.591 -1.522 4.235
 1.621 -1.525 4.233
 1.649 -1.527 4.228
 1.678 -1.528 4.223
 1.705 -1.529 4.216
 1.733 -1.531 4.21
 1.76 -1.531 4.199
 1.785 -1.529 4.185
 1.807 -1.526 4.164
 1.828 -1.521 4.141
 1.841 -1.51 4.1
 1.858 -1.502 4.067
 1.871 -1.492 4.03
 1.884 -1.482 3.99
 1.889 -1.466 3.936
 0 0 0
 0 0 0
 0 0 0
 0 0 0
 0 0 0
 0 0 0
 0 0 0
 1.83 -1.282 3.357
 1.815 -1.256 3.278
 1.784 -1.22 3.173
 1.8 -1.217 3.154
 1.816 -1.213 3.133
 1.826 -1.206 3.103
 0 0 0
 0 0 0
 -0.095 -0.062 0.151
 -0.059 -0.039 0.09
 -0.533 -0.351 0.931
 -0.612 -0.408 1.089
 -0.509 -0.343 0.916
 -0.498 -0.34 0.911
 -0.577 -0.399 1.075
 -0.564 -0.395 1.067
 -0.641 -0.454 1.233
 -0.63 -0.452 1.232
 -0.791 -0.574 1.573
 -0.86 -0.633 1.741
 -1.012 -0.755 2.084
 -1.158 -0.876 2.426
 -1.382 -1.059 2.946
 -1.52 -1.181 3.296
 -1.654 -1.303 3.648
 -1.783 -1.425 4
 -1.832 -1.486 4.182
 -1.877 -1.546 4.361
 -1.845 -1.542 4.36
 -1.812 -1.538 4.358
 -1.781 -1.535 4.36
 -1.749 -1.532 4.36
 -1.719 -1.529 4.362
 -1.688 -1.527 4.365
 -1.659 -1.526 4.37
 -1.628 -1.523 4.37
 -1.597 -1.519 4.368
 -1.566 -1.516 4.367
 -1.535 -1.512 4.364
 -1.504 -1.509 4.362
 -1.473 -1.505 4.358
 -1.443 -1.503 4.359
 -1.413 -1.5 4.358
 -1.384 -1.497 4.358
 -1.353 -1.493 4.354
 -1.325 -1.491 4.354
 -1.294 -1.487 4.348
 -1.264 -1.483 4.344
 -1.234 -1.48 4.341
 -1.206 -1.479 4.343
 -1.178 -1.476 4.341
 -1.151 -1.476 4.347
 -1.123 -1.474 4.347
 -1.095 -1.472 4.346
 -1.066 -1.47 4.343
 -1.038 -1.467 4.342
 -1.009 -1.464 4.336
 -0.981 -1.462 4.335
 -0.954 -1.46 4.336
 -0.926 -1.458 4.332
 -0.898 -1.455 4.328
 -0.87 -1.452 4.325
 -0.842 -1.45 4.322
 -0.815 -1.448 4.318
 -0.789 -1.447 4.32
 -0.762 -1.447 4.323
 -0.736 -1.447 4.326
 -0.709 -1.445 4.325
 -0.682 -1.443 4.322
 -0.655 -1.442 4.319
 -0.629 -1.441 4.32
 -0.603 -1.439 4.318
 -0.576 -1.439 4.319
 -0.551 -1.439 4.321
 -0.524 -1.437 4.319
 -0.497 -1.435 4.315
 -0.471 -1.434 4.314
 -0.445 -1.432 4.31
 -0.419 -1.432 4.311
 -0.393 -1.431 4.311
 -0.367 -1.43 4.309
 -0.341 -1.43 4.31
 -0.316 -1.431 4.312
 -0.29 -1.429 4.309
 -0.264 -1.428 4.308
 -0.238 -1.428 4.307
 -0.212 -1.426 4.303
 -0.187 -1.426 4.303
 -0.161 -1.426 4.305
 -0.136 -1.427 4.306
 -0.11 -1.426 4.304
 -0.084 -1.426 4.303
 -0.059 -1.426 4.304
 -0.033 -1.425 4.301
 -0.007 -1.424 4.299
 0.017 -1.425 4.3
 0.043 -1.425 4.299
 0.068 -1.423 4.294
 0.094 -1.424 4.294
 0.119 -1.423 4.291
 0.145 -1.423 4.289
 0.17 -1.423 4.289
 0.196 -1.423 4.288
 0.221 -1.424 4.289
 0.246 -1.423 4.285
 0.272 -1.423 4.282
 0.297 -1.423 4.281
 0.323 -1.423 4.28
 0.348 -1.423 4.279
 0.374 -1.424 4.279
 0.4 -1.425 4.278
 0.426 -1.427 4.282
 0.452 -1.428 4.285
 0.477 -1.428 4.28
 0.503 -1.429 4.28
 0.529 -1.43 4.28
 0.554 -1.428 4.273
 0.58 -1.429 4.271
 0.605 -1.43 4.271
 0.631 -1.431 4.27
 0.657 -1.431 4.268
 0.684 -1.433 4.271
 0.71 -1.434 4.269
 0.736 -1.435 4.268
 0.762 -1.435 4.265
 0.788 -1.437 4.264
 0.813 -1.436 4.26
 0.839 -1.437 4.257
 0.866 -1.438 4.255
 0.893 -1.441 4.259
 0.921 -1.444 4.262
 0.947 -1.445 4.261
 0.974 -1.447 4.261
 1.002 -1.45 4.263
 1.028 -1.451 4.261
 1.054 -1.451 4.256
 1.082 -1.454 4.258
 1.11 -1.456 4.259
 1.137 -1.458 4.257
 1.164 -1.459 4.256
 1.193 -1.463 4.259
 1.221 -1.465 4.258
 1.248 -1.466 4.255
 1.275 -1.468 4.252
 1.303 -1.469 4.251
 1.33 -1.471 4.247
 1.358 -1.473 4.246
 1.386 -1.475 4.242
 1.413 -1.476 4.238
 1.443 -1.479 4.239
 1.471 -1.481 4.237
 1.5 -1.484 4.236
 1.531 -1.488 4.239
 1.562 -1.493 4.244
 1.591 -1.495 4.242
 1.62 -1.498 4.24
 1.648 -1.499 4.233
 1.675 -1.499 4.225
 1.703 -1.5 4.218
 1.731 -1.501 4.211
 1.758 -1.501 4.201
 1.783 -1.501 4.189
 1.807 -1.499 4.173
 1.83 -1.496 4.154
 1.847 -1.488 4.122
 1.866 -1.482 4.095
 1.885 -1.476 4.067
 1.901 -1.468 4.034
 0 0 0
 0 0 0
 0 0 0
 0 0 0
 0 0 0
 0 0 0
 0 0 0
 0 0 0
 1.867 -1.285 3.433
 1.829 -1.244 3.311
 1.789 -1.203 3.19
 1.808 -1.201 3.173
 1.825 -1.198 3.155
 1.742 -1.131 2.967
 0 0 0
 0 0 0
 -0.083 -0.054 0.13
 -0.107 -0.07 0.175
 -0.174 -0.114 0.297
 -0.165 -0.109 0.284
 -0.066 -0.045 0.108
 -0.058 -0.04 0.095
 -0.142 -0.097 0.255
 -0.134 -0.093 0.244
 -0.215 -0.151 0.407
 -0.207 -0.147 0.396
 -0.371 -0.266 0.734
 -0.446 -0.323 0.897
 -0.603 -0.442 1.238
 -0.754 -0.56 1.578
 -1.065 -0.801 2.271
 -1.286 -0.981 2.792
 -1.502 -1.162 3.318
 -1.71 -1.342 3.844
 -1.836 -1.462 4.199
 -1.88 -1.52 4.376
 -1.848 -1.516 4.375
 -1.813 -1.511 4.371
 -1.782 -1.508 4.371
 -1.749 -1.504 4.367
 -1.718 -1.501 4.368
 -1.687 -1.498 4.37
 -1.658 -1.497 4.376
 -1.627 -1.494 4.374
 -1.596 -1.491 4.375
 -1.565 -1.488 4.374
 -1.534 -1.484 4.371
 -1.503 -1.481 4.368
 -1.473 -1.477 4.366
 -1.443 -1.475 4.368
 -1.414 -1.473 4.368
 -1.383 -1.47 4.365
 -1.353 -1.466 4.36
 -1.324 -1.463 4.36
 -1.293 -1.459 4.353
 -1.263 -1.456 4.349
 -1.234 -1.453 4.348
 -1.206 -1.452 4.352
 -1.177 -1.449 4.349
 -1.15 -1.449 4.353
 -1.122 -1.447 4.352
 -1.094 -1.445 4.351
 -1.065 -1.442 4.347
 -1.037 -1.44 4.348
 -1.008 -1.437 4.342
 -0.98 -1.435 4.34
 -0.953 -1.433 4.34
 -0.925 -1.43 4.335
 -0.897 -1.427 4.33
 -0.869 -1.424 4.326
 -0.841 -1.422 4.324
 -0.814 -1.421 4.324
 -0.789 -1.422 4.329
 -0.762 -1.421 4.331
 -0.737 -1.422 4.337
 -0.709 -1.42 4.334
 -0.682 -1.417 4.329
 -0.655 -1.414 4.323
 -0.629 -1.414 4.326
 -0.602 -1.413 4.324
 -0.576 -1.412 4.325
 -0.55 -1.412 4.327
 -0.524 -1.411 4.327
 -0.497 -1.409 4.321
 -0.471 -1.408 4.319
 -0.445 -1.406 4.315
 -0.419 -1.405 4.315
 -0.393 -1.404 4.313
 -0.366 -1.402 4.309
 -0.341 -1.402 4.31
 -0.315 -1.402 4.31
 -0.289 -1.401 4.309
 -0.263 -1.4 4.308
 -0.238 -1.4 4.308
 -0.212 -1.399 4.304
 -0.186 -1.399 4.307
 -0.161 -1.399 4.306
 -0.135 -1.399 4.307
 -0.11 -1.398 4.305
 -0.084 -1.399 4.305
 -0.058 -1.399 4.306
 -0.033 -1.398 4.303
 -0.007 -1.398 4.302
 0.017 -1.399 4.305
 0.043 -1.398 4.302
 0.068 -1.397 4.298
 0.094 -1.398 4.3
 0.119 -1.397 4.296
 0.145 -1.396 4.294
 0.17 -1.397 4.295
 0.196 -1.396 4.292
 0.221 -1.398 4.294
 0.246 -1.397 4.289
 0.272 -1.396 4.287
 0.297 -1.396 4.285
 0.323 -1.397 4.285
 0.348 -1.396 4.281
 0.374 -1.397 4.282
 0.4 -1.398 4.282
 0.426 -1.4 4.285
 0.452 -1.402 4.288
 0.477 -1.401 4.285
 0.503 -1.402 4.285
 0.529 -1.403 4.285
 0.554 -1.402 4.279
 0.58 -1.403 4.277
 0.605 -1.403 4.275
 0.631 -1.404 4.274
 0.657 -1.404 4.271
 0.684 -1.407 4.275
 0.709 -1.407 4.273
 0.735 -1.408 4.271
 0.761 -1.408 4.269
 0.787 -1.41 4.268
 0.812 -1.409 4.261
 0.839 -1.41 4.26
 0.865 -1.411 4.26
 0.893 -1.414 4.264
 0.921 -1.419 4.272
 0.947 -1.419 4.269
 0.974 -1.421 4.267
 1.001 -1.423 4.269
 1.028 -1.424 4.266
 1.053 -1.423 4.258
 1.08 -1.425 4.258
 1.108 -1.427 4.258
 1.134 -1.428 4.255
 1.162 -1.43 4.255
 1.191 -1.434 4.259
 1.219 -1.437 4.26
 1.247 -1.438 4.259
 1.275 -1.44 4.258
 1.302 -1.442 4.257
 1.33 -1.444 4.252
 1.358 -1.446 4.253
 1.386 -1.448 4.25
 1.413 -1.449 4.244
 1.441 -1.451 4.243
 1.47 -1.454 4.243
 1.499 -1.456 4.24
 1.529 -1.459 4.241
 1.56 -1.464 4.246
 1.589 -1.466 4.244
 1.618 -1.468 4.241
 1.646 -1.47 4.235
 1.673 -1.47 4.227
 1.7 -1.471 4.219
 1.728 -1.472 4.213
 1.755 -1.472 4.203
 1.781 -1.472 4.193
 1.807 -1.471 4.18
 1.833 -1.471 4.167
 1.852 -1.465 4.14
 1.873 -1.461 4.117
 1.894 -1.457 4.095
 0 0 0
 0 0 0
 0 0 0
 0 0 0
 0 0 0
 0 0 0
 0 0 0
 0 0 0
 0 0 0
 1.902 -1.286 3.505
 1.847 -1.234 3.351
 1.798 -1.186 3.211
 1.818 -1.185 3.198
 1.838 -1.185 3.186
 1.594 -1.017 2.721
 0 0 0
 0 0 0
 -0.154 -0.097 0.254
 -0.087 -0.056 0.14
 -0.096 -0.062 0.158
 -0.088 -0.058 0.146
 -0.082 -0.055 0.138
 -0.073 -0.049 0.123
 -0.066 -0.045 0.112
 -0.059 -0.041 0.101
 -0.051 -0.036 0.087
 -0.042 -0.03 0.07
 -0.121 -0.086 0.23
 -0.197 -0.141 0.391
 -0.273 -0.197 0.555
 -0.511 -0.373 1.067
 -0.824 -0.609 1.758
 -1.128 -0.845 2.454
 -1.425 -1.083 3.154
 -1.711 -1.319 3.855
 -1.836 -1.435 4.208
 -1.881 -1.493 4.387
 -1.848 -1.489 4.385
 -1.814 -1.484 4.382
 -1.782 -1.48 4.38
 -1.749 -1.476 4.376
 -1.716 -1.472 4.374
 -1.686 -1.469 4.375
 -1.655 -1.467 4.377
 -1.624 -1.464 4.376
 -1.595 -1.462 4.379
 -1.565 -1.46 4.38
 -1.533 -1.456 4.376
 -1.502 -1.452 4.372
 -1.471 -1.448 4.369
 -1.441 -1.446 4.368
 -1.41 -1.442 4.365
 -1.381 -1.44 4.366
 -1.35 -1.436 4.36
 -1.321 -1.434 4.36
 -1.291 -1.43 4.355
 -1.261 -1.427 4.352
 -1.231 -1.423 4.345
 -1.205 -1.424 4.356
 -1.177 -1.422 4.356
 -1.15 -1.422 4.359
 -1.122 -1.42 4.36
 -1.094 -1.419 4.361
 -1.064 -1.414 4.351
 -1.037 -1.413 4.352
 -1.007 -1.409 4.346
 -0.98 -1.407 4.345
 -0.952 -1.406 4.344
 -0.923 -1.402 4.337
 -0.895 -1.399 4.332
 -0.868 -1.397 4.329
 -0.841 -1.395 4.328
 -0.814 -1.394 4.329
 -0.788 -1.395 4.336
 -0.762 -1.394 4.336
 -0.737 -1.396 4.345
 -0.709 -1.394 4.341
 -0.682 -1.391 4.335
 -0.654 -1.387 4.327
 -0.629 -1.388 4.332
 -0.602 -1.386 4.329
 -0.576 -1.386 4.33
 -0.55 -1.386 4.333
 -0.524 -1.386 4.334
 -0.497 -1.383 4.328
 -0.471 -1.382 4.328
 -0.445 -1.38 4.323
 -0.419 -1.38 4.323
 -0.392 -1.378 4.321
 -0.366 -1.376 4.316
 -0.34 -1.375 4.313
 -0.314 -1.375 4.312
 -0.289 -1.374 4.312
 -0.263 -1.373 4.309
 -0.237 -1.373 4.309
 -0.211 -1.371 4.305
 -0.186 -1.371 4.307
 -0.16 -1.371 4.306
 -0.135 -1.371 4.306
 -0.109 -1.37 4.303
 -0.084 -1.371 4.306
 -0.058 -1.371 4.305
 -0.033 -1.37 4.304
 -0.007 -1.371 4.306
 0.017 -1.372 4.309
 0.043 -1.371 4.305
 0.068 -1.372 4.307
 0.094 -1.373 4.308
 0.119 -1.371 4.303
 0.145 -1.372 4.303
 0.17 -1.373 4.306
 0.196 -1.371 4.3
 0.221 -1.372 4.302
 0.247 -1.37 4.294
 0.272 -1.369 4.289
 0.297 -1.369 4.285
 0.323 -1.369 4.285
 0.348 -1.368 4.281
 0.373 -1.37 4.282
 0.399 -1.371 4.285
 0.425 -1.373 4.289
 0.452 -1.375 4.293
 0.477 -1.375 4.29
 0.503 -1.376 4.289
 0.529 -1.377 4.289
 0.554 -1.376 4.283
 0.58 -1.377 4.282
 0.605 -1.377 4.281
 0.631 -1.378 4.28
 0.657 -1.378 4.276
 0.684 -1.381 4.281
 0.709 -1.381 4.279
 0.735 -1.382 4.276
 0.761 -1.383 4.275
 0.787 -1.384 4.274
 0.813 -1.383 4.268
 0.839 -1.384 4.266
 0.865 -1.385 4.265
 0.892 -1.388 4.268
 0.921 -1.392 4.277
 0.946 -1.392 4.271
 0.972 -1.392 4.265
 0.999 -1.394 4.267
 1.026 -1.395 4.265
 1.051 -1.395 4.258
 1.079 -1.397 4.259
 1.107 -1.4 4.261
 1.134 -1.401 4.259
 1.161 -1.403 4.258
 1.19 -1.406 4.261
 1.218 -1.408 4.262
 1.245 -1.41 4.26
 1.273 -1.412 4.258
 1.301 -1.415 4.26
 1.328 -1.416 4.256
 1.357 -1.418 4.255
 1.385 -1.42 4.253
 1.412 -1.421 4.249
 1.439 -1.422 4.244
 1.468 -1.424 4.242
 1.496 -1.426 4.239
 1.526 -1.43 4.24
 1.556 -1.434 4.243
 1.586 -1.436 4.243
 1.615 -1.439 4.241
 1.643 -1.441 4.237
 1.671 -1.441 4.23
 1.699 -1.443 4.224
 1.727 -1.444 4.219
 1.754 -1.445 4.21
 1.782 -1.446 4.202
 1.809 -1.446 4.192
 1.835 -1.446 4.181
 1.859 -1.444 4.164
 1.885 -1.443 4.151
 0 0 0
 0 0 0
 0 0 0
 0 0 0
 0 0 0
 0.139 -0.101 0.271
 0.141 -0.101 0.27
 0.646 -0.447 1.246
 0 0 0
 0 0 0
 0 0 0
 1.874 -1.228 3.406
 1.805 -1.169 3.23
 1.826 -1.169 3.218
 1.684 -1.066 2.923
 1.38 -0.864 2.359
 0 0 0
 0.437 -0.27 0.72
 -0.119 -0.074 0.194
 -0.121 -0.075 0.199
 -0.104 -0.066 0.173
 -0.097 -0.062 0.163
 -0.091 -0.059 0.154
 -0.08 -0.053 0.136
 -0.072 -0.049 0.124
 -0.065 -0.044 0.112
 -0.053 -0.037 0.092
 -0.042 -0.03 0.071
 -0.035 -0.026 0.058
 -0.196 -0.138 0.39
 -0.272 -0.193 0.554
 -0.428 -0.307 0.895
 -0.743 -0.539 1.587
 -1.128 -0.829 2.457
 -1.345 -1.003 2.983
 -1.632 -1.234 3.685
 -1.834 -1.407 4.212
 -1.88 -1.464 4.392
 -1.847 -1.46 4.392
 -1.813 -1.456 4.388
 -1.781 -1.452 4.387
 -1.748 -1.448 4.383
 -1.716 -1.444 4.38
 -1.684 -1.44 4.379
 -1.653 -1.438 4.379
 -1.621 -1.434 4.377
 -1.591 -1.432 4.378
 -1.561 -1.429 4.378
 -1.53 -1.426 4.376
 -1.499 -1.422 4.372
 -1.468 -1.419 4.369
 -1.438 -1.416 4.368
 -1.408 -1.413 4.367
 -1.379 -1.411 4.368
 -1.348 -1.407 4.361
 -1.319 -1.405 4.361
 -1.289 -1.402 4.359
 -1.26 -1.399 4.356
 -1.23 -1.395 4.349
 -1.205 -1.398 4.363
 -1.177 -1.396 4.364
 -1.15 -1.396 4.368
 -1.122 -1.393 4.367
 -1.094 -1.393 4.37
 -1.064 -1.387 4.358
 -1.036 -1.386 4.358
 -1.006 -1.381 4.347
 -0.978 -1.379 4.346
 -0.951 -1.378 4.346
 -0.922 -1.374 4.338
 -0.894 -1.372 4.336
 -0.868 -1.371 4.337
 -0.841 -1.369 4.336
 -0.814 -1.369 4.338
 -0.789 -1.37 4.347
 -0.762 -1.37 4.347
 -0.737 -1.371 4.355
 -0.71 -1.369 4.351
 -0.682 -1.366 4.344
 -0.654 -1.362 4.335
 -0.629 -1.362 4.34
 -0.602 -1.362 4.34
 -0.576 -1.362 4.342
 -0.55 -1.361 4.342
 -0.524 -1.36 4.341
 -0.497 -1.356 4.332
 -0.47 -1.355 4.331
 -0.444 -1.353 4.324
 -0.418 -1.352 4.323
 -0.391 -1.348 4.313
 -0.365 -1.346 4.306
 -0.339 -1.344 4.303
 -0.313 -1.344 4.305
 -0.288 -1.344 4.306
 -0.262 -1.345 4.307
 -0.237 -1.345 4.308
 -0.211 -1.344 4.307
 -0.186 -1.344 4.308
 -0.16 -1.344 4.307
 -0.135 -1.344 4.309
 -0.109 -1.344 4.308
 -0.083 -1.344 4.309
 -0.058 -1.344 4.309
 -0.033 -1.344 4.308
 -0.007 -1.344 4.308
 0.017 -1.345 4.312
 0.043 -1.345 4.31
 0.068 -1.345 4.311
 0.094 -1.347 4.315
 0.119 -1.345 4.308
 0.145 -1.345 4.307
 0.171 -1.348 4.314
 0.196 -1.345 4.304
 0.221 -1.346 4.305
 0.247 -1.344 4.299
 0.272 -1.342 4.291
 0.297 -1.342 4.287
 0.323 -1.343 4.289
 0.348 -1.342 4.285
 0.374 -1.344 4.29
 0.399 -1.346 4.291
 0.426 -1.348 4.295
 0.452 -1.35 4.299
 0.477 -1.349 4.295
 0.502 -1.349 4.292
 0.528 -1.35 4.291
 0.553 -1.348 4.285
 0.579 -1.349 4.284
 0.605 -1.349 4.281
 0.63 -1.349 4.278
 0.655 -1.349 4.273
 0.682 -1.352 4.278
 0.708 -1.353 4.277
 0.734 -1.353 4.275
 0.76 -1.355 4.277
 0.787 -1.358 4.28
 0.812 -1.357 4.273
 0.838 -1.357 4.271
 0.865 -1.358 4.269
 0.892 -1.362 4.275
 0.921 -1.367 4.285
 0.947 -1.366 4.279
 0.972 -1.365 4.271
 0.998 -1.367 4.27
 1.025 -1.367 4.266
 1.05 -1.367 4.26
 1.077 -1.369 4.26
 1.105 -1.372 4.262
 1.132 -1.373 4.26
 1.16 -1.375 4.259
 1.188 -1.378 4.261
 1.215 -1.379 4.259
 1.242 -1.38 4.257
 1.27 -1.383 4.257
 1.298 -1.385 4.256
 1.325 -1.386 4.252
 1.354 -1.389 4.254
 1.382 -1.391 4.253
 1.41 -1.392 4.249
 1.438 -1.395 4.248
 1.467 -1.397 4.247
 1.494 -1.398 4.242
 1.524 -1.402 4.244
 1.554 -1.405 4.246
 1.583 -1.407 4.243
 1.612 -1.409 4.24
 1.641 -1.412 4.238
 1.668 -1.412 4.229
 1.696 -1.413 4.224
 1.725 -1.415 4.22
 1.753 -1.416 4.213
 1.781 -1.418 4.206
 1.809 -1.419 4.2
 1.836 -1.42 4.191
 1.861 -1.418 4.176
 0 0 0
 0 0 0
 0 0 0
 0 0 0
 0 0 0
 0 0 0
 0.139 -0.1 0.272
 0.141 -0.1 0.271
 0 0 0
 0 0 0
 0 0 0
 0 0 0
 0 0 0
 1.821 -1.158 3.266
 1.842 -1.158 3.255
 1.451 -0.902 2.524
 1.153 -0.709 1.974
 0 0 0
 0.446 -0.27 0.736
 -0.129 -0.078 0.21
 -0.114 -0.07 0.187
 -0.112 -0.069 0.187
 -0.103 -0.065 0.173
 -0.097 -0.062 0.166
 -0.085 -0.055 0.146
 -0.073 -0.048 0.126
 -0.064 -0.043 0.11
 -0.052 -0.035 0.089
 -0.037 -0.026 0.061
 -0.03 -0.021 0.047
 -0.192 -0.132 0.381
 -0.269 -0.187 0.548
 -0.425 -0.299 0.89
 -0.822 -0.585 1.761
 -1.206 -0.87 2.634
 -1.422 -1.04 3.161
 -1.71 -1.268 3.867
 -1.91 -1.437 4.396
 -1.878 -1.435 4.398
 -1.845 -1.431 4.397
 -1.813 -1.427 4.394
 -1.779 -1.422 4.389
 -1.745 -1.417 4.383
 -1.712 -1.414 4.381
 -1.681 -1.411 4.38
 -1.65 -1.408 4.379
 -1.619 -1.405 4.379
 -1.59 -1.403 4.383
 -1.56 -1.401 4.382
 -1.528 -1.397 4.379
 -1.497 -1.393 4.374
 -1.465 -1.389 4.368
 -1.434 -1.386 4.365
 -1.405 -1.383 4.365
 -1.377 -1.382 4.368
 -1.346 -1.379 4.364
 -1.319 -1.378 4.368
 -1.289 -1.375 4.366
 -1.261 -1.373 4.365
 -1.229 -1.368 4.356
 -1.205 -1.371 4.372
 -1.177 -1.37 4.372
 -1.149 -1.368 4.372
 -1.121 -1.366 4.371
 -1.094 -1.366 4.375
 -1.062 -1.359 4.358
 -1.035 -1.358 4.362
 -1.007 -1.356 4.361
 -0.979 -1.355 4.359
 -0.953 -1.354 4.362
 -0.924 -1.351 4.355
 -0.896 -1.349 4.352
 -0.869 -1.346 4.349
 -0.841 -1.344 4.345
 -0.815 -1.344 4.348
 -0.79 -1.345 4.357
 -0.763 -1.345 4.359
 -0.739 -1.348 4.372
 -0.711 -1.345 4.366
 -0.682 -1.34 4.352
 -0.654 -1.335 4.338
 -0.628 -1.335 4.342
 -0.601 -1.333 4.338
 -0.576 -1.335 4.346
 -0.55 -1.335 4.35
 -0.523 -1.333 4.344
 -0.496 -1.329 4.333
 -0.469 -1.327 4.329
 -0.442 -1.322 4.314
 -0.416 -1.322 4.317
 -0.39 -1.32 4.312
 -0.364 -1.318 4.305
 -0.338 -1.317 4.304
 -0.313 -1.318 4.308
 -0.287 -1.318 4.308
 -0.262 -1.317 4.308
 -0.236 -1.317 4.308
 -0.211 -1.316 4.306
 -0.185 -1.316 4.306
 -0.16 -1.316 4.306
 -0.134 -1.316 4.307
 -0.109 -1.316 4.307
 -0.083 -1.316 4.307
 -0.058 -1.316 4.307
 -0.032 -1.316 4.306
 -0.007 -1.315 4.304
 0.018 -1.318 4.311
 0.043 -1.316 4.306
 0.069 -1.317 4.309
 0.094 -1.318 4.311
 0.119 -1.315 4.3
 0.145 -1.315 4.298
 0.171 -1.32 4.315
 0.196 -1.318 4.307
 0.222 -1.321 4.316
 0.247 -1.32 4.308
 0.272 -1.316 4.296
 0.297 -1.315 4.289
 0.322 -1.316 4.291
 0.347 -1.314 4.284
 0.374 -1.32 4.299
 0.4 -1.321 4.302
 0.427 -1.325 4.312
 0.453 -1.327 4.315
 0.477 -1.324 4.302
 0.502 -1.321 4.292
 0.528 -1.323 4.295
 0.552 -1.32 4.281
 0.579 -1.324 4.29
 0.604 -1.323 4.286
 0.628 -1.32 4.273
 0.653 -1.32 4.267
 0.681 -1.324 4.279
 0.705 -1.321 4.265
 0.732 -1.324 4.271
 0.761 -1.33 4.286
 0.789 -1.334 4.294
 0.812 -1.33 4.278
 0.838 -1.331 4.274
 0.862 -1.329 4.264
 0.889 -1.331 4.267
 0.92 -1.338 4.284
 0.945 -1.337 4.276
 0.971 -1.338 4.272
 0.998 -1.339 4.272
 1.024 -1.34 4.268
 1.049 -1.34 4.262
 1.077 -1.342 4.263
 1.104 -1.344 4.263
 1.131 -1.345 4.262
 1.158 -1.347 4.261
 1.186 -1.349 4.261
 1.212 -1.35 4.257
 1.239 -1.351 4.253
 1.267 -1.353 4.253
 1.295 -1.355 4.252
 1.321 -1.356 4.247
 1.351 -1.359 4.251
 1.38 -1.362 4.252
 1.408 -1.364 4.249
 1.436 -1.366 4.249
 1.465 -1.369 4.249
 1.492 -1.37 4.243
 1.522 -1.373 4.245
 1.552 -1.376 4.247
 1.58 -1.378 4.243
 1.609 -1.38 4.239
 1.638 -1.382 4.236
 1.664 -1.382 4.228
 1.692 -1.383 4.221
 1.721 -1.385 4.217
 1.75 -1.388 4.215
 1.778 -1.389 4.208
 1.807 -1.391 4.203
 1.835 -1.392 4.196
 1.863 -1.393 4.187
 0 0 0
 0 0 0
 0 0 0
 0 0 0
 0 0 0
 0 0 0
 0.139 -0.098 0.272
 0.141 -0.098 0.272
 0 0 0
 0 0 0
 0 0 0
 0 0 0
 0 0 0
 0 0 0
 0 0 0
 0.994 -0.607 1.73
 0.842 -0.509 1.441
 0.391 -0.235 0.655
 0 0 0
 -0.139 -0.083 0.229
 -0.117 -0.071 0.194
 -0.109 -0.067 0.183
 -0.101 -0.062 0.171
 -0.092 -0.057 0.156
 -0.08 -0.051 0.137
 -0.068 -0.044 0.116
 -0.059 -0.039 0.101
 -0.048 -0.032 0.081
 -0.034 -0.023 0.054
 -0.026 -0.019 0.04
 -0.105 -0.072 0.203
 -0.183 -0.126 0.371
 -0.424 -0.292 0.889
 -0.822 -0.573 1.764
 -1.205 -0.852 2.636
 -1.498 -1.074 3.337
 -1.784 -1.298 4.044
 -1.906 -1.406 4.395
 -1.873 -1.403 4.394
 -1.842 -1.401 4.397
 -1.81 -1.398 4.397
 -1.776 -1.393 4.391
 -1.743 -1.388 4.386
 -1.71 -1.385 4.384
 -1.678 -1.381 4.381
 -1.646 -1.377 4.378
 -1.616 -1.375 4.378
 -1.586 -1.373 4.38
 -1.556 -1.37 4.38
 -1.524 -1.367 4.376
 -1.494 -1.364 4.375
 -1.463 -1.36 4.369
 -1.432 -1.356 4.364
 -1.403 -1.355 4.366
 -1.375 -1.354 4.371
 -1.344 -1.35 4.364
 -1.316 -1.348 4.367
 -1.288 -1.347 4.367
 -1.258 -1.344 4.366
 -1.227 -1.339 4.354
 -1.204 -1.344 4.375
 -1.176 -1.342 4.375
 -1.148 -1.34 4.375
 -1.12 -1.338 4.374
 -1.094 -1.34 4.385
 -1.061 -1.332 4.363
 -1.036 -1.333 4.374
 -1.009 -1.332 4.374
 -0.981 -1.33 4.372
 -0.954 -1.329 4.373
 -0.925 -1.326 4.367
 -0.896 -1.323 4.36
 -0.869 -1.32 4.357
 -0.842 -1.319 4.357
 -0.817 -1.321 4.367
 -0.791 -1.323 4.375
 -0.765 -1.322 4.375
 0 0 0
 0 0 0
 0 0 0
 0 0 0
 0 0 0
 0 0 0
 0 0 0
 0 0 0
 0 0 0
 0 0 0
 0 0 0
 0 0 0
 0 0 0
 -0.388 -1.289 4.301
 -0.363 -1.289 4.3
 -0.338 -1.29 4.305
 -0.312 -1.29 4.306
 -0.287 -1.29 4.308
 -0.261 -1.29 4.307
 -0.236 -1.289 4.307
 -0.21 -1.288 4.305
 -0.185 -1.289 4.306
 -0.159 -1.288 4.305
 -0.134 -1.289 4.308
 -0.108 -1.288 4.306
 -0.083 -1.288 4.304
 -0.057 -1.288 4.303
 -0.032 -1.287 4.301
 -0.007 -1.285 4.293
 0.018 -1.285 4.293
 0 0 0
 0 0 0
 0 0 0
 0 0 0
 0 0 0
 0 0 0
 0 0 0
 0 0 0
 0 0 0
 0 0 0
 0 0 0
 0 0 0
 0 0 0
 0 0 0
 0 0 0
 0 0 0
 0 0 0
 0 0 0
 0 0 0
 0 0 0
 0 0 0
 0 0 0
 0 0 0
 0 0 0
 0 0 0
 0 0 0
 0 0 0
 0 0 0
 0 0 0
 0 0 0
 0 0 0
 0 0 0
 0 0 0
 0 0 0
 0 0 0
 0.947 -1.314 4.293
 0.971 -1.312 4.279
 0.997 -1.312 4.274
 1.022 -1.312 4.269
 1.048 -1.312 4.263
 1.075 -1.313 4.261
 1.101 -1.315 4.26
 1.128 -1.316 4.258
 1.156 -1.318 4.258
 1.183 -1.32 4.258
 1.211 -1.322 4.257
 1.238 -1.324 4.256
 1.266 -1.326 4.258
 1.294 -1.328 4.257
 1.321 -1.329 4.252
 1.35 -1.332 4.256
 1.379 -1.335 4.257
 1.407 -1.336 4.253
 1.435 -1.339 4.252
 1.464 -1.341 4.253
 1.491 -1.342 4.245
 1.519 -1.344 4.243
 1.549 -1.347 4.244
 1.577 -1.348 4.24
 1.605 -1.35 4.235
 1.634 -1.352 4.234
 1.662 -1.353 4.229
 1.69 -1.355 4.223
 1.718 -1.356 4.218
 1.748 -1.359 4.217
 1.776 -1.36 4.211
 1.805 -1.362 4.205
 1.833 -1.363 4.198
 1.863 -1.366 4.196
 0 0 0
 0 0 0
 0 0 0
 0 0 0
 0 0 0
 0 0 0
 0 0 0
 0 0 0
 0 0 0
 0 0 0
 0 0 0
 0 0 0
 0 0 0
 0 0 0
 0 0 0
 0.432 -0.261 0.749
 0.437 -0.26 0.746
 0.472 -0.278 0.794
 0 0 0
 -0.124 -0.073 0.204
 -0.134 -0.079 0.224
 -0.11 -0.066 0.184
 -0.1 -0.061 0.17
 -0.09 -0.055 0.154
 -0.078 -0.049 0.134
 -0.065 -0.041 0.11
 -0.055 -0.036 0.094
 -0.044 -0.029 0.074
 -0.032 -0.022 0.05
 -0.11 -0.073 0.211
 -0.272 -0.18 0.549
 -0.432 -0.288 0.893
 -0.669 -0.452 1.413
 -1.062 -0.726 2.288
 -1.364 -0.945 2.991
 -1.576 -1.107 3.517
 -1.784 -1.272 4.052
 -1.907 -1.379 4.405
 -1.874 -1.376 4.405
 -1.842 -1.373 4.405
 -1.809 -1.369 4.403
 -1.774 -1.364 4.394
 -1.741 -1.36 4.391
 -1.709 -1.356 4.389
 -1.677 -1.352 4.385
 -1.645 -1.349 4.381
 -1.613 -1.345 4.379
 -1.583 -1.343 4.379
 -1.552 -1.34 4.377
 -1.521 -1.336 4.373
 -1.491 -1.334 4.372
 -1.46 -1.33 4.369
 -1.43 -1.328 4.368
 -1.402 -1.327 4.371
 -1.375 -1.327 4.379
 -1.345 -1.324 4.374
 -1.318 -1.324 4.38
 -1.286 -1.318 4.369
 -1.258 -1.317 4.372
 -1.223 -1.308 4.348
 -1.204 -1.316 4.381
 -1.177 -1.316 4.385
 0 0 0
 0 0 0
 0 0 0
 0 0 0
 0 0 0
 0 0 0
 0 0 0
 0 0 0
 0 0 0
 0 0 0
 0 0 0
 0 0 0
 0 0 0
 0 0 0
 0 0 0
 0 0 0
 0 0 0
 0 0 0
 0 0 0
 0 0 0
 0 0 0
 0 0 0
 0 0 0
 0 0 0
 0 0 0
 0 0 0
 0 0 0
 0 0 0
 -0.386 -1.256 4.281
 -0.361 -1.258 4.288
 -0.337 -1.261 4.298
 -0.311 -1.262 4.303
 -0.286 -1.261 4.303
 -0.261 -1.262 4.308
 -0.235 -1.262 4.308
 -0.21 -1.261 4.306
 -0.184 -1.261 4.304
 -0.159 -1.261 4.306
 -0.133 -1.261 4.306
 -0.108 -1.261 4.305
 -0.082 -1.259 4.298
 -0.057 -1.258 4.296
 -0.032 -1.257 4.292
 -0.007 -1.255 4.284
 0.018 -1.252 4.272
 0 0 0
 0 0 0
 0 0 0
 0 0 0
 0 0 0
 0 0 0
 0 0 0
 0 0 0
 0 0 0
 0 0 0
 0 0 0
 0 0 0
 0 0 0
 0 0 0
 0 0 0
 0 0 0
 0 0 0
 0 0 0
 0 0 0
 0 0 0
 0 0 0
 0 0 0
 0 0 0
 0 0 0
 0 0 0
 0 0 0
 0 0 0
 0 0 0
 0 0 0
 0 0 0
 0 0 0
 0 0 0
 0 0 0
 0 0 0
 0 0 0
 0.945 -1.285 4.288
 0.969 -1.283 4.277
 0.995 -1.283 4.271
 1.02 -1.284 4.267
 1.047 -1.285 4.265
 1.073 -1.285 4.261
 1.1 -1.287 4.26
 1.127 -1.288 4.258
 1.154 -1.29 4.258
 1.182 -1.292 4.258
 1.208 -1.293 4.254
 1.235 -1.294 4.252
 1.264 -1.297 4.256
 1.292 -1.299 4.254
 1.318 -1.3 4.25
 1.348 -1.303 4.254
 1.376 -1.306 4.255
 1.404 -1.307 4.251
 1.432 -1.309 4.25
 1.461 -1.312 4.251
 1.488 -1.313 4.246
 1.516 -1.315 4.242
 1.544 -1.316 4.239
 1.573 -1.318 4.237
 1.601 -1.32 4.233
 1.63 -1.322 4.23
 1.659 -1.324 4.228
 1.688 -1.326 4.225
 1.716 -1.328 4.22
 1.747 -1.331 4.221
 1.775 -1.333 4.216
 1.804 -1.334 4.209
 1.833 -1.336 4.206
 1.866 -1.341 4.209
 0 0 0
 0 0 0
 0 0 0
 0 0 0
 0 0 0
 0 0 0
 0 0 0
 0 0 0
 0 0 0
 0 0 0
 0 0 0
 0 0 0
 0 0 0
 0 0 0
 0 0 0
 0.434 -0.257 0.755
 0.439 -0.257 0.752
 0.463 -0.267 0.78
 0 0 0
 -0.118 -0.068 0.194
 -0.14 -0.081 0.236
 -0.103 -0.06 0.172
 -0.093 -0.055 0.157
 -0.083 -0.05 0.14
 -0.071 -0.044 0.121
 -0.059 -0.037 0.1
 -0.048 -0.031 0.081
 -0.038 -0.025 0.063
 -0.113 -0.072 0.214
 -0.277 -0.177 0.551
 -0.522 -0.336 1.066
 -0.762 -0.497 1.588
 -0.995 -0.657 2.112
 -1.303 -0.872 2.816
 -1.52 -1.032 3.342
 -1.64 -1.129 3.667
 -1.769 -1.235 4.024
 -1.906 -1.35 4.41
 -1.87 -1.345 4.403
 -1.838 -1.342 4.402
 -1.804 -1.338 4.399
 -1.769 -1.332 4.389
 -1.737 -1.329 4.387
 -1.706 -1.326 4.388
 -1.674 -1.323 4.386
 -1.643 -1.32 4.384
 -1.612 -1.317 4.383
 -1.581 -1.314 4.382
 -1.549 -1.311 4.377
 -1.517 -1.306 4.371
 -1.487 -1.304 4.37
 -1.458 -1.302 4.37
 -1.43 -1.301 4.374
 -1.403 -1.301 4.381
 -1.377 -1.302 4.392
 -1.35 -1.302 4.397
 -1.326 -1.305 4.414
 0 0 0
 0 0 0
 0 0 0
 0 0 0
 0 0 0
 0 0 0
 0 0 0
 0 0 0
 0 0 0
 0 0 0
 0 0 0
 0 0 0
 0 0 0
 0 0 0
 0 0 0
 0 0 0
 0 0 0
 0 0 0
 0 0 0
 0 0 0
 0 0 0
 0 0 0
 0 0 0
 0 0 0
 0 0 0
 0 0 0
 0 0 0
 0 0 0
 0 0 0
 0 0 0
 0 0 0
 0 0 0
 0 0 0
 -0.384 -1.224 4.264
 -0.359 -1.227 4.274
 -0.335 -1.232 4.292
 -0.31 -1.233 4.298
 -0.285 -1.233 4.299
 -0.26 -1.235 4.308
 -0.235 -1.236 4.31
 -0.209 -1.235 4.307
 -0.184 -1.234 4.306
 -0.159 -1.235 4.308
 -0.133 -1.234 4.307
 -0.108 -1.234 4.307
 -0.082 -1.232 4.299
 -0.057 -1.231 4.297
 -0.032 -1.23 4.291
 -0.006 -1.227 4.282
 0.018 -1.225 4.272
 0 0 0
 0 0 0
 0 0 0
 0 0 0
 0 0 0
 0 0 0
 0 0 0
 0 0 0
 0 0 0
 0 0 0
 0 0 0
 0 0 0
 0 0 0
 0 0 0
 0 0 0
 0 0 0
 0 0 0
 0 0 0
 0 0 0
 0 0 0
 0 0 0
 0 0 0
 0 0 0
 0 0 0
 0 0 0
 0 0 0
 0 0 0
 0 0 0
 0 0 0
 0 0 0
 0 0 0
 0 0 0
 0 0 0
 0 0 0
 0 0 0
 0.943 -1.256 4.284
 0.968 -1.256 4.279
 0.994 -1.256 4.273
 1.019 -1.256 4.267
 1.045 -1.256 4.263
 1.071 -1.257 4.26
 1.098 -1.258 4.257
 1.124 -1.259 4.255
 1.152 -1.262 4.257
 1.18 -1.264 4.259
 1.206 -1.265 4.255
 1.234 -1.267 4.255
 1.263 -1.27 4.258
 1.29 -1.271 4.254
 1.316 -1.272 4.249
 1.346 -1.276 4.255
 1.374 -1.277 4.254
 1.402 -1.279 4.251
 1.431 -1.282 4.253
 1.46 -1.285 4.254
 1.487 -1.285 4.248
 1.515 -1.287 4.244
 1.542 -1.288 4.24
 1.57 -1.289 4.235
 1.597 -1.29 4.228
 1.625 -1.292 4.225
 1.654 -1.294 4.223
 1.683 -1.296 4.219
 1.712 -1.298 4.216
 1.744 -1.302 4.221
 1.773 -1.304 4.216
 1.802 -1.306 4.212
 1.833 -1.309 4.213
 1.868 -1.315 4.221
 0 0 0
 0 0 0
 0 0 0
 0 0 0
 0 0 0
 0 0 0
 0 0 0
 0 0 0
 0 0 0
 0 0 0
 0 0 0
 0 0 0
 0 0 0
 0 0 0
 0 0 0
 0.445 -0.258 0.776
 0.451 -0.258 0.773
 0.442 -0.25 0.746
 0 0 0
 -0.139 -0.078 0.23
 -0.105 -0.06 0.173
 -0.099 -0.057 0.165
 -0.088 -0.052 0.149
 -0.078 -0.046 0.131
 -0.066 -0.04 0.111
 -0.055 -0.034 0.092
 -0.043 -0.027 0.072
 -0.035 -0.023 0.056
 -0.198 -0.123 0.385
 -0.446 -0.278 0.897
 -0.689 -0.434 1.414
 -1.01 -0.645 2.113
 -1.321 -0.854 2.813
 -1.543 -1.011 3.343
 -1.677 -1.115 3.695
 -1.794 -1.209 4.021
 -1.845 -1.261 4.204
 -1.901 -1.319 4.408
 -1.865 -1.313 4.398
 -1.831 -1.309 4.394
 -1.799 -1.306 4.392
 -1.764 -1.301 4.385
 -1.734 -1.299 4.387
 -1.703 -1.297 4.389
 -1.671 -1.294 4.386
 -1.64 -1.291 4.385
 -1.609 -1.288 4.384
 -1.578 -1.285 4.381
 -1.546 -1.281 4.376
 -1.515 -1.277 4.37
 -1.485 -1.275 4.369
 -1.455 -1.272 4.369
 -1.428 -1.272 4.375
 -1.401 -1.272 4.382
 -1.375 -1.273 4.392
 -1.348 -1.274 4.401
 -1.327 -1.279 4.425
 0 0 0
 0 0 0
 0 0 0
 0 0 0
 0 0 0
 0 0 0
 0 0 0
 0 0 0
 0 0 0
 0 0 0
 0 0 0
 0 0 0
 0 0 0
 0 0 0
 0 0 0
 0 0 0
 0 0 0
 0 0 0
 0 0 0
 0 0 0
 0 0 0
 0 0 0
 0 0 0
 0 0 0
 -0.185 -0.362 1.272
 -0.178 -0.364 1.28
 -0.17 -0.364 1.281
 -0.163 -0.365 1.283
 -0.156 -0.366 1.289
 0 0 0
 0 0 0
 0 0 0
 0 0 0
 -0.384 -1.2 4.271
 -0.36 -1.203 4.284
 -0.335 -1.206 4.298
 -0.31 -1.207 4.302
 -0.285 -1.207 4.303
 -0.26 -1.209 4.309
 -0.234 -1.209 4.31
 -0.209 -1.208 4.307
 -0.183 -1.207 4.306
 -0.158 -1.208 4.309
 -0.133 -1.207 4.306
 -0.107 -1.206 4.303
 -0.082 -1.204 4.295
 -0.057 -1.203 4.292
 -0.031 -1.201 4.284
 -0.006 -1.2 4.279
 0.018 -1.198 4.272
 0 0 0
 0 0 0
 0 0 0
 0 0 0
 0 0 0
 0 0 0
 0 0 0
 0 0 0
 0 0 0
 0 0 0
 0 0 0
 0 0 0
 0 0 0
 0 0 0
 0 0 0
 0 0 0
 0 0 0
 0 0 0
 0 0 0
 0 0 0
 0 0 0
 0 0 0
 0 0 0
 0 0 0
 0 0 0
 0 0 0
 0 0 0
 0 0 0
 0 0 0
 0 0 0
 0 0 0
 0 0 0
 0 0 0
 0 0 0
 0 0 0
 0.942 -1.229 4.286
 0.968 -1.23 4.283
 0.993 -1.229 4.275
 1.018 -1.229 4.269
