 1.378 -1.642 3.976
 1.402 -1.641 3.965
 1.427 -1.641 3.958
 1.451 -1.639 3.945
 1.476 -1.64 3.937
 1.503 -1.642 3.933
 1.527 -1.641 3.921
 1.552 -1.64 3.912
 1.577 -1.641 3.903
 1.601 -1.639 3.891
 1.624 -1.638 3.877
 1.649 -1.637 3.866
 1.672 -1.635 3.851
 1.696 -1.635 3.841
 1.723 -1.636 3.833
 1.749 -1.638 3.826
 1.772 -1.635 3.811
 1.795 -1.634 3.797
 1.812 -1.626 3.768
 1.821 -1.612 3.725
 1.826 -1.596 3.675
 1.83 -1.578 3.623
 1.828 -1.556 3.561
 1.825 -1.534 3.499
 1.826 -1.515 3.445
 1.803 -1.478 3.349
 1.781 -1.442 3.256
 1.772 -1.417 3.189
 1.771 -1.399 3.139
 1.773 -1.384 3.093
 1.777 -1.371 3.054
 1.775 -1.354 3.004
 1.771 -1.335 2.952
 1.763 -1.314 2.894
 1.761 -1.298 2.848
 -2.203 -1.616 3.7
 -2.199 -1.632 3.749
 -2.16 -1.622 3.738
 -2.135 -1.623 3.752
 -2.11 -1.624 3.767
 -2.083 -1.623 3.776
 -2.062 -1.626 3.796
 -2.036 -1.627 3.809
 -2.01 -1.626 3.82
 -1.983 -1.626 3.829
 -1.958 -1.626 3.841
 -1.931 -1.625 3.851
 -1.907 -1.626 3.864
 -1.882 -1.627 3.876
 -1.858 -1.629 3.891
 -1.833 -1.63 3.904
 -1.805 -1.627 3.908
 -1.778 -1.626 3.916
 -1.752 -1.626 3.925
 -1.724 -1.624 3.929
 -1.697 -1.623 3.936
 -1.668 -1.62 3.939
 -1.644 -1.621 3.951
 -1.618 -1.621 3.959
 -1.591 -1.62 3.966
 -1.563 -1.618 3.969
 -1.537 -1.617 3.976
 -1.511 -1.616 3.982
 -1.484 -1.615 3.987
 -1.458 -1.615 3.994
 -1.432 -1.614 3.999
 -1.406 -1.614 4.007
 -1.381 -1.614 4.015
 -1.357 -1.616 4.027
 -1.332 -1.616 4.035
 -1.308 -1.619 4.048
 -1.285 -1.621 4.061
 -1.258 -1.62 4.066
 -1.232 -1.619 4.069
 -1.207 -1.62 4.078
 -1.18 -1.619 4.081
 -1.153 -1.616 4.081
 -1.126 -1.613 4.079
 -1.099 -1.612 4.081
 -1.071 -1.608 4.078
 -1.044 -1.606 4.078
 -1.02 -1.608 4.087
 -0.996 -1.61 4.098
 -0.971 -1.61 4.103
 -0.946 -1.612 4.111
 -0.922 -1.614 4.122
 -0.897 -1.614 4.126
 -0.871 -1.613 4.128
 -0.845 -1.612 4.129
 -0.818 -1.61 4.129
 -0.793 -1.61 4.132
 -0.766 -1.606 4.128
 -0.741 -1.608 4.135
 -0.717 -1.61 4.143
 -0.692 -1.611 4.15
 -0.666 -1.609 4.147
 -0.641 -1.61 4.155
 -0.616 -1.61 4.157
 -0.591 -1.611 4.163
 -0.566 -1.612 4.167
 -0.54 -1.613 4.172
 -0.516 -1.615 4.179
 -0.49 -1.613 4.178
 -0.465 -1.615 4.183
 -0.439 -1.614 4.182
 -0.414 -1.613 4.184
 -0.388 -1.612 4.183
 -0.363 -1.613 4.187
 -0.337 -1.611 4.182
 -0.312 -1.611 4.184
 -0.287 -1.611 4.186
 -0.261 -1.611 4.185
 -0.236 -1.611 4.185
 -0.211 -1.609 4.183
 -0.185 -1.609 4.182
 -0.16 -1.611 4.188
 -0.135 -1.61 4.185
 -0.11 -1.609 4.184
 -0.084 -1.61 4.187
 -0.059 -1.61 4.187
 -0.034 -1.61 4.186
 -0.009 -1.611 4.19
 0.016 -1.611 4.19
 0.041 -1.611 4.188
 0.066 -1.609 4.183
 0.091 -1.608 4.18
 0.116 -1.607 4.176
 0.141 -1.607 4.174
 0.166 -1.605 4.17
 0.192 -1.609 4.177
 0.217 -1.61 4.178
 0.243 -1.61 4.178
 0.268 -1.61 4.176
 0.293 -1.612 4.179
 0.318 -1.611 4.174
 0.343 -1.61 4.169
 0.369 -1.61 4.169
 0.394 -1.61 4.167
 0.419 -1.609 4.161
 0.443 -1.607 4.153
 0.468 -1.608 4.152
 0.494 -1.608 4.15
 0.518 -1.607 4.144
 0.544 -1.607 4.143
 0.57 -1.611 4.148
 0.596 -1.613 4.151
 0.621 -1.612 4.144
 0.648 -1.616 4.152
 0.675 -1.62 4.159
 0.699 -1.619 4.151
 0.723 -1.616 4.141
 0.749 -1.617 4.138
 0.774 -1.616 4.132
 0.798 -1.615 4.124
 0.825 -1.617 4.125
 0.851 -1.62 4.128
 0.878 -1.622 4.129
 0.903 -1.623 4.124
 0.929 -1.623 4.121
 0.955 -1.625 4.12
 0.98 -1.625 4.113
 1.006 -1.626 4.11
 1.032 -1.627 4.109
 1.059 -1.629 4.107
 1.084 -1.629 4.101
 1.11 -1.629 4.096
 1.136 -1.631 4.093
 1.162 -1.631 4.088
 1.187 -1.63 4.078
 1.212 -1.631 4.072
 1.239 -1.633 4.07
 1.265 -1.634 4.066
 1.292 -1.636 4.063
 1.319 -1.637 4.058
 1.346 -1.639 4.055
 1.371 -1.639 4.049
 1.396 -1.638 4.037
 1.421 -1.637 4.028
 1.448 -1.639 4.024
 1.472 -1.637 4.011
 1.498 -1.638 4.004
 1.525 -1.64 3.999
 1.549 -1.638 3.987
 1.573 -1.637 3.974
 1.599 -1.638 3.967
 1.623 -1.636 3.953
 1.647 -1.635 3.941
 1.673 -1.635 3.932
 1.696 -1.633 3.917
 1.72 -1.632 3.904
 1.747 -1.634 3.897
 1.771 -1.633 3.884
 1.791 -1.627 3.861
 1.811 -1.623 3.839
 1.823 -1.612 3.802
 1.827 -1.593 3.746
 1.832 -1.576 3.696
 1.836 -1.559 3.645
 1.835 -1.538 3.585
 1.835 -1.518 3.526
 1.839 -1.503 3.48
 1.805 -1.456 3.36
 1.772 -1.412 3.247
 1.763 -1.388 3.182
 1.766 -1.374 3.138
 1.77 -1.36 3.096
 1.777 -1.35 3.061
 1.777 -1.334 3.015
 1.772 -1.315 2.961
 1.756 -1.289 2.891
 1.758 -1.275 2.85
 -2.256 -1.629 3.798
 -2.214 -1.617 3.784
 -2.189 -1.618 3.799
 -2.164 -1.619 3.814
 -2.14 -1.62 3.829
 -2.112 -1.619 3.838
 -2.089 -1.622 3.856
 -2.065 -1.623 3.872
 -2.039 -1.623 3.884
 -2.012 -1.623 3.894
 -1.986 -1.623 3.905
 -1.96 -1.623 3.917
 -1.933 -1.623 3.927
 -1.907 -1.623 3.939
 -1.884 -1.625 3.956
 -1.859 -1.626 3.968
 -1.831 -1.625 3.975
 -1.804 -1.624 3.984
 -1.777 -1.623 3.992
 -1.748 -1.62 3.994
 -1.721 -1.62 4.003
 -1.694 -1.619 4.009
 -1.668 -1.619 4.019
 -1.642 -1.619 4.029
 -1.616 -1.62 4.038
 -1.588 -1.617 4.041
 -1.56 -1.615 4.044
 -1.534 -1.615 4.052
 -1.506 -1.613 4.057
 -1.479 -1.612 4.06
 -1.451 -1.609 4.062
 -1.426 -1.611 4.074
 -1.4 -1.611 4.081
 -1.376 -1.613 4.093
 -1.351 -1.613 4.102
 -1.327 -1.617 4.117
 -1.302 -1.617 4.126
 -1.275 -1.616 4.13
 -1.248 -1.615 4.133
 -1.223 -1.616 4.143
 -1.196 -1.615 4.146
 -1.169 -1.613 4.147
 -1.142 -1.611 4.147
 -1.114 -1.608 4.146
 -1.086 -1.605 4.143
 -1.059 -1.603 4.143
 -1.034 -1.604 4.152
 -1.009 -1.606 4.161
 -0.984 -1.607 4.17
 -0.959 -1.608 4.176
 -0.934 -1.61 4.186
 -0.908 -1.609 4.189
 -0.882 -1.608 4.189
 -0.855 -1.605 4.188
 -0.829 -1.605 4.191
 -0.803 -1.604 4.193
 -0.776 -1.601 4.189
 -0.75 -1.601 4.193
 -0.725 -1.603 4.202
 -0.699 -1.603 4.203
 -0.673 -1.601 4.201
 -0.648 -1.602 4.208
 -0.622 -1.603 4.212
 -0.597 -1.603 4.215
 -0.571 -1.602 4.217
 -0.545 -1.602 4.218
 -0.52 -1.603 4.224
 -0.494 -1.602 4.222
 -0.469 -1.602 4.225
 -0.443 -1.603 4.229
 -0.418 -1.603 4.231
 -0.392 -1.602 4.23
 -0.366 -1.602 4.233
 -0.34 -1.601 4.231
 -0.315 -1.6 4.23
 -0.289 -1.601 4.233
 -0.264 -1.6 4.231
 -0.238 -1.601 4.236
 -0.212 -1.599 4.232
 -0.187 -1.599 4.232
 -0.162 -1.6 4.235
 -0.136 -1.6 4.235
 -0.11 -1.598 4.23
 -0.085 -1.599 4.234
 -0.06 -1.6 4.237
 -0.034 -1.6 4.235
 -0.009 -1.6 4.237
 0.016 -1.599 4.233
 0.041 -1.598 4.229
 0.067 -1.596 4.223
 0.092 -1.594 4.217
 0.117 -1.593 4.214
 0.143 -1.594 4.215
 0.168 -1.592 4.211
 0.193 -1.595 4.215
 0.219 -1.597 4.22
 0.245 -1.597 4.217
 0.27 -1.598 4.219
 0.296 -1.6 4.222
 0.321 -1.6 4.22
 0.347 -1.599 4.216
 0.372 -1.599 4.215
 0.397 -1.599 4.213
 0.423 -1.599 4.211
 0.448 -1.597 4.202
 0.473 -1.597 4.198
 0.498 -1.597 4.197
 0.523 -1.596 4.191
 0.549 -1.596 4.188
 0.575 -1.599 4.192
 0.602 -1.603 4.198
 0.627 -1.603 4.195
 0.654 -1.606 4.2
 0.681 -1.609 4.204
 0.706 -1.608 4.198
 0.73 -1.606 4.188
 0.755 -1.604 4.18
 0.78 -1.603 4.173
 0.805 -1.602 4.166
 0.831 -1.604 4.166
 0.858 -1.607 4.167
 0.885 -1.61 4.172
 0.912 -1.612 4.171
 0.938 -1.613 4.168
 0.964 -1.614 4.166
 0.99 -1.615 4.163
 1.016 -1.615 4.158
 1.043 -1.618 4.159
 1.07 -1.62 4.158
 1.096 -1.62 4.154
 1.122 -1.621 4.148
 1.15 -1.624 4.149
 1.174 -1.623 4.139
 1.2 -1.622 4.131
 1.227 -1.624 4.129
 1.254 -1.625 4.126
 1.279 -1.625 4.119
 1.306 -1.627 4.116
 1.333 -1.629 4.112
 1.36 -1.63 4.107
 1.386 -1.631 4.101
 1.412 -1.631 4.093
 1.438 -1.631 4.085
 1.465 -1.632 4.081
 1.49 -1.631 4.069
 1.516 -1.632 4.062
 1.544 -1.634 4.057
 1.569 -1.634 4.048
 1.595 -1.633 4.038
 1.621 -1.634 4.03
 1.644 -1.631 4.014
 1.669 -1.63 4.001
 1.694 -1.63 3.992
 1.718 -1.628 3.976
 1.742 -1.627 3.963
 1.769 -1.628 3.956
 1.793 -1.626 3.94
 1.808 -1.617 3.908
 1.825 -1.609 3.878
 1.835 -1.596 3.835
 1.835 -1.575 3.772
 1.839 -1.557 3.72
 1.845 -1.542 3.671
 1.846 -1.523 3.614
 1.846 -1.503 3.557
 1.858 -1.494 3.524
 1.813 -1.44 3.384
 1.764 -1.383 3.241
 1.752 -1.358 3.17
 1.759 -1.347 3.133
 1.766 -1.336 3.097
 1.776 -1.328 3.067
 1.778 -1.314 3.024
 1.772 -1.295 2.969
 1.784 -1.288 2.944
 1.769 -1.264 2.876
 -2.261 -1.606 3.817
 -2.236 -1.608 3.833
 -2.22 -1.615 3.864
 -2.194 -1.615 3.877
 -2.17 -1.617 3.894
 -2.142 -1.616 3.904
 -2.118 -1.618 3.921
 -2.093 -1.619 3.935
 -2.067 -1.62 3.949
 -2.039 -1.619 3.957
 -2.012 -1.618 3.967
 -1.986 -1.618 3.979
 -1.959 -1.618 3.99
 -1.934 -1.619 4.003
 -1.91 -1.622 4.022
 -1.884 -1.622 4.033
 -1.857 -1.621 4.041
 -1.829 -1.621 4.05
 -1.801 -1.619 4.057
 -1.772 -1.617 4.06
 -1.747 -1.618 4.073
 -1.72 -1.618 4.081
 -1.693 -1.617 4.09
 -1.666 -1.617 4.098
 -1.64 -1.617 4.108
 -1.611 -1.615 4.111
 -1.582 -1.612 4.113
 -1.556 -1.612 4.12
 -1.528 -1.611 4.125
 -1.5 -1.608 4.128
 -1.472 -1.606 4.13
 -1.447 -1.608 4.142
 -1.421 -1.608 4.15
 -1.396 -1.61 4.162
 -1.37 -1.61 4.17
 -1.344 -1.611 4.18
 -1.318 -1.611 4.186
 -1.291 -1.61 4.191
 -1.264 -1.609 4.195
 -1.237 -1.609 4.2
 -1.211 -1.608 4.205
 -1.182 -1.605 4.203
 -1.153 -1.601 4.199
 -1.125 -1.598 4.196
 -1.098 -1.597 4.199
 -1.071 -1.596 4.201
 -1.046 -1.596 4.208
 -1.021 -1.599 4.221
 -0.996 -1.6 4.228
 -0.969 -1.599 4.23
 -0.943 -1.599 4.236
 -0.917 -1.6 4.241
 -0.89 -1.597 4.239
 -0.863 -1.596 4.239
 -0.837 -1.595 4.24
 -0.811 -1.594 4.244
 -0.783 -1.591 4.238
 -0.757 -1.591 4.242
 -0.731 -1.591 4.246
 -0.705 -1.591 4.249
 -0.679 -1.589 4.247
 -0.653 -1.59 4.253
 -0.627 -1.589 4.254
 -0.602 -1.59 4.258
 -0.576 -1.589 4.259
 -0.549 -1.588 4.259
 -0.524 -1.59 4.265
 -0.498 -1.589 4.266
 -0.472 -1.59 4.269
 -0.447 -1.59 4.273
 -0.421 -1.59 4.274
 -0.394 -1.588 4.269
 -0.369 -1.587 4.269
 -0.342 -1.585 4.264
 -0.316 -1.583 4.26
 -0.291 -1.583 4.262
 -0.265 -1.582 4.261
 -0.239 -1.583 4.265
 -0.213 -1.582 4.261
 -0.188 -1.581 4.261
 -0.162 -1.581 4.262
 -0.136 -1.581 4.262
 -0.111 -1.58 4.258
 -0.085 -1.581 4.262
 -0.06 -1.582 4.265
 -0.034 -1.582 4.263
 -0.008 -1.581 4.261
 0.016 -1.58 4.259
 0.042 -1.58 4.258
 0.067 -1.579 4.254
 0.093 -1.578 4.251
 0.118 -1.579 4.252
 0.144 -1.579 4.252
 0.169 -1.578 4.247
 0.195 -1.579 4.25
 0.221 -1.581 4.252
 0.246 -1.58 4.249
 0.272 -1.581 4.249
 0.297 -1.582 4.251
 0.323 -1.581 4.247
 0.348 -1.58 4.243
 0.374 -1.581 4.243
 0.4 -1.582 4.242
 0.425 -1.583 4.243
 0.451 -1.581 4.236
 0.476 -1.58 4.231
 0.502 -1.581 4.231
 0.527 -1.58 4.225
 0.552 -1.58 4.221
 0.578 -1.582 4.224
 0.605 -1.585 4.229
 0.631 -1.586 4.227
 0.657 -1.588 4.229
 0.684 -1.59 4.231
 0.71 -1.591 4.229
 0.735 -1.59 4.223
 0.76 -1.589 4.214
 0.786 -1.589 4.211
 0.812 -1.59 4.209
 0.838 -1.591 4.206
 0.865 -1.593 4.208
 0.892 -1.597 4.212
 0.919 -1.598 4.21
 0.945 -1.599 4.208
 0.972 -1.6 4.207
 0.998 -1.601 4.203
 1.024 -1.602 4.201
 1.052 -1.605 4.201
 1.078 -1.606 4.198
 1.105 -1.607 4.195
 1.132 -1.609 4.193
 1.159 -1.61 4.191
 1.185 -1.61 4.184
 1.211 -1.611 4.179
 1.238 -1.612 4.175
 1.265 -1.614 4.172
 1.291 -1.613 4.164
 1.318 -1.615 4.161
 1.345 -1.617 4.157
 1.373 -1.619 4.156
 1.4 -1.62 4.15
 1.426 -1.621 4.144
 1.454 -1.622 4.138
 1.481 -1.624 4.134
 1.506 -1.622 4.122
 1.533 -1.623 4.116
 1.562 -1.626 4.114
 1.587 -1.625 4.103
 1.612 -1.625 4.092
 1.639 -1.625 4.083
 1.663 -1.623 4.068
 1.688 -1.622 4.057
 1.715 -1.624 4.049
 1.739 -1.622 4.035
 1.763 -1.62 4.02
 1.788 -1.619 4.007
 1.806 -1.612 3.979
 1.818 -1.6 3.937
 1.83 -1.589 3.899
 1.838 -1.573 3.85
 1.84 -1.554 3.791
 1.847 -1.539 3.743
 1.854 -1.525 3.699
 1.857 -1.507 3.644
 1.863 -1.493 3.598
 1.876 -1.484 3.566
 1.822 -1.424 3.41
 1.744 -1.346 3.213
 1.743 -1.329 3.16
 1.757 -1.324 3.137
 1.765 -1.314 3.103
 1.776 -1.307 3.075
 1.781 -1.295 3.036
 1.775 -1.276 2.981
 1.778 -1.263 2.941
 1.771 -1.244 2.886
 -2.293 -1.603 3.881
 -2.258 -1.597 3.88
 -2.253 -1.612 3.931
 -2.224 -1.61 3.939
 -2.199 -1.612 3.956
 -2.171 -1.611 3.966
 -2.145 -1.612 3.981
 -2.119 -1.612 3.993
 -2.094 -1.614 4.009
 -2.065 -1.612 4.018
 -2.039 -1.613 4.03
 -2.013 -1.613 4.043
 -1.986 -1.614 4.056
 -1.96 -1.614 4.067
 -1.936 -1.616 4.084
 -1.909 -1.617 4.096
 -1.882 -1.617 4.107
 -1.855 -1.617 4.116
 -1.828 -1.616 4.126
 -1.798 -1.614 4.13
 -1.771 -1.614 4.139
 -1.744 -1.613 4.148
 -1.717 -1.613 4.156
 -1.689 -1.613 4.165
 -1.662 -1.612 4.173
 -1.634 -1.611 4.178
 -1.604 -1.608 4.178
 -1.577 -1.607 4.185
 -1.549 -1.606 4.191
 -1.522 -1.605 4.198
 -1.494 -1.604 4.203
 -1.469 -1.606 4.215
 -1.442 -1.605 4.221
 -1.415 -1.605 4.228
 -1.386 -1.603 4.229
 -1.358 -1.601 4.231
 -1.331 -1.6 4.236
 -1.303 -1.599 4.239
 -1.276 -1.598 4.243
 -1.249 -1.598 4.25
 -1.223 -1.598 4.257
 -1.193 -1.594 4.253
 -1.165 -1.592 4.253
 -1.137 -1.589 4.25
 -1.109 -1.587 4.251
 -1.081 -1.584 4.249
 -1.055 -1.585 4.255
 -1.029 -1.586 4.263
 -1.003 -1.586 4.269
 -0.976 -1.585 4.27
 -0.95 -1.585 4.275
 -0.924 -1.584 4.279
 -0.896 -1.582 4.276
 -0.869 -1.58 4.276
 -0.842 -1.579 4.277
 -0.816 -1.579 4.28
 -0.788 -1.576 4.277
 -0.762 -1.576 4.279
 -0.736 -1.576 4.283
 -0.71 -1.575 4.285
 -0.683 -1.574 4.283
 -0.657 -1.573 4.286
 -0.631 -1.572 4.286
 -0.604 -1.572 4.287
 -0.578 -1.571 4.287
 -0.551 -1.569 4.285
 -0.526 -1.57 4.291
 -0.5 -1.57 4.293
 -0.474 -1.57 4.295
 -0.448 -1.57 4.296
 -0.422 -1.57 4.298
 -0.396 -1.568 4.294
 -0.37 -1.567 4.294
 -0.344 -1.566 4.291
 -0.318 -1.564 4.289
 -0.292 -1.564 4.289
 -0.266 -1.563 4.286
 -0.24 -1.562 4.284
 -0.214 -1.56 4.28
 -0.188 -1.56 4.28
 -0.162 -1.559 4.278
 -0.137 -1.559 4.279
 -0.111 -1.558 4.276
 -0.085 -1.558 4.278
 -0.06 -1.56 4.283
 -0.034 -1.56 4.284
 -0.008 -1.56 4.282
 0.016 -1.559 4.28
 0.042 -1.559 4.278
 0.068 -1.557 4.271
 0.093 -1.554 4.265
 0.119 -1.555 4.266
 0.144 -1.556 4.266
 0.17 -1.555 4.263
 0.196 -1.557 4.268
 0.221 -1.558 4.269
 0.247 -1.557 4.266
 0.273 -1.559 4.27
 0.298 -1.561 4.271
 0.324 -1.559 4.266
 0.35 -1.56 4.266
 0.375 -1.56 4.264
 0.401 -1.56 4.26
 0.427 -1.561 4.262
 0.452 -1.561 4.258
 0.478 -1.56 4.254
 0.504 -1.562 4.255
 0.529 -1.562 4.253
 0.554 -1.56 4.246
 0.581 -1.562 4.247
 0.607 -1.565 4.251
 0.633 -1.565 4.249
 0.66 -1.567 4.251
 0.686 -1.569 4.252
 0.712 -1.57 4.251
 0.738 -1.569 4.245
 0.763 -1.57 4.241
 0.789 -1.569 4.234
 0.815 -1.57 4.234
 0.841 -1.571 4.232
 0.868 -1.573 4.232
 0.895 -1.575 4.233
 0.922 -1.577 4.234
 0.949 -1.579 4.233
 0.976 -1.581 4.233
 1.003 -1.583 4.232
 1.03 -1.585 4.232
 1.057 -1.587 4.232
 1.084 -1.588 4.227
 1.11 -1.589 4.224
 1.138 -1.591 4.224
 1.165 -1.592 4.221
 1.192 -1.593 4.217
 1.219 -1.595 4.213
 1.246 -1.596 4.21
 1.273 -1.597 4.205
 1.298 -1.596 4.196
 1.326 -1.599 4.195
 1.354 -1.601 4.192
 1.382 -1.603 4.191
 1.41 -1.605 4.188
 1.438 -1.608 4.186
 1.465 -1.608 4.18
 1.493 -1.61 4.175
 1.519 -1.609 4.165
 1.546 -1.611 4.16
 1.575 -1.613 4.157
 1.601 -1.614 4.149
 1.627 -1.613 4.139
 1.654 -1.613 4.129
 1.679 -1.613 4.117
 1.705 -1.612 4.106
 1.731 -1.612 4.097
 1.756 -1.611 4.083
 1.779 -1.608 4.065
 1.803 -1.606 4.048
 1.818 -1.596 4.014
 1.83 -1.584 3.973
 1.842 -1.573 3.933
 1.85 -1.558 3.884
 1.849 -1.536 3.818
 1.855 -1.521 3.77
 1.86 -1.505 3.718
 1.867 -1.491 3.672
 1.873 -1.476 3.626
 0 0 0
 0 0 0
 0 0 0
 1.738 -1.304 3.159
 1.756 -1.301 3.143
 1.765 -1.292 3.11
 1.775 -1.285 3.081
 1.782 -1.275 3.046
 1.778 -1.258 2.994
 1.776 -1.242 2.946
 1.742 -1.205 2.847
 -2.341 -1.609 3.972
 -2.293 -1.594 3.95
 -2.188 -1.539 3.826
 -2.251 -1.603 3.997
 -2.226 -1.605 4.015
 -2.199 -1.605 4.027
 -2.087 -1.542 3.882
 -2.062 -1.543 3.896
 -2.039 -1.545 3.913
 -2.011 -1.544 3.922
 -1.987 -1.546 3.937
 -2.043 -1.61 4.114
 -2.015 -1.61 4.125
 -1.987 -1.609 4.134
 -1.961 -1.611 4.149
 -1.932 -1.609 4.156
 -1.905 -1.61 4.167
 -1.879 -1.61 4.179
 -1.85 -1.609 4.187
 -1.821 -1.607 4.192
 -1.795 -1.608 4.205
 -1.766 -1.607 4.211
 -1.738 -1.606 4.217
 -1.711 -1.606 4.228
 -1.684 -1.606 4.237
 -1.655 -1.604 4.24
 -1.625 -1.602 4.244
 -1.598 -1.602 4.251
 -1.569 -1.6 4.254
 -1.54 -1.598 4.258
 -1.512 -1.597 4.263
 -1.486 -1.597 4.272
 -1.457 -1.596 4.276
 -1.428 -1.594 4.278
 -1.4 -1.592 4.28
 -1.371 -1.589 4.28
 -1.343 -1.588 4.283
 -1.315 -1.587 4.287
 -1.286 -1.585 4.289
 -1.259 -1.584 4.294
 -1.232 -1.583 4.297
 -1.202 -1.579 4.292
 -1.173 -1.576 4.29
 -1.145 -1.574 4.289
 -1.117 -1.572 4.29
 -1.09 -1.571 4.292
 -1.063 -1.571 4.297
 -1.037 -1.571 4.303
 -1.01 -1.571 4.307
 -0.983 -1.569 4.308
 -0.955 -1.567 4.307
 -0.929 -1.567 4.311
 -0.9 -1.564 4.306
 -0.873 -1.563 4.308
 -0.846 -1.561 4.306
 -0.82 -1.56 4.309
 -0.792 -1.557 4.304
 -0.766 -1.557 4.308
 -0.739 -1.555 4.306
 -0.712 -1.554 4.306
 -0.685 -1.553 4.306
 -0.659 -1.552 4.308
 -0.632 -1.55 4.304
 -0.606 -1.549 4.305
 -0.579 -1.549 4.306
 -0.553 -1.547 4.305
 -0.527 -1.548 4.308
 -0.501 -1.547 4.309
 -0.474 -1.546 4.307
 -0.448 -1.546 4.308
 -0.422 -1.544 4.307
 -0.396 -1.542 4.301
 -0.37 -1.542 4.305
 -0.344 -1.542 4.305
 -0.318 -1.54 4.299
 -0.292 -1.54 4.301
 -0.266 -1.54 4.302
 -0.24 -1.538 4.298
 -0.214 -1.537 4.295
 -0.188 -1.537 4.297
 -0.162 -1.536 4.294
 -0.137 -1.535 4.293
 -0.111 -1.534 4.29
 -0.085 -1.535 4.291
 -0.06 -1.535 4.294
 -0.034 -1.535 4.294
 -0.008 -1.535 4.291
 0.017 -1.533 4.287
 0.042 -1.533 4.286
 0.068 -1.532 4.283
 0.093 -1.531 4.279
 0.119 -1.532 4.28
 0.145 -1.533 4.282
 0.17 -1.532 4.279
 0.196 -1.533 4.279
 0.221 -1.533 4.278
 0.247 -1.533 4.277
 0.273 -1.535 4.28
 0.299 -1.535 4.28
 0.324 -1.534 4.275
 0.35 -1.534 4.274
 0.375 -1.534 4.272
 0.401 -1.535 4.27
 0.427 -1.536 4.27
 0.453 -1.536 4.268
 0.478 -1.536 4.267
 0.504 -1.537 4.266
 0.53 -1.537 4.262
 0.555 -1.537 4.259
 0.581 -1.538 4.259
 0.608 -1.54 4.261
 0.634 -1.54 4.259
 0.66 -1.542 4.26
 0.686 -1.543 4.258
 0.713 -1.545 4.26
 0.738 -1.545 4.256
 0.765 -1.546 4.256
 0.791 -1.546 4.252
 0.818 -1.549 4.254
 0.843 -1.548 4.248
 0.87 -1.55 4.248
 0.897 -1.552 4.248
 0.923 -1.553 4.247
 0.95 -1.555 4.248
 0.978 -1.558 4.25
 1.006 -1.561 4.253
 1.033 -1.563 4.253
 1.061 -1.566 4.253
 1.087 -1.566 4.249
 1.114 -1.568 4.247
 1.142 -1.57 4.245
 1.169 -1.571 4.244
 1.197 -1.573 4.242
 1.224 -1.575 4.241
 1.251 -1.576 4.236
 1.278 -1.578 4.233
 1.304 -1.577 4.224
 1.332 -1.579 4.221
 1.359 -1.58 4.216
 1.387 -1.582 4.213
 1.414 -1.583 4.21
 1.443 -1.586 4.207
 1.471 -1.588 4.205
 1.499 -1.59 4.202
 1.527 -1.591 4.197
 1.555 -1.593 4.193
 1.584 -1.596 4.191
 1.611 -1.596 4.183
 1.637 -1.596 4.173
 1.664 -1.596 4.163
 1.69 -1.596 4.153
 1.717 -1.597 4.144
 1.744 -1.597 4.135
 1.768 -1.595 4.12
 1.792 -1.593 4.104
 1.814 -1.589 4.082
 1.827 -1.578 4.044
 1.838 -1.565 3.999
 1.85 -1.553 3.959
 1.858 -1.538 3.909
 1.856 -1.517 3.843
 1.863 -1.502 3.794
 1.865 -1.484 3.737
 1.872 -1.47 3.691
 0 0 0
 0 0 0
 0 0 0
 0 0 0
 1.745 -1.287 3.178
 1.759 -1.282 3.156
 1.767 -1.273 3.121
 1.776 -1.264 3.09
 1.783 -1.255 3.056
 1.778 -1.237 3.001
 1.774 -1.22 2.949
 1.759 -1.196 2.881
 -2.421 -1.635 4.118
 -2.359 -1.613 4.074
 -2.016 -1.395 3.534
 -2.003 -1.402 3.564
 -1.981 -1.404 3.58
 -1.957 -1.405 3.592
 -1.758 -1.277 3.275
 -1.648 -1.213 3.119
 -1.718 -1.28 3.303
 -1.692 -1.278 3.306
 -1.757 -1.344 3.488
 -1.902 -1.474 3.838
 -1.958 -1.538 4.016
 -1.93 -1.537 4.025
 -1.986 -1.603 4.21
 -1.957 -1.602 4.218
 -1.929 -1.602 4.228
 -1.901 -1.602 4.238
 -1.871 -1.6 4.244
 -1.842 -1.599 4.25
 -1.816 -1.6 4.263
 -1.787 -1.598 4.27
 -1.757 -1.596 4.273
 -1.729 -1.596 4.282
 -1.701 -1.595 4.289
 -1.67 -1.592 4.29
 -1.64 -1.59 4.292
 -1.612 -1.588 4.297
 -1.582 -1.586 4.301
 -1.554 -1.585 4.305
 -1.526 -1.584 4.311
 -1.498 -1.584 4.317
 -1.469 -1.581 4.319
 -1.439 -1.579 4.319
 -1.409 -1.576 4.319
 -1.379 -1.572 4.316
 -1.35 -1.57 4.317
 -1.322 -1.569 4.32
 -1.293 -1.567 4.321
 -1.265 -1.565 4.323
 -1.237 -1.563 4.324
 -1.207 -1.559 4.319
 -1.178 -1.556 4.318
 -1.149 -1.554 4.315
 -1.121 -1.551 4.314
 -1.093 -1.55 4.315
 -1.066 -1.549 4.318
 -1.039 -1.548 4.32
 -1.012 -1.547 4.322
 -0.984 -1.545 4.322
 -0.956 -1.543 4.321
 -0.93 -1.542 4.324
 -0.901 -1.539 4.319
 -0.875 -1.538 4.322
 -0.847 -1.537 4.321
 -0.82 -1.536 4.322
 -0.793 -1.533 4.318
 -0.766 -1.533 4.321
 -0.739 -1.531 4.319
 -0.713 -1.53 4.32
 -0.686 -1.529 4.321
 -0.66 -1.528 4.322
 -0.633 -1.527 4.32
 -0.606 -1.525 4.317
 -0.579 -1.523 4.315
 -0.553 -1.522 4.315
 -0.527 -1.522 4.318
 -0.501 -1.521 4.315
 -0.474 -1.52 4.314
 -0.448 -1.52 4.317
 -0.422 -1.519 4.315
 -0.396 -1.516 4.31
 -0.37 -1.517 4.313
 -0.344 -1.516 4.312
 -0.317 -1.514 4.307
 -0.292 -1.513 4.307
 -0.266 -1.512 4.306
 -0.24 -1.511 4.303
 -0.214 -1.511 4.302
 -0.188 -1.511 4.305
 -0.162 -1.51 4.3
 -0.136 -1.509 4.3
 -0.111 -1.509 4.299
 -0.085 -1.509 4.3
 -0.059 -1.509 4.299
 -0.034 -1.509 4.298
 -0.008 -1.508 4.295
 0.017 -1.506 4.291
 0.042 -1.506 4.29
 0.068 -1.505 4.287
 0.093 -1.505 4.287
 0.119 -1.506 4.289
 0.145 -1.507 4.29
 0.17 -1.506 4.285
 0.196 -1.506 4.284
 0.221 -1.506 4.283
 0.247 -1.506 4.282
 0.273 -1.507 4.282
 0.299 -1.508 4.283
 0.324 -1.507 4.279
 0.35 -1.507 4.278
 0.375 -1.508 4.276
 0.401 -1.508 4.275
 0.427 -1.509 4.274
 0.453 -1.51 4.274
 0.479 -1.511 4.275
 0.504 -1.511 4.274
 0.53 -1.512 4.272
 0.556 -1.513 4.273
 0.582 -1.514 4.271
 0.608 -1.514 4.269
 0.634 -1.515 4.267
 0.66 -1.516 4.266
 0.686 -1.516 4.265
 0.713 -1.519 4.268
 0.739 -1.52 4.267
 0.766 -1.522 4.267
 0.792 -1.522 4.264
 0.818 -1.524 4.265
 0.844 -1.524 4.259
 0.87 -1.525 4.257
 0.897 -1.526 4.256
 0.924 -1.528 4.256
 0.951 -1.529 4.256
 0.979 -1.533 4.26
 1.007 -1.536 4.264
 1.034 -1.538 4.264
 1.061 -1.54 4.263
 1.088 -1.541 4.26
 1.115 -1.542 4.256
 1.142 -1.543 4.253
 1.169 -1.545 4.251
 1.196 -1.546 4.249
 1.224 -1.548 4.248
 1.252 -1.551 4.246
 1.279 -1.552 4.244
 1.306 -1.553 4.238
 1.334 -1.555 4.237
 1.362 -1.557 4.233
 1.39 -1.558 4.23
 1.417 -1.56 4.226
 1.445 -1.562 4.224
 1.474 -1.564 4.221
 1.502 -1.566 4.219
 1.531 -1.569 4.216
 1.56 -1.571 4.214
 1.589 -1.574 4.213
 1.618 -1.576 4.209
 1.645 -1.577 4.201
 1.671 -1.577 4.191
 1.698 -1.577 4.182
 1.724 -1.576 4.17
 1.75 -1.576 4.158
 1.774 -1.574 4.143
 1.798 -1.571 4.126
 1.818 -1.566 4.102
 1.835 -1.558 4.068
 1.847 -1.546 4.026
 1.859 -1.535 3.987
 1.869 -1.522 3.941
 1.869 -1.501 3.877
 1.873 -1.485 3.823
 1.872 -1.464 3.759
 0 0 0
 0 0 0
 0 0 0
 0 0 0
 0 0 0
 1.749 -1.269 3.194
 1.759 -1.261 3.163
 1.769 -1.253 3.132
 1.778 -1.244 3.1
 1.786 -1.235 3.067
 1.781 -1.218 3.012
 1.763 -1.192 2.938
 1.766 -1.181 2.899
 -0.026 -0.019 0.031
 -2.376 -1.597 4.114
 -1.561 -1.062 2.74
 -1.571 -1.082 2.8
 -1.553 -1.082 2.81
 -1.534 -1.082 2.819
 -1.339 -0.956 2.497
 -1.232 -0.892 2.334
 -1.304 -0.956 2.51
 -1.285 -0.954 2.512
 -1.354 -1.018 2.691
 -1.588 -1.21 3.209
 -1.731 -1.337 3.558
 -1.789 -1.401 3.738
 -1.927 -1.529 4.094
 -1.898 -1.527 4.1
 -1.869 -1.526 4.105
 -1.84 -1.524 4.112
 -1.81 -1.521 4.114
 -1.782 -1.52 4.12
 -1.829 -1.584 4.305
 -1.8 -1.582 4.31
 -1.769 -1.58 4.312
 -1.741 -1.579 4.32
 -1.711 -1.577 4.324
 -1.68 -1.574 4.324
 -1.649 -1.571 4.326
 -1.62 -1.57 4.33
 -1.591 -1.568 4.333
 -1.562 -1.566 4.338
 -1.534 -1.566 4.343
 -1.505 -1.564 4.347
 -1.475 -1.561 4.348
 -1.445 -1.558 4.346
 -1.413 -1.553 4.339
 -1.382 -1.549 4.334
 -1.353 -1.547 4.335
 -1.324 -1.544 4.336
 -1.295 -1.542 4.335
 -1.267 -1.54 4.338
 -1.239 -1.539 4.339
 -1.208 -1.534 4.333
 -1.18 -1.532 4.332
 -1.151 -1.53 4.332
 -1.123 -1.527 4.331
 -1.094 -1.525 4.329
 -1.067 -1.523 4.329
 -1.04 -1.522 4.332
 -1.012 -1.521 4.332
 -0.984 -1.519 4.331
 -0.957 -1.517 4.331
 -0.93 -1.517 4.336
 -0.902 -1.513 4.329
 -0.875 -1.513 4.333
 -0.847 -1.511 4.33
 -0.82 -1.51 4.331
 -0.793 -1.507 4.326
 -0.766 -1.506 4.328
 -0.739 -1.504 4.325
 -0.712 -1.504 4.327
 -0.686 -1.503 4.328
 -0.659 -1.501 4.326
 -0.632 -1.499 4.324
 -0.605 -1.498 4.322
 -0.579 -1.497 4.322
 -0.553 -1.495 4.32
 -0.527 -1.495 4.322
 -0.5 -1.494 4.32
 -0.474 -1.492 4.318
 -0.447 -1.491 4.317
 -0.421 -1.49 4.315
 -0.395 -1.489 4.313
 -0.369 -1.488 4.311
 -0.343 -1.487 4.31
 -0.317 -1.485 4.307
 -0.291 -1.485 4.308
 -0.265 -1.484 4.307
 -0.239 -1.484 4.306
 -0.213 -1.483 4.305
 -0.188 -1.484 4.307
 -0.162 -1.481 4.3
 -0.136 -1.48 4.298
 -0.11 -1.48 4.298
 -0.085 -1.481 4.3
 -0.059 -1.48 4.298
 -0.033 -1.481 4.3
 -0.008 -1.48 4.298
 0.017 -1.479 4.294
 0.042 -1.479 4.294
 0.068 -1.479 4.293
 0.094 -1.479 4.293
 0.119 -1.48 4.293
 0.145 -1.481 4.295
 0.17 -1.48 4.291
 0.196 -1.48 4.291
 0.222 -1.48 4.289
 0.247 -1.481 4.29
 0.273 -1.481 4.288
 0.298 -1.481 4.286
 0.324 -1.48 4.283
 0.349 -1.48 4.28
 0.375 -1.48 4.278
 0.401 -1.48 4.277
 0.426 -1.481 4.276
 0.452 -1.482 4.276
 0.478 -1.483 4.276
 0.504 -1.484 4.276
 0.53 -1.484 4.275
 0.556 -1.486 4.276
 0.582 -1.487 4.276
 0.608 -1.487 4.274
 0.633 -1.487 4.27
 0.659 -1.488 4.27
 0.686 -1.489 4.269
 0.712 -1.491 4.271
 0.739 -1.494 4.273
 0.766 -1.496 4.276
 0.792 -1.497 4.276
 0.819 -1.499 4.277
 0.845 -1.499 4.271
 0.871 -1.5 4.269
 0.898 -1.501 4.267
 0.924 -1.502 4.265
 0.951 -1.503 4.263
 0.979 -1.507 4.268
 1.007 -1.51 4.27
 1.034 -1.512 4.272
 1.061 -1.513 4.27
 1.088 -1.515 4.267
 1.114 -1.515 4.261
 1.141 -1.516 4.259
 1.168 -1.517 4.255
 1.195 -1.519 4.254
 1.223 -1.521 4.252
 1.251 -1.523 4.252
 1.279 -1.525 4.249
 1.306 -1.526 4.246
 1.335 -1.529 4.247
 1.363 -1.531 4.244
 1.39 -1.533 4.24
 1.418 -1.534 4.236
 1.446 -1.535 4.232
 1.474 -1.538 4.231
 1.504 -1.541 4.231
 1.533 -1.544 4.23
 1.562 -1.546 4.228
 1.593 -1.55 4.23
 1.621 -1.552 4.225
 1.647 -1.552 4.216
 1.675 -1.553 4.209
 1.704 -1.555 4.205
 1.729 -1.554 4.192
 1.756 -1.554 4.181
 1.78 -1.552 4.166
 1.803 -1.549 4.146
 1.824 -1.544 4.123
 1.841 -1.536 4.09
 1.855 -1.526 4.053
 1.871 -1.518 4.02
 1.881 -1.506 3.976
 1.884 -1.488 3.918
 1.895 -1.476 3.876
 0 0 0
 0 0 0
 0 0 0
 0 0 0
 0 0 0
 0 0 0
 1.463 -1.044 2.676
 1.603 -1.13 2.888
 1.772 -1.233 3.144
 1.778 -1.223 3.108
 1.785 -1.214 3.073
 1.78 -1.197 3.019
 1.782 -1.184 2.976
 1.766 -1.161 2.906
 0 0 0
 -0.03 -0.021 0.039
 -1.105 -0.739 1.941
 -1.138 -0.77 2.03
 -1.123 -0.769 2.034
 -1.11 -0.77 2.041
 -0.917 -0.644 1.71
 -0.812 -0.578 1.537
 -0.888 -0.64 1.71
 -0.873 -0.638 1.708
 -0.945 -0.699 1.879
 -1.184 -0.887 2.396
 -1.332 -1.011 2.741
 -1.477 -1.136 3.09
 -1.699 -1.325 3.616
 -1.754 -1.387 3.797
 -1.805 -1.448 3.974
 -1.854 -1.509 4.153
 -1.824 -1.506 4.155
 -1.795 -1.504 4.159
 -1.84 -1.566 4.34
 -1.808 -1.562 4.34
 -1.778 -1.56 4.343
 -1.748 -1.558 4.348
 -1.717 -1.555 4.349
 -1.686 -1.552 4.349
 -1.656 -1.55 4.352
 -1.626 -1.548 4.356
 -1.596 -1.546 4.357
 -1.567 -1.544 4.361
 -1.539 -1.543 4.366
 -1.508 -1.54 4.366
 -1.477 -1.537 4.363
 -1.446 -1.533 4.359
 -1.415 -1.528 4.353
 -1.384 -1.524 4.348
 -1.354 -1.521 4.348
 -1.325 -1.518 4.347
 -1.296 -1.516 4.346
 -1.268 -1.515 4.35
 -1.238 -1.512 4.346
 -1.208 -1.507 4.341
 -1.181 -1.507 4.344
 -1.151 -1.503 4.34
 -1.122 -1.499 4.334
 -1.093 -1.497 4.333
 -1.066 -1.495 4.334
 -1.038 -1.493 4.333
 -1.01 -1.492 4.334
 -0.983 -1.491 4.335
 -0.956 -1.489 4.335
 -0.929 -1.489 4.338
 -0.9 -1.485 4.332
 -0.874 -1.485 4.336
 -0.846 -1.483 4.334
 -0.82 -1.482 4.336
 -0.793 -1.481 4.334
 -0.766 -1.48 4.335
 -0.739 -1.478 4.333
 -0.712 -1.477 4.333
 -0.685 -1.475 4.33
 -0.658 -1.472 4.326
 -0.631 -1.471 4.326
 -0.604 -1.468 4.32
 -0.578 -1.467 4.319
 -0.551 -1.466 4.319
 -0.525 -1.466 4.321
 -0.499 -1.464 4.318
 -0.473 -1.464 4.319
 -0.447 -1.464 4.32
 -0.421 -1.463 4.318
 -0.394 -1.462 4.317
 -0.369 -1.461 4.317
 -0.343 -1.46 4.315
 -0.316 -1.458 4.311
 -0.291 -1.458 4.312
 -0.265 -1.457 4.31
 -0.239 -1.456 4.309
 -0.213 -1.456 4.308
 -0.187 -1.457 4.31
 -0.161 -1.454 4.303
 -0.136 -1.454 4.302
 -0.11 -1.453 4.302
 -0.085 -1.454 4.302
 -0.059 -1.452 4.299
 -0.033 -1.453 4.301
 -0.008 -1.452 4.297
 0.017 -1.451 4.295
 0.042 -1.451 4.294
 0.068 -1.451 4.294
 0.094 -1.452 4.295
 0.119 -1.452 4.294
 0.145 -1.452 4.294
 0.17 -1.452 4.292
 0.196 -1.452 4.29
 0.221 -1.452 4.29
 0.247 -1.454 4.293
 0.273 -1.453 4.29
 0.298 -1.453 4.288
 0.324 -1.453 4.285
 0.349 -1.452 4.281
 0.374 -1.452 4.278
 0.4 -1.453 4.28
 0.426 -1.453 4.278
 0.452 -1.455 4.279
 0.478 -1.456 4.28
 0.503 -1.456 4.277
 0.529 -1.456 4.276
 0.555 -1.458 4.277
 0.581 -1.459 4.276
 0.607 -1.46 4.276
 0.633 -1.46 4.274
 0.659 -1.462 4.275
 0.685 -1.463 4.275
 0.712 -1.465 4.276
 0.738 -1.466 4.276
 0.765 -1.469 4.28
 0.791 -1.469 4.275
 0.818 -1.47 4.275
 0.844 -1.471 4.272
 0.869 -1.471 4.267
 0.896 -1.472 4.267
 0.923 -1.474 4.266
 0.949 -1.475 4.263
 0.977 -1.477 4.265
 1.004 -1.48 4.268
 1.032 -1.482 4.268
 1.059 -1.484 4.267
 1.086 -1.486 4.267
 1.113 -1.487 4.264
 1.14 -1.488 4.262
 1.166 -1.489 4.257
 1.194 -1.49 4.255
 1.221 -1.492 4.253
 1.249 -1.495 4.254
 1.277 -1.496 4.252
 1.305 -1.499 4.252
 1.334 -1.502 4.252
 1.362 -1.503 4.249
 1.389 -1.504 4.244
 1.417 -1.506 4.241
 1.445 -1.508 4.237
 1.473 -1.51 4.236
 1.503 -1.513 4.236
 1.532 -1.517 4.237
 1.561 -1.519 4.234
 1.591 -1.522 4.235
 1.62 -1.524 4.231
 1.648 -1.525 4.224
 1.676 -1.527 4.219
 1.705 -1.529 4.214
 1.73 -1.528 4.201
 1.756 -1.527 4.189
 1.78 -1.525 4.172
 1.801 -1.521 4.151
 1.825 -1.518 4.132
 1.844 -1.512 4.107
 1.862 -1.506 4.078
 1.885 -1.503 4.058
 1.906 -1.499 4.037
 1.912 -1.483 3.983
 0 0 0
 0 0 0
 0 0 0
 0 0 0
 0 0 0
 0 0 0
 0 0 0
 1.578 -1.106 2.894
 1.659 -1.148 2.995
 1.805 -1.235 3.211
 1.777 -1.202 3.113
 1.783 -1.192 3.077
 1.78 -1.176 3.024
 1.772 -1.158 2.967
 1.795 -1.159 2.96
 -0.051 -0.034 0.074
 -0.053 -0.036 0.08
 -0.644 -0.424 1.129
 -0.7 -0.466 1.246
 -0.69 -0.465 1.247
 -0.679 -0.463 1.246
 -0.489 -0.338 0.908
 -0.389 -0.273 0.732
 -0.468 -0.332 0.897
 -0.459 -0.329 0.892
 -0.534 -0.388 1.058
 -0.778 -0.573 1.573
 -0.929 -0.693 1.912
 -1.161 -0.878 2.432
 -1.387 -1.063 2.956
 -1.526 -1.186 3.309
 -1.659 -1.307 3.658
 -1.787 -1.429 4.01
 -1.757 -1.425 4.01
 -1.803 -1.484 4.186
 -1.846 -1.543 4.362
 -1.814 -1.539 4.362
 -1.781 -1.535 4.36
 -1.749 -1.532 4.361
 -1.718 -1.528 4.359
 -1.686 -1.525 4.359
 -1.656 -1.523 4.361
 -1.626 -1.521 4.364
 -1.596 -1.518 4.366
 -1.567 -1.516 4.369
 -1.538 -1.515 4.372
 -1.507 -1.511 4.369
 -1.476 -1.508 4.368
 -1.446 -1.505 4.366
 -1.415 -1.501 4.363
 -1.385 -1.498 4.36
 -1.355 -1.495 4.358
 -1.325 -1.491 4.355
 -1.295 -1.488 4.352
 -1.266 -1.486 4.351
 -1.236 -1.482 4.346
 -1.207 -1.48 4.346
 -1.18 -1.479 4.35
 -1.15 -1.475 4.345
 -1.121 -1.472 4.341
 -1.093 -1.471 4.342
 -1.066 -1.469 4.343
 -1.038 -1.467 4.341
 -1.011 -1.466 4.344
 -0.983 -1.465 4.345
 -0.955 -1.462 4.341
 -0.928 -1.462 4.343
 -0.9 -1.459 4.339
 -0.873 -1.458 4.341
 -0.846 -1.457 4.341
 -0.82 -1.456 4.344
 -0.792 -1.453 4.339
 -0.765 -1.452 4.338
 -0.737 -1.449 4.334
 -0.71 -1.447 4.331
 -0.683 -1.445 4.327
 -0.656 -1.444 4.326
 -0.63 -1.442 4.324
 -0.603 -1.44 4.321
 -0.577 -1.439 4.32
 -0.551 -1.439 4.323
 -0.524 -1.438 4.322
 -0.498 -1.437 4.32
 -0.472 -1.437 4.322
 -0.446 -1.437 4.324
 -0.42 -1.435 4.319
 -0.394 -1.434 4.318
 -0.368 -1.433 4.319
 -0.342 -1.432 4.315
 -0.316 -1.43 4.312
 -0.29 -1.431 4.315
 -0.264 -1.43 4.313
 -0.239 -1.43 4.314
 -0.213 -1.43 4.314
 -0.187 -1.43 4.316
 -0.161 -1.427 4.307
 -0.135 -1.427 4.306
 -0.11 -1.425 4.302
 -0.084 -1.425 4.302
 -0.059 -1.424 4.299
 -0.033 -1.426 4.305
 -0.007 -1.425 4.3
 0.017 -1.424 4.298
 0.043 -1.424 4.295
 0.068 -1.424 4.296
 0.094 -1.424 4.295
 0.119 -1.425 4.298
 0.145 -1.427 4.302
 0.171 -1.427 4.301
 0.196 -1.426 4.298
 0.222 -1.427 4.298
 0.247 -1.428 4.299
 0.273 -1.427 4.296
 0.298 -1.428 4.296
 0.324 -1.428 4.295
 0.349 -1.427 4.29
 0.375 -1.426 4.285
 0.4 -1.426 4.283
 0.425 -1.425 4.278
 0.451 -1.427 4.28
 0.477 -1.428 4.281
 0.503 -1.428 4.278
 0.529 -1.429 4.279
 0.555 -1.431 4.282
 0.581 -1.431 4.279
 0.607 -1.433 4.279
 0.633 -1.433 4.278
 0.659 -1.434 4.278
 0.685 -1.436 4.278
 0.711 -1.437 4.278
 0.738 -1.439 4.279
 0.764 -1.44 4.28
 0.79 -1.441 4.276
 0.816 -1.441 4.273
 0.842 -1.441 4.269
 0.867 -1.441 4.264
 0.894 -1.443 4.265
 0.921 -1.444 4.264
 0.948 -1.447 4.266
 0.975 -1.449 4.266
 1.003 -1.452 4.271
 1.031 -1.454 4.271
 1.058 -1.456 4.269
 1.084 -1.457 4.267
 1.112 -1.458 4.266
 1.138 -1.459 4.261
 1.164 -1.459 4.254
 1.192 -1.461 4.255
 1.219 -1.463 4.253
 1.247 -1.465 4.253
 1.275 -1.467 4.251
 1.304 -1.47 4.253
 1.332 -1.473 4.254
 1.361 -1.476 4.253
 1.388 -1.477 4.249
 1.416 -1.479 4.247
 1.443 -1.48 4.242
 1.472 -1.482 4.24
 1.501 -1.485 4.239
 1.53 -1.488 4.238
 1.559 -1.49 4.236
 1.589 -1.494 4.237
 1.618 -1.496 4.234
 1.646 -1.497 4.229
 1.675 -1.499 4.225
 1.704 -1.501 4.22
 1.73 -1.5 4.208
 1.757 -1.501 4.199
 1.782 -1.499 4.185
 1.805 -1.497 4.167
 1.828 -1.494 4.15
 1.849 -1.49 4.126
 1.868 -1.484 4.098
 1.889 -1.479 4.075
 1.908 -1.474 4.048
 0 0 0
 0 0 0
 0 0 0
 0 0 0
 0 0 0
 0 0 0
 0 0 0
 0 0 0
 1.342 -0.925 2.465
 1.523 -1.036 2.756
 1.812 -1.217 3.229
 1.781 -1.183 3.127
 1.786 -1.172 3.087
 1.784 -1.158 3.038
 1.757 -1.127 2.947
 1.774 -1.126 2.933
 -0.088 -0.057 0.138
 -0.096 -0.063 0.156
 -0.272 -0.176 0.469
 -0.254 -0.167 0.445
 -0.248 -0.165 0.441
 -0.24 -0.162 0.434
 -0.141 -0.096 0.253
 -0.044 -0.032 0.072
 -0.124 -0.088 0.229
 -0.118 -0.084 0.221
 -0.197 -0.142 0.384
 -0.362 -0.263 0.727
 -0.602 -0.441 1.236
 -0.838 -0.623 1.756
 -1.149 -0.865 2.452
 -1.372 -1.047 2.98
 -1.584 -1.226 3.501
 -1.713 -1.344 3.85
 -1.761 -1.403 4.027
 -1.805 -1.459 4.2
 -1.847 -1.515 4.373
 -1.815 -1.512 4.374
 -1.782 -1.509 4.373
 -1.749 -1.504 4.369
 -1.717 -1.5 4.366
 -1.685 -1.497 4.366
 -1.654 -1.494 4.366
 -1.624 -1.491 4.367
 -1.595 -1.49 4.371
 -1.566 -1.489 4.376
 -1.537 -1.487 4.379
 -1.506 -1.483 4.376
 -1.475 -1.48 4.374
 -1.445 -1.477 4.372
 -1.414 -1.473 4.368
 -1.383 -1.47 4.365
 -1.354 -1.467 4.363
 -1.323 -1.463 4.359
 -1.294 -1.46 4.356
 -1.265 -1.458 4.355
 -1.235 -1.454 4.35
 -1.206 -1.451 4.349
 -1.178 -1.45 4.352
 -1.148 -1.447 4.346
 -1.12 -1.444 4.343
 -1.092 -1.442 4.343
 -1.064 -1.44 4.342
 -1.036 -1.438 4.342
 -1.009 -1.438 4.345
 -0.982 -1.437 4.346
 -0.955 -1.435 4.347
 -0.928 -1.435 4.351
 -0.899 -1.431 4.344
 -0.872 -1.43 4.343
 -0.845 -1.428 4.341
 -0.818 -1.427 4.343
 -0.79 -1.425 4.339
 -0.764 -1.425 4.342
 -0.737 -1.423 4.339
 -0.71 -1.421 4.337
 -0.682 -1.417 4.329
 -0.656 -1.416 4.328
 -0.629 -1.415 4.327
 -0.602 -1.413 4.324
 -0.576 -1.411 4.321
 -0.55 -1.412 4.326
 -0.524 -1.411 4.325
 -0.498 -1.41 4.324
 -0.472 -1.41 4.327
 -0.446 -1.411 4.331
 -0.42 -1.409 4.326
 -0.393 -1.406 4.318
 -0.367 -1.404 4.315
 -0.341 -1.402 4.31
 -0.315 -1.4 4.306
 -0.289 -1.4 4.307
 -0.263 -1.4 4.308
 -0.238 -1.401 4.31
 -0.212 -1.401 4.31
 -0.187 -1.401 4.311
 -0.161 -1.398 4.304
 -0.135 -1.399 4.305
 -0.109 -1.398 4.302
 -0.084 -1.397 4.3
 -0.058 -1.397 4.299
 -0.033 -1.399 4.306
 -0.007 -1.398 4.303
 0.017 -1.398 4.303
 0.043 -1.398 4.303
 0.068 -1.398 4.302
 0.094 -1.398 4.3
 0.119 -1.399 4.303
 0.145 -1.4 4.305
 0.17 -1.4 4.303
 0.196 -1.4 4.302
 0.222 -1.4 4.301
 0.247 -1.401 4.304
 0.273 -1.401 4.3
 0.298 -1.402 4.302
 0.324 -1.402 4.302
 0.35 -1.402 4.298
 0.375 -1.4 4.291
 0.4 -1.4 4.287
 0.425 -1.399 4.282
 0.451 -1.4 4.283
 0.477 -1.401 4.284
 0.503 -1.401 4.282
 0.529 -1.403 4.286
 0.555 -1.405 4.287
 0.581 -1.405 4.285
 0.607 -1.406 4.285
 0.633 -1.408 4.285
 0.659 -1.409 4.285
 0.685 -1.411 4.287
 0.711 -1.411 4.284
 0.738 -1.413 4.285
 0.764 -1.414 4.285
 0.789 -1.413 4.279
 0.815 -1.413 4.273
 0.841 -1.414 4.272
 0.867 -1.414 4.267
 0.894 -1.416 4.269
 0.922 -1.42 4.275
 0.949 -1.422 4.276
 0.976 -1.423 4.275
 1.003 -1.425 4.276
 1.03 -1.427 4.276
 1.056 -1.427 4.27
 1.083 -1.429 4.269
 1.11 -1.43 4.266
 1.136 -1.43 4.261
 1.162 -1.43 4.255
 1.189 -1.432 4.253
 1.216 -1.433 4.25
 1.244 -1.436 4.251
 1.273 -1.438 4.252
 1.302 -1.442 4.255
 1.331 -1.445 4.256
 1.36 -1.448 4.258
 1.388 -1.45 4.257
 1.417 -1.453 4.257
 1.445 -1.454 4.252
 1.473 -1.456 4.25
 1.502 -1.459 4.249
 1.53 -1.46 4.244
 1.558 -1.462 4.24
 1.586 -1.464 4.237
 1.615 -1.466 4.233
 1.642 -1.467 4.226
 1.672 -1.469 4.224
 1.7 -1.471 4.22
 1.728 -1.472 4.212
 1.756 -1.473 4.205
 1.782 -1.472 4.193
 1.805 -1.47 4.176
 1.831 -1.469 4.163
 1.855 -1.467 4.146
 1.877 -1.464 4.126
 1.901 -1.462 4.111
 0 0 0
 0 0 0
 0 0 0
 0 0 0
 0 0 0
 0 0 0
 0 0 0
 0 0 0
 0 0 0
 1.27 -0.86 2.338
 1.497 -1.001 2.715
 1.813 -1.196 3.238
 1.78 -1.161 3.132
 1.783 -1.15 3.09
 1.784 -1.137 3.045
 1.749 -1.102 2.94
 1.759 -1.096 2.913
 -0.184 -0.115 0.304
 -0.07 -0.045 0.111
 -0.089 -0.058 0.146
 -0.081 -0.053 0.134
 -0.077 -0.051 0.128
 -0.07 -0.047 0.117
 -0.062 -0.042 0.104
 -0.053 -0.037 0.088
 -0.043 -0.031 0.072
 -0.037 -0.027 0.061
 -0.03 -0.022 0.047
 -0.195 -0.14 0.387
 -0.438 -0.315 0.897
 -0.758 -0.553 1.59
 -1.07 -0.791 2.287
 -1.374 -1.029 2.991
 -1.586 -1.205 3.512
 -1.713 -1.32 3.86
 -1.761 -1.377 4.036
 -1.804 -1.432 4.206
 -1.845 -1.486 4.377
 -1.813 -1.483 4.378
 -1.781 -1.48 4.379
 -1.748 -1.476 4.375
 -1.716 -1.472 4.373
 -1.686 -1.47 4.375
 -1.655 -1.467 4.375
 -1.624 -1.464 4.374
 -1.594 -1.461 4.376
 -1.564 -1.459 4.379
 -1.534 -1.457 4.379
 -1.503 -1.453 4.375
 -1.473 -1.45 4.375
 -1.441 -1.446 4.37
 -1.411 -1.443 4.367
 -1.381 -1.44 4.365
 -1.351 -1.437 4.363
 -1.321 -1.433 4.358
 -1.292 -1.431 4.358
 -1.264 -1.43 4.36
 -1.234 -1.427 4.358
 -1.207 -1.426 4.361
 -1.18 -1.426 4.366
 -1.151 -1.423 4.363
 -1.122 -1.42 4.36
 -1.093 -1.418 4.357
 -1.064 -1.414 4.351
 -1.036 -1.412 4.351
 -1.009 -1.412 4.355
 -0.982 -1.41 4.355
 -0.955 -1.409 4.355
 -0.928 -1.409 4.359
 -0.899 -1.405 4.35
 -0.871 -1.403 4.348
 -0.844 -1.401 4.347
 -0.818 -1.401 4.35
 -0.79 -1.399 4.346
 -0.764 -1.399 4.351
 -0.737 -1.397 4.349
 -0.71 -1.395 4.343
 -0.681 -1.39 4.332
 -0.655 -1.389 4.331
 -0.628 -1.387 4.329
 -0.602 -1.386 4.327
 -0.575 -1.384 4.323
 -0.549 -1.384 4.327
 -0.523 -1.383 4.326
 -0.497 -1.382 4.325
 -0.471 -1.383 4.328
 -0.446 -1.383 4.333
 -0.419 -1.381 4.326
 -0.392 -1.377 4.315
 -0.366 -1.375 4.312
 -0.34 -1.373 4.308
 -0.314 -1.372 4.305
 -0.288 -1.373 4.308
 -0.263 -1.374 4.312
 -0.237 -1.374 4.313
 -0.212 -1.373 4.311
 -0.186 -1.373 4.311
 -0.16 -1.371 4.304
 -0.135 -1.371 4.306
 -0.109 -1.371 4.304
 -0.084 -1.369 4.299
 -0.058 -1.369 4.299
 -0.033 -1.371 4.307
 -0.007 -1.37 4.303
 0.017 -1.37 4.303
 0.043 -1.372 4.309
 0.068 -1.372 4.308
 0.094 -1.372 4.305
 0.119 -1.373 4.309
 0.145 -1.373 4.309
 0.171 -1.374 4.31
 0.196 -1.374 4.308
 0.222 -1.374 4.307
 0.247 -1.375 4.309
 0.273 -1.375 4.307
 0.299 -1.377 4.311
 0.324 -1.377 4.311
 0.35 -1.377 4.308
 0.375 -1.375 4.299
 0.4 -1.374 4.294
 0.425 -1.373 4.288
 0.451 -1.375 4.291
 0.477 -1.375 4.29
 0.503 -1.376 4.288
 0.529 -1.377 4.291
 0.555 -1.378 4.292
 0.58 -1.378 4.287
 0.607 -1.38 4.29
 0.632 -1.38 4.288
 0.659 -1.382 4.289
 0.685 -1.383 4.29
 0.711 -1.384 4.288
 0.737 -1.385 4.288
 0.764 -1.387 4.29
 0.789 -1.387 4.285
 0.815 -1.387 4.279
 0.841 -1.388 4.279
 0.867 -1.388 4.273
 0.894 -1.39 4.276
 0.922 -1.394 4.282
 0.949 -1.396 4.283
 0.975 -1.397 4.28
 1.002 -1.398 4.28
 1.03 -1.4 4.28
 1.056 -1.4 4.275
 1.083 -1.402 4.274
 1.11 -1.403 4.272
 1.136 -1.404 4.267
 1.162 -1.403 4.26
 1.189 -1.405 4.258
 1.216 -1.406 4.255
 1.244 -1.408 4.255
 1.271 -1.411 4.254
 1.301 -1.414 4.258
 1.329 -1.416 4.257
 1.358 -1.419 4.258
 1.386 -1.421 4.257
 1.415 -1.424 4.256
 1.441 -1.424 4.25
 1.47 -1.427 4.249
 1.499 -1.429 4.248
 1.526 -1.43 4.242
 1.554 -1.432 4.238
 1.584 -1.435 4.238
 1.611 -1.436 4.232
 1.639 -1.437 4.227
 1.669 -1.44 4.225
 1.698 -1.442 4.222
 1.726 -1.443 4.216
 1.755 -1.446 4.212
 1.783 -1.446 4.204
 1.808 -1.445 4.19
 1.835 -1.446 4.181
 1.861 -1.445 4.168
 1.884 -1.442 4.149
 0 0 0
 0 0 0
 0 0 0
 0 0 0
 0 0 0
 0 0 0
 0 0 0
 0 0 0
 0 0 0
 0 0 0
 1.171 -0.778 2.159
 1.47 -0.964 2.67
 1.815 -1.176 3.249
 1.78 -1.14 3.137
 1.782 -1.128 3.095
 1.785 -1.117 3.054
 1.756 -1.086 2.958
 1.79 -1.095 2.971
 -0.106 -0.066 0.171
 -0.085 -0.054 0.136
 -0.101 -0.064 0.167
 -0.09 -0.058 0.15
 -0.085 -0.055 0.143
 -0.076 -0.05 0.129
 -0.066 -0.044 0.112
 -0.055 -0.038 0.093
 -0.045 -0.032 0.076
 -0.038 -0.027 0.063
 -0.03 -0.022 0.048
 -0.195 -0.137 0.387
 -0.354 -0.251 0.725
 -0.676 -0.484 1.419
 -0.988 -0.716 2.115
 -1.373 -1.009 2.995
 -1.584 -1.181 3.516
 -1.79 -1.354 4.042
 -1.836 -1.409 4.217
 -1.877 -1.462 4.387
 -1.842 -1.456 4.38
 -1.811 -1.454 4.382
 -1.779 -1.451 4.382
 -1.746 -1.446 4.379
 -1.715 -1.443 4.378
 -1.684 -1.441 4.38
 -1.653 -1.438 4.38
 -1.622 -1.434 4.377
 -1.592 -1.432 4.38
 -1.563 -1.431 4.384
 -1.532 -1.428 4.383
 -1.501 -1.425 4.38
 -1.472 -1.423 4.381
 -1.44 -1.418 4.373
 -1.409 -1.415 4.371
 -1.38 -1.412 4.369
 -1.35 -1.409 4.368
 -1.319 -1.405 4.363
 -1.292 -1.404 4.366
 -1.263 -1.402 4.366
 -1.234 -1.4 4.365
 -1.207 -1.399 4.368
 -1.18 -1.399 4.373
 -1.151 -1.396 4.371
 -1.121 -1.393 4.366
 -1.093 -1.391 4.363
 -1.063 -1.387 4.356
 -1.035 -1.384 4.354
 -1.008 -1.384 4.358
 -0.981 -1.384 4.36
 -0.954 -1.382 4.359
 -0.927 -1.382 4.363
 -0.898 -1.378 4.354
 -0.871 -1.375 4.351
 -0.843 -1.374 4.35
 -0.817 -1.373 4.352
 -0.79 -1.371 4.35
 -0.764 -1.372 4.356
 -0.737 -1.37 4.353
 -0.709 -1.367 4.346
 -0.68 -1.361 4.331
 -0.654 -1.361 4.333
 -0.627 -1.358 4.327
 -0.6 -1.357 4.326
 -0.574 -1.355 4.321
 -0.549 -1.357 4.331
 -0.522 -1.356 4.328
 -0.496 -1.355 4.328
 -0.471 -1.356 4.334
 -0.446 -1.358 4.342
 -0.419 -1.355 4.332
 -0.391 -1.348 4.312
 -0.365 -1.348 4.314
 -0.339 -1.346 4.309
 -0.313 -1.345 4.305
 -0.288 -1.345 4.309
 -0.263 -1.347 4.314
 -0.237 -1.346 4.311
 -0.211 -1.346 4.312
 -0.186 -1.346 4.313
 -0.16 -1.344 4.308
 -0.135 -1.345 4.31
 -0.109 -1.344 4.31
 -0.083 -1.342 4.303
 -0.058 -1.343 4.304
 -0.033 -1.345 4.31
 -0.007 -1.343 4.305
 0.017 -1.343 4.304
 0.043 -1.346 4.312
 0.068 -1.345 4.31
 0.094 -1.344 4.305
 0.12 -1.347 4.315
 0.145 -1.349 4.318
 0.171 -1.349 4.318
 0.196 -1.348 4.314
 0.222 -1.349 4.314
 0.248 -1.349 4.315
 0.273 -1.349 4.314
 0.299 -1.353 4.323
 0.325 -1.353 4.322
 0.35 -1.352 4.316
 0.375 -1.35 4.307
 0.4 -1.348 4.299
 0.425 -1.346 4.29
 0.451 -1.349 4.297
 0.477 -1.35 4.297
 0.503 -1.349 4.293
 0.529 -1.352 4.298
 0.555 -1.353 4.3
 0.58 -1.352 4.291
 0.607 -1.354 4.296
 0.633 -1.356 4.297
 0.659 -1.357 4.297
 0.685 -1.358 4.297
 0.71 -1.357 4.292
 0.736 -1.358 4.288
 0.762 -1.358 4.287
 0.787 -1.357 4.28
 0.812 -1.357 4.273
 0.839 -1.358 4.274
 0.864 -1.358 4.268
 0.892 -1.361 4.271
 0.921 -1.366 4.283
 0.949 -1.369 4.288
 0.975 -1.369 4.283
 1.001 -1.37 4.282
 1.028 -1.372 4.282
 1.054 -1.372 4.275
 1.081 -1.373 4.273
 1.108 -1.375 4.273
 1.134 -1.376 4.268
 1.16 -1.376 4.262
 1.187 -1.377 4.26
 1.214 -1.378 4.257
 1.242 -1.38 4.256
 1.27 -1.383 4.258
 1.3 -1.386 4.261
 1.327 -1.388 4.258
 1.356 -1.391 4.26
 1.385 -1.393 4.26
 1.412 -1.394 4.255
 1.439 -1.395 4.249
 1.468 -1.398 4.25
 1.495 -1.399 4.245
 1.522 -1.4 4.239
 1.551 -1.402 4.237
 1.58 -1.404 4.234
 1.608 -1.406 4.23
 1.637 -1.408 4.227
 1.666 -1.411 4.225
 1.695 -1.412 4.221
 1.724 -1.414 4.217
 1.753 -1.417 4.214
 1.781 -1.418 4.206
 1.807 -1.418 4.196
 1.835 -1.419 4.188
 1.861 -1.418 4.176
 0 0 0
 0 0 0
 0 0 0
 0 0 0
 0 0 0
 0 0 0
 0 0 0
 0 0 0
 0 0 0
 0 0 0
 0 0 0
 0 0 0
 1.614 -1.039 2.939
 1.818 -1.156 3.26
 1.78 -1.119 3.145
 1.782 -1.107 3.1
 1.787 -1.097 3.063
 1.767 -1.073 2.983
 1.755 -1.054 2.919
 -0.144 -0.087 0.237
 -0.102 -0.063 0.166
 -0.105 -0.065 0.175
 -0.094 -0.059 0.157
 -0.088 -0.056 0.149
 -0.078 -0.051 0.133
 -0.068 -0.045 0.117
 -0.06 -0.04 0.102
 -0.047 -0.032 0.079
 -0.038 -0.027 0.064
 -0.03 -0.022 0.048
 -0.193 -0.133 0.383
 -0.434 -0.301 0.894
 -0.756 -0.531 1.592
 -1.067 -0.759 2.29
 -1.45 -1.045 3.17
 -1.661 -1.214 3.693
 -1.787 -1.326 4.043
 -1.833 -1.379 4.217
 -1.874 -1.431 4.387
 -1.839 -1.426 4.38
 -1.808 -1.424 4.384
 -1.777 -1.421 4.385
 -1.745 -1.417 4.383
 -1.714 -1.415 4.385
 -1.684 -1.413 4.388
 -1.652 -1.41 4.386
 -1.62 -1.406 4.383
 -1.591 -1.404 4.386
 -1.561 -1.402 4.386
 -1.53 -1.399 4.384
 -1.499 -1.396 4.382
 -1.47 -1.393 4.382
 -1.436 -1.387 4.37
 -1.406 -1.385 4.369
 -1.377 -1.382 4.368
 -1.347 -1.379 4.366
 -1.316 -1.375 4.359
 -1.29 -1.375 4.366
 -1.262 -1.374 4.369
 -1.234 -1.373 4.371
 -1.207 -1.373 4.378
 -1.179 -1.372 4.38
 -1.152 -1.371 4.381
 -1.122 -1.368 4.377
 -1.093 -1.365 4.374
 -1.063 -1.36 4.364
 -1.036 -1.36 4.366
 -1.01 -1.36 4.371
 -0.983 -1.36 4.375
 -0.955 -1.358 4.374
 -0.929 -1.358 4.379
 -0.899 -1.353 4.368
 -0.871 -1.349 4.359
 -0.843 -1.346 4.353
 -0.816 -1.346 4.355
 -0.788 -1.342 4.347
 -0.762 -1.343 4.352
 -0.735 -1.341 4.349
 -0.707 -1.338 4.342
 -0.677 -1.33 4.319
 -0.652 -1.332 4.328
 -0.625 -1.328 4.32
 -0.599 -1.33 4.327
 -0.573 -1.328 4.325
 -0.549 -1.332 4.338
 -0.522 -1.329 4.332
 -0.496 -1.33 4.337
 -0.471 -1.331 4.343
 -0.445 -1.331 4.344
 -0.417 -1.325 4.326
 -0.389 -1.317 4.302
 -0.364 -1.318 4.306
 -0.338 -1.317 4.303
 -0.313 -1.317 4.303
 -0.287 -1.317 4.307
 -0.262 -1.319 4.313
 -0.236 -1.318 4.311
 -0.211 -1.318 4.311
 -0.185 -1.318 4.312
 -0.16 -1.317 4.309
 -0.134 -1.317 4.31
 -0.109 -1.317 4.309
 -0.083 -1.314 4.302
 -0.058 -1.314 4.301
 -0.032 -1.316 4.305
 -0.007 -1.314 4.3
 0.018 -1.313 4.297
 0.043 -1.318 4.31
 0.069 -1.318 4.312
 0.094 -1.316 4.304
 0.12 -1.322 4.323
 0.146 -1.326 4.335
 0.172 -1.328 4.339
 0.197 -1.328 4.339
 0.223 -1.328 4.336
 0.248 -1.325 4.326
 0.274 -1.327 4.33
 0.3 -1.331 4.343
 0.326 -1.332 4.344
 0.352 -1.332 4.343
 0.377 -1.328 4.328
 0.4 -1.321 4.303
 0.425 -1.32 4.295
 0.451 -1.323 4.302
 0.477 -1.323 4.299
 0.504 -1.326 4.306
 0.531 -1.332 4.323
 0.557 -1.333 4.323
 0.581 -1.329 4.306
 0.607 -1.329 4.305
 0.633 -1.329 4.302
 0.658 -1.328 4.296
 0.684 -1.33 4.296
 0.71 -1.33 4.293
 0.736 -1.331 4.292
 0.761 -1.331 4.288
 0.788 -1.332 4.289
 0.812 -1.33 4.277
 0.838 -1.331 4.275
 0.864 -1.332 4.274
 0.891 -1.334 4.275
 0.922 -1.341 4.295
 0.95 -1.345 4.301
 0.976 -1.344 4.294
 1.001 -1.344 4.288
 1.028 -1.345 4.286
 1.053 -1.344 4.277
 1.079 -1.345 4.274
 1.107 -1.347 4.274
 1.134 -1.348 4.272
 1.16 -1.349 4.269
 1.187 -1.351 4.266
 1.214 -1.352 4.264
 1.241 -1.353 4.26
 1.269 -1.355 4.26
 1.297 -1.357 4.26
 1.325 -1.359 4.258
 1.354 -1.362 4.26
 1.382 -1.364 4.259
 1.409 -1.365 4.255
 1.436 -1.366 4.249
 1.464 -1.368 4.247
 1.492 -1.37 4.243
 1.52 -1.371 4.239
 1.548 -1.373 4.235
 1.577 -1.375 4.233
 1.606 -1.378 4.233
 1.635 -1.38 4.23
 1.664 -1.382 4.227
 1.694 -1.385 4.226
 1.723 -1.387 4.223
 1.754 -1.39 4.223
 1.782 -1.392 4.217
 1.812 -1.394 4.214
 1.842 -1.397 4.212
 1.873 -1.401 4.212
 0 0 0
 0 0 0
 0 0 0
 0 0 0
 0 0 0
 0 0 0
 0 0 0
 0 0 0
 0 0 0
 0 0 0
 0 0 0
 0 0 0
 1.474 -0.931 2.688
 1.769 -1.103 3.178
 1.778 -1.096 3.148
 1.782 -1.086 3.107
 1.789 -1.078 3.073
 1.774 -1.057 3.002
 1.777 -1.047 2.963
 -0.134 -0.079 0.22
 -0.122 -0.073 0.202
 -0.1 -0.061 0.166
 -0.091 -0.056 0.152
 -0.083 -0.052 0.141
 -0.074 -0.047 0.125
 -0.064 -0.042 0.109
 -0.056 -0.037 0.096
 -0.131 -0.085 0.244
 -0.122 -0.081 0.23
 -0.198 -0.132 0.388
 -0.443 -0.298 0.9
 -0.765 -0.519 1.588
 -1.001 -0.688 2.116
 -1.389 -0.968 2.991
 -1.688 -1.193 3.699
 -1.817 -1.303 4.05
 -1.863 -1.355 4.224
 -1.907 -1.407 4.397
 -1.871 -1.402 4.39
 -1.837 -1.397 4.384
 -1.806 -1.394 4.387
 -1.775 -1.392 4.388
 -1.743 -1.389 4.387
 -1.712 -1.386 4.388
 -1.682 -1.384 4.39
 -1.649 -1.38 4.386
 -1.618 -1.377 4.384
 -1.587 -1.373 4.382
 -1.557 -1.372 4.384
 -1.526 -1.368 4.38
 -1.496 -1.365 4.379
 -1.466 -1.363 4.38
 -1.434 -1.358 4.371
 -1.404 -1.355 4.369
 -1.375 -1.354 4.371
 -1.346 -1.352 4.371
 -1.314 -1.347 4.362
 -1.29 -1.349 4.375
 -1.263 -1.349 4.381
 -1.236 -1.349 4.386
 -1.209 -1.348 4.391
 -1.18 -1.346 4.39
 -1.153 -1.346 4.395
 -1.123 -1.342 4.387
 -1.093 -1.338 4.377
 -1.06 -1.33 4.358
 -1.034 -1.331 4.365
 -1.007 -1.33 4.367
 -0.981 -1.33 4.373
 -0.956 -1.332 4.383
 -0.93 -1.333 4.391
 -0.899 -1.326 4.373
 -0.869 -1.321 4.358
 -0.84 -1.317 4.349
 -0.813 -1.315 4.346
 -0.785 -1.312 4.34
 0 0 0
 0 0 0
 0 0 0
 0 0 0
 0 0 0
 0 0 0
 0 0 0
 0 0 0
 0 0 0
 0 0 0
 0 0 0
 0 0 0
 0 0 0
 0 0 0
 -0.386 -1.282 4.275
 -0.362 -1.287 4.295
 -0.337 -1.289 4.301
 -0.312 -1.288 4.301
 -0.287 -1.289 4.305
 -0.261 -1.291 4.311
 -0.236 -1.29 4.31
 -0.21 -1.289 4.308
 -0.185 -1.29 4.311
 -0.159 -1.289 4.308
 -0.134 -1.29 4.31
 -0.108 -1.29 4.31
 -0.083 -1.287 4.303
 -0.057 -1.287 4.3
 -0.032 -1.287 4.3
 -0.007 -1.283 4.288
 0.018 -1.278 4.269
 0 0 0
 0 0 0
 0 0 0
 0 0 0
 0 0 0
 0 0 0
 0 0 0
 0 0 0
 0 0 0
 0 0 0
 0 0 0
 0 0 0
 0 0 0
 0 0 0
 0 0 0
 0 0 0
 0 0 0
 0 0 0
 0 0 0
 0 0 0
 0 0 0
 0 0 0
 0 0 0
 0 0 0
 0 0 0
 0 0 0
 0 0 0
 0 0 0
 0 0 0
 0 0 0
 0 0 0
 0 0 0
 0 0 0
 0 0 0
 0 0 0
 0.953 -1.322 4.318
 0.976 -1.319 4.302
 1.001 -1.317 4.292
 1.027 -1.318 4.288
 1.052 -1.317 4.278
 1.079 -1.318 4.278
 1.106 -1.32 4.278
 1.133 -1.322 4.277
 1.16 -1.323 4.275
 1.187 -1.324 4.271
 1.213 -1.324 4.266
 1.24 -1.325 4.262
 1.268 -1.327 4.261
 1.296 -1.329 4.261
 1.323 -1.33 4.257
 1.351 -1.333 4.259
 1.379 -1.335 4.257
