 0.036 -0.581 1.708
 0.046 -0.582 1.71
 0.057 -0.582 1.712
 0.067 -0.583 1.714
 0.077 -0.584 1.715
 0.088 -0.585 1.716
 0.098 -0.585 1.718
 0.108 -0.585 1.718
 0.119 -0.586 1.717
 0.129 -0.585 1.715
 0.139 -0.584 1.711
 0.149 -0.582 1.704
 0.158 -0.579 1.695
 0.167 -0.576 1.684
 0.176 -0.571 1.67
 0.184 -0.567 1.656
 0.193 -0.562 1.641
 0.201 -0.557 1.625
 0.208 -0.551 1.607
 0.216 -0.547 1.593
 0.224 -0.544 1.581
 0.231 -0.537 1.561
 0.239 -0.534 1.551
 0.249 -0.536 1.557
 0.259 -0.538 1.559
 0.27 -0.541 1.566
 0.282 -0.545 1.578
 0.293 -0.547 1.583
 0.301 -0.546 1.576
 0.31 -0.544 1.571
 0.318 -0.541 1.558
 0.324 -0.537 1.544
 0.33 -0.531 1.525
 0.334 -0.523 1.501
 0.336 -0.512 1.468
 0.34 -0.504 1.444
 0.341 -0.493 1.408
 0.341 -0.481 1.371
 0 0 0
 0 0 0
 0 0 0
 0 0 0
 0 0 0
 0 0 0
 0 0 0
 0 0 0
 0 0 0
 0 0 0
 0 0 0
 0 0 0
 0 0 0
 0 0 0
 0 0 0
 0 0 0
 0 0 0
 0 0 0
 0 0 0
 0 0 0
 0 0 0
 0 0 0
 0 0 0
 0 0 0
 0 0 0
 0 0 0
 0 0 0
 0.373 -0.313 0.84
 0.374 -0.31 0.827
 0.364 -0.298 0.792
 0.36 -0.29 0.771
 0.362 -0.287 0.76
 0.363 -0.285 0.751
 0.364 -0.282 0.742
 0.366 -0.28 0.733
 0.366 -0.276 0.722
 0.367 -0.273 0.711
 0.368 -0.271 0.702
 0.368 -0.267 0.691
 0.374 -0.268 0.691
 0.378 -0.268 0.688
 0.38 -0.266 0.681
 0.382 -0.264 0.674
 0.387 -0.265 0.673
 0.389 -0.263 0.666
 0.393 -0.263 0.663
 0.395 -0.261 0.656
 0.407 -0.266 0.666
 -0.197 -0.127 0.325
 -0.294 -0.192 0.5
 -0.286 -0.189 0.495
 -0.307 -0.205 0.54
 -0.316 -0.213 0.564
 -0.316 -0.216 0.573
 -0.314 -0.217 0.578
 -0.311 -0.218 0.582
 -0.308 -0.219 0.585
 -0.304 -0.219 0.587
 -0.301 -0.219 0.59
 -0.297 -0.219 0.592
 -0.293 -0.22 0.594
 -0.289 -0.22 0.596
 -0.286 -0.22 0.599
 -0.282 -0.22 0.601
 -0.279 -0.221 0.604
 -0.276 -0.222 0.608
 -0.273 -0.222 0.611
 -0.27 -0.223 0.616
 -0.268 -0.225 0.621
 -0.266 -0.226 0.627
 -0.264 -0.229 0.635
 -0.262 -0.231 0.642
 -0.261 -0.233 0.65
 -0.261 -0.237 0.662
 -0.269 -0.248 0.697
 -0.31 -0.291 0.821
 -0.363 -0.346 0.983
 -0.415 -0.403 1.147
 -0.464 -0.458 1.309
 -0.502 -0.504 1.446
 -0.508 -0.519 1.493
 -0.5 -0.521 1.501
 -0.492 -0.522 1.506
 -0.483 -0.523 1.51
 -0.474 -0.523 1.514
 -0.465 -0.524 1.518
 -0.456 -0.524 1.522
 -0.447 -0.525 1.526
 -0.438 -0.525 1.53
 -0.429 -0.526 1.533
 -0.419 -0.526 1.536
 -0.41 -0.527 1.539
 -0.401 -0.527 1.542
 -0.392 -0.527 1.546
 -0.383 -0.528 1.549
 -0.373 -0.528 1.553
 -0.364 -0.529 1.556
 -0.355 -0.53 1.56
 -0.346 -0.531 1.565
 -0.337 -0.531 1.568
 -0.328 -0.532 1.572
 -0.319 -0.533 1.576
 -0.31 -0.534 1.579
 -0.301 -0.534 1.583
 -0.292 -0.535 1.587
 -0.282 -0.536 1.591
 -0.273 -0.537 1.595
 -0.264 -0.538 1.599
 -0.255 -0.539 1.602
 -0.245 -0.54 1.606
 -0.236 -0.541 1.61
 -0.227 -0.542 1.614
 -0.218 -0.543 1.618
 -0.208 -0.544 1.622
 -0.199 -0.544 1.625
 -0.189 -0.545 1.629
 -0.18 -0.546 1.632
 -0.17 -0.547 1.636
 -0.161 -0.548 1.639
 -0.151 -0.549 1.644
 -0.142 -0.551 1.648
 -0.132 -0.552 1.652
 -0.122 -0.553 1.655
 -0.113 -0.554 1.659
 -0.103 -0.555 1.663
 -0.093 -0.556 1.667
 -0.083 -0.557 1.67
 -0.074 -0.558 1.673
 -0.064 -0.559 1.677
 -0.054 -0.56 1.679
 -0.044 -0.561 1.682
 -0.034 -0.562 1.686
 -0.024 -0.563 1.689
 -0.014 -0.564 1.693
 -0.004 -0.566 1.696
 0.006 -0.567 1.7
 0.016 -0.568 1.703
 0.026 -0.569 1.705
 0.036 -0.57 1.708
 0.046 -0.57 1.71
 0.057 -0.571 1.712
 0.067 -0.572 1.714
 0.077 -0.573 1.716
 0.088 -0.573 1.717
 0.098 -0.574 1.718
 0.108 -0.574 1.718
 0.118 -0.574 1.717
 0.129 -0.574 1.715
 0.139 -0.573 1.711
 0.148 -0.571 1.704
 0.158 -0.568 1.695
 0.167 -0.564 1.684
 0.176 -0.56 1.671
 0.184 -0.556 1.656
 0.192 -0.551 1.641
 0.2 -0.546 1.624
 0.208 -0.541 1.607
 0.216 -0.536 1.592
 0.224 -0.533 1.582
 0.231 -0.529 1.567
 0.239 -0.525 1.555
 0.25 -0.528 1.563
 0.26 -0.53 1.567
 0.271 -0.533 1.573
 0.282 -0.535 1.58
 0.293 -0.538 1.586
 0.301 -0.536 1.578
 0.31 -0.534 1.571
 0.317 -0.53 1.559
 0.324 -0.527 1.546
 0.329 -0.52 1.523
 0.334 -0.513 1.5
 0.336 -0.503 1.47
 0.34 -0.496 1.447
 0.341 -0.485 1.413
 0.341 -0.472 1.374
 0 0 0
 0 0 0
 0 0 0
 0 0 0
 0 0 0
 0 0 0
 0 0 0
 0 0 0
 0 0 0
 0 0 0
 0 0 0
 0 0 0
 0 0 0
 0 0 0
 0 0 0
 0 0 0
 0 0 0
 0 0 0
 0 0 0
 0 0 0
 0 0 0
 0 0 0
 0 0 0
 0 0 0
 0 0 0
 0 0 0
 0 0 0
 0.368 -0.304 0.83
 0.366 -0.298 0.812
 0.36 -0.289 0.785
 0.359 -0.284 0.769
 0.363 -0.283 0.764
 0.364 -0.281 0.755
 0.366 -0.278 0.747
 0.366 -0.274 0.734
 0.368 -0.272 0.726
 0.367 -0.268 0.713
 0.367 -0.265 0.702
 0.368 -0.263 0.693
 0.374 -0.264 0.693
 0.375 -0.261 0.684
 0.378 -0.26 0.678
 0.379 -0.257 0.67
 0.383 -0.257 0.667
 0.386 -0.256 0.661
 0.39 -0.256 0.659
 0.397 -0.257 0.66
 0.403 -0.259 0.661
 -0.24 -0.152 0.4
 -0.306 -0.196 0.523
 -0.299 -0.194 0.519
 -0.314 -0.206 0.553
 -0.318 -0.211 0.568
 -0.317 -0.213 0.575
 -0.314 -0.214 0.58
 -0.311 -0.215 0.584
 -0.308 -0.215 0.587
 -0.305 -0.215 0.59
 -0.301 -0.216 0.593
 -0.298 -0.216 0.595
 -0.294 -0.216 0.597
 -0.29 -0.216 0.6
 -0.287 -0.217 0.602
 -0.283 -0.217 0.604
 -0.28 -0.217 0.607
 -0.276 -0.218 0.61
 -0.273 -0.219 0.613
 -0.27 -0.22 0.618
 -0.268 -0.221 0.623
 -0.266 -0.223 0.63
 -0.265 -0.225 0.638
 -0.263 -0.227 0.645
 -0.262 -0.23 0.655
 -0.264 -0.236 0.673
 -0.283 -0.256 0.734
 -0.332 -0.306 0.881
 -0.385 -0.361 1.045
 -0.436 -0.416 1.209
 -0.482 -0.467 1.362
 -0.51 -0.503 1.473
 -0.508 -0.51 1.496
 -0.499 -0.511 1.502
 -0.491 -0.512 1.506
 -0.482 -0.512 1.51
 -0.473 -0.513 1.514
 -0.464 -0.513 1.518
 -0.455 -0.514 1.522
 -0.446 -0.514 1.525
 -0.437 -0.515 1.53
 -0.428 -0.515 1.533
 -0.419 -0.516 1.536
 -0.409 -0.516 1.539
 -0.4 -0.516 1.542
 -0.391 -0.517 1.546
 -0.382 -0.517 1.549
 -0.373 -0.518 1.553
 -0.364 -0.519 1.557
 -0.355 -0.52 1.561
 -0.346 -0.52 1.564
 -0.337 -0.521 1.568
 -0.328 -0.522 1.572
 -0.318 -0.522 1.576
 -0.309 -0.523 1.579
 -0.3 -0.524 1.582
 -0.291 -0.524 1.586
 -0.282 -0.525 1.589
 -0.273 -0.526 1.594
 -0.263 -0.527 1.598
 -0.254 -0.528 1.601
 -0.245 -0.529 1.606
 -0.236 -0.53 1.609
 -0.226 -0.531 1.613
 -0.217 -0.532 1.617
 -0.208 -0.533 1.622
 -0.198 -0.534 1.625
 -0.189 -0.535 1.629
 -0.179 -0.536 1.632
 -0.17 -0.536 1.636
 -0.16 -0.537 1.639
 -0.151 -0.539 1.644
 -0.141 -0.54 1.648
 -0.132 -0.541 1.651
 -0.122 -0.542 1.655
 -0.112 -0.543 1.659
 -0.103 -0.544 1.662
 -0.093 -0.545 1.666
 -0.083 -0.546 1.669
 -0.073 -0.547 1.673
 -0.063 -0.548 1.676
 -0.054 -0.549 1.679
 -0.044 -0.55 1.682
 -0.034 -0.551 1.686
 -0.024 -0.552 1.689
 -0.014 -0.553 1.692
 -0.004 -0.554 1.696
 0.006 -0.556 1.699
 0.016 -0.557 1.702
 0.026 -0.558 1.705
 0.036 -0.559 1.708
 0.046 -0.559 1.709
 0.057 -0.56 1.711
 0.067 -0.561 1.714
 0.077 -0.562 1.716
 0.088 -0.562 1.717
 0.098 -0.563 1.718
 0.108 -0.563 1.718
 0.118 -0.563 1.717
 0.128 -0.562 1.715
 0.138 -0.561 1.71
 0.148 -0.559 1.704
 0.157 -0.557 1.695
 0.167 -0.553 1.683
 0.175 -0.549 1.67
 0.184 -0.545 1.656
 0.192 -0.541 1.641
 0.2 -0.536 1.625
 0.208 -0.53 1.608
 0.215 -0.526 1.592
 0.224 -0.523 1.583
 0.232 -0.52 1.572
 0.239 -0.516 1.558
 0.25 -0.519 1.565
 0.261 -0.521 1.571
 0.271 -0.523 1.576
 0.282 -0.525 1.58
 0.293 -0.528 1.587
 0.301 -0.526 1.579
 0.309 -0.523 1.571
 0.317 -0.52 1.558
 0.324 -0.516 1.545
 0.329 -0.51 1.523
 0.334 -0.505 1.506
 0.338 -0.497 1.481
 0.343 -0.49 1.459
 0.344 -0.479 1.425
 0 0 0
 0 0 0
 0 0 0
 0 0 0
 0 0 0
 0 0 0
 0 0 0
 0 0 0
 0 0 0
 0 0 0
 0 0 0
 0 0 0
 0 0 0
 0 0 0
 0 0 0
 0 0 0
 0 0 0
 0 0 0
 0 0 0
 0 0 0
 0 0 0
 0 0 0
 0 0 0
 0 0 0
 0 0 0
 0 0 0
 0 0 0
 0 0 0
 0.359 -0.291 0.811
 0.358 -0.286 0.795
 0.359 -0.283 0.784
 0.359 -0.28 0.772
 0.363 -0.278 0.766
 0.366 -0.277 0.76
 0.369 -0.276 0.755
 0.367 -0.27 0.738
 0.368 -0.268 0.729
 0.367 -0.263 0.714
 0.366 -0.26 0.702
 0.366 -0.257 0.69
 0.372 -0.257 0.69
 0.374 -0.256 0.684
 0.379 -0.256 0.681
 0.379 -0.253 0.672
 0.383 -0.253 0.668
 0.386 -0.251 0.663
 0.39 -0.251 0.659
 0.398 -0.254 0.664
 0.403 -0.254 0.661
 -0.296 -0.184 0.499
 -0.319 -0.201 0.547
 -0.309 -0.197 0.538
 -0.318 -0.205 0.562
 -0.319 -0.208 0.572
 -0.317 -0.209 0.578
 -0.315 -0.21 0.583
 -0.312 -0.211 0.587
 -0.309 -0.212 0.59
 -0.306 -0.212 0.593
 -0.302 -0.213 0.596
 -0.299 -0.213 0.599
 -0.295 -0.213 0.601
 -0.291 -0.213 0.603
 -0.288 -0.214 0.606
 -0.284 -0.214 0.607
 -0.28 -0.214 0.61
 -0.277 -0.214 0.612
 -0.273 -0.215 0.615
 -0.271 -0.216 0.62
 -0.269 -0.217 0.626
 -0.267 -0.219 0.633
 -0.266 -0.222 0.641
 -0.265 -0.224 0.651
 -0.264 -0.228 0.661
 -0.272 -0.238 0.693
 -0.3 -0.267 0.782
 -0.352 -0.318 0.937
 -0.404 -0.372 1.1
 -0.454 -0.425 1.262
 -0.494 -0.47 1.401
 -0.513 -0.496 1.483
 -0.507 -0.5 1.497
 -0.498 -0.501 1.502
 -0.49 -0.501 1.506
 -0.481 -0.502 1.51
 -0.472 -0.502 1.514
 -0.463 -0.503 1.517
 -0.454 -0.503 1.521
 -0.445 -0.504 1.525
 -0.436 -0.504 1.529
 -0.427 -0.505 1.533
 -0.418 -0.505 1.536
 -0.409 -0.506 1.539
 -0.399 -0.506 1.542
 -0.39 -0.507 1.546
 -0.381 -0.507 1.549
 -0.372 -0.508 1.552
 -0.363 -0.508 1.556
 -0.354 -0.509 1.56
 -0.345 -0.51 1.564
 -0.336 -0.51 1.567
 -0.327 -0.511 1.571
 -0.318 -0.512 1.575
 -0.309 -0.512 1.578
 -0.299 -0.513 1.581
 -0.29 -0.514 1.585
 -0.281 -0.514 1.589
 -0.272 -0.516 1.594
 -0.263 -0.516 1.597
 -0.254 -0.517 1.601
 -0.245 -0.518 1.606
 -0.235 -0.519 1.61
 -0.226 -0.52 1.613
 -0.217 -0.521 1.618
 -0.207 -0.522 1.621
 -0.198 -0.523 1.624
 -0.188 -0.524 1.628
 -0.179 -0.525 1.632
 -0.169 -0.525 1.635
 -0.16 -0.526 1.638
 -0.15 -0.528 1.643
 -0.141 -0.529 1.646
 -0.131 -0.53 1.65
 -0.122 -0.531 1.654
 -0.112 -0.532 1.658
 -0.102 -0.533 1.662
 -0.093 -0.534 1.666
 -0.083 -0.535 1.669
 -0.073 -0.536 1.673
 -0.063 -0.537 1.676
 -0.053 -0.538 1.68
 -0.044 -0.539 1.683
 -0.034 -0.54 1.686
 -0.024 -0.541 1.689
 -0.014 -0.542 1.692
 -0.003 -0.543 1.695
 0.006 -0.544 1.699
 0.016 -0.545 1.702
 0.026 -0.547 1.705
 0.036 -0.547 1.707
 0.046 -0.548 1.709
 0.057 -0.549 1.711
 0.067 -0.55 1.714
 0.077 -0.55 1.715
 0.087 -0.551 1.716
 0.098 -0.551 1.717
 0.108 -0.552 1.717
 0.118 -0.551 1.716
 0.128 -0.551 1.714
 0.138 -0.55 1.71
 0.148 -0.548 1.703
 0.157 -0.545 1.694
 0.166 -0.542 1.682
 0.175 -0.538 1.669
 0.184 -0.534 1.655
 0.192 -0.53 1.64
 0.2 -0.525 1.624
 0.207 -0.52 1.607
 0.215 -0.515 1.591
 0.223 -0.512 1.582
 0.23 -0.507 1.565
 0.238 -0.503 1.551
 0.249 -0.506 1.558
 0.259 -0.508 1.563
 0.269 -0.509 1.565
 0.281 -0.513 1.577
 0.291 -0.516 1.583
 0.3 -0.514 1.576
 0.308 -0.512 1.568
 0.316 -0.51 1.558
 0.323 -0.505 1.543
 0.328 -0.499 1.523
 0.335 -0.495 1.509
 0.339 -0.488 1.484
 0.343 -0.482 1.464
 0.346 -0.474 1.439
 0 0 0
 0 0 0
 0 0 0
 0 0 0
 0 0 0
 0 0 0
 0 0 0
 0 0 0
 0 0 0
 0 0 0
 0 0 0
 0 0 0
 0 0 0
 0 0 0
 0 0 0
 0 0 0
 0 0 0
 0 0 0
 0 0 0
 0 0 0
 0 0 0
 0 0 0
 0 0 0
 0 0 0
 0 0 0
 0 0 0
 0 0 0
 0 0 0
 0.341 -0.272 0.773
 0.347 -0.273 0.773
 0.353 -0.273 0.772
 0.356 -0.272 0.767
 0.36 -0.271 0.761
 0.364 -0.27 0.757
 0.367 -0.269 0.752
 0.365 -0.264 0.735
 0.365 -0.261 0.723
 0.365 -0.258 0.712
 0.365 -0.254 0.7
 0.366 -0.252 0.692
 0.372 -0.252 0.691
 0.375 -0.252 0.687
 0.379 -0.251 0.682
 0.381 -0.25 0.676
 0.383 -0.248 0.669
 0.385 -0.247 0.663
 0.389 -0.246 0.66
 0.395 -0.247 0.66
 0.389 -0.241 0.64
 -0.315 -0.192 0.532
 -0.321 -0.198 0.552
 -0.316 -0.198 0.551
 -0.32 -0.202 0.567
 -0.32 -0.204 0.575
 -0.318 -0.206 0.581
 -0.316 -0.207 0.586
 -0.313 -0.208 0.59
 -0.31 -0.208 0.593
 -0.307 -0.209 0.596
 -0.303 -0.209 0.599
 -0.3 -0.21 0.602
 -0.296 -0.21 0.605
 -0.292 -0.21 0.607
 -0.289 -0.21 0.609
 -0.285 -0.21 0.61
 -0.281 -0.21 0.612
 -0.277 -0.211 0.614
 -0.274 -0.211 0.617
 -0.271 -0.212 0.622
 -0.269 -0.214 0.628
 -0.267 -0.216 0.636
 -0.267 -0.219 0.646
 -0.267 -0.222 0.658
 -0.269 -0.228 0.676
 -0.285 -0.245 0.731
 -0.324 -0.283 0.847
 -0.377 -0.334 1.007
 -0.428 -0.386 1.168
 -0.475 -0.436 1.322
 -0.506 -0.472 1.438
 -0.514 -0.489 1.491
 -0.506 -0.49 1.498
 -0.498 -0.491 1.502
 -0.489 -0.492 1.507
 -0.48 -0.492 1.511
 -0.471 -0.492 1.515
 -0.462 -0.493 1.518
 -0.453 -0.493 1.522
 -0.444 -0.494 1.526
 -0.435 -0.494 1.529
 -0.426 -0.495 1.533
 -0.417 -0.495 1.536
 -0.408 -0.495 1.539
 -0.399 -0.496 1.542
 -0.39 -0.496 1.546
 -0.381 -0.497 1.549
 -0.372 -0.497 1.553
 -0.362 -0.498 1.556
 -0.353 -0.498 1.56
 -0.344 -0.499 1.563
 -0.335 -0.5 1.567
 -0.326 -0.5 1.57
 -0.317 -0.501 1.574
 -0.308 -0.502 1.578
 -0.299 -0.502 1.581
 -0.29 -0.503 1.585
 -0.28 -0.504 1.589
 -0.271 -0.505 1.593
 -0.262 -0.506 1.597
 -0.253 -0.507 1.601
 -0.244 -0.508 1.606
 -0.235 -0.509 1.609
 -0.225 -0.51 1.613
 -0.216 -0.511 1.617
 -0.207 -0.512 1.621
 -0.197 -0.512 1.624
 -0.188 -0.513 1.628
 -0.179 -0.514 1.631
 -0.169 -0.515 1.634
 -0.16 -0.516 1.638
 -0.15 -0.517 1.643
 -0.141 -0.518 1.646
 -0.131 -0.519 1.65
 -0.122 -0.52 1.654
 -0.112 -0.521 1.658
 -0.102 -0.522 1.661
 -0.092 -0.523 1.665
 -0.083 -0.524 1.669
 -0.073 -0.525 1.673
 -0.063 -0.526 1.676
 -0.053 -0.527 1.68
 -0.043 -0.528 1.683
 -0.033 -0.529 1.686
 -0.023 -0.53 1.689
 -0.013 -0.531 1.693
 -0.003 -0.533 1.696
 0.006 -0.534 1.699
 0.016 -0.535 1.702
 0.026 -0.535 1.705
 0.036 -0.536 1.707
 0.046 -0.537 1.709
 0.057 -0.538 1.711
 0.067 -0.538 1.713
 0.077 -0.539 1.714
 0.087 -0.54 1.715
 0.098 -0.54 1.716
 0.108 -0.54 1.716
 0.118 -0.54 1.715
 0.128 -0.54 1.713
 0.138 -0.539 1.709
 0.148 -0.537 1.702
 0.157 -0.534 1.692
 0.166 -0.531 1.681
 0.175 -0.527 1.668
 0.183 -0.523 1.654
 0.191 -0.519 1.639
 0.199 -0.514 1.624
 0.207 -0.509 1.607
 0.215 -0.504 1.59
 0.223 -0.502 1.58
 0.23 -0.497 1.563
 0.237 -0.493 1.55
 0.248 -0.495 1.555
 0.258 -0.497 1.561
 0.268 -0.498 1.563
 0.28 -0.503 1.575
 0.291 -0.506 1.584
 0.3 -0.505 1.579
 0.309 -0.504 1.574
 0.317 -0.501 1.563
 0.323 -0.496 1.547
 0.328 -0.489 1.523
 0.333 -0.484 1.504
 0.338 -0.478 1.483
 0.343 -0.473 1.465
 0.347 -0.466 1.443
 0 0 0
 0 0 0
 0 0 0
 0 0 0
 0 0 0
 0 0 0
 0 0 0
 0 0 0
 0 0 0
 0 0 0
 0 0 0
 0 0 0
 0 0 0
 0 0 0
 0 0 0
 0 0 0
 0 0 0
 0 0 0
 0 0 0
 0 0 0
 0 0 0
 0 0 0
 0 0 0
 0 0 0
 0 0 0
 0 0 0
 0 0 0
 0.34 -0.27 0.784
 0.344 -0.269 0.781
 0.345 -0.266 0.77
 0.351 -0.267 0.769
 0.352 -0.264 0.758
 0.356 -0.263 0.754
 0.359 -0.262 0.749
 0.363 -0.261 0.744
 0.359 -0.255 0.725
 0.362 -0.254 0.719
 0.362 -0.25 0.706
 0.361 -0.247 0.694
 0.363 -0.245 0.688
 0.369 -0.246 0.688
 0.372 -0.245 0.683
 0.374 -0.244 0.676
 0.378 -0.243 0.672
 0.38 -0.242 0.666
 0.383 -0.24 0.66
 0.386 -0.239 0.655
 0.394 -0.242 0.659
 0.391 -0.237 0.644
 -0.32 -0.192 0.542
 -0.322 -0.195 0.553
 -0.321 -0.196 0.56
 -0.322 -0.199 0.571
 -0.321 -0.201 0.578
 -0.319 -0.203 0.584
 -0.317 -0.204 0.589
 -0.314 -0.204 0.593
 -0.311 -0.205 0.596
 -0.308 -0.206 0.6
 -0.304 -0.206 0.603
 -0.301 -0.207 0.606
 -0.298 -0.207 0.608
 -0.294 -0.207 0.611
 -0.29 -0.207 0.613
 -0.286 -0.207 0.614
 -0.282 -0.207 0.616
 -0.278 -0.207 0.617
 -0.274 -0.207 0.619
 -0.271 -0.208 0.623
 -0.269 -0.21 0.629
 -0.268 -0.212 0.638
 -0.269 -0.216 0.653
 -0.273 -0.223 0.674
 -0.284 -0.235 0.714
 -0.309 -0.261 0.795
 -0.357 -0.305 0.936
 -0.408 -0.355 1.093
 -0.455 -0.403 1.245
 -0.493 -0.444 1.376
 -0.515 -0.472 1.467
 -0.514 -0.479 1.493
 -0.506 -0.48 1.498
 -0.497 -0.481 1.503
 -0.488 -0.481 1.507
 -0.479 -0.482 1.51
 -0.47 -0.482 1.514
 -0.461 -0.482 1.517
 -0.452 -0.483 1.521
 -0.443 -0.483 1.525
 -0.434 -0.484 1.528
 -0.425 -0.484 1.532
 -0.416 -0.485 1.536
 -0.407 -0.485 1.539
 -0.398 -0.486 1.543
 -0.389 -0.486 1.546
 -0.38 -0.487 1.55
 -0.371 -0.487 1.554
 -0.362 -0.488 1.557
 -0.353 -0.488 1.56
 -0.344 -0.489 1.563
 -0.335 -0.489 1.567
 -0.325 -0.49 1.57
 -0.316 -0.491 1.574
 -0.307 -0.492 1.578
 -0.298 -0.492 1.581
 -0.289 -0.493 1.585
 -0.28 -0.494 1.589
 -0.271 -0.495 1.593
 -0.262 -0.495 1.597
 -0.253 -0.496 1.601
 -0.244 -0.497 1.606
 -0.234 -0.498 1.609
 -0.225 -0.499 1.613
 -0.216 -0.5 1.617
 -0.207 -0.501 1.621
 -0.197 -0.502 1.624
 -0.188 -0.503 1.628
 -0.178 -0.503 1.631
 -0.169 -0.504 1.634
 -0.159 -0.505 1.638
 -0.15 -0.506 1.642
 -0.14 -0.507 1.646
 -0.131 -0.508 1.65
 -0.121 -0.509 1.654
 -0.112 -0.51 1.658
 -0.102 -0.511 1.661
 -0.092 -0.512 1.664
 -0.083 -0.513 1.668
 -0.073 -0.514 1.672
 -0.063 -0.515 1.676
 -0.053 -0.516 1.679
 -0.043 -0.517 1.682
 -0.033 -0.518 1.685
 -0.023 -0.519 1.688
 -0.013 -0.52 1.692
 -0.003 -0.521 1.695
 0.006 -0.522 1.698
 0.016 -0.523 1.702
 0.026 -0.524 1.704
 0.036 -0.525 1.707
 0.046 -0.526 1.709
 0.057 -0.527 1.711
 0.067 -0.528 1.713
 0.077 -0.528 1.714
 0.087 -0.528 1.715
 0.097 -0.529 1.715
 0.108 -0.529 1.715
 0.118 -0.529 1.715
 0.128 -0.529 1.713
 0.138 -0.528 1.709
 0.147 -0.526 1.702
 0.157 -0.523 1.693
 0.166 -0.52 1.68
 0.174 -0.516 1.667
 0.183 -0.512 1.653
 0.191 -0.508 1.638
 0.199 -0.503 1.623
 0.207 -0.499 1.606
 0.214 -0.494 1.59
 0.223 -0.491 1.58
 0.229 -0.485 1.56
 0.237 -0.482 1.546
 0.247 -0.483 1.55
 0.257 -0.486 1.556
 0.267 -0.486 1.557
 0.279 -0.491 1.572
 0.29 -0.494 1.58
 0.3 -0.494 1.578
 0.308 -0.493 1.572
 0.316 -0.49 1.561
 0.322 -0.486 1.546
 0.328 -0.481 1.528
 0.333 -0.474 1.504
 0.338 -0.469 1.487
 0.344 -0.464 1.47
 0.349 -0.46 1.453
 0.352 -0.452 1.428
 0 0 0
 0 0 0
 0 0 0
 0 0 0
 0 0 0
 0 0 0
 0 0 0
 0 0 0
 0 0 0
 0 0 0
 0 0 0
 0 0 0
 0 0 0
 0 0 0
 0 0 0
 0 0 0
 0 0 0
 0 0 0
 0 0 0
 0 0 0
 0 0 0
 0 0 0
 0 0 0
 0 0 0
 0 0 0
 0.348 -0.275 0.82
 0.349 -0.271 0.806
 0.35 -0.268 0.794
 0.347 -0.262 0.774
 0.35 -0.261 0.767
 0.35 -0.258 0.756
 0.353 -0.256 0.749
 0.356 -0.255 0.744
 0.362 -0.255 0.743
 0.359 -0.25 0.726
 0.363 -0.25 0.723
 0.363 -0.247 0.712
 0.363 -0.244 0.7
 0.366 -0.242 0.694
 0.372 -0.243 0.694
 0.375 -0.242 0.69
 0.377 -0.241 0.683
 0.38 -0.24 0.677
 0.382 -0.238 0.671
 0.385 -0.237 0.666
 0.386 -0.235 0.657
 0.38 -0.229 0.637
 0.402 -0.239 0.664
 -0.322 -0.189 0.546
 -0.324 -0.192 0.558
 -0.323 -0.194 0.565
 -0.323 -0.196 0.574
 -0.322 -0.198 0.581
 -0.32 -0.199 0.587
 -0.318 -0.2 0.592
 -0.315 -0.201 0.596
 -0.312 -0.202 0.6
 -0.309 -0.203 0.604
 -0.306 -0.203 0.607
 -0.303 -0.204 0.61
 -0.299 -0.204 0.613
 -0.295 -0.204 0.615
 -0.291 -0.204 0.617
 -0.287 -0.204 0.618
 -0.283 -0.204 0.62
 -0.279 -0.204 0.621
 -0.275 -0.204 0.622
 -0.272 -0.205 0.626
 -0.269 -0.206 0.631
 -0.269 -0.208 0.641
 -0.273 -0.215 0.662
 -0.285 -0.228 0.707
 -0.305 -0.248 0.771
 -0.34 -0.28 0.875
 -0.39 -0.328 1.028
 -0.439 -0.374 1.178
 -0.476 -0.413 1.306
 -0.505 -0.446 1.413
 -0.519 -0.466 1.479
 -0.513 -0.469 1.494
 -0.505 -0.47 1.498
 -0.496 -0.471 1.503
 -0.487 -0.471 1.507
 -0.478 -0.471 1.51
 -0.469 -0.472 1.514
 -0.46 -0.472 1.517
 -0.451 -0.473 1.521
 -0.442 -0.473 1.525
 -0.433 -0.473 1.528
 -0.424 -0.474 1.532
 -0.415 -0.474 1.535
 -0.406 -0.475 1.539
 -0.397 -0.476 1.543
 -0.389 -0.476 1.547
 -0.379 -0.477 1.55
 -0.37 -0.477 1.554
 -0.361 -0.478 1.557
 -0.352 -0.478 1.56
 -0.343 -0.478 1.563
 -0.334 -0.479 1.566
 -0.325 -0.48 1.57
 -0.316 -0.48 1.574
 -0.307 -0.481 1.578
 -0.298 -0.482 1.581
 -0.289 -0.483 1.585
 -0.28 -0.483 1.589
 -0.27 -0.484 1.593
 -0.261 -0.485 1.597
 -0.252 -0.486 1.601
 -0.243 -0.487 1.606
 -0.234 -0.488 1.61
 -0.225 -0.489 1.613
 -0.215 -0.49 1.617
 -0.206 -0.49 1.62
 -0.197 -0.491 1.624
 -0.187 -0.492 1.627
 -0.178 -0.493 1.631
 -0.168 -0.494 1.634
 -0.159 -0.495 1.638
 -0.15 -0.496 1.642
 -0.14 -0.497 1.646
 -0.131 -0.498 1.649
 -0.121 -0.499 1.654
 -0.111 -0.5 1.658
 -0.102 -0.501 1.661
 -0.092 -0.502 1.664
 -0.082 -0.503 1.668
 -0.073 -0.504 1.672
 -0.063 -0.505 1.675
 -0.053 -0.506 1.678
 -0.043 -0.507 1.682
 -0.033 -0.507 1.685
 -0.023 -0.508 1.688
 -0.013 -0.509 1.691
 -0.003 -0.511 1.695
 0.006 -0.511 1.698
 0.016 -0.512 1.701
 0.026 -0.513 1.704
 0.036 -0.514 1.706
 0.046 -0.515 1.708
 0.056 -0.516 1.711
 0.067 -0.517 1.713
 0.077 -0.517 1.714
 0.087 -0.517 1.715
 0.097 -0.518 1.715
 0.108 -0.518 1.715
 0.118 -0.518 1.715
 0.128 -0.518 1.713
 0.138 -0.516 1.708
 0.147 -0.515 1.702
 0.157 -0.512 1.692
 0.165 -0.509 1.68
 0.174 -0.505 1.667
 0.183 -0.501 1.652
 0.191 -0.497 1.637
 0.199 -0.493 1.622
 0.206 -0.488 1.605
 0.214 -0.484 1.589
 0.222 -0.481 1.58
 0.229 -0.475 1.558
 0.236 -0.471 1.544
 0.246 -0.472 1.547
 0.256 -0.474 1.552
 0.265 -0.474 1.551
 0.278 -0.48 1.568
 0.289 -0.483 1.578
 0.299 -0.483 1.575
 0.307 -0.482 1.569
 0.315 -0.479 1.557
 0.321 -0.474 1.54
 0.326 -0.469 1.522
 0.33 -0.461 1.494
 0.335 -0.456 1.476
 0.341 -0.452 1.459
 0.346 -0.447 1.444
 0.349 -0.44 1.418
 0 0 0
 0 0 0
 0 0 0
 0 0 0
 0 0 0
 0 0 0
 0 0 0
 0 0 0
 0 0 0
 0 0 0
 0 0 0
 0 0 0
 0 0 0
 0 0 0
 0 0 0
 0 0 0
 0 0 0
 0 0 0
 0 0 0
 0 0 0
 0 0 0
 0 0 0
 0 0 0
 0.332 -0.265 0.81
 0.34 -0.267 0.815
 0.348 -0.27 0.821
 0.347 -0.265 0.805
 0.347 -0.261 0.79
 0.345 -0.256 0.771
 0.348 -0.255 0.766
 0.347 -0.25 0.751
 0.347 -0.247 0.739
 0.352 -0.247 0.737
 0.358 -0.248 0.737
 0.356 -0.244 0.722
 0.359 -0.242 0.716
 0.362 -0.241 0.711
 0.362 -0.238 0.699
 0.364 -0.237 0.692
 0.37 -0.238 0.693
 0.376 -0.238 0.693
 0.379 -0.237 0.687
 0.383 -0.237 0.683
 0.385 -0.236 0.678
 0.387 -0.234 0.671
 0.388 -0.232 0.662
 0.377 -0.223 0.633
 0.382 -0.224 0.633
 -0.322 -0.185 0.547
 -0.321 -0.187 0.554
 -0.324 -0.191 0.568
 -0.324 -0.193 0.576
 -0.323 -0.195 0.584
 -0.321 -0.196 0.589
 -0.318 -0.197 0.594
 -0.316 -0.198 0.599
 -0.313 -0.199 0.603
 -0.31 -0.199 0.607
 -0.307 -0.2 0.611
 -0.304 -0.201 0.615
 -0.301 -0.201 0.618
 -0.298 -0.202 0.621
 -0.294 -0.202 0.623
 -0.289 -0.202 0.625
 -0.285 -0.201 0.625
 -0.281 -0.201 0.626
 -0.276 -0.201 0.627
 -0.273 -0.201 0.63
 -0.27 -0.203 0.635
 -0.27 -0.206 0.646
 -0.279 -0.216 0.681
 -0.302 -0.237 0.749
 -0.331 -0.264 0.839
 -0.372 -0.301 0.962
 -0.423 -0.348 1.116
 -0.465 -0.389 1.253
 -0.494 -0.42 1.356
 -0.513 -0.444 1.437
 -0.519 -0.457 1.483
 -0.513 -0.459 1.494
 -0.504 -0.46 1.499
 -0.495 -0.46 1.503
 -0.486 -0.461 1.507
 -0.477 -0.461 1.511
 -0.469 -0.462 1.515
 -0.46 -0.462 1.518
 -0.451 -0.463 1.521
 -0.441 -0.463 1.525
 -0.432 -0.463 1.528
 -0.423 -0.464 1.531
 -0.414 -0.464 1.535
 -0.406 -0.465 1.539
 -0.397 -0.466 1.543
 -0.388 -0.466 1.547
 -0.379 -0.467 1.55
 -0.37 -0.467 1.554
 -0.361 -0.467 1.557
 -0.351 -0.468 1.56
 -0.342 -0.468 1.563
 -0.333 -0.469 1.566
 -0.324 -0.469 1.57
 -0.315 -0.47 1.574
 -0.306 -0.471 1.578
 -0.297 -0.472 1.581
 -0.288 -0.472 1.585
 -0.279 -0.473 1.589
 -0.27 -0.474 1.593
 -0.261 -0.475 1.597
 -0.252 -0.476 1.601
 -0.243 -0.477 1.605
 -0.233 -0.477 1.609
 -0.224 -0.478 1.613
 -0.215 -0.479 1.616
 -0.206 -0.48 1.62
 -0.196 -0.481 1.623
 -0.187 -0.481 1.627
 -0.178 -0.482 1.63
 -0.168 -0.483 1.634
 -0.159 -0.484 1.638
 -0.149 -0.485 1.641
 -0.14 -0.486 1.645
 -0.13 -0.487 1.65
 -0.121 -0.488 1.654
 -0.111 -0.489 1.658
 -0.102 -0.49 1.661
 -0.092 -0.491 1.664
 -0.082 -0.492 1.668
 -0.072 -0.493 1.672
 -0.063 -0.494 1.675
 -0.053 -0.495 1.678
 -0.043 -0.496 1.681
 -0.033 -0.496 1.684
 -0.023 -0.497 1.687
 -0.013 -0.498 1.691
 -0.003 -0.5 1.695
 0.006 -0.5 1.697
 0.016 -0.502 1.701
 0.026 -0.502 1.704
 0.036 -0.503 1.706
 0.046 -0.504 1.708
 0.056 -0.505 1.711
 0.067 -0.505 1.712
 0.077 -0.506 1.713
 0.087 -0.506 1.713
 0.097 -0.506 1.714
 0.107 -0.507 1.714
 0.118 -0.507 1.714
 0.128 -0.507 1.712
 0.137 -0.506 1.708
 0.147 -0.504 1.702
 0.156 -0.501 1.692
 0.165 -0.498 1.68
 0.174 -0.494 1.666
 0.182 -0.49 1.652
 0.19 -0.486 1.637
 0.198 -0.482 1.621
 0.206 -0.477 1.604
 0.214 -0.473 1.588
 0.222 -0.471 1.579
 0.228 -0.465 1.558
 0.236 -0.461 1.544
 0.245 -0.462 1.547
 0.256 -0.464 1.551
 0.265 -0.464 1.551
 0.277 -0.469 1.565
 0.289 -0.473 1.576
 0.298 -0.473 1.575
 0.307 -0.472 1.57
 0.315 -0.469 1.56
 0.321 -0.465 1.544
 0.327 -0.46 1.525
 0.329 -0.451 1.494
 0.334 -0.445 1.472
 0.339 -0.441 1.454
 0.345 -0.437 1.44
 0.348 -0.43 1.416
 0 0 0
 0 0 0
 0 0 0
 0 0 0
 0 0 0
 0 0 0
 0 0 0
 0 0 0
 0 0 0
 0 0 0
 0 0 0
 0 0 0
 0 0 0
 0 0 0
 0 0 0
 0 0 0
 0 0 0
 0 0 0
 0 0 0
 0 0 0
 0 0 0
 0.318 -0.257 0.807
 0.323 -0.257 0.805
 0.334 -0.261 0.816
 0.338 -0.26 0.811
 0.343 -0.261 0.81
 0.342 -0.256 0.794
 0.343 -0.253 0.782
 0.342 -0.249 0.766
 0.345 -0.248 0.761
 0.345 -0.244 0.748
 0.347 -0.242 0.739
 0.351 -0.242 0.737
 0.356 -0.241 0.733
 0.355 -0.238 0.72
 0.359 -0.237 0.716
 0.361 -0.236 0.71
 0.362 -0.234 0.701
 0.365 -0.232 0.695
 0.371 -0.233 0.695
 0.375 -0.233 0.693
 0.377 -0.231 0.685
 0.382 -0.232 0.683
 0.385 -0.231 0.678
 0.386 -0.229 0.67
 0.387 -0.227 0.662
 0.401 -0.232 0.676
 0.386 -0.221 0.64
 -0.324 -0.182 0.552
 -0.325 -0.185 0.562
 -0.324 -0.187 0.57
 -0.324 -0.189 0.579
 -0.323 -0.191 0.587
 -0.322 -0.193 0.592
 -0.319 -0.193 0.597
 -0.317 -0.194 0.602
 -0.314 -0.195 0.607
 -0.312 -0.196 0.612
 -0.309 -0.197 0.617
 -0.307 -0.198 0.621
 -0.304 -0.199 0.625
 -0.301 -0.2 0.629
 -0.297 -0.2 0.631
 -0.292 -0.2 0.632
 -0.288 -0.199 0.633
 -0.283 -0.199 0.633
 -0.279 -0.199 0.634
 -0.275 -0.199 0.636
 -0.273 -0.2 0.642
 -0.274 -0.204 0.655
 -0.291 -0.221 0.712
 -0.323 -0.248 0.804
 -0.361 -0.282 0.918
 -0.407 -0.322 1.054
 -0.456 -0.367 1.206
 -0.489 -0.4 1.32
 -0.508 -0.423 1.398
 -0.518 -0.439 1.454
 -0.519 -0.448 1.485
 -0.512 -0.449 1.494
 -0.503 -0.45 1.499
 -0.494 -0.45 1.502
 -0.486 -0.451 1.507
 -0.477 -0.451 1.511
 -0.468 -0.452 1.515
 -0.459 -0.452 1.518
 -0.45 -0.453 1.522
 -0.441 -0.453 1.525
 -0.432 -0.453 1.529
 -0.423 -0.454 1.531
 -0.414 -0.454 1.535
 -0.405 -0.455 1.539
 -0.396 -0.455 1.543
 -0.387 -0.456 1.547
 -0.378 -0.456 1.55
 -0.369 -0.457 1.554
 -0.36 -0.457 1.557
 -0.351 -0.458 1.56
 -0.342 -0.458 1.563
 -0.333 -0.459 1.566
 -0.324 -0.459 1.57
 -0.315 -0.46 1.573
 -0.306 -0.461 1.577
 -0.297 -0.461 1.581
 -0.288 -0.462 1.584
 -0.279 -0.463 1.589
 -0.269 -0.464 1.592
 -0.26 -0.464 1.596
 -0.251 -0.465 1.6
 -0.242 -0.466 1.604
 -0.233 -0.467 1.607
 -0.224 -0.468 1.611
 -0.214 -0.468 1.615
 -0.205 -0.469 1.619
 -0.196 -0.47 1.623
 -0.187 -0.471 1.627
 -0.177 -0.472 1.63
 -0.168 -0.473 1.633
 -0.158 -0.474 1.638
 -0.149 -0.474 1.641
 -0.14 -0.475 1.645
 -0.13 -0.476 1.649
 -0.121 -0.477 1.653
 -0.111 -0.478 1.657
 -0.101 -0.479 1.66
 -0.092 -0.48 1.664
 -0.082 -0.481 1.668
 -0.072 -0.482 1.672
 -0.063 -0.483 1.675
 -0.053 -0.484 1.678
 -0.043 -0.485 1.681
 -0.033 -0.486 1.684
 -0.023 -0.487 1.687
 -0.013 -0.488 1.69
 -0.003 -0.489 1.694
 0.006 -0.49 1.697
 0.016 -0.491 1.7
 0.026 -0.491 1.703
 0.036 -0.492 1.705
 0.046 -0.493 1.708
 0.056 -0.494 1.71
 0.067 -0.494 1.711
 0.077 -0.495 1.712
 0.087 -0.495 1.713
 0.097 -0.495 1.713
 0.107 -0.496 1.714
 0.117 -0.496 1.714
 0.128 -0.496 1.712
 0.137 -0.495 1.708
 0.147 -0.493 1.702
 0.156 -0.491 1.692
 0.165 -0.487 1.68
 0.174 -0.484 1.666
 0.182 -0.48 1.651
 0.19 -0.475 1.636
 0.198 -0.471 1.62
 0.206 -0.467 1.603
 0.213 -0.463 1.587
 0.221 -0.46 1.578
 0.228 -0.455 1.559
 0.235 -0.451 1.545
 0.245 -0.452 1.547
 0.256 -0.454 1.553
 0.265 -0.456 1.555
 0.277 -0.459 1.566
 0.289 -0.463 1.578
 0.298 -0.463 1.578
 0.307 -0.462 1.572
 0.314 -0.459 1.56
 0.321 -0.456 1.548
 0.327 -0.451 1.528
 0.329 -0.442 1.496
 0.334 -0.436 1.473
 0.338 -0.43 1.451
 0.341 -0.423 1.426
 0.345 -0.417 1.404
 0.349 -0.413 1.387
 0 0 0
 0 0 0
 0 0 0
 0 0 0
 0 0 0
 0 0 0
 0 0 0
 0 0 0
 0 0 0
 0 0 0
 0 0 0
 0 0 0
 0 0 0
 0 0 0
 0 0 0
 0 0 0
 0 0 0
 0 0 0
 0 0 0
 0.318 -0.256 0.821
 0.326 -0.258 0.827
 0.331 -0.258 0.825
 0.339 -0.26 0.829
 0.339 -0.256 0.815
 0.343 -0.255 0.811
 0.345 -0.253 0.802
 0.347 -0.25 0.791
 0.345 -0.246 0.774
 0.348 -0.244 0.768
 0.348 -0.241 0.755
 0.348 -0.238 0.742
 0.351 -0.237 0.737
 0.355 -0.236 0.734
 0.355 -0.233 0.722
 0.359 -0.233 0.718
 0.363 -0.232 0.714
 0.365 -0.231 0.707
 0.366 -0.228 0.697
 0.371 -0.229 0.697
 0.375 -0.228 0.694
 0.376 -0.226 0.684
 0.38 -0.226 0.681
 0.383 -0.225 0.676
 0.383 -0.223 0.667
 0.385 -0.221 0.658
 0.4 -0.227 0.675
 0.403 -0.226 0.67
 -0.322 -0.178 0.55
 -0.324 -0.181 0.561
 -0.325 -0.183 0.572
 -0.325 -0.186 0.581
 -0.324 -0.188 0.589
 -0.323 -0.189 0.595
 -0.32 -0.19 0.601
 -0.318 -0.191 0.606
 -0.316 -0.192 0.611
 -0.314 -0.193 0.617
 -0.312 -0.195 0.623
 -0.31 -0.196 0.629
 -0.307 -0.197 0.634
 -0.304 -0.198 0.638
 -0.301 -0.198 0.641
 -0.296 -0.198 0.642
 -0.292 -0.198 0.643
 -0.287 -0.197 0.643
 -0.282 -0.197 0.643
 -0.278 -0.197 0.645
 -0.276 -0.199 0.651
 -0.281 -0.205 0.675
 -0.308 -0.228 0.753
 -0.348 -0.262 0.869
 -0.393 -0.3 1.001
 -0.438 -0.34 1.14
 -0.483 -0.381 1.282
 -0.507 -0.407 1.372
 -0.517 -0.421 1.425
 -0.519 -0.431 1.46
 -0.518 -0.438 1.487
 -0.511 -0.439 1.494
 -0.502 -0.44 1.498
 -0.493 -0.44 1.502
 -0.485 -0.441 1.507
 -0.476 -0.441 1.51
 -0.467 -0.442 1.514
 -0.458 -0.442 1.518
 -0.449 -0.443 1.522
 -0.44 -0.443 1.525
 -0.431 -0.443 1.528
 -0.422 -0.444 1.532
 -0.413 -0.444 1.535
 -0.404 -0.445 1.539
 -0.395 -0.445 1.543
 -0.386 -0.446 1.546
 -0.377 -0.446 1.55
 -0.368 -0.447 1.553
 -0.359 -0.447 1.556
 -0.35 -0.448 1.56
 -0.341 -0.448 1.562
 -0.332 -0.448 1.565
 -0.323 -0.449 1.569
 -0.314 -0.45 1.573
 -0.305 -0.45 1.576
 -0.296 -0.451 1.58
 -0.287 -0.452 1.584
 -0.278 -0.453 1.589
 -0.269 -0.453 1.592
 -0.26 -0.454 1.596
 -0.251 -0.455 1.601
 -0.242 -0.456 1.604
 -0.232 -0.456 1.607
 -0.223 -0.457 1.611
 -0.214 -0.458 1.615
 -0.205 -0.459 1.618
 -0.196 -0.46 1.623
 -0.186 -0.461 1.626
 -0.177 -0.461 1.63
 -0.167 -0.462 1.633
 -0.158 -0.463 1.637
 -0.149 -0.464 1.64
 -0.139 -0.465 1.645
 -0.13 -0.466 1.648
 -0.12 -0.467 1.653
 -0.111 -0.468 1.657
 -0.101 -0.469 1.66
 -0.091 -0.47 1.663
 -0.082 -0.471 1.667
 -0.072 -0.472 1.671
 -0.062 -0.472 1.674
 -0.053 -0.473 1.677
 -0.043 -0.474 1.681
 -0.033 -0.475 1.684
 -0.023 -0.476 1.687
 -0.013 -0.477 1.69
 -0.003 -0.478 1.693
 0.006 -0.479 1.696
 0.016 -0.48 1.699
 0.026 -0.48 1.702
 0.036 -0.481 1.705
 0.046 -0.482 1.707
 0.056 -0.483 1.71
 0.067 -0.483 1.711
 0.077 -0.484 1.712
 0.087 -0.484 1.713
 0.097 -0.484 1.713
 0.107 -0.485 1.714
 0.117 -0.485 1.714
 0.127 -0.485 1.712
 0.137 -0.484 1.708
 0.147 -0.483 1.702
 0.156 -0.48 1.692
 0.165 -0.477 1.68
 0.174 -0.473 1.666
 0.182 -0.469 1.651
 0.19 -0.465 1.635
 0.198 -0.461 1.619
 0.205 -0.456 1.602
 0.213 -0.452 1.586
 0.221 -0.45 1.576
 0.228 -0.445 1.557
 0.235 -0.441 1.543
 0.245 -0.442 1.546
 0.255 -0.444 1.552
 0.265 -0.445 1.554
 0.276 -0.449 1.564
 0.288 -0.452 1.574
 0.297 -0.452 1.575
 0.306 -0.451 1.568
 0.314 -0.449 1.558
 0.321 -0.446 1.546
 0.327 -0.441 1.529
 0.329 -0.433 1.497
 0.334 -0.427 1.475
 0.336 -0.419 1.445
 0.34 -0.413 1.423
 0.343 -0.407 1.401
 0.349 -0.404 1.387
 0.347 -0.393 1.346
 0 0 0
 0 0 0
 0 0 0
 0 0 0
 0 0 0
 0 0 0
 0 0 0
 0 0 0
 0 0 0
 0 0 0
 0 0 0
 0 0 0
 0 0 0
 0 0 0
 0 0 0
 0 0 0
 0 0 0
 0 0 0
 0.33 -0.26 0.854
 0.336 -0.26 0.855
 0.343 -0.262 0.858
 0.344 -0.258 0.844
 0.341 -0.253 0.823
 0.343 -0.25 0.812
 0.344 -0.247 0.8
 0.345 -0.244 0.788
 0.346 -0.241 0.778
 0.349 -0.24 0.772
 0.351 -0.238 0.764
 0.351 -0.235 0.75
 0.353 -0.233 0.743
 0.356 -0.232 0.737
 0.356 -0.229 0.725
 0.358 -0.228 0.718
 0.364 -0.228 0.717
 0.365 -0.226 0.709
 0.366 -0.224 0.699
 0.372 -0.224 0.699
 0.377 -0.225 0.698
 0.377 -0.222 0.687
 0.38 -0.222 0.683
 0.383 -0.22 0.677
 0.384 -0.219 0.669
 0.385 -0.217 0.661
 0.376 -0.209 0.636
 0.391 -0.215 0.652
 -0.323 -0.175 0.553
 -0.322 -0.176 0.559
 -0.325 -0.18 0.573
 -0.325 -0.182 0.582
 -0.325 -0.184 0.591
 -0.324 -0.186 0.598
 -0.322 -0.187 0.604
 -0.319 -0.188 0.609
 -0.317 -0.189 0.615
 -0.316 -0.191 0.623
 -0.315 -0.193 0.631
 -0.314 -0.195 0.639
 -0.312 -0.196 0.646
 -0.31 -0.197 0.651
 -0.306 -0.198 0.654
 -0.302 -0.197 0.655
 -0.297 -0.197 0.655
 -0.292 -0.196 0.655
 -0.287 -0.196 0.655
 -0.283 -0.196 0.658
 -0.282 -0.198 0.665
 -0.294 -0.21 0.708
 -0.328 -0.238 0.806
 -0.374 -0.275 0.938
 -0.419 -0.313 1.072
 -0.464 -0.353 1.21
 -0.501 -0.387 1.332
 -0.516 -0.405 1.399
 -0.519 -0.415 1.434
 -0.52 -0.423 1.465
 -0.518 -0.428 1.487
 -0.51 -0.429 1.494
 -0.501 -0.43 1.498
 -0.492 -0.43 1.502
 -0.484 -0.431 1.507
 -0.475 -0.431 1.51
 -0.466 -0.432 1.515
 -0.457 -0.432 1.518
 -0.449 -0.433 1.522
 -0.439 -0.433 1.525
 -0.431 -0.433 1.529
 -0.421 -0.434 1.531
 -0.412 -0.434 1.535
 -0.403 -0.434 1.538
 -0.395 -0.435 1.542
 -0.386 -0.436 1.546
 -0.377 -0.436 1.549
 -0.368 -0.436 1.552
 -0.359 -0.437 1.556
 -0.35 -0.437 1.559
 -0.34 -0.438 1.561
 -0.331 -0.438 1.565
 -0.323 -0.439 1.569
 -0.314 -0.439 1.572
 -0.305 -0.44 1.576
 -0.296 -0.441 1.58
 -0.287 -0.442 1.585
 -0.278 -0.443 1.589
 -0.269 -0.443 1.592
 -0.26 -0.444 1.596
 -0.251 -0.445 1.6
 -0.241 -0.446 1.604
 -0.232 -0.446 1.607
 -0.223 -0.447 1.611
 -0.214 -0.448 1.614
 -0.204 -0.449 1.618
 -0.195 -0.449 1.622
 -0.186 -0.45 1.626
 -0.177 -0.451 1.63
 -0.167 -0.452 1.633
 -0.158 -0.453 1.637
 -0.148 -0.453 1.64
 -0.139 -0.455 1.645
 -0.13 -0.455 1.648
 -0.12 -0.456 1.653
 -0.111 -0.457 1.657
 -0.101 -0.458 1.66
 -0.091 -0.459 1.663
 -0.082 -0.46 1.667
 -0.072 -0.461 1.671
 -0.062 -0.462 1.673
 -0.052 -0.463 1.677
 -0.043 -0.464 1.681
 -0.033 -0.464 1.683
 -0.023 -0.465 1.686
 -0.013 -0.466 1.69
 -0.003 -0.467 1.693
 0.006 -0.468 1.696
 0.016 -0.469 1.699
 0.026 -0.47 1.702
 0.036 -0.47 1.704
 0.046 -0.471 1.707
 0.056 -0.472 1.709
 0.066 -0.473 1.711
 0.077 -0.473 1.712
 0.087 -0.474 1.713
 0.097 -0.474 1.713
 0.107 -0.474 1.714
 0.117 -0.474 1.714
 0.127 -0.474 1.712
 0.137 -0.473 1.708
 0.147 -0.472 1.702
 0.156 -0.469 1.692
 0.165 -0.466 1.679
 0.173 -0.462 1.665
 0.182 -0.458 1.65
 0.19 -0.454 1.635
 0.197 -0.45 1.618
 0.205 -0.446 1.601
 0.212 -0.442 1.585
 0.221 -0.44 1.576
 0.228 -0.435 1.559
 0.235 -0.431 1.543
 0.244 -0.432 1.546
 0.255 -0.434 1.552
 0.265 -0.436 1.555
 0.276 -0.439 1.567
 0.288 -0.443 1.578
 0.298 -0.443 1.577
 0.306 -0.441 1.569
 0.313 -0.438 1.556
 0.32 -0.435 1.545
 0.326 -0.431 1.527
 0.329 -0.424 1.5
 0.334 -0.418 1.478
 0.336 -0.411 1.449
 0.34 -0.405 1.426
 0.344 -0.4 1.406
 0.349 -0.395 1.388
 0.345 -0.382 1.339
 0 0 0
 0 0 0
 0 0 0
 0 0 0
 0 0 0
 0 0 0
 0 0 0
 0 0 0
 0 0 0
 0 0 0
 0 0 0
 0 0 0
 0 0 0
 0 0 0
 0 0 0
 0 0 0
 0 0 0
 0.344 -0.269 0.909
 0.336 -0.259 0.871
 0.34 -0.258 0.866
 0.345 -0.258 0.864
 0.345 -0.254 0.848
 0.342 -0.248 0.825
 0.343 -0.245 0.813
 0.341 -0.24 0.795
 0.342 -0.237 0.785
 0.344 -0.235 0.776
 0.349 -0.235 0.772
 0.351 -0.234 0.765
 0.352 -0.231 0.754
 0.354 -0.229 0.746
 0.356 -0.227 0.737
 0.357 -0.225 0.728
 0.358 -0.223 0.719
 0.364 -0.223 0.718
 0.365 -0.221 0.71
 0.367 -0.219 0.701
 0.37 -0.219 0.697
 0.374 -0.218 0.693
 0.374 -0.216 0.683
 0.377 -0.215 0.678
 0.379 -0.214 0.672
 0.381 -0.212 0.665
 0.383 -0.211 0.658
 0.381 -0.208 0.646
 0.38 -0.205 0.633
 -0.32 -0.169 0.549
 -0.32 -0.171 0.557
 -0.324 -0.175 0.573
 -0.324 -0.178 0.583
 -0.325 -0.18 0.592
 -0.324 -0.182 0.601
 -0.323 -0.184 0.607
 -0.321 -0.185 0.613
 -0.319 -0.186 0.62
 -0.32 -0.189 0.631
 -0.32 -0.191 0.641
 -0.319 -0.193 0.65
 -0.318 -0.195 0.659
 -0.316 -0.197 0.666
 -0.312 -0.197 0.668
 -0.307 -0.197 0.669
 -0.303 -0.197 0.67
 -0.297 -0.196 0.669
 -0.292 -0.195 0.669
 -0.288 -0.196 0.671
 -0.286 -0.197 0.677
 -0.307 -0.214 0.74
 -0.35 -0.248 0.862
 -0.398 -0.287 1.001
 -0.446 -0.326 1.142
 -0.484 -0.36 1.264
 -0.513 -0.387 1.365
 -0.52 -0.4 1.412
 -0.521 -0.407 1.442
 -0.521 -0.414 1.47
 -0.518 -0.419 1.489
 -0.509 -0.42 1.495
 -0.501 -0.42 1.498
 -0.492 -0.42 1.502
 -0.483 -0.421 1.507
 -0.474 -0.421 1.51
 -0.466 -0.422 1.515
 -0.457 -0.422 1.518
 -0.448 -0.423 1.522
 -0.439 -0.423 1.525
 -0.43 -0.423 1.529
 -0.421 -0.424 1.531
 -0.412 -0.424 1.534
 -0.403 -0.424 1.538
 -0.394 -0.425 1.541
 -0.385 -0.425 1.545
 -0.376 -0.426 1.548
 -0.367 -0.426 1.551
 -0.358 -0.427 1.555
 -0.349 -0.427 1.558
 -0.34 -0.428 1.561
 -0.331 -0.428 1.565
 -0.322 -0.429 1.569
 -0.313 -0.429 1.572
 -0.304 -0.43 1.576
 -0.295 -0.431 1.58
 -0.286 -0.431 1.584
 -0.277 -0.432 1.588
 -0.268 -0.433 1.592
 -0.259 -0.434 1.595
 -0.25 -0.434 1.599
 -0.241 -0.435 1.603
 -0.232 -0.436 1.606
 -0.222 -0.437 1.61
 -0.213 -0.437 1.614
 -0.204 -0.438 1.618
 -0.195 -0.439 1.622
 -0.186 -0.44 1.626
 -0.176 -0.441 1.629
 -0.167 -0.442 1.633
 -0.158 -0.442 1.637
 -0.148 -0.443 1.64
 -0.139 -0.444 1.644
 -0.129 -0.445 1.648
 -0.12 -0.446 1.651
 -0.11 -0.447 1.655
 -0.101 -0.448 1.658
 -0.091 -0.448 1.662
 -0.081 -0.449 1.666
 -0.072 -0.45 1.67
 -0.062 -0.451 1.673
 -0.052 -0.452 1.677
 -0.043 -0.453 1.68
 -0.033 -0.454 1.683
 -0.023 -0.455 1.686
 -0.013 -0.456 1.689
 -0.003 -0.456 1.692
 0.006 -0.457 1.695
 0.016 -0.458 1.699
 0.026 -0.459 1.701
 0.036 -0.46 1.704
 0.046 -0.461 1.706
 0.056 -0.461 1.708
 0.066 -0.462 1.71
 0.077 -0.462 1.712
 0.087 -0.463 1.713
 0.097 -0.463 1.713
 0.107 -0.463 1.714
 0.117 -0.464 1.714
 0.127 -0.463 1.712
 0.137 -0.462 1.708
 0.147 -0.461 1.701
 0.156 -0.458 1.691
 0.164 -0.455 1.678
 0.173 -0.452 1.664
 0.181 -0.448 1.649
 0.189 -0.444 1.634
 0.197 -0.44 1.617
 0.205 -0.436 1.601
 0.212 -0.432 1.584
 0.22 -0.429 1.574
 0.228 -0.426 1.56
 0.235 -0.422 1.546
 0.245 -0.423 1.549
 0.255 -0.425 1.555
 0.265 -0.427 1.558
 0.276 -0.429 1.567
 0.288 -0.433 1.578
 0.297 -0.433 1.577
 0.305 -0.431 1.569
 0.313 -0.429 1.559
 0.32 -0.426 1.548
 0.326 -0.422 1.531
 0.331 -0.416 1.507
 0.335 -0.411 1.485
 0.337 -0.402 1.451
 0.34 -0.396 1.426
 0.344 -0.391 1.406
 0.347 -0.385 1.383
 0.347 -0.376 1.348
 0 0 0
 0 0 0
 0 0 0
 0 0 0
 0 0 0
 0 0 0
 0 0 0
 0 0 0
 0 0 0
 0 0 0
 0 0 0
 0 0 0
 0 0 0
 0 0 0
 0 0 0
 0 0 0
 0.346 -0.269 0.933
 0.348 -0.267 0.922
 0.341 -0.257 0.886
 0.341 -0.253 0.871
 0.343 -0.25 0.858
 0.343 -0.247 0.844
 0.339 -0.24 0.82
 0.341 -0.238 0.81
 0.342 -0.235 0.798
 0.343 -0.233 0.787
 0.346 -0.232 0.781
 0.35 -0.231 0.776
 0.353 -0.229 0.769
 0.353 -0.227 0.758
 0.355 -0.225 0.748
 0.355 -0.222 0.737
 0.356 -0.22 0.728
 0.358 -0.218 0.72
 0.363 -0.218 0.718
 0.365 -0.217 0.712
 0.367 -0.215 0.704
 0.37 -0.214 0.698
 0.373 -0.213 0.692
 0.373 -0.211 0.682
 0.376 -0.21 0.677
 0.378 -0.209 0.671
 0.38 -0.207 0.664
 0.382 -0.206 0.657
 0.387 -0.206 0.656
 0.397 -0.209 0.663
 -0.322 -0.166 0.552
 -0.319 -0.167 0.556
 -0.323 -0.171 0.572
 -0.324 -0.174 0.583
 -0.325 -0.176 0.593
 -0.325 -0.179 0.603
 -0.324 -0.18 0.611
 -0.322 -0.182 0.617
 -0.322 -0.184 0.626
 -0.32 -0.185 0.633
 -0.317 -0.186 0.638
 -0.314 -0.186 0.64
 -0.31 -0.187 0.644
 -0.306 -0.186 0.645
 -0.301 -0.186 0.646
 -0.295 -0.185 0.643
 -0.294 -0.187 0.65
 -0.291 -0.188 0.655
 -0.288 -0.188 0.659
 -0.286 -0.19 0.667
 -0.289 -0.195 0.686
 -0.325 -0.222 0.787
 -0.379 -0.263 0.936
 -0.428 -0.302 1.079
 -0.471 -0.337 1.21
 -0.501 -0.364 1.311
 -0.521 -0.385 1.39
 -0.523 -0.393 1.422
 -0.522 -0.399 1.448
 -0.521 -0.405 1.473
 -0.517 -0.409 1.49
 -0.509 -0.41 1.495
 -0.5 -0.41 1.498
 -0.491 -0.411 1.502
 -0.482 -0.411 1.507
 -0.474 -0.412 1.511
 -0.465 -0.412 1.515
 -0.456 -0.413 1.519
 -0.447 -0.413 1.522
 -0.438 -0.413 1.526
 -0.429 -0.414 1.529
 -0.42 -0.414 1.531
 -0.411 -0.414 1.534
 -0.402 -0.414 1.537
 -0.393 -0.415 1.541
 -0.384 -0.415 1.544
 -0.375 -0.416 1.548
 -0.366 -0.416 1.551
 -0.357 -0.417 1.554
 -0.348 -0.417 1.557
 -0.339 -0.417 1.561
 -0.33 -0.418 1.565
 -0.322 -0.419 1.569
 -0.313 -0.419 1.572
 -0.304 -0.42 1.576
 -0.295 -0.421 1.58
 -0.286 -0.421 1.583
 -0.277 -0.422 1.587
 -0.268 -0.423 1.591
 -0.259 -0.424 1.595
 -0.25 -0.424 1.599
 -0.241 -0.425 1.603
 -0.231 -0.426 1.607
 -0.222 -0.427 1.61
 -0.213 -0.427 1.614
 -0.204 -0.428 1.618
 -0.195 -0.429 1.622
 -0.185 -0.43 1.625
 -0.176 -0.43 1.629
 -0.167 -0.431 1.633
 -0.157 -0.432 1.636
 -0.148 -0.433 1.64
 -0.138 -0.434 1.644
 -0.129 -0.434 1.647
 -0.12 -0.435 1.651
 -0.11 -0.436 1.655
 -0.1 -0.437 1.658
 -0.091 -0.438 1.661
 -0.081 -0.439 1.665
 -0.072 -0.44 1.669
 -0.062 -0.441 1.672
 -0.052 -0.442 1.676
 -0.042 -0.442 1.679
 -0.033 -0.443 1.683
 -0.023 -0.444 1.686
 -0.013 -0.445 1.689
 -0.003 -0.446 1.692
 0.006 -0.447 1.696
 0.016 -0.448 1.698
 0.026 -0.448 1.701
 0.036 -0.449 1.703
 0.046 -0.45 1.706
 0.056 -0.45 1.708
 0.066 -0.451 1.711
 0.077 -0.452 1.713
 0.087 -0.452 1.713
 0.097 -0.452 1.713
 0.107 -0.453 1.714
 0.117 -0.453 1.713
 0.127 -0.452 1.711
 0.137 -0.451 1.706
 0.146 -0.45 1.7
 0.155 -0.447 1.689
 0.164 -0.444 1.677
 0.173 -0.441 1.663
 0.181 -0.437 1.649
 0.189 -0.434 1.633
 0.197 -0.43 1.617
 0.204 -0.426 1.6
 0.212 -0.421 1.584
 0.22 -0.419 1.574
 0.227 -0.416 1.559
 0.234 -0.412 1.544
 0.244 -0.413 1.545
 0.254 -0.415 1.552
 0.264 -0.416 1.555
 0.275 -0.419 1.565
 0.287 -0.423 1.578
 0.297 -0.423 1.577
 0.305 -0.421 1.568
 0.312 -0.419 1.558
 0.32 -0.416 1.547
 0.326 -0.412 1.53
 0.33 -0.407 1.508
 0.335 -0.401 1.485
 0.335 -0.392 1.448
 0.338 -0.385 1.422
 0.342 -0.381 1.402
 0.345 -0.375 1.378
 0.346 -0.367 1.347
 0 0 0
 0 0 0
 0 0 0
 0 0 0
 0 0 0
 0 0 0
 0 0 0
 0 0 0
 0 0 0
 0 0 0
 0 0 0
 0 0 0
 0 0 0
 0 0 0
 0 0 0
 0.34 -0.263 0.936
 0.341 -0.26 0.92
 0.346 -0.259 0.916
 0.34 -0.251 0.885
 0.342 -0.248 0.873
 0.342 -0.244 0.857
 0.342 -0.241 0.842
 0.338 -0.235 0.819
 0.341 -0.233 0.812
 0.342 -0.23 0.8
 0.345 -0.229 0.793
 0.349 -0.228 0.788
 0.352 -0.227 0.781
 0.353 -0.225 0.771
 0.353 -0.222 0.759
 0.352 -0.218 0.745
 0.353 -0.216 0.734
 0.354 -0.214 0.725
 0.357 -0.213 0.719
 0.363 -0.213 0.719
 0.366 -0.213 0.714
 0.369 -0.211 0.708
 0.371 -0.21 0.702
 0.373 -0.209 0.694
 0.373 -0.206 0.684
 0.375 -0.205 0.678
 0.377 -0.203 0.67
 0.379 -0.202 0.664
 0.381 -0.201 0.658
 0.382 -0.2 0.65
 0.383 -0.198 0.641
 -0.323 -0.163 0.556
 -0.318 -0.163 0.556
 -0.322 -0.167 0.571
 -0.323 -0.169 0.583
 -0.325 -0.172 0.594
 -0.325 -0.175 0.605
 -0.325 -0.177 0.614
 -0.324 -0.179 0.622
 -0.323 -0.18 0.629
 -0.317 -0.179 0.628
 -0.311 -0.178 0.626
 -0.307 -0.178 0.627
 -0.299 -0.176 0.621
 -0.295 -0.176 0.623
 -0.294 -0.177 0.63
 -0.29 -0.178 0.632
 -0.289 -0.179 0.64
 -0.291 -0.183 0.656
 -0.288 -0.184 0.661
 -0.287 -0.187 0.671
 -0.292 -0.192 0.694
 -0.351 -0.235 0.852
 -0.411 -0.278 1.017
 -0.458 -0.315 1.155
 -0.493 -0.345 1.269
 -0.513 -0.364 1.345
 -0.525 -0.379 1.402
 -0.525 -0.386 1.43
 -0.524 -0.391 1.454
 -0.522 -0.397 1.477
 -0.517 -0.4 1.491
 -0.508 -0.4 1.495
 -0.499 -0.4 1.499
 -0.49 -0.401 1.503
 -0.482 -0.401 1.507
 -0.473 -0.402 1.511
 -0.464 -0.402 1.514
 -0.455 -0.403 1.518
 -0.446 -0.403 1.522
 -0.437 -0.403 1.525
 -0.428 -0.403 1.528
 -0.419 -0.404 1.531
 -0.41 -0.404 1.534
 -0.401 -0.404 1.537
 -0.392 -0.405 1.54
 -0.384 -0.405 1.544
 -0.375 -0.406 1.547
 -0.366 -0.406 1.551
 -0.357 -0.407 1.554
 -0.348 -0.407 1.557
 -0.339 -0.408 1.561
 -0.33 -0.408 1.564
 -0.321 -0.409 1.569
 -0.312 -0.41 1.573
 -0.303 -0.41 1.576
 -0.294 -0.411 1.58
 -0.285 -0.411 1.583
 -0.276 -0.412 1.587
 -0.267 -0.413 1.592
 -0.258 -0.414 1.595
 -0.249 -0.414 1.599
 -0.24 -0.415 1.603
 -0.231 -0.416 1.607
 -0.222 -0.416 1.61
 -0.213 -0.417 1.613
 -0.203 -0.418 1.617
 -0.194 -0.419 1.621
 -0.185 -0.419 1.625
 -0.176 -0.42 1.629
 -0.166 -0.421 1.633
 -0.157 -0.422 1.636
 -0.148 -0.423 1.64
 -0.138 -0.423 1.643
 -0.129 -0.424 1.646
 -0.119 -0.425 1.65
 -0.11 -0.426 1.654
 -0.1 -0.427 1.657
 -0.091 -0.427 1.661
 -0.081 -0.428 1.665
 -0.071 -0.429 1.668
 -0.062 -0.43 1.671
 -0.052 -0.431 1.675
 -0.042 -0.432 1.679
 -0.032 -0.433 1.683
 -0.023 -0.434 1.686
 -0.013 -0.435 1.689
 -0.003 -0.435 1.693
 0.006 -0.436 1.695
 0.016 -0.437 1.698
 0.026 -0.438 1.701
 0.036 -0.438 1.703
 0.046 -0.439 1.706
 0.056 -0.44 1.708
 0.066 -0.441 1.711
 0.077 -0.441 1.712
 0.087 -0.442 1.713
 0.097 -0.442 1.714
 0.107 -0.442 1.714
 0.117 -0.442 1.713
 0.127 -0.442 1.711
 0.137 -0.441 1.706
 0.146 -0.439 1.699
 0.155 -0.437 1.689
 0.164 -0.434 1.676
 0.173 -0.43 1.663
 0.181 -0.427 1.648
 0.189 -0.423 1.632
 0.197 -0.42 1.617
 0.204 -0.416 1.6
 0.211 -0.411 1.583
 0.219 -0.409 1.573
 0.227 -0.406 1.56
 0.234 -0.402 1.543
 0.243 -0.403 1.544
 0.254 -0.405 1.551
 0.264 -0.406 1.554
 0.275 -0.409 1.564
 0.287 -0.413 1.578
 0.296 -0.413 1.576
 0.304 -0.411 1.567
 0.312 -0.409 1.557
 0.319 -0.406 1.544
 0.325 -0.402 1.529
 0.33 -0.397 1.509
 0.333 -0.391 1.481
 0.335 -0.382 1.447
 0.337 -0.376 1.42
 0.34 -0.37 1.394
 0.343 -0.364 1.369
 0.346 -0.358 1.347
 0 0 0
 0 0 0
 0 0 0
 0 0 0
 0 0 0
 0 0 0
 0 0 0
 0 0 0
 0 0 0
 0 0 0
 0 0 0
 0 0 0
 0 0 0
 0.331 -0.26 0.949
 0.333 -0.257 0.936
 0.339 -0.257 0.934
 0.339 -0.253 0.917
 0.343 -0.252 0.912
 0.34 -0.245 0.886
 0.342 -0.243 0.875
 0.342 -0.239 0.859
 0.341 -0.235 0.842
 0.34 -0.231 0.824
 0.342 -0.229 0.815
 0.341 -0.225 0.799
 0.343 -0.223 0.79
 0.347 -0.222 0.786
 0.349 -0.22 0.777
 0.349 -0.217 0.764
 0.351 -0.216 0.756
 0.352 -0.213 0.745
 0.352 -0.21 0.733
 0.354 -0.209 0.726
 0.357 -0.208 0.72
 0.361 -0.207 0.716
 0.363 -0.206 0.709
 0.366 -0.205 0.704
 0.368 -0.204 0.696
 0.371 -0.203 0.692
 0.372 -0.201 0.683
 0.374 -0.2 0.676
 0.376 -0.199 0.67
 0.38 -0.198 0.666
 0.382 -0.197 0.659
 0.395 -0.201 0.672
 0.376 -0.19 0.63
 -0.321 -0.159 0.554
 -0.318 -0.159 0.557
 -0.321 -0.162 0.57
 -0.322 -0.165 0.582
 -0.324 -0.168 0.594
 -0.326 -0.171 0.607
 -0.326 -0.173 0.618
 -0.325 -0.175 0.625
 -0.32 -0.175 0.626
 -0.312 -0.172 0.618
 -0.302 -0.169 0.607
 -0.294 -0.167 0.601
 -0.285 -0.164 0.591
 -0.282 -0.164 0.594
 -0.281 -0.166 0.604
 -0.281 -0.168 0.614
 -0.283 -0.172 0.628
 -0.289 -0.178 0.653
 -0.287 -0.18 0.66
 -0.287 -0.182 0.672
 -0.295 -0.19 0.702
 -0.386 -0.252 0.94
 -0.448 -0.297 1.113
 -0.487 -0.328 1.233
 -0.512 -0.35 1.32
 -0.521 -0.361 1.368
 -0.527 -0.372 1.41
 -0.526 -0.378 1.436
 -0.524 -0.383 1.457
 -0.522 -0.388 1.48
 -0.516 -0.39 1.492
 -0.507 -0.391 1.496
 -0.499 -0.391 1.499
 -0.49 -0.391 1.503
 -0.481 -0.392 1.507
 -0.472 -0.392 1.511
 -0.463 -0.392 1.514
 -0.454 -0.393 1.518
 -0.446 -0.393 1.521
 -0.437 -0.393 1.524
 -0.428 -0.394 1.527
 -0.419 -0.394 1.531
 -0.41 -0.394 1.534
 -0.401 -0.395 1.537
 -0.392 -0.395 1.541
 -0.383 -0.395 1.544
 -0.374 -0.396 1.547
 -0.365 -0.396 1.55
 -0.356 -0.397 1.554
 -0.347 -0.397 1.557
 -0.338 -0.398 1.561
 -0.329 -0.398 1.565
 -0.321 -0.399 1.569
 -0.312 -0.4 1.572
 -0.303 -0.4 1.577
 -0.294 -0.401 1.58
 -0.285 -0.401 1.584
 -0.276 -0.402 1.588
 -0.267 -0.403 1.592
 -0.258 -0.404 1.596
 -0.249 -0.404 1.599
 -0.24 -0.405 1.603
 -0.231 -0.406 1.607
 -0.221 -0.406 1.61
 -0.212 -0.407 1.613
 -0.203 -0.408 1.617
 -0.194 -0.408 1.621
 -0.185 -0.409 1.625
 -0.175 -0.41 1.629
 -0.166 -0.411 1.632
 -0.157 -0.412 1.636
 -0.147 -0.412 1.64
 -0.138 -0.413 1.643
 -0.129 -0.414 1.646
 -0.119 -0.415 1.65
 -0.11 -0.416 1.654
 -0.1 -0.416 1.657
 -0.091 -0.417 1.661
 -0.081 -0.418 1.665
 -0.071 -0.419 1.668
 -0.062 -0.42 1.672
 -0.052 -0.421 1.675
 -0.042 -0.421 1.679
 -0.032 -0.422 1.682
 -0.023 -0.423 1.686
 -0.013 -0.424 1.689
 -0.003 -0.425 1.693
 0.006 -0.426 1.696
 0.016 -0.426 1.698
 0.026 -0.427 1.701
 0.036 -0.428 1.703
 0.046 -0.429 1.706
 0.056 -0.429 1.708
 0.066 -0.43 1.71
 0.077 -0.431 1.712
 0.087 -0.431 1.713
 0.097 -0.431 1.714
 0.107 -0.431 1.714
 0.117 -0.431 1.713
 0.127 -0.431 1.71
 0.136 -0.43 1.706
 0.146 -0.428 1.699
 0.155 -0.426 1.688
 0.164 -0.423 1.675
 0.172 -0.42 1.662
 0.18 -0.416 1.647
 0.188 -0.413 1.631
 0.196 -0.409 1.616
 0.204 -0.405 1.599
 0.211 -0.401 1.583
 0.219 -0.399 1.572
 0.227 -0.396 1.56
 0.234 -0.392 1.543
 0.243 -0.393 1.544
 0.253 -0.395 1.55
 0.264 -0.396 1.555
 0.275 -0.399 1.563
 0.287 -0.403 1.579
 0.296 -0.403 1.576
 0.304 -0.401 1.567
 0.311 -0.398 1.553
 0.318 -0.396 1.542
 0.324 -0.392 1.525
 0.329 -0.388 1.507
 0.333 -0.381 1.479
 0.335 -0.374 1.449
 0.336 -0.366 1.417
 0.339 -0.359 1.389
 0.341 -0.353 1.363
 0.345 -0.349 1.347
 0.349 -0.345 1.327
 0 0 0
 0 0 0
 0 0 0
 0 0 0
 0 0 0
 0 0 0
 0 0 0
 0 0 0
 0 0 0
 0 0 0
 0 0 0
 0 0 0
 0.335 -0.257 0.962
 0.334 -0.252 0.94
 0.336 -0.249 0.927
 0.338 -0.246 0.915
 0.341 -0.244 0.906
 0.339 -0.239 0.885
 0.34 -0.236 0.871
 0.339 -0.232 0.854
 0.339 -0.228 0.837
 0.337 -0.224 0.819
 0.34 -0.222 0.811
 0.34 -0.219 0.797
 0.342 -0.217 0.789
 0.345 -0.216 0.781
 0.347 -0.214 0.772
 0.345 -0.21 0.757
 0.348 -0.209 0.75
 0.349 -0.207 0.74
 0.35 -0.204 0.729
 0.352 -0.203 0.723
 0.356 -0.203 0.719
 0.36 -0.202 0.715
 0.364 -0.202 0.712
 0.368 -0.202 0.709
 0.37 -0.2 0.702
 0.372 -0.199 0.695
 0.373 -0.197 0.685
 0.375 -0.196 0.679
 0.377 -0.195 0.673
 0.38 -0.194 0.668
 0.383 -0.193 0.662
 0.399 -0.199 0.68
 0.383 -0.189 0.643
 -0.323 -0.156 0.557
 -0.316 -0.155 0.554
 -0.32 -0.158 0.569
 -0.321 -0.161 0.581
 -0.324 -0.164 0.595
 -0.326 -0.167 0.608
 -0.325 -0.168 0.615
 -0.322 -0.169 0.619
 -0.313 -0.167 0.613
 -0.3 -0.162 0.595
 -0.286 -0.156 0.576
 -0.276 -0.153 0.564
 -0.267 -0.15 0.554
 -0.263 -0.15 0.556
 -0.264 -0.152 0.566
 -0.266 -0.155 0.58
 -0.271 -0.161 0.601
 -0.28 -0.168 0.632
 -0.279 -0.17 0.641
 -0.28 -0.174 0.657
 -0.32 -0.201 0.764
 -0.437 -0.278 1.067
 -0.487 -0.315 1.213
 -0.51 -0.335 1.293
 -0.521 -0.348 1.346
 -0.525 -0.356 1.381
 -0.529 -0.364 1.418
