 1.821 -1.568 4.128
 1.833 -1.566 4.119
 1.843 -1.563 4.106
 1.851 -1.559 4.09
 1.859 -1.555 4.073
 1.863 -1.548 4.048
 1.869 -1.542 4.027
 1.873 -1.535 4.002
 1.883 -1.532 3.989
 1.886 -1.524 3.964
 1.894 -1.52 3.948
 1.897 -1.513 3.922
 1.898 -1.503 3.892
 1.888 -1.485 3.84
 1.898 -1.483 3.829
 1.905 -1.479 3.812
 1.901 -1.467 3.774
 0 0 0
 0 0 0
 0 0 0
 0 0 0
 0 0 0
 0 0 0
 0 0 0
 0 0 0
 0 0 0
 0 0 0
 0 0 0
 0 0 0
 0 0 0
 0 0 0
 0 0 0
 0 0 0
 1.805 -1.254 3.138
 1.826 -1.261 3.149
 1.829 -1.256 3.131
 1.835 -1.253 3.118
 1.838 -1.248 3.1
 1.844 -1.245 3.086
 1.84 -1.236 3.057
 1.824 -1.218 3.008
 1.868 -1.24 3.057
 0 0 0
 -2.412 -1.613 4.127
 -2.387 -1.606 4.114
 -2.37 -1.604 4.117
 -2.361 -1.608 4.132
 -2.347 -1.608 4.139
 -2.325 -1.602 4.131
 -2.31 -1.601 4.135
 -2.297 -1.602 4.144
 -2.281 -1.6 4.147
 -2.267 -1.601 4.154
 -2.253 -1.601 4.161
 -2.24 -1.602 4.169
 -2.228 -1.603 4.178
 -2.214 -1.603 4.185
 -2.198 -1.601 4.187
 -2.185 -1.602 4.195
 -2.168 -1.6 4.196
 -2.151 -1.598 4.196
 -2.138 -1.598 4.203
 -2.128 -1.601 4.218
 -2.114 -1.601 4.224
 -2.1 -1.602 4.23
 -2.087 -1.602 4.238
 -2.07 -1.599 4.236
 -2.052 -1.597 4.236
 -2.04 -1.599 4.245
 -2.026 -1.598 4.25
 -2.011 -1.597 4.253
 -1.998 -1.598 4.262
 -1.984 -1.598 4.267
 -1.967 -1.595 4.265
 -1.95 -1.593 4.264
 -1.933 -1.591 4.263
 -1.919 -1.59 4.267
 -1.904 -1.589 4.27
 -1.887 -1.587 4.268
 -1.875 -1.589 4.278
 -1.86 -1.588 4.281
 -1.846 -1.587 4.284
 -1.83 -1.585 4.285
 -1.818 -1.587 4.295
 -1.8 -1.584 4.29
 -1.786 -1.583 4.293
 -1.771 -1.582 4.295
 -1.753 -1.578 4.29
 -1.74 -1.579 4.297
 -1.726 -1.579 4.3
 -1.712 -1.579 4.305
 -1.697 -1.578 4.307
 -1.684 -1.578 4.313
 -1.667 -1.575 4.309
 -1.653 -1.575 4.314
 -1.638 -1.574 4.315
 -1.622 -1.572 4.313
 -1.608 -1.571 4.316
 -1.593 -1.57 4.317
 -1.576 -1.567 4.311
 -1.562 -1.566 4.313
 -1.545 -1.562 4.308
 -1.529 -1.56 4.306
 -1.513 -1.558 4.304
 -1.497 -1.555 4.3
 -1.481 -1.552 4.296
 -1.466 -1.551 4.295
 -1.45 -1.549 4.294
 -1.435 -1.547 4.292
 -1.422 -1.548 4.298
 -1.408 -1.547 4.3
 -1.393 -1.546 4.299
 -1.379 -1.544 4.299
 -1.365 -1.544 4.301
 -1.351 -1.543 4.304
 -1.335 -1.54 4.298
 -1.322 -1.541 4.304
 -1.309 -1.541 4.307
 -1.293 -1.538 4.302
 -1.278 -1.536 4.3
 -1.264 -1.535 4.301
 -1.247 -1.531 4.293
 -1.232 -1.529 4.289
 -1.218 -1.527 4.288
 -1.204 -1.527 4.29
 -1.191 -1.528 4.295
 -1.178 -1.528 4.298
 -1.165 -1.528 4.3
 -1.152 -1.528 4.304
 -1.137 -1.526 4.302
 -1.122 -1.524 4.298
 -1.109 -1.523 4.3
 -1.093 -1.521 4.295
 -1.079 -1.519 4.292
 -1.065 -1.517 4.29
 -1.052 -1.518 4.294
 -1.037 -1.516 4.291
 -1.024 -1.515 4.292
 -1.009 -1.513 4.287
 -0.995 -1.512 4.288
 -0.981 -1.51 4.285
 -0.968 -1.511 4.289
 -0.955 -1.511 4.291
 -0.943 -1.513 4.3
 -0.929 -1.51 4.295
 -0.914 -1.508 4.291
 -0.9 -1.507 4.289
 -0.887 -1.506 4.289
 -0.872 -1.503 4.283
 -0.859 -1.503 4.284
 -0.847 -1.505 4.292
 -0.833 -1.503 4.289
 -0.819 -1.502 4.288
 -0.807 -1.503 4.291
 -0.792 -1.501 4.287
 -0.778 -1.497 4.279
 -0.764 -1.496 4.277
 -0.751 -1.495 4.275
 -0.737 -1.494 4.276
 -0.725 -1.496 4.283
 -0.712 -1.495 4.28
 -0.698 -1.493 4.277
 -0.685 -1.492 4.277
 -0.671 -1.49 4.272
 -0.658 -1.489 4.271
 -0.645 -1.491 4.276
 -0.633 -1.491 4.28
 -0.62 -1.491 4.281
 -0.607 -1.491 4.283
 -0.593 -1.489 4.278
 -0.58 -1.489 4.279
 -0.567 -1.489 4.281
 -0.554 -1.489 4.281
 -0.54 -1.486 4.273
 -0.528 -1.488 4.28
 -0.515 -1.487 4.279
 -0.502 -1.486 4.276
 -0.488 -1.484 4.273
 -0.476 -1.484 4.274
 -0.463 -1.484 4.275
 -0.449 -1.483 4.272
 -0.437 -1.485 4.278
 -0.424 -1.485 4.28
 -0.412 -1.487 4.286
 -0.399 -1.486 4.284
 -0.386 -1.487 4.288
 -0.373 -1.485 4.284
 -0.36 -1.486 4.285
 -0.347 -1.484 4.281
 -0.334 -1.483 4.278
 -0.321 -1.48 4.27
 -0.308 -1.48 4.271
 -0.295 -1.479 4.269
 -0.282 -1.48 4.272
 -0.269 -1.48 4.272
 -0.257 -1.481 4.277
 -0.244 -1.48 4.275
 -0.231 -1.479 4.272
 -0.218 -1.477 4.267
 -0.205 -1.478 4.269
 -0.192 -1.476 4.264
 -0.18 -1.476 4.264
 -0.167 -1.477 4.268
 -0.154 -1.477 4.268
 -0.141 -1.476 4.264
 -0.129 -1.475 4.263
 -0.116 -1.475 4.264
 -0.103 -1.474 4.26
 -0.09 -1.474 4.26
 -0.078 -1.474 4.258
 -0.065 -1.475 4.262
 -0.052 -1.475 4.261
 -0.04 -1.475 4.262
 -0.027 -1.475 4.263
 -0.014 -1.477 4.267
 -0.001 -1.479 4.273
 0.01 -1.478 4.271
 0.023 -1.479 4.272
 0.036 -1.48 4.275
 0.049 -1.479 4.273
 0.061 -1.478 4.269
 0.074 -1.479 4.273
 0.087 -1.479 4.272
 0.099 -1.478 4.268
 0.112 -1.477 4.266
 0.125 -1.477 4.263
 0.137 -1.477 4.264
 0.15 -1.478 4.266
 0.163 -1.477 4.264
 0.176 -1.477 4.262
 0.188 -1.476 4.259
 0.201 -1.476 4.257
 0.213 -1.473 4.249
 0.226 -1.475 4.255
 0.239 -1.476 4.255
 0.252 -1.475 4.253
 0.264 -1.476 4.253
 0.277 -1.477 4.255
 0.29 -1.478 4.259
 0.303 -1.479 4.262
 0.316 -1.48 4.261
 0.329 -1.48 4.263
 0.341 -1.48 4.26
 0.354 -1.478 4.253
 0.366 -1.478 4.251
 0.379 -1.479 4.253
 0.392 -1.477 4.249
 0.404 -1.477 4.246
 0.417 -1.477 4.244
 0.429 -1.476 4.24
 0.442 -1.477 4.241
 0.455 -1.476 4.238
 0.468 -1.478 4.243
 0.481 -1.479 4.244
 0.494 -1.48 4.245
 0.506 -1.479 4.241
 0.52 -1.481 4.246
 0.533 -1.481 4.245
 0.546 -1.483 4.248
 0.559 -1.483 4.247
 0.571 -1.483 4.245
 0.584 -1.481 4.239
 0.596 -1.481 4.237
 0.609 -1.481 4.233
 0.622 -1.482 4.237
 0.636 -1.484 4.24
 0.649 -1.486 4.244
 0.662 -1.487 4.245
 0.676 -1.488 4.246
 0.689 -1.488 4.245
 0.702 -1.489 4.246
 0.714 -1.488 4.239
 0.726 -1.488 4.237
 0.739 -1.488 4.236
 0.752 -1.488 4.235
 0.765 -1.489 4.234
 0.779 -1.492 4.24
 0.793 -1.493 4.24
 0.806 -1.494 4.243
 0.82 -1.495 4.242
 0.832 -1.495 4.24
 0.845 -1.495 4.238
 0.858 -1.495 4.236
 0.871 -1.495 4.233
 0.884 -1.495 4.232
 0.897 -1.496 4.231
 0.909 -1.495 4.226
 0.923 -1.496 4.225
 0.936 -1.497 4.226
 0.949 -1.496 4.222
 0.963 -1.498 4.225
 0.977 -1.5 4.227
 0.991 -1.503 4.232
 1.004 -1.503 4.229
 1.018 -1.504 4.231
 1.032 -1.506 4.234
 1.046 -1.508 4.236
 1.059 -1.508 4.233
 1.074 -1.511 4.238
 1.088 -1.513 4.24
 1.099 -1.51 4.228
 1.112 -1.51 4.226
 1.125 -1.51 4.222
 1.139 -1.511 4.223
 1.154 -1.514 4.226
 1.168 -1.515 4.229
 1.182 -1.517 4.229
 1.197 -1.519 4.231
 1.21 -1.519 4.228
 1.222 -1.518 4.222
 1.236 -1.52 4.224
 1.25 -1.52 4.222
 1.262 -1.52 4.217
 1.276 -1.52 4.214
 1.29 -1.521 4.214
 1.302 -1.521 4.209
 1.318 -1.524 4.215
 1.332 -1.525 4.213
 1.346 -1.527 4.214
 1.36 -1.527 4.212
 1.377 -1.532 4.219
 1.391 -1.533 4.218
 1.404 -1.533 4.216
 1.418 -1.534 4.213
 1.433 -1.536 4.214
 1.445 -1.534 4.207
 1.458 -1.534 4.201
 1.475 -1.538 4.209
 1.49 -1.54 4.21
 1.502 -1.539 4.204
 1.517 -1.541 4.205
 1.533 -1.544 4.208
 1.545 -1.543 4.201
 1.558 -1.543 4.196
 1.574 -1.546 4.199
 1.589 -1.547 4.197
 1.602 -1.547 4.194
 1.617 -1.549 4.192
 1.633 -1.551 4.195
 1.648 -1.553 4.194
 1.662 -1.554 4.193
 1.676 -1.555 4.19
 1.691 -1.556 4.189
 1.704 -1.556 4.183
 1.717 -1.556 4.178
 1.731 -1.556 4.174
 1.746 -1.558 4.173
 1.759 -1.558 4.168
 1.775 -1.56 4.168
 1.789 -1.561 4.165
 1.803 -1.561 4.161
 1.814 -1.559 4.151
 1.826 -1.558 4.143
 1.835 -1.555 4.128
 1.844 -1.551 4.113
 1.85 -1.545 4.091
 1.856 -1.539 4.069
 1.859 -1.531 4.043
 1.865 -1.525 4.023
 1.872 -1.52 4.004
 1.882 -1.518 3.992
 1.886 -1.511 3.967
 1.896 -1.508 3.956
 1.902 -1.503 3.935
 1.902 -1.493 3.904
 1.892 -1.476 3.853
 1.901 -1.473 3.84
 1.901 -1.463 3.808
 0 0 0
 0 0 0
 0 0 0
 0 0 0
 0 0 0
 0 0 0
 0 0 0
 0 0 0
 0 0 0
 0 0 0
 0 0 0
 0 0 0
 0 0 0
 0 0 0
 0 0 0
 0 0 0
 0 0 0
 1.811 -1.247 3.151
 1.827 -1.251 3.155
 1.831 -1.247 3.138
 1.839 -1.245 3.128
 1.844 -1.242 3.114
 1.846 -1.236 3.094
 1.842 -1.226 3.063
 1.882 -1.246 3.107
 1.84 -1.211 3.015
 0 0 0
 -2.388 -1.583 4.09
 -2.415 -1.611 4.167
 -2.396 -1.607 4.166
 -2.376 -1.603 4.163
 -2.357 -1.6 4.161
 -2.327 -1.589 4.139
 -2.315 -1.591 4.15
 -2.304 -1.593 4.162
 -2.293 -1.595 4.174
 -2.283 -1.598 4.187
 -2.271 -1.6 4.199
 -2.258 -1.601 4.208
 -2.245 -1.601 4.215
 -2.226 -1.597 4.212
 -2.207 -1.594 4.209
 -2.191 -1.593 4.212
 -2.174 -1.59 4.212
 -2.158 -1.589 4.214
 -2.146 -1.59 4.224
 -2.136 -1.593 4.238
 -2.124 -1.595 4.249
 -2.109 -1.594 4.252
 -2.094 -1.594 4.257
 -2.079 -1.593 4.26
 -2.063 -1.592 4.263
 -2.049 -1.591 4.269
 -2.036 -1.592 4.276
 -2.021 -1.591 4.279
 -2.008 -1.592 4.287
 -1.993 -1.591 4.291
 -1.977 -1.59 4.291
 -1.96 -1.587 4.29
 -1.944 -1.586 4.292
 -1.928 -1.584 4.292
 -1.915 -1.585 4.299
 -1.897 -1.581 4.295
 -1.883 -1.582 4.302
 -1.866 -1.579 4.299
 -1.851 -1.578 4.302
 -1.833 -1.574 4.296
 -1.821 -1.576 4.305
 -1.802 -1.572 4.3
 -1.788 -1.571 4.303
 -1.772 -1.57 4.304
 -1.756 -1.567 4.302
 -1.741 -1.567 4.305
 -1.727 -1.567 4.309
 -1.714 -1.567 4.314
 -1.699 -1.566 4.316
 -1.685 -1.565 4.319
 -1.668 -1.563 4.317
 -1.654 -1.562 4.32
 -1.639 -1.561 4.32
 -1.623 -1.559 4.319
 -1.609 -1.558 4.322
 -1.593 -1.556 4.321
 -1.577 -1.554 4.318
 -1.561 -1.551 4.315
 -1.544 -1.549 4.312
 -1.528 -1.546 4.309
 -1.514 -1.545 4.31
 -1.497 -1.542 4.306
 -1.483 -1.541 4.307
 -1.467 -1.539 4.304
 -1.452 -1.537 4.302
 -1.436 -1.535 4.3
 -1.423 -1.535 4.303
 -1.408 -1.534 4.304
 -1.394 -1.533 4.305
 -1.381 -1.533 4.31
 -1.366 -1.531 4.308
 -1.353 -1.532 4.313
 -1.336 -1.529 4.307
 -1.322 -1.527 4.307
 -1.308 -1.527 4.308
 -1.293 -1.524 4.305
 -1.277 -1.522 4.302
 -1.264 -1.522 4.306
 -1.249 -1.52 4.302
 -1.232 -1.516 4.294
 -1.218 -1.514 4.293
 -1.203 -1.513 4.292
 -1.191 -1.514 4.297
 -1.177 -1.513 4.298
 -1.164 -1.514 4.303
 -1.15 -1.513 4.304
 -1.136 -1.512 4.303
 -1.12 -1.507 4.293
 -1.107 -1.508 4.297
 -1.092 -1.505 4.292
 -1.079 -1.506 4.296
 -1.064 -1.504 4.294
 -1.052 -1.505 4.3
 -1.038 -1.504 4.298
 -1.024 -1.503 4.298
 -1.009 -1.5 4.293
 -0.996 -1.5 4.294
 -0.981 -1.498 4.29
 -0.968 -1.497 4.292
 -0.955 -1.497 4.295
 -0.942 -1.498 4.3
 -0.928 -1.497 4.297
 -0.914 -1.495 4.295
 -0.9 -1.493 4.291
 -0.887 -1.493 4.293
 -0.872 -1.49 4.287
 -0.858 -1.489 4.285
 -0.846 -1.49 4.289
 -0.832 -1.488 4.286
 -0.818 -1.486 4.283
 -0.805 -1.487 4.287
 -0.792 -1.487 4.288
 -0.778 -1.485 4.284
 -0.765 -1.484 4.285
 -0.751 -1.483 4.282
 -0.738 -1.482 4.281
 -0.725 -1.482 4.283
 -0.711 -1.48 4.28
 -0.697 -1.478 4.276
 -0.684 -1.478 4.277
 -0.671 -1.477 4.274
 -0.657 -1.476 4.274
 -0.645 -1.477 4.278
 -0.632 -1.478 4.282
 -0.619 -1.477 4.281
 -0.606 -1.477 4.283
 -0.592 -1.475 4.277
 -0.579 -1.474 4.276
 -0.567 -1.475 4.279
 -0.554 -1.475 4.282
 -0.54 -1.473 4.278
 -0.528 -1.475 4.284
 -0.516 -1.476 4.287
 -0.502 -1.475 4.285
 -0.488 -1.472 4.278
 -0.475 -1.471 4.276
 -0.463 -1.472 4.281
 -0.449 -1.47 4.277
 -0.437 -1.471 4.28
 -0.424 -1.472 4.284
 -0.412 -1.475 4.293
 -0.399 -1.473 4.289
 -0.386 -1.474 4.29
 -0.373 -1.472 4.286
 -0.36 -1.472 4.288
 -0.347 -1.47 4.281
 -0.334 -1.469 4.28
 -0.321 -1.467 4.274
 -0.308 -1.467 4.276
 -0.295 -1.466 4.272
 -0.282 -1.466 4.274
 -0.269 -1.467 4.276
 -0.257 -1.469 4.283
 -0.244 -1.468 4.281
 -0.231 -1.467 4.279
 -0.218 -1.466 4.275
 -0.205 -1.465 4.272
 -0.192 -1.463 4.267
 -0.18 -1.463 4.268
 -0.167 -1.464 4.271
 -0.154 -1.463 4.269
 -0.141 -1.464 4.27
 -0.129 -1.463 4.269
 -0.116 -1.464 4.271
 -0.103 -1.463 4.269
 -0.09 -1.463 4.268
 -0.078 -1.462 4.264
 -0.065 -1.463 4.269
 -0.052 -1.463 4.267
 -0.04 -1.464 4.271
 -0.027 -1.464 4.272
 -0.014 -1.465 4.275
 -0.001 -1.467 4.279
 0.01 -1.465 4.272
 0.023 -1.465 4.272
 0.036 -1.466 4.276
 0.049 -1.465 4.272
 0.061 -1.463 4.267
 0.074 -1.465 4.273
 0.087 -1.465 4.271
 0.099 -1.463 4.266
 0.112 -1.463 4.265
 0.125 -1.461 4.26
 0.137 -1.461 4.259
 0.15 -1.462 4.26
 0.163 -1.462 4.259
 0.175 -1.461 4.258
 0.188 -1.461 4.257
 0.201 -1.462 4.257
 0.213 -1.46 4.253
 0.226 -1.463 4.259
 0.239 -1.464 4.262
 0.252 -1.463 4.259
 0.264 -1.463 4.258
 0.277 -1.463 4.258
 0.29 -1.466 4.263
 0.303 -1.466 4.265
 0.316 -1.467 4.264
 0.329 -1.467 4.265
 0.342 -1.467 4.263
 0.353 -1.464 4.252
 0.366 -1.463 4.251
 0.379 -1.464 4.252
 0.392 -1.464 4.25
 0.404 -1.463 4.247
 0.417 -1.463 4.246
 0.429 -1.463 4.244
 0.442 -1.463 4.243
 0.455 -1.462 4.24
 0.468 -1.463 4.241
 0.48 -1.464 4.242
 0.493 -1.465 4.242
 0.506 -1.465 4.242
 0.52 -1.468 4.248
 0.533 -1.469 4.249
 0.546 -1.47 4.251
 0.559 -1.47 4.25
 0.571 -1.468 4.244
 0.582 -1.465 4.233
 0.596 -1.467 4.236
 0.608 -1.466 4.233
 0.622 -1.468 4.237
 0.635 -1.471 4.242
 0.649 -1.474 4.249
 0.662 -1.474 4.247
 0.676 -1.475 4.25
 0.688 -1.475 4.248
 0.702 -1.476 4.249
 0.714 -1.475 4.243
 0.726 -1.474 4.237
 0.738 -1.472 4.232
 0.751 -1.473 4.233
 0.764 -1.474 4.233
 0.778 -1.476 4.236
 0.792 -1.478 4.24
 0.806 -1.48 4.243
 0.819 -1.481 4.243
 0.832 -1.481 4.24
 0.845 -1.481 4.239
 0.858 -1.481 4.238
 0.872 -1.483 4.24
 0.885 -1.484 4.239
 0.898 -1.485 4.239
 0.91 -1.483 4.233
 0.924 -1.485 4.236
 0.937 -1.486 4.235
 0.95 -1.485 4.23
 0.963 -1.486 4.232
 0.978 -1.489 4.235
 0.991 -1.49 4.236
 1.004 -1.489 4.232
 1.018 -1.49 4.232
 1.032 -1.492 4.235
 1.046 -1.494 4.236
 1.058 -1.494 4.232
 1.073 -1.496 4.236
 1.087 -1.498 4.238
 1.098 -1.496 4.229
 1.112 -1.496 4.227
 1.125 -1.497 4.226
 1.139 -1.498 4.226
 1.154 -1.5 4.23
 1.168 -1.502 4.232
 1.182 -1.504 4.233
 1.196 -1.505 4.233
 1.209 -1.505 4.23
 1.221 -1.503 4.221
 1.234 -1.504 4.22
 1.248 -1.505 4.218
 1.261 -1.505 4.215
 1.274 -1.505 4.214
 1.289 -1.507 4.215
 1.302 -1.508 4.213
 1.318 -1.511 4.218
 1.332 -1.512 4.218
 1.346 -1.513 4.216
 1.36 -1.514 4.216
 1.376 -1.518 4.221
 1.391 -1.519 4.221
 1.404 -1.519 4.218
 1.418 -1.521 4.218
 1.433 -1.522 4.219
 1.446 -1.522 4.213
 1.457 -1.52 4.204
 1.473 -1.523 4.209
 1.489 -1.526 4.212
 1.501 -1.525 4.204
 1.515 -1.526 4.204
 1.531 -1.529 4.207
 1.545 -1.53 4.205
 1.558 -1.53 4.2
 1.574 -1.533 4.203
 1.59 -1.535 4.204
 1.603 -1.535 4.2
 1.617 -1.535 4.197
 1.632 -1.537 4.197
 1.647 -1.539 4.197
 1.66 -1.539 4.192
 1.675 -1.54 4.19
 1.689 -1.541 4.189
 1.702 -1.541 4.183
 1.715 -1.541 4.178
 1.73 -1.542 4.177
 1.746 -1.544 4.177
 1.759 -1.544 4.173
 1.774 -1.546 4.172
 1.787 -1.545 4.164
 1.8 -1.545 4.159
 1.812 -1.544 4.151
 1.823 -1.542 4.141
 1.834 -1.54 4.129
 1.843 -1.537 4.116
 1.848 -1.53 4.092
 1.855 -1.525 4.073
 1.862 -1.52 4.053
 1.866 -1.513 4.029
 1.875 -1.51 4.015
 1.885 -1.507 4.002
 1.888 -1.5 3.977
 1.897 -1.496 3.961
 1.905 -1.493 3.947
 1.907 -1.484 3.919
 1.906 -1.474 3.885
 0 0 0
 0 0 0
 0 0 0
 0 0 0
 0 0 0
 0 0 0
 0 0 0
 0 0 0
 0 0 0
 0 0 0
 0 0 0
 0 0 0
 0 0 0
 0 0 0
 0 0 0
 0 0 0
 0 0 0
 0 0 0
 0 0 0
 1.81 -1.236 3.153
 1.821 -1.237 3.149
 1.833 -1.237 3.145
 1.84 -1.235 3.134
 1.848 -1.233 3.123
 1.852 -1.229 3.107
 1.851 -1.222 3.083
 1.863 -1.222 3.079
 1.807 -1.179 2.965
 0 0 0
 0 0 0
 -2.436 -1.61 4.209
 -2.416 -1.607 4.206
 -2.394 -1.602 4.2
 -2.371 -1.596 4.191
 -2.344 -1.587 4.174
 -2.323 -1.583 4.17
 -2.31 -1.583 4.178
 -2.3 -1.586 4.192
 -2.291 -1.59 4.208
 -2.277 -1.59 4.215
 -2.27 -1.594 4.234
 -2.26 -1.597 4.248
 -2.24 -1.593 4.244
 -2.222 -1.591 4.243
 -2.206 -1.59 4.246
 -2.188 -1.587 4.244
 -2.171 -1.584 4.244
 -2.162 -1.588 4.261
 -2.151 -1.591 4.273
 -2.139 -1.592 4.284
 -2.12 -1.589 4.28
 -2.105 -1.588 4.284
 -2.087 -1.585 4.282
 -2.07 -1.583 4.283
 -2.055 -1.582 4.285
 -2.039 -1.581 4.287
 -2.024 -1.58 4.291
 -2.01 -1.58 4.296
 -1.995 -1.579 4.3
 -1.98 -1.579 4.304
 -1.967 -1.579 4.311
 -1.95 -1.577 4.311
 -1.933 -1.575 4.309
 -1.921 -1.576 4.318
 -1.901 -1.571 4.311
 -1.886 -1.57 4.312
 -1.869 -1.568 4.311
 -1.854 -1.567 4.314
 -1.836 -1.563 4.307
 -1.824 -1.565 4.317
 -1.807 -1.562 4.315
 -1.792 -1.561 4.317
 -1.776 -1.559 4.316
 -1.758 -1.556 4.313
 -1.744 -1.555 4.316
 -1.729 -1.554 4.316
 -1.714 -1.553 4.319
 -1.7 -1.553 4.324
 -1.686 -1.553 4.327
 -1.669 -1.55 4.323
 -1.655 -1.55 4.327
 -1.639 -1.547 4.325
 -1.622 -1.544 4.32
 -1.607 -1.543 4.322
 -1.591 -1.541 4.32
 -1.574 -1.537 4.314
 -1.558 -1.536 4.313
 -1.544 -1.535 4.315
 -1.528 -1.533 4.313
 -1.515 -1.533 4.317
 -1.499 -1.531 4.316
 -1.484 -1.529 4.316
 -1.467 -1.526 4.309
 -1.452 -1.524 4.308
 -1.437 -1.522 4.305
 -1.422 -1.52 4.305
 -1.409 -1.521 4.311
 -1.394 -1.52 4.311
 -1.381 -1.52 4.316
 -1.365 -1.517 4.311
 -1.352 -1.518 4.316
 -1.336 -1.514 4.309
 -1.322 -1.514 4.311
 -1.307 -1.513 4.311
 -1.293 -1.512 4.312
 -1.278 -1.51 4.31
 -1.265 -1.51 4.313
 -1.249 -1.507 4.308
 -1.233 -1.504 4.302
 -1.219 -1.502 4.3
 -1.205 -1.502 4.301
 -1.192 -1.502 4.305
 -1.178 -1.502 4.307
 -1.165 -1.501 4.31
 -1.15 -1.5 4.308
 -1.136 -1.498 4.305
 -1.119 -1.494 4.295
 -1.106 -1.493 4.297
 -1.091 -1.491 4.293
 -1.078 -1.492 4.299
 -1.064 -1.491 4.297
 -1.051 -1.49 4.299
 -1.037 -1.49 4.3
 -1.024 -1.489 4.301
 -1.009 -1.487 4.298
 -0.996 -1.487 4.298
 -0.982 -1.486 4.299
 -0.969 -1.486 4.301
 -0.955 -1.485 4.299
 -0.942 -1.485 4.304
 -0.928 -1.483 4.3
 -0.914 -1.482 4.298
 -0.899 -1.479 4.292
 -0.886 -1.479 4.293
 -0.871 -1.476 4.286
 -0.858 -1.475 4.286
 -0.844 -1.475 4.287
 -0.831 -1.474 4.288
 -0.818 -1.474 4.289
 -0.805 -1.474 4.292
 -0.792 -1.474 4.292
 -0.779 -1.473 4.292
 -0.765 -1.472 4.291
 -0.752 -1.471 4.289
 -0.738 -1.47 4.288
 -0.725 -1.47 4.291
 -0.711 -1.468 4.284
 -0.697 -1.466 4.282
 -0.684 -1.465 4.281
 -0.67 -1.464 4.278
 -0.658 -1.464 4.28
 -0.645 -1.465 4.284
 -0.632 -1.465 4.286
 -0.619 -1.465 4.286
 -0.607 -1.465 4.289
 -0.593 -1.463 4.284
 -0.58 -1.463 4.286
 -0.567 -1.464 4.29
 -0.555 -1.464 4.291
 -0.541 -1.463 4.29
 -0.529 -1.465 4.296
 -0.516 -1.465 4.296
 -0.503 -1.464 4.294
 -0.489 -1.461 4.286
 -0.475 -1.458 4.28
 -0.462 -1.458 4.281
 -0.449 -1.456 4.275
 -0.436 -1.456 4.277
 -0.424 -1.458 4.284
 -0.412 -1.461 4.293
 -0.399 -1.46 4.29
 -0.386 -1.461 4.295
 -0.373 -1.46 4.291
 -0.36 -1.459 4.289
 -0.347 -1.457 4.284
 -0.333 -1.455 4.28
 -0.321 -1.454 4.279
 -0.308 -1.456 4.283
 -0.295 -1.455 4.282
 -0.282 -1.455 4.282
 -0.27 -1.456 4.285
 -0.257 -1.456 4.285
 -0.244 -1.455 4.283
 -0.231 -1.454 4.279
 -0.218 -1.453 4.278
 -0.205 -1.452 4.275
 -0.192 -1.451 4.272
 -0.179 -1.45 4.272
 -0.167 -1.451 4.273
 -0.154 -1.45 4.271
 -0.141 -1.45 4.27
 -0.128 -1.449 4.267
 -0.116 -1.448 4.266
 -0.103 -1.447 4.263
 -0.09 -1.447 4.261
 -0.077 -1.446 4.259
 -0.065 -1.447 4.262
 -0.052 -1.447 4.263
 -0.039 -1.448 4.265
 -0.027 -1.449 4.269
 -0.014 -1.45 4.272
 -0.001 -1.453 4.278
 0.01 -1.451 4.273
 0.023 -1.452 4.275
 0.036 -1.452 4.277
 0.049 -1.452 4.275
 0.061 -1.45 4.269
 0.074 -1.452 4.275
 0.087 -1.451 4.272
 0.099 -1.449 4.266
 0.112 -1.449 4.266
 0.125 -1.448 4.26
 0.137 -1.447 4.257
 0.15 -1.447 4.256
 0.163 -1.447 4.257
 0.175 -1.446 4.253
 0.188 -1.446 4.252
 0.2 -1.445 4.249
 0.213 -1.445 4.249
 0.226 -1.448 4.256
 0.239 -1.449 4.259
 0.252 -1.449 4.257
 0.264 -1.45 4.259
 0.277 -1.45 4.259
 0.29 -1.451 4.262
 0.303 -1.452 4.264
 0.316 -1.454 4.268
 0.329 -1.454 4.268
 0.341 -1.453 4.265
 0.353 -1.45 4.254
 0.365 -1.448 4.247
 0.378 -1.449 4.249
 0.391 -1.449 4.247
 0.404 -1.449 4.245
 0.417 -1.449 4.246
 0.43 -1.451 4.25
 0.442 -1.451 4.248
 0.455 -1.451 4.246
 0.468 -1.451 4.246
 0.481 -1.452 4.247
 0.494 -1.453 4.249
 0.506 -1.453 4.247
 0.52 -1.455 4.252
 0.533 -1.457 4.257
 0.546 -1.458 4.258
 0.558 -1.456 4.25
 0.571 -1.455 4.247
 0.583 -1.453 4.238
 0.595 -1.453 4.237
 0.608 -1.453 4.235
 0.622 -1.456 4.242
 0.636 -1.459 4.248
 0.65 -1.461 4.254
 0.663 -1.462 4.255
 0.677 -1.464 4.258
 0.69 -1.465 4.258
 0.702 -1.464 4.254
 0.714 -1.463 4.248
 0.726 -1.461 4.243
 0.738 -1.46 4.236
 0.751 -1.46 4.233
 0.764 -1.46 4.232
 0.777 -1.461 4.235
 0.79 -1.462 4.235
 0.804 -1.465 4.239
 0.818 -1.466 4.24
 0.831 -1.466 4.238
 0.844 -1.466 4.237
 0.857 -1.467 4.238
 0.871 -1.47 4.242
 0.885 -1.472 4.246
 0.899 -1.473 4.246
 0.912 -1.473 4.246
 0.926 -1.475 4.247
 0.938 -1.474 4.242
 0.95 -1.473 4.237
 0.965 -1.475 4.241
 0.978 -1.476 4.241
 0.991 -1.477 4.239
 1.004 -1.477 4.236
 1.017 -1.477 4.233
 1.03 -1.478 4.233
 1.044 -1.479 4.235
 1.057 -1.479 4.232
 1.071 -1.48 4.233
 1.085 -1.481 4.233
 1.097 -1.48 4.226
 1.11 -1.481 4.225
 1.123 -1.481 4.224
 1.138 -1.483 4.226
 1.153 -1.486 4.231
 1.167 -1.487 4.231
 1.181 -1.489 4.232
 1.195 -1.491 4.234
 1.209 -1.492 4.233
 1.221 -1.491 4.228
 1.236 -1.492 4.229
 1.249 -1.493 4.226
 1.262 -1.493 4.224
 1.276 -1.494 4.223
 1.29 -1.495 4.222
 1.303 -1.496 4.22
 1.319 -1.499 4.226
 1.333 -1.499 4.223
 1.346 -1.499 4.219
 1.36 -1.501 4.22
 1.376 -1.504 4.225
 1.389 -1.504 4.221
 1.404 -1.506 4.222
 1.418 -1.507 4.222
 1.433 -1.509 4.224
 1.446 -1.509 4.218
 1.458 -1.508 4.21
 1.474 -1.51 4.214
 1.488 -1.512 4.214
 1.501 -1.511 4.208
 1.516 -1.514 4.211
 1.532 -1.517 4.214
 1.546 -1.517 4.211
 1.561 -1.519 4.211
 1.577 -1.521 4.213
 1.591 -1.522 4.212
 1.604 -1.522 4.207
 1.618 -1.523 4.203
 1.631 -1.523 4.199
 1.645 -1.524 4.197
 1.659 -1.524 4.193
 1.673 -1.525 4.19
 1.687 -1.526 4.188
 1.701 -1.526 4.184
 1.714 -1.527 4.18
 1.729 -1.527 4.177
 1.744 -1.529 4.178
 1.759 -1.53 4.176
 1.772 -1.531 4.171
 1.784 -1.53 4.163
 1.798 -1.53 4.159
 1.811 -1.53 4.152
 1.821 -1.527 4.14
 1.833 -1.526 4.132
 1.844 -1.525 4.122
 1.849 -1.517 4.097
 1.855 -1.511 4.076
 1.864 -1.508 4.062
 1.869 -1.502 4.039
 1.877 -1.498 4.022
 1.886 -1.495 4.008
 1.891 -1.489 3.987
 1.897 -1.483 3.966
 1.906 -1.48 3.953
 1.903 -1.468 3.915
 0 0 0
 0 0 0
 0 0 0
 0 0 0
 0 0 0
 0 0 0
 0 0 0
 0 0 0
 0 0 0
 0 0 0
 0 0 0
 0 0 0
 0 0 0
 0 0 0
 0 0 0
 0 0 0
 0 0 0
 0 0 0
 0 0 0
 0 0 0
 1.801 -1.219 3.141
 1.818 -1.224 3.146
 1.834 -1.227 3.15
 1.846 -1.229 3.148
 1.852 -1.225 3.134
 1.86 -1.224 3.125
 1.858 -1.215 3.097
 1.842 -1.198 3.047
 1.811 -1.171 2.974
 0 0 0
 -2.49 -1.622 4.275
 -2.447 -1.604 4.233
 -2.432 -1.603 4.239
 -2.414 -1.601 4.239
 -2.394 -1.597 4.237
 -2.366 -1.588 4.219
 -2.344 -1.583 4.212
 -2.329 -1.582 4.216
 -2.319 -1.585 4.232
 -2.307 -1.587 4.242
 -2.294 -1.587 4.251
 -2.285 -1.591 4.267
 -2.273 -1.592 4.278
 -2.254 -1.59 4.276
 -2.236 -1.586 4.274
 -2.22 -1.585 4.278
 -2.205 -1.585 4.282
 -2.187 -1.582 4.282
 -2.177 -1.585 4.296
 -2.164 -1.586 4.304
 -2.148 -1.585 4.308
 -2.128 -1.58 4.301
 -2.114 -1.581 4.308
 -2.095 -1.577 4.304
 -2.079 -1.576 4.305
 -2.062 -1.573 4.304
 -2.047 -1.573 4.309
 -2.031 -1.571 4.31
 -2.016 -1.571 4.314
 -2 -1.569 4.316
 -1.986 -1.569 4.321
 -1.97 -1.568 4.323
 -1.952 -1.564 4.318
 -1.934 -1.561 4.315
 -1.921 -1.562 4.322
 -1.901 -1.557 4.314
 -1.886 -1.556 4.318
 -1.872 -1.556 4.322
 -1.856 -1.555 4.323
 -1.838 -1.551 4.318
 -1.825 -1.552 4.325
 -1.808 -1.549 4.323
 -1.791 -1.547 4.321
 -1.775 -1.545 4.32
 -1.759 -1.542 4.318
 -1.744 -1.542 4.32
 -1.728 -1.54 4.32
 -1.715 -1.541 4.327
 -1.702 -1.541 4.332
 -1.687 -1.54 4.334
 -1.671 -1.538 4.334
 -1.658 -1.539 4.339
 -1.64 -1.535 4.334
 -1.624 -1.532 4.33
 -1.607 -1.53 4.327
 -1.589 -1.525 4.319
 -1.571 -1.521 4.31
 -1.556 -1.52 4.311
 -1.541 -1.519 4.312
 -1.526 -1.517 4.311
 -1.514 -1.518 4.318
 -1.499 -1.517 4.318
 -1.483 -1.514 4.316
 -1.467 -1.512 4.312
 -1.452 -1.51 4.312
 -1.436 -1.508 4.308
 -1.422 -1.507 4.309
 -1.41 -1.508 4.317
 -1.395 -1.507 4.318
 -1.382 -1.508 4.323
 -1.365 -1.504 4.316
 -1.353 -1.505 4.322
 -1.335 -1.501 4.313
 -1.321 -1.5 4.313
 -1.307 -1.499 4.314
 -1.295 -1.5 4.32
 -1.279 -1.498 4.317
 -1.267 -1.499 4.323
 -1.251 -1.496 4.318
 -1.235 -1.493 4.312
 -1.22 -1.491 4.309
 -1.205 -1.489 4.306
 -1.192 -1.488 4.309
 -1.179 -1.489 4.313
 -1.164 -1.488 4.312
 -1.149 -1.485 4.308
 -1.136 -1.485 4.311
 -1.119 -1.481 4.3
 -1.105 -1.479 4.297
 -1.09 -1.477 4.296
 -1.078 -1.478 4.3
 -1.062 -1.474 4.292
 -1.049 -1.474 4.295
 -1.036 -1.475 4.299
 -1.023 -1.475 4.303
 -1.009 -1.475 4.303
 -0.996 -1.474 4.305
 -0.982 -1.473 4.302
 -0.969 -1.472 4.303
 -0.954 -1.47 4.298
 -0.941 -1.47 4.3
 -0.927 -1.468 4.298
 -0.913 -1.468 4.298
 -0.899 -1.466 4.295
 -0.886 -1.467 4.299
 -0.872 -1.465 4.296
 -0.859 -1.464 4.296
 -0.846 -1.464 4.298
 -0.831 -1.461 4.292
 -0.817 -1.46 4.289
 -0.804 -1.46 4.29
 -0.791 -1.46 4.293
 -0.778 -1.459 4.293
 -0.765 -1.46 4.297
 -0.752 -1.459 4.296
 -0.738 -1.457 4.292
 -0.725 -1.457 4.292
 -0.71 -1.454 4.285
 -0.697 -1.452 4.281
 -0.684 -1.451 4.282
 -0.67 -1.45 4.28
 -0.657 -1.45 4.279
 -0.644 -1.45 4.281
 -0.631 -1.45 4.282
 -0.618 -1.449 4.283
 -0.606 -1.451 4.288
 -0.592 -1.449 4.284
 -0.579 -1.449 4.286
 -0.567 -1.45 4.289
 -0.554 -1.449 4.288
 -0.54 -1.448 4.287
 -0.528 -1.45 4.293
 -0.516 -1.451 4.297
 -0.502 -1.448 4.291
 -0.488 -1.446 4.286
 -0.475 -1.444 4.278
 -0.462 -1.443 4.277
 -0.448 -1.44 4.269
 -0.435 -1.441 4.275
 -0.423 -1.442 4.276
 -0.411 -1.445 4.286
 -0.398 -1.444 4.284
 -0.385 -1.446 4.29
 -0.372 -1.445 4.289
 -0.36 -1.445 4.29
 -0.346 -1.443 4.286
 -0.333 -1.443 4.284
 -0.321 -1.442 4.283
 -0.308 -1.443 4.286
 -0.295 -1.443 4.286
 -0.282 -1.442 4.285
 -0.27 -1.443 4.287
 -0.257 -1.443 4.289
 -0.244 -1.442 4.286
 -0.231 -1.44 4.282
 -0.218 -1.44 4.282
 -0.205 -1.439 4.28
 -0.192 -1.438 4.275
 -0.179 -1.438 4.275
 -0.167 -1.438 4.277
 -0.154 -1.436 4.272
 -0.141 -1.436 4.271
 -0.128 -1.436 4.271
 -0.116 -1.435 4.269
 -0.103 -1.435 4.268
 -0.09 -1.434 4.265
 -0.077 -1.433 4.262
 -0.065 -1.434 4.265
 -0.052 -1.434 4.265
 -0.039 -1.435 4.268
 -0.027 -1.436 4.271
 -0.014 -1.436 4.271
 -0.001 -1.438 4.276
 0.01 -1.436 4.272
 0.023 -1.436 4.27
 0.036 -1.437 4.274
 0.049 -1.438 4.274
 0.061 -1.437 4.272
 0.074 -1.439 4.277
 0.087 -1.439 4.279
 0.099 -1.437 4.272
 0.112 -1.438 4.273
 0.125 -1.435 4.265
 0.137 -1.434 4.261
 0.15 -1.433 4.257
 0.163 -1.434 4.259
 0.175 -1.432 4.254
 0.188 -1.433 4.254
 0.2 -1.432 4.253
 0.213 -1.433 4.254
 0.226 -1.435 4.259
 0.239 -1.436 4.261
 0.252 -1.436 4.261
 0.264 -1.437 4.262
 0.277 -1.437 4.262
 0.29 -1.438 4.265
 0.303 -1.439 4.268
 0.316 -1.44 4.269
 0.329 -1.44 4.268
 0.341 -1.439 4.263
 0.353 -1.436 4.253
 0.365 -1.434 4.247
 0.378 -1.435 4.249
 0.391 -1.436 4.249
 0.404 -1.436 4.249
 0.417 -1.437 4.25
 0.43 -1.438 4.252
 0.442 -1.437 4.249
 0.454 -1.436 4.245
 0.467 -1.436 4.244
 0.481 -1.439 4.249
 0.494 -1.44 4.251
 0.506 -1.439 4.249
 0.52 -1.442 4.254
 0.533 -1.444 4.26
 0.546 -1.444 4.258
 0.558 -1.442 4.251
 0.571 -1.442 4.249
 0.583 -1.44 4.242
 0.595 -1.44 4.241
 0.608 -1.44 4.239
 0.622 -1.443 4.245
 0.635 -1.445 4.248
 0.649 -1.447 4.255
 0.662 -1.448 4.255
 0.675 -1.449 4.254
 0.688 -1.449 4.253
 0.701 -1.449 4.253
 0.713 -1.448 4.248
 0.726 -1.448 4.244
 0.738 -1.447 4.241
 0.751 -1.447 4.238
 0.763 -1.446 4.234
 0.777 -1.447 4.235
 0.789 -1.447 4.232
 0.802 -1.448 4.232
 0.816 -1.449 4.232
 0.829 -1.45 4.234
 0.843 -1.451 4.235
 0.857 -1.454 4.239
 0.872 -1.458 4.249
 0.886 -1.459 4.251
 0.9 -1.461 4.254
 0.913 -1.462 4.254
 0.927 -1.463 4.255
 0.939 -1.462 4.249
 0.952 -1.462 4.247
 0.965 -1.463 4.246
 0.978 -1.463 4.243
 0.991 -1.463 4.241
 1.003 -1.462 4.235
 1.016 -1.462 4.232
 1.029 -1.463 4.233
 1.044 -1.465 4.237
 1.057 -1.466 4.236
 1.071 -1.468 4.238
 1.086 -1.469 4.24
 1.099 -1.469 4.237
 1.11 -1.468 4.23
 1.124 -1.469 4.228
 1.138 -1.47 4.23
 1.152 -1.472 4.233
 1.166 -1.473 4.232
 1.181 -1.476 4.237
 1.195 -1.477 4.235
 1.209 -1.478 4.236
 1.222 -1.478 4.233
 1.235 -1.479 4.231
 1.249 -1.48 4.232
 1.264 -1.482 4.233
 1.277 -1.482 4.23
 1.29 -1.482 4.227
 1.304 -1.484 4.227
 1.319 -1.486 4.23
 1.332 -1.486 4.225
 1.346 -1.486 4.223
 1.36 -1.488 4.224
 1.374 -1.489 4.224
 1.387 -1.489 4.218
 1.402 -1.491 4.22
 1.416 -1.492 4.219
 1.431 -1.494 4.222
 1.446 -1.495 4.221
 1.458 -1.495 4.215
 1.473 -1.497 4.217
 1.487 -1.498 4.215
 1.5 -1.497 4.209
 1.514 -1.498 4.208
 1.53 -1.5 4.21
 1.544 -1.502 4.208
 1.559 -1.504 4.21
 1.575 -1.506 4.212
 1.59 -1.508 4.213
 1.604 -1.509 4.212
 1.618 -1.509 4.208
 1.632 -1.51 4.205
 1.646 -1.511 4.203
 1.659 -1.511 4.197
 1.672 -1.511 4.193
 1.686 -1.512 4.19
 1.7 -1.512 4.186
 1.713 -1.511 4.179
 1.726 -1.511 4.174
 1.742 -1.514 4.177
 1.756 -1.515 4.174
 1.77 -1.515 4.17
 1.782 -1.514 4.161
 1.798 -1.516 4.162
 1.81 -1.516 4.155
 1.822 -1.514 4.146
 1.834 -1.513 4.137
 1.847 -1.513 4.132
 1.851 -1.505 4.105
 1.856 -1.5 4.084
 1.865 -1.496 4.068
 1.872 -1.491 4.049
 1.88 -1.487 4.033
 1.889 -1.484 4.02
 1.893 -1.477 3.995
 1.897 -1.47 3.97
 1.905 -1.467 3.955
 1.898 -1.452 3.909
 0 0 0
 0 0 0
 0 0 0
 0 0 0
 0 0 0
 0 0 0
 0 0 0
 0 0 0
 0 0 0
 0 0 0
 0 0 0
 0 0 0
 0 0 0
 0 0 0
 0 0 0
 0 0 0
 0 0 0
 0 0 0
 0 0 0
 0 0 0
 1.801 -1.209 3.145
 1.813 -1.21 3.142
 1.834 -1.216 3.154
 1.846 -1.217 3.151
 1.854 -1.216 3.141
 1.859 -1.212 3.126
 1.857 -1.204 3.1
 1.872 -1.207 3.101
 1.856 -1.19 3.051
 -2.492 -1.599 4.251
 -2.466 -1.592 4.239
 -2.473 -1.606 4.283
 -2.46 -1.607 4.292
 -2.434 -1.599 4.28
 -2.408 -1.592 4.266
 -2.373 -1.578 4.236
 -2.354 -1.575 4.235
 -2.341 -1.576 4.244
 -2.331 -1.579 4.259
 -2.319 -1.581 4.269
 -2.308 -1.583 4.281
 -2.298 -1.585 4.296
 -2.282 -1.585 4.3
 -2.265 -1.583 4.302
 -2.245 -1.579 4.297
 -2.229 -1.578 4.3
 -2.211 -1.575 4.299
 -2.194 -1.573 4.301
 -2.182 -1.574 4.31
 -2.168 -1.575 4.317
 -2.151 -1.573 4.318
 -2.133 -1.57 4.315
 -2.119 -1.571 4.323
 -2.099 -1.566 4.315
 -2.081 -1.563 4.314
 -2.064 -1.561 4.315
 -2.046 -1.558 4.311
 -2.029 -1.556 4.31
 -2.016 -1.556 4.318
 -2 -1.555 4.32
 -1.987 -1.556 4.329
 -1.974 -1.557 4.336
 -1.954 -1.552 4.329
 -1.936 -1.549 4.325
 -1.922 -1.549 4.33
 -1.902 -1.544 4.321
 -1.885 -1.542 4.32
 -1.872 -1.542 4.326
 -1.856 -1.54 4.327
 -1.838 -1.537 4.322
 -1.823 -1.536 4.325
 -1.808 -1.536 4.327
 -1.791 -1.533 4.325
 -1.775 -1.531 4.325
 -1.758 -1.528 4.322
 -1.744 -1.528 4.326
 -1.728 -1.526 4.324
 -1.715 -1.526 4.33
 -1.7 -1.526 4.333
 -1.685 -1.525 4.335
 -1.669 -1.523 4.333
 -1.657 -1.524 4.341
 -1.639 -1.52 4.333
 -1.621 -1.517 4.328
 -1.606 -1.515 4.328
 -1.588 -1.511 4.32
 -1.567 -1.504 4.305
 -1.553 -1.504 4.308
 -1.54 -1.504 4.312
 -1.525 -1.502 4.312
 -1.513 -1.504 4.32
 -1.499 -1.503 4.323
 -1.483 -1.501 4.32
 -1.467 -1.499 4.317
 -1.452 -1.497 4.317
 -1.437 -1.495 4.315
 -1.424 -1.496 4.319
 -1.412 -1.498 4.329
 -1.397 -1.496 4.327
 -1.383 -1.496 4.331
 -1.367 -1.492 4.324
 -1.352 -1.491 4.325
 -1.334 -1.486 4.314
 -1.32 -1.485 4.313
 -1.305 -1.484 4.313
 -1.293 -1.484 4.318
 -1.278 -1.483 4.317
 -1.265 -1.484 4.323
 -1.251 -1.483 4.323
 -1.235 -1.48 4.318
 -1.221 -1.479 4.318
 -1.206 -1.477 4.314
 -1.192 -1.476 4.314
 -1.178 -1.476 4.316
 -1.163 -1.473 4.312
 -1.147 -1.47 4.304
 -1.135 -1.47 4.31
 -1.119 -1.467 4.302
 -1.104 -1.464 4.298
 -1.091 -1.464 4.3
 -1.078 -1.465 4.305
 -1.062 -1.462 4.298
 -1.049 -1.461 4.299
 -1.036 -1.462 4.302
 -1.023 -1.462 4.307
 -1.01 -1.462 4.307
 -0.995 -1.46 4.306
 -0.981 -1.459 4.303
 -0.967 -1.458 4.302
 -0.953 -1.455 4.297
 -0.939 -1.454 4.295
 -0.925 -1.452 4.293
 -0.911 -1.451 4.292
 -0.898 -1.451 4.293
 -0.885 -1.451 4.295
 -0.87 -1.449 4.292
 -0.857 -1.449 4.293
 -0.845 -1.449 4.297
 -0.83 -1.447 4.291
 -0.816 -1.445 4.287
 -0.804 -1.446 4.293
 -0.791 -1.447 4.297
 -0.778 -1.446 4.297
 -0.765 -1.446 4.299
 -0.752 -1.446 4.301
 -0.738 -1.444 4.295
 -0.724 -1.443 4.294
 -0.711 -1.441 4.291
 -0.697 -1.44 4.288
 -0.684 -1.439 4.287
 -0.67 -1.438 4.285
 -0.657 -1.436 4.281
 -0.643 -1.434 4.278
 -0.63 -1.434 4.277
 -0.617 -1.433 4.276
 -0.604 -1.434 4.28
 -0.591 -1.433 4.278
 -0.578 -1.433 4.279
 -0.565 -1.433 4.281
 -0.552 -1.433 4.281
 -0.539 -1.433 4.282
 -0.527 -1.433 4.284
 -0.514 -1.435 4.291
 -0.501 -1.433 4.287
 -0.488 -1.432 4.285
 -0.474 -1.43 4.28
 -0.461 -1.429 4.278
 -0.448 -1.427 4.272
 -0.435 -1.428 4.276
 -0.422 -1.428 4.277
 -0.41 -1.429 4.281
 -0.397 -1.428 4.28
 -0.384 -1.429 4.284
 -0.371 -1.428 4.281
 -0.358 -1.427 4.28
 -0.345 -1.427 4.279
 -0.333 -1.427 4.281
 -0.32 -1.427 4.28
 -0.308 -1.429 4.286
 -0.295 -1.428 4.285
 -0.282 -1.427 4.282
 -0.269 -1.429 4.288
 -0.257 -1.429 4.29
 -0.244 -1.429 4.29
 -0.231 -1.429 4.288
 -0.218 -1.428 4.288
 -0.205 -1.426 4.281
 -0.192 -1.425 4.277
 -0.179 -1.424 4.277
 -0.167 -1.425 4.28
 -0.154 -1.425 4.278
 -0.141 -1.424 4.277
 -0.128 -1.424 4.276
 -0.116 -1.424 4.276
 -0.103 -1.423 4.274
 -0.09 -1.421 4.269
 -0.077 -1.421 4.269
 -0.065 -1.421 4.268
 -0.052 -1.42 4.264
 -0.039 -1.421 4.267
 -0.027 -1.421 4.269
 -0.014 -1.421 4.269
 -0.001 -1.423 4.273
 0.011 -1.423 4.274
 0.023 -1.422 4.269
 0.036 -1.423 4.272
 0.049 -1.422 4.271
 0.061 -1.421 4.267
 0.074 -1.422 4.269
 0.087 -1.424 4.273
 0.099 -1.422 4.269
 0.112 -1.424 4.274
 0.125 -1.423 4.269
 0.137 -1.421 4.263
 0.15 -1.419 4.258
 0.163 -1.421 4.262
 0.175 -1.419 4.255
 0.188 -1.419 4.254
 0.201 -1.42 4.258
 0.213 -1.421 4.259
 0.226 -1.422 4.262
 0.239 -1.423 4.265
 0.252 -1.424 4.267
 0.264 -1.423 4.263
 0.277 -1.424 4.264
 0.29 -1.424 4.264
 0.303 -1.424 4.264
 0.316 -1.425 4.267
 0.328 -1.426 4.266
 0.341 -1.425 4.263
 0.353 -1.423 4.255
 0.365 -1.421 4.248
 0.378 -1.421 4.248
 0.391 -1.422 4.25
 0.403 -1.421 4.247
 0.416 -1.423 4.252
 0.43 -1.425 4.256
 0.442 -1.425 4.253
 0.454 -1.423 4.245
 0.467 -1.424 4.247
 0.48 -1.424 4.249
 0.493 -1.426 4.252
 0.506 -1.426 4.249
 0.52 -1.429 4.257
 0.533 -1.431 4.261
 0.546 -1.43 4.259
 0.557 -1.427 4.248
 0.57 -1.428 4.249
 0.582 -1.426 4.243
 0.595 -1.426 4.241
 0.608 -1.427 4.24
 0.622 -1.43 4.249
 0.635 -1.431 4.249
 0.649 -1.434 4.255
 0.662 -1.434 4.255
 0.675 -1.434 4.253
 0.688 -1.435 4.253
 0.701 -1.436 4.255
 0.713 -1.434 4.248
 0.726 -1.435 4.247
 0.739 -1.435 4.247
 0.751 -1.434 4.24
 0.764 -1.434 4.238
 0.777 -1.435 4.24
 0.79 -1.435 4.237
 0.802 -1.435 4.234
 0.816 -1.437 4.239
 0.829 -1.438 4.238
 0.842 -1.438 4.237
 0.857 -1.44 4.242
 0.872 -1.444 4.251
 0.885 -1.445 4.251
 0.898 -1.446 4.251
 0.913 -1.448 4.256
 0.926 -1.449 4.255
 0.938 -1.448 4.25
 0.951 -1.449 4.249
 0.965 -1.45 4.251
 0.978 -1.449 4.246
 0.991 -1.45 4.244
 1.003 -1.45 4.241
 1.016 -1.45 4.239
 1.03 -1.45 4.237
 1.044 -1.452 4.239
 1.057 -1.452 4.237
 1.07 -1.453 4.237
 1.084 -1.454 4.237
 1.098 -1.456 4.24
 1.111 -1.456 4.237
 1.125 -1.457 4.236
 1.138 -1.458 4.235
 1.153 -1.46 4.238
 1.165 -1.459 4.233
 1.18 -1.461 4.235
 1.194 -1.462 4.235
 1.209 -1.465 4.239
 1.221 -1.465 4.235
 1.235 -1.465 4.234
 1.249 -1.467 4.235
 1.264 -1.469 4.236
 1.278 -1.469 4.235
 1.291 -1.47 4.233
 1.306 -1.472 4.235
 1.32 -1.474 4.237
 1.333 -1.473 4.232
 1.346 -1.474 4.229
 1.361 -1.476 4.231
 1.374 -1.476 4.227
 1.386 -1.475 4.22
 1.401 -1.477 4.222
 1.415 -1.477 4.218
 1.429 -1.478 4.218
 1.444 -1.48 4.22
 1.458 -1.481 4.218
 1.472 -1.482 4.217
 1.486 -1.483 4.216
 1.5 -1.484 4.215
 1.515 -1.485 4.213
 1.528 -1.486 4.211
 1.543 -1.488 4.211
 1.559 -1.491 4.215
 1.573 -1.491 4.212
 1.589 -1.493 4.213
 1.603 -1.495 4.212
 1.616 -1.495 4.208
 1.629 -1.495 4.203
 1.645 -1.496 4.203
 1.658 -1.496 4.199
 1.672 -1.497 4.195
 1.686 -1.498 4.193
 1.699 -1.498 4.188
 1.712 -1.497 4.182
 1.724 -1.497 4.175
 1.742 -1.501 4.181
 1.756 -1.501 4.178
 1.77 -1.502 4.173
 1.782 -1.501 4.166
 1.798 -1.503 4.168
 1.81 -1.502 4.158
 1.82 -1.5 4.147
 1.833 -1.5 4.141
 1.845 -1.498 4.131
 1.85 -1.492 4.109
 1.857 -1.487 4.09
 1.868 -1.485 4.079
 1.874 -1.48 4.059
 1.884 -1.477 4.046
 1.895 -1.476 4.036
 1.9 -1.469 4.013
 1.902 -1.461 3.985
 1.912 -1.459 3.974
 0 0 0
 0 0 0
 0 0 0
 0 0 0
 0 0 0
 0 0 0
 0 0 0
 0 0 0
 0 0 0
 0 0 0
 0 0 0
 0 0 0
 0 0 0
 0 0 0
 0 0 0
 0 0 0
 0 0 0
 0 0 0
 0 0 0
 0 0 0
 0 0 0
 0 0 0
 1.816 -1.201 3.15
 1.842 -1.211 3.171
 1.853 -1.211 3.166
 1.859 -1.208 3.152
 1.861 -1.202 3.132
 1.859 -1.195 3.106
 1.865 -1.192 3.092
 1.845 -1.173 3.037
 0 0 0
 0 0 0
 -2.478 -1.594 4.296
 -2.467 -1.597 4.31
 -2.45 -1.596 4.314
 -2.434 -1.595 4.318
 -2.405 -1.585 4.299
 -2.386 -1.582 4.297
 -2.365 -1.578 4.293
 -2.349 -1.577 4.297
 -2.332 -1.575 4.299
 -2.321 -1.578 4.311
 -2.311 -1.581 4.326
 -2.295 -1.579 4.329
 -2.279 -1.578 4.333
 -2.261 -1.575 4.332
 -2.242 -1.573 4.33
 -2.219 -1.566 4.319
 -2.199 -1.563 4.315
 -2.186 -1.563 4.323
 -2.169 -1.562 4.324
 -2.152 -1.56 4.325
 -2.135 -1.558 4.325
 -2.121 -1.558 4.332
 -2.1 -1.552 4.323
 -2.084 -1.551 4.324
 -2.066 -1.548 4.323
 -2.049 -1.546 4.321
 -2.033 -1.545 4.324
 -2.019 -1.545 4.329
 -2.001 -1.542 4.327
 -1.989 -1.543 4.336
 -1.975 -1.544 4.343
 -1.957 -1.54 4.339
 -1.938 -1.537 4.334
 -1.924 -1.536 4.338
 -1.903 -1.531 4.328
 -1.886 -1.529 4.327
 -1.872 -1.529 4.332
 -1.856 -1.527 4.332
 -1.839 -1.524 4.328
 -1.823 -1.523 4.33
 -1.807 -1.52 4.328
 -1.788 -1.516 4.322
 -1.772 -1.514 4.32
 -1.756 -1.512 4.319
 -1.741 -1.511 4.321
 -1.725 -1.51 4.321
 -1.713 -1.511 4.33
 -1.699 -1.511 4.334
 -1.682 -1.509 4.331
 -1.668 -1.508 4.333
 -1.654 -1.507 4.337
 -1.637 -1.505 4.334
 -1.621 -1.503 4.332
 -1.607 -1.502 4.335
 -1.589 -1.498 4.327
 -1.569 -1.493 4.315
 -1.554 -1.491 4.314
 -1.54 -1.49 4.316
 -1.525 -1.489 4.318
 -1.513 -1.491 4.326
 -1.5 -1.491 4.33
 -1.484 -1.489 4.327
 -1.468 -1.486 4.324
 -1.453 -1.484 4.322
 -1.437 -1.482 4.32
 -1.423 -1.482 4.323
 -1.411 -1.483 4.33
 -1.396 -1.482 4.33
 -1.383 -1.482 4.334
 -1.367 -1.479 4.329
 -1.351 -1.477 4.326
 -1.334 -1.473 4.316
 -1.319 -1.47 4.314
 -1.304 -1.469 4.313
 -1.291 -1.469 4.316
 -1.277 -1.469 4.318
 -1.264 -1.469 4.322
 -1.25 -1.468 4.323
 -1.235 -1.466 4.32
 -1.221 -1.465 4.32
 -1.205 -1.463 4.316
 -1.191 -1.461 4.314
 -1.178 -1.462 4.32
 -1.163 -1.46 4.316
 -1.146 -1.456 4.306
 -1.134 -1.456 4.31
 -1.118 -1.452 4.302
 -1.101 -1.448 4.292
 -1.088 -1.448 4.295
 -1.076 -1.45 4.303
 -1.062 -1.448 4.3
 -1.048 -1.447 4.3
 -1.036 -1.448 4.305
 -1.023 -1.448 4.308
 -1.008 -1.447 4.306
 -0.994 -1.445 4.302
 -0.981 -1.445 4.304
 -0.967 -1.444 4.303
 -0.952 -1.441 4.299
 -0.939 -1.441 4.301
 -0.925 -1.44 4.3
 -0.911 -1.439 4.297
 -0.898 -1.438 4.297
 -0.884 -1.437 4.297
 -0.87 -1.435 4.292
 -0.857 -1.434 4.293
 -0.843 -1.434 4.294
 -0.829 -1.432 4.291
 -0.816 -1.431 4.288
 -0.803 -1.432 4.292
 -0.791 -1.433 4.299
 -0.778 -1.434 4.302
 -0.765 -1.434 4.304
 -0.752 -1.434 4.305
 -0.738 -1.432 4.302
 -0.724 -1.43 4.298
 -0.711 -1.429 4.295
 -0.697 -1.428 4.294
 -0.684 -1.426 4.292
 -0.67 -1.425 4.29
 -0.656 -1.423 4.284
 -0.643 -1.422 4.282
 -0.63 -1.422 4.284
 -0.617 -1.422 4.285
 -0.605 -1.422 4.287
 -0.592 -1.422 4.288
 -0.578 -1.421 4.286
 -0.565 -1.421 4.286
 -0.552 -1.42 4.286
 -0.54 -1.422 4.291
 -0.527 -1.422 4.292
 -0.515 -1.423 4.299
 -0.501 -1.422 4.295
 -0.488 -1.419 4.288
 -0.474 -1.417 4.284
 -0.461 -1.417 4.283
 -0.448 -1.415 4.28
 -0.435 -1.415 4.279
 -0.423 -1.416 4.284
 -0.41 -1.415 4.283
 -0.397 -1.415 4.281
 -0.384 -1.415 4.281
 -0.371 -1.414 4.281
 -0.358 -1.413 4.279
 -0.345 -1.413 4.279
 -0.333 -1.414 4.283
 -0.32 -1.414 4.284
 -0.307 -1.414 4.285
 -0.294 -1.414 4.285
 -0.281 -1.413 4.282
 -0.269 -1.414 4.284
 -0.256 -1.415 4.29
 -0.244 -1.415 4.291
 -0.231 -1.414 4.288
 -0.218 -1.415 4.289
 -0.205 -1.411 4.279
 -0.192 -1.409 4.272
 -0.179 -1.409 4.273
 -0.166 -1.41 4.275
 -0.154 -1.41 4.277
 -0.141 -1.411 4.28
 -0.128 -1.411 4.281
 -0.116 -1.412 4.282
 -0.103 -1.411 4.279
 -0.09 -1.408 4.269
 -0.077 -1.407 4.266
 -0.064 -1.406 4.266
 -0.052 -1.406 4.264
 -0.039 -1.408 4.269
 -0.026 -1.408 4.271
 -0.014 -1.409 4.272
 -0.001 -1.409 4.274
 0.011 -1.408 4.27
 0.023 -1.406 4.264
 0.036 -1.407 4.266
 0.049 -1.406 4.263
 0.061 -1.405 4.258
 0.074 -1.405 4.26
 0.087 -1.407 4.264
 0.099 -1.406 4.261
 0.112 -1.407 4.264
 0.125 -1.406 4.261
 0.137 -1.405 4.257
 0.15 -1.404 4.254
 0.163 -1.407 4.263
 0.175 -1.407 4.261
 0.188 -1.406 4.258
 0.2 -1.406 4.257
 0.213 -1.408 4.262
 0.226 -1.408 4.262
 0.239 -1.41 4.268
 0.252 -1.412 4.272
 0.265 -1.412 4.273
 0.277 -1.412 4.271
 0.29 -1.413 4.272
 0.303 -1.411 4.266
 0.315 -1.412 4.268
 0.328 -1.411 4.265
 0.34 -1.409 4.257
 0.352 -1.407 4.248
 0.365 -1.406 4.245
 0.377 -1.406 4.243
 0.39 -1.407 4.247
 0.403 -1.407 4.246
 0.416 -1.409 4.249
 0.429 -1.411 4.254
 0.442 -1.41 4.251
 0.454 -1.409 4.247
 0.467 -1.411 4.251
 0.481 -1.413 4.254
 0.494 -1.414 4.257
 0.506 -1.414 4.255
 0.52 -1.415 4.258
 0.532 -1.415 4.256
 0.545 -1.415 4.255
 0.556 -1.411 4.243
 0.569 -1.413 4.245
 0.582 -1.412 4.241
 0.595 -1.413 4.242
 0.607 -1.412 4.239
 0.622 -1.417 4.251
 0.634 -1.417 4.248
 0.649 -1.42 4.256
 0.662 -1.421 4.256
 0.674 -1.42 4.253
 0.687 -1.42 4.25
 0.7 -1.421 4.252
 0.712 -1.42 4.246
 0.725 -1.421 4.248
 0.739 -1.422 4.25
 0.751 -1.422 4.246
 0.764 -1.421 4.243
 0.777 -1.422 4.244
 0.79 -1.422 4.24
 0.802 -1.422 4.237
 0.816 -1.424 4.241
 0.83 -1.425 4.243
 0.842 -1.425 4.24
 0.856 -1.427 4.243
 0.871 -1.43 4.251
 0.885 -1.432 4.253
 0.898 -1.432 4.252
 0.912 -1.434 4.256
 0.925 -1.434 4.254
 0.938 -1.434 4.252
 0.951 -1.434 4.249
 0.964 -1.436 4.25
 0.976 -1.433 4.241
 0.989 -1.435 4.241
 1.001 -1.433 4.235
 1.015 -1.435 4.236
 1.029 -1.436 4.236
 1.043 -1.437 4.238
 1.056 -1.438 4.236
 1.07 -1.439 4.239
 1.082 -1.439 4.233
 1.097 -1.441 4.237
 1.11 -1.441 4.234
 1.123 -1.442 4.233
 1.136 -1.442 4.232
 1.151 -1.445 4.236
 1.164 -1.445 4.232
 1.18 -1.448 4.238
 1.193 -1.449 4.238
 1.208 -1.451 4.241
 1.222 -1.452 4.239
 1.235 -1.452 4.238
 1.249 -1.453 4.238
 1.263 -1.455 4.238
 1.277 -1.456 4.238
 1.291 -1.456 4.236
 1.305 -1.458 4.238
 1.319 -1.459 4.236
 1.332 -1.459 4.233
 1.346 -1.46 4.231
 1.361 -1.462 4.232
 1.373 -1.461 4.228
 1.385 -1.46 4.219
 1.399 -1.461 4.219
 1.412 -1.461 4.214
 1.426 -1.462 4.214
 1.441 -1.464 4.216
 1.456 -1.466 4.218
 1.47 -1.467 4.215
 1.485 -1.469 4.215
 1.499 -1.47 4.215
 1.513 -1.471 4.213
 1.528 -1.472 4.213
 1.544 -1.475 4.216
 1.559 -1.477 4.219
 1.572 -1.477 4.214
 1.587 -1.478 4.212
 1.601 -1.479 4.21
 1.614 -1.479 4.204
 1.627 -1.479 4.201
 1.643 -1.481 4.202
 1.657 -1.483 4.201
 1.672 -1.484 4.199
 1.686 -1.485 4.198
 1.7 -1.485 4.194
 1.713 -1.485 4.188
 1.725 -1.484 4.179
 1.742 -1.487 4.184
 1.755 -1.487 4.18
 1.769 -1.488 4.176
 1.782 -1.487 4.169
 1.798 -1.49 4.171
 1.811 -1.489 4.164
 1.822 -1.488 4.154
 1.835 -1.488 4.15
 1.848 -1.487 4.142
 1.854 -1.482 4.122
 1.861 -1.477 4.102
 1.872 -1.475 4.092
 1.879 -1.47 4.074
 1.889 -1.468 4.062
 1.907 -1.471 4.065
 1.922 -1.473 4.064
 0 0 0
 0 0 0
 0 0 0
 0 0 0
 0 0 0
 0 0 0
 0 0 0
 0 0 0
 0 0 0
 0 0 0
 0 0 0
 0 0 0
 0 0 0
 0 0 0
 0 0 0
 0 0 0
 0 0 0
 0 0 0
 0 0 0
 0 0 0
 0 0 0
 0 0 0
 0 0 0
 0 0 0
 1.8 -1.18 3.125
 1.833 -1.194 3.159
 1.845 -1.195 3.156
 1.851 -1.192 3.143
 1.853 -1.187 3.123
 1.856 -1.182 3.104
 1.811 -1.147 3.007
 1.827 -1.15 3.01
 0 0 0
 0 0 0
 -2.482 -1.583 4.309
 -2.472 -1.586 4.324
 -2.455 -1.584 4.327
 -2.436 -1.582 4.326
 -2.412 -1.575 4.316
 -2.399 -1.576 4.325
 -2.379 -1.573 4.323
 -2.362 -1.571 4.325
 -2.344 -1.569 4.324
 -2.332 -1.57 4.336
 -2.315 -1.569 4.339
 -2.299 -1.568 4.342
 -2.284 -1.567 4.347
 -2.264 -1.564 4.343
 -2.245 -1.561 4.341
 -2.223 -1.555 4.332
 -2.201 -1.549 4.322
 -2.187 -1.55 4.329
 -2.172 -1.549 4.334
 -2.154 -1.547 4.333
 -2.138 -1.545 4.335
 -2.126 -1.547 4.345
 -2.103 -1.541 4.334
 -2.083 -1.537 4.328
 -2.068 -1.536 4.332
 -2.05 -1.533 4.329
 -2.033 -1.531 4.329
 -2.019 -1.531 4.334
 -2.003 -1.529 4.335
 -1.987 -1.528 4.338
 -1.974 -1.529 4.345
 -1.955 -1.525 4.339
 -1.938 -1.522 4.337
 -1.921 -1.52 4.336
 -1.902 -1.517 4.331
 -1.886 -1.515 4.331
 -1.873 -1.515 4.337
 -1.856 -1.513 4.336
 -1.841 -1.512 4.338
 -1.825 -1.51 4.338
 -1.808 -1.508 4.337
 -1.79 -1.504 4.33
 -1.774 -1.502 4.33
 -1.758 -1.501 4.33
 -1.744 -1.5 4.333
 -1.727 -1.498 4.331
 -1.714 -1.499 4.338
 -1.7 -1.498 4.341
 -1.683 -1.495 4.336
 -1.666 -1.493 4.333
 -1.651 -1.492 4.335
 -1.634 -1.488 4.329
 -1.618 -1.486 4.327
 -1.604 -1.486 4.332
 -1.587 -1.483 4.328
 -1.569 -1.479 4.318
 -1.555 -1.478 4.32
 -1.54 -1.477 4.32
 -1.525 -1.475 4.32
 -1.512 -1.476 4.326
 -1.498 -1.476 4.329
 -1.483 -1.474 4.328
 -1.467 -1.472 4.326
 -1.452 -1.47 4.324
 -1.437 -1.469 4.325
 -1.424 -1.469 4.329
 -1.411 -1.47 4.335
 -1.395 -1.467 4.33
 -1.381 -1.467 4.333
 -1.366 -1.465 4.33
 -1.349 -1.461 4.323
 -1.332 -1.457 4.315
 -1.319 -1.458 4.32
 -1.304 -1.456 4.318
 -1.29 -1.455 4.318
 -1.277 -1.456 4.324
 -1.264 -1.456 4.327
 -1.25 -1.455 4.326
 -1.235 -1.453 4.324
 -1.221 -1.452 4.326
 -1.205 -1.449 4.319
 -1.19 -1.447 4.316
 -1.177 -1.448 4.32
 -1.162 -1.445 4.316
 -1.145 -1.441 4.305
 -1.133 -1.442 4.311
 -1.118 -1.439 4.307
 -1.102 -1.436 4.298
 -1.089 -1.437 4.303
 -1.077 -1.437 4.309
 -1.062 -1.436 4.306
 -1.048 -1.434 4.303
 -1.035 -1.434 4.307
 -1.022 -1.434 4.308
 -1.008 -1.433 4.307
 -0.994 -1.432 4.306
 -0.981 -1.433 4.312
 -0.968 -1.433 4.314
 -0.954 -1.431 4.312
 -0.941 -1.431 4.314
 -0.926 -1.428 4.305
 -0.911 -1.425 4.299
 -0.897 -1.423 4.296
 -0.883 -1.422 4.294
 -0.868 -1.42 4.289
 -0.856 -1.421 4.295
 -0.843 -1.421 4.298
 -0.829 -1.419 4.293
 -0.816 -1.418 4.292
 -0.802 -1.417 4.292
 -0.79 -1.419 4.298
 -0.777 -1.418 4.299
 -0.765 -1.42 4.304
 -0.751 -1.419 4.305
 -0.738 -1.419 4.306
 -0.724 -1.417 4.302
 -0.711 -1.416 4.3
 -0.698 -1.415 4.299
 -0.684 -1.414 4.295
 -0.67 -1.412 4.292
 -0.656 -1.408 4.283
 -0.642 -1.408 4.282
 -0.629 -1.407 4.282
 -0.617 -1.408 4.285
 -0.604 -1.409 4.289
 -0.592 -1.41 4.294
 -0.578 -1.409 4.291
 -0.565 -1.407 4.288
 -0.552 -1.406 4.285
 -0.539 -1.406 4.286
 -0.526 -1.407 4.289
 -0.514 -1.407 4.293
 -0.501 -1.407 4.294
 -0.488 -1.407 4.294
 -0.475 -1.406 4.292
 -0.461 -1.405 4.289
 -0.449 -1.404 4.289
 -0.435 -1.403 4.286
 -0.422 -1.402 4.283
 -0.409 -1.401 4.28
 -0.396 -1.4 4.278
 -0.383 -1.399 4.277
 -0.37 -1.399 4.278
 -0.358 -1.399 4.278
 -0.345 -1.4 4.28
 -0.332 -1.401 4.284
 -0.32 -1.4 4.284
 -0.307 -1.4 4.283
 -0.294 -1.4 4.285
 -0.281 -1.398 4.28
 -0.268 -1.398 4.28
 -0.256 -1.4 4.286
 -0.243 -1.401 4.288
 -0.23 -1.399 4.284
 -0.218 -1.401 4.288
 -0.204 -1.398 4.28
 -0.191 -1.395 4.273
 -0.179 -1.396 4.274
 -0.166 -1.396 4.276
 -0.153 -1.396 4.276
 -0.141 -1.397 4.278
 -0.128 -1.398 4.281
 -0.115 -1.396 4.277
 -0.102 -1.395 4.274
 -0.09 -1.393 4.266
 -0.077 -1.392 4.265
 -0.064 -1.391 4.261
 -0.052 -1.391 4.261
 -0.039 -1.393 4.266
 -0.026 -1.392 4.264
 -0.014 -1.393 4.266
 -0.001 -1.393 4.267
 0.011 -1.393 4.266
 0.023 -1.391 4.261
 0.036 -1.392 4.264
 0.049 -1.392 4.262
 0.061 -1.391 4.258
 0.074 -1.391 4.259
 0.087 -1.393 4.264
 0.099 -1.393 4.263
 0.112 -1.394 4.268
 0.125 -1.394 4.266
 0.137 -1.393 4.262
 0.15 -1.393 4.261
 0.163 -1.397 4.272
 0.175 -1.395 4.268
 0.188 -1.394 4.265
 0.201 -1.394 4.262
 0.213 -1.395 4.264
 0.226 -1.394 4.261
 0.239 -1.396 4.266
 0.252 -1.397 4.269
 0.265 -1.398 4.27
 0.277 -1.398 4.271
 0.29 -1.399 4.271
 0.302 -1.397 4.266
 0.315 -1.399 4.27
 0.328 -1.398 4.266
 0.34 -1.395 4.256
 0.352 -1.394 4.253
 0.365 -1.394 4.251
 0.377 -1.392 4.245
 0.39 -1.394 4.25
 0.403 -1.395 4.25
 0.416 -1.394 4.248
 0.429 -1.395 4.249
 0.442 -1.397 4.252
 0.454 -1.396 4.25
 0.467 -1.398 4.253
 0.48 -1.399 4.255
 0.494 -1.401 4.26
 0.506 -1.399 4.253
 0.518 -1.399 4.251
 0.531 -1.399 4.248
 0.544 -1.4 4.251
 0.555 -1.397 4.24
 0.569 -1.399 4.244
 0.582 -1.4 4.247
 0.595 -1.4 4.246
 0.608 -1.4 4.245
 0.622 -1.405 4.257
 0.635 -1.404 4.253
 0.649 -1.407 4.259
 0.662 -1.408 4.261
 0.674 -1.407 4.255
 0.686 -1.406 4.251
 0.7 -1.407 4.252
 0.712 -1.406 4.247
 0.725 -1.407 4.249
 0.739 -1.409 4.252
 0.751 -1.408 4.247
 0.764 -1.409 4.247
 0.777 -1.41 4.247
 0.79 -1.409 4.243
 0.802 -1.407 4.237
 0.815 -1.408 4.238
 0.828 -1.409 4.238
 0.841 -1.409 4.235
 0.854 -1.411 4.237
 0.869 -1.414 4.246
 0.883 -1.416 4.25
 0.896 -1.416 4.247
 0.91 -1.418 4.25
 0.923 -1.418 4.248
 0.935 -1.418 4.244
 0.949 -1.419 4.244
 0.964 -1.422 4.25
 0.975 -1.419 4.241
 0.989 -1.422 4.245
 1.002 -1.421 4.242
 1.015 -1.422 4.239
 1.028 -1.422 4.236
 1.042 -1.424 4.241
 1.056 -1.424 4.239
 1.069 -1.426 4.24
 1.082 -1.425 4.236
 1.097 -1.428 4.239
 1.109 -1.428 4.237
 1.122 -1.428 4.234
 1.136 -1.429 4.235
 1.151 -1.431 4.237
 1.163 -1.431 4.233
 1.179 -1.434 4.239
 1.192 -1.434 4.237
 1.207 -1.437 4.241
 1.222 -1.439 4.245
 1.236 -1.44 4.244
 1.249 -1.44 4.241
 1.264 -1.442 4.244
 1.277 -1.443 4.242
 1.291 -1.443 4.239
 1.305 -1.444 4.238
 1.319 -1.446 4.24
 1.332 -1.446 4.236
 1.346 -1.446 4.233
 1.359 -1.447 4.231
 1.372 -1.447 4.228
 1.384 -1.445 4.219
 1.399 -1.447 4.221
 1.412 -1.447 4.217
 1.426 -1.449 4.217
 1.441 -1.45 4.217
 1.457 -1.453 4.222
 1.47 -1.454 4.22
 1.485 -1.455 4.22
 1.5 -1.457 4.221
 1.514 -1.458 4.22
 1.528 -1.459 4.218
 1.543 -1.461 4.218
 1.558 -1.463 4.219
 1.571 -1.463 4.215
 1.585 -1.463 4.211
 1.599 -1.464 4.21
 1.613 -1.465 4.207
 1.627 -1.465 4.203
 1.643 -1.468 4.206
 1.658 -1.47 4.207
 1.672 -1.47 4.203
 1.685 -1.47 4.199
 1.7 -1.471 4.197
 1.712 -1.471 4.19
 1.725 -1.47 4.184
 1.741 -1.473 4.187
 1.757 -1.475 4.187
 1.772 -1.476 4.186
 1.785 -1.477 4.181
 1.801 -1.479 4.182
 1.815 -1.479 4.179
 1.826 -1.477 4.167
 1.838 -1.476 4.159
 1.85 -1.476 4.152
 1.859 -1.472 4.137
 1.865 -1.466 4.115
 1.875 -1.464 4.102
 1.883 -1.46 4.085
