 1.883 -1.571 3.425
 1.872 -1.543 3.353
 1.835 -1.494 3.235
 1.886 -1.518 3.275
 1.866 -1.484 3.19
 1.856 -1.459 3.125
 1.861 -1.446 3.086
 1.823 -1.401 2.978
 1.829 -1.39 2.942
 -2.162 -1.636 3.61
 -2.14 -1.638 3.627
 -2.092 -1.621 3.601
 -2.098 -1.645 3.666
 -2.047 -1.625 3.633
 -2.032 -1.633 3.663
 -1.973 -1.605 3.612
 -1.974 -1.627 3.672
 -1.969 -1.643 3.721
 -1.94 -1.64 3.725
 -1.928 -1.651 3.762
 -1.869 -1.623 3.707
 -1.857 -1.633 3.743
 -1.858 -1.657 3.808
 -1.81 -1.637 3.771
 -1.768 -1.621 3.745
 -1.753 -1.63 3.776
 -1.722 -1.625 3.774
 -1.705 -1.632 3.801
 -1.687 -1.639 3.826
 -1.652 -1.629 3.812
 -1.628 -1.631 3.824
 -1.613 -1.641 3.858
 -1.586 -1.639 3.862
 -1.548 -1.626 3.84
 -1.547 -1.651 3.907
 -1.5 -1.628 3.862
 -1.474 -1.626 3.866
 -1.443 -1.62 3.859
 -1.44 -1.645 3.925
 -1.409 -1.638 3.916
 -1.385 -1.639 3.926
 -1.354 -1.632 3.918
 -1.323 -1.625 3.907
 -1.301 -1.629 3.923
 -1.279 -1.633 3.94
 -1.258 -1.637 3.958
 -1.223 -1.625 3.934
 -1.21 -1.64 3.977
 -1.175 -1.627 3.952
 -1.155 -1.634 3.974
 -1.124 -1.625 3.96
 -1.099 -1.624 3.963
 -1.081 -1.635 3.996
 -1.05 -1.626 3.979
 -1.028 -1.63 3.994
 -1.001 -1.627 3.992
 -0.971 -1.618 3.975
 -0.943 -1.613 3.967
 -0.913 -1.604 3.949
 -0.908 -1.639 4.041
 -0.867 -1.609 3.971
 -0.849 -1.623 4.008
 -0.819 -1.612 3.987
 -0.798 -1.62 4.009
 -0.775 -1.622 4.019
 -0.749 -1.62 4.019
 -0.729 -1.63 4.046
 -0.701 -1.624 4.035
 -0.674 -1.618 4.022
 -0.654 -1.631 4.058
 -0.623 -1.613 4.016
 -0.602 -1.622 4.042
 -0.584 -1.643 4.097
 -0.552 -1.621 4.046
 -0.533 -1.639 4.093
 -0.507 -1.637 4.089
 -0.479 -1.626 4.064
 -0.453 -1.623 4.058
 -0.428 -1.62 4.053
 -0.404 -1.624 4.066
 -0.379 -1.621 4.059
 -0.355 -1.627 4.075
 -0.33 -1.625 4.072
 -0.304 -1.617 4.054
 -0.279 -1.616 4.052
 -0.257 -1.632 4.094
 -0.232 -1.63 4.09
 -0.207 -1.63 4.09
 -0.182 -1.629 4.089
 -0.156 -1.614 4.051
 -0.132 -1.616 4.056
 -0.107 -1.615 4.054
 -0.083 -1.628 4.088
 -0.058 -1.62 4.069
 -0.033 -1.602 4.022
 -0.009 -1.634 4.103
 0.015 -1.621 4.069
 0.039 -1.614 4.051
 0.063 -1.604 4.026
 0.09 -1.644 4.127
 0.114 -1.634 4.101
 0.138 -1.624 4.074
 0.163 -1.626 4.078
 0.189 -1.634 4.096
 0.211 -1.614 4.046
 0.236 -1.618 4.054
 0.263 -1.636 4.096
 0.286 -1.623 4.062
 0.31 -1.62 4.055
 0.336 -1.627 4.07
 0.357 -1.612 4.028
 0.383 -1.616 4.036
 0.41 -1.628 4.066
 0.436 -1.633 4.075
 0.458 -1.621 4.043
 0.481 -1.618 4.033
 0.508 -1.625 4.047
 0.535 -1.632 4.06
 0.556 -1.623 4.036
 0.581 -1.624 4.034
 0.605 -1.623 4.028
 0.63 -1.623 4.025
 0.648 -1.607 3.982
 0.681 -1.626 4.026
 0.707 -1.63 4.032
 0.73 -1.627 4.019
 0.756 -1.63 4.022
 0.776 -1.62 3.995
 0.803 -1.626 4.003
 0.834 -1.639 4.03
 0.849 -1.62 3.979
 0.875 -1.622 3.98
 0.907 -1.635 4.006
 0.928 -1.629 3.987
 0.938 -1.603 3.919
 0.977 -1.628 3.974
 0.997 -1.622 3.953
 1.027 -1.63 3.968
 1.055 -1.636 3.975
 1.082 -1.638 3.975
 1.104 -1.635 3.96
 1.13 -1.637 3.96
 1.151 -1.631 3.938
 1.173 -1.627 3.922
 1.2 -1.632 3.926
 1.228 -1.635 3.928
 1.259 -1.644 3.942
 1.27 -1.627 3.893
 1.3 -1.633 3.901
 1.335 -1.646 3.925
 1.358 -1.644 3.911
 1.378 -1.638 3.888
 1.413 -1.65 3.909
 1.426 -1.637 3.869
 1.459 -1.646 3.882
 1.49 -1.653 3.89
 1.496 -1.633 3.833
 1.52 -1.632 3.824
 1.551 -1.639 3.831
 1.581 -1.644 3.832
 1.591 -1.629 3.788
 1.621 -1.635 3.792
 1.643 -1.633 3.777
 1.655 -1.62 3.738
 1.691 -1.631 3.754
 1.713 -1.629 3.738
 1.729 -1.621 3.71
 1.76 -1.627 3.713
 1.792 -1.634 3.719
 1.815 -1.632 3.704
 1.832 -1.626 3.679
 1.873 -1.64 3.7
 1.874 -1.62 3.643
 1.873 -1.598 3.582
 1.862 -1.569 3.504
 1.864 -1.551 3.453
 1.9 -1.562 3.466
 1.877 -1.524 3.369
 1.89 -1.516 3.34
 1.853 -1.469 3.225
 1.856 -1.454 3.182
 1.886 -1.46 3.184
 1.851 -1.417 3.078
 1.857 -1.406 3.042
 1.84 -1.377 2.968
 -2.186 -1.629 3.66
 -2.155 -1.625 3.664
 -2.118 -1.616 3.656
 -2.119 -1.636 3.713
 -2.083 -1.628 3.709
 -2.058 -1.629 3.721
 -2.05 -1.642 3.764
 -2.007 -1.628 3.744
 -2.02 -1.66 3.829
 -1.943 -1.618 3.742
 -1.923 -1.622 3.763
 -1.892 -1.617 3.763
 -1.893 -1.639 3.825
 -1.859 -1.633 3.821
 -1.816 -1.617 3.794
 -1.823 -1.646 3.873
 -1.769 -1.62 3.821
 -1.744 -1.62 3.831
 -1.715 -1.617 3.834
 -1.719 -1.645 3.909
 -1.685 -1.637 3.899
 -1.669 -1.646 3.931
 -1.623 -1.626 3.891
 -1.596 -1.624 3.897
 -1.568 -1.622 3.899
 -1.548 -1.627 3.919
 -1.514 -1.617 3.905
 -1.508 -1.638 3.964
 -1.457 -1.611 3.905
 -1.448 -1.629 3.957
 -1.429 -1.636 3.982
 -1.388 -1.617 3.944
 -1.382 -1.641 4.009
 -1.349 -1.631 3.994
 -1.331 -1.64 4.023
 -1.299 -1.633 4.011
 -1.264 -1.621 3.988
 -1.242 -1.625 4.004
 -1.224 -1.634 4.033
 -1.202 -1.638 4.051
 -1.177 -1.64 4.061
 -1.14 -1.623 4.025
 -1.114 -1.621 4.026
 -1.088 -1.62 4.03
 -1.059 -1.615 4.023
 -1.038 -1.622 4.044
 -1.015 -1.624 4.056
 -0.984 -1.616 4.04
 -0.973 -1.638 4.101
 -0.944 -1.632 4.09
 -0.917 -1.631 4.091
 -0.882 -1.612 4.048
 -0.871 -1.638 4.118
 -0.837 -1.621 4.081
 -0.814 -1.626 4.096
 -0.78 -1.608 4.055
 -0.758 -1.615 4.076
 -0.739 -1.629 4.115
 -0.709 -1.616 4.086
 -0.687 -1.625 4.111
 -0.656 -1.609 4.075
 -0.637 -1.624 4.116
 -0.615 -1.634 4.145
 -0.581 -1.61 4.086
 -0.563 -1.631 4.141
 -0.535 -1.621 4.119
 -0.509 -1.619 4.118
 -0.482 -1.612 4.1
 -0.46 -1.624 4.133
 -0.434 -1.617 4.118
 -0.412 -1.632 4.158
 -0.384 -1.619 4.126
 -0.36 -1.624 4.14
 -0.335 -1.624 4.142
 -0.308 -1.616 4.124
 -0.285 -1.626 4.148
 -0.258 -1.615 4.123
 -0.235 -1.63 4.162
 -0.209 -1.622 4.142
 -0.184 -1.62 4.138
 -0.159 -1.627 4.156
 -0.133 -1.605 4.101
 -0.109 -1.623 4.147
 -0.084 -1.621 4.141
 -0.059 -1.619 4.136
 -0.034 -1.609 4.112
 -0.009 -1.624 4.148
 0.015 -1.611 4.115
 0.04 -1.622 4.143
 0.065 -1.616 4.127
 0.09 -1.61 4.111
 0.116 -1.629 4.16
 0.141 -1.624 4.145
 0.163 -1.601 4.086
 0.189 -1.613 4.116
 0.215 -1.616 4.121
 0.238 -1.609 4.101
 0.262 -1.603 4.084
 0.291 -1.627 4.145
 0.315 -1.62 4.125
 0.338 -1.612 4.103
 0.365 -1.622 4.127
 0.391 -1.624 4.129
 0.414 -1.618 4.112
 0.442 -1.627 4.132
 0.462 -1.611 4.088
 0.491 -1.625 4.12
 0.512 -1.612 4.085
 0.541 -1.626 4.117
 0.565 -1.623 4.107
 0.585 -1.608 4.065
 0.62 -1.635 4.13
 0.643 -1.631 4.116
 0.668 -1.631 4.113
 0.691 -1.626 4.097
 0.725 -1.646 4.142
 0.743 -1.63 4.098
 0.765 -1.625 4.08
 0.792 -1.629 4.086
 0.818 -1.63 4.086
 0.847 -1.637 4.097
 0.861 -1.617 4.043
 0.894 -1.632 4.076
 0.919 -1.631 4.068
 0.938 -1.62 4.036
 0.969 -1.631 4.057
 0.997 -1.636 4.065
 1.015 -1.625 4.03
 1.038 -1.621 4.016
 1.06 -1.618 4.002
 1.089 -1.623 4.009
 1.121 -1.635 4.031
 1.154 -1.645 4.05
 1.157 -1.614 3.966
 1.208 -1.651 4.05
 1.221 -1.634 4.001
 1.243 -1.63 3.986
 1.272 -1.636 3.992
 1.296 -1.634 3.979
 1.328 -1.642 3.993
 1.348 -1.637 3.972
 1.379 -1.644 3.98
 1.403 -1.643 3.969
 1.425 -1.639 3.951
 1.452 -1.64 3.947
 1.47 -1.633 3.921
 1.504 -1.643 3.935
 1.516 -1.629 3.893
 1.546 -1.635 3.898
 1.572 -1.635 3.89
 1.592 -1.63 3.869
 1.633 -1.647 3.898
 1.649 -1.637 3.867
 1.668 -1.632 3.843
 1.7 -1.639 3.85
 1.731 -1.644 3.851
 1.747 -1.636 3.822
 1.763 -1.627 3.791
 1.794 -1.633 3.795
 1.824 -1.638 3.795
 1.853 -1.641 3.792
 1.859 -1.625 3.743
 1.846 -1.592 3.655
 1.87 -1.591 3.643
 1.883 -1.582 3.61
 1.857 -1.541 3.505
 1.874 -1.536 3.482
 1.892 -1.531 3.459
 1.885 -1.507 3.394
 1.871 -1.478 3.315
 1.85 -1.444 3.229
 1.844 -1.423 3.17
 1.859 -1.417 3.146
 1.829 -1.379 3.049
 1.829 -1.363 3.002
 1.836 -1.353 2.969
 -2.222 -1.63 3.73
 -2.204 -1.636 3.757
 -2.163 -1.625 3.744
 -2.134 -1.622 3.751
 -2.115 -1.627 3.774
 -2.101 -1.637 3.808
 -2.073 -1.635 3.816
 -2.03 -1.622 3.797
 -2.031 -1.643 3.859
 -1.986 -1.628 3.834
 -1.963 -1.63 3.851
 -1.929 -1.623 3.845
 -1.892 -1.613 3.833
 -1.889 -1.634 3.892
 -1.849 -1.62 3.871
 -1.842 -1.637 3.922
 -1.82 -1.641 3.941
 -1.809 -1.655 3.986
 -1.766 -1.639 3.956
 -1.715 -1.616 3.911
 -1.702 -1.627 3.948
 -1.684 -1.635 3.976
 -1.646 -1.623 3.957
 -1.617 -1.62 3.958
 -1.603 -1.632 3.995
 -1.561 -1.615 3.963
 -1.544 -1.624 3.994
 -1.522 -1.628 4.012
 -1.497 -1.629 4.023
 -1.461 -1.618 4.002
 -1.432 -1.613 3.999
 -1.427 -1.637 4.066
 -1.393 -1.628 4.05
 -1.358 -1.617 4.029
 -1.335 -1.619 4.043
 -1.31 -1.621 4.054
 -1.299 -1.639 4.107
 -1.262 -1.626 4.079
 -1.234 -1.622 4.076
 -1.212 -1.626 4.094
 -1.166 -1.599 4.032
 -1.157 -1.621 4.093
 -1.126 -1.614 4.082
 -1.11 -1.628 4.123
 -1.077 -1.616 4.098
 -1.056 -1.624 4.122
 -1.031 -1.624 4.129
 -0.992 -1.603 4.079
 -0.971 -1.611 4.104
 -0.952 -1.621 4.135
 -0.92 -1.611 4.113
 -0.897 -1.614 4.126
 -0.871 -1.613 4.13
 -0.847 -1.616 4.14
 -0.818 -1.609 4.127
 -0.798 -1.621 4.161
 -0.775 -1.625 4.175
 -0.748 -1.622 4.171
 -0.716 -1.607 4.137
 -0.692 -1.61 4.148
 -0.666 -1.61 4.151
 -0.637 -1.599 4.126
 -0.615 -1.608 4.151
 -0.596 -1.625 4.198
 -0.569 -1.62 4.189
 -0.541 -1.615 4.178
 -0.515 -1.612 4.171
 -0.495 -1.63 4.22
 -0.466 -1.619 4.194
 -0.44 -1.615 4.185
 -0.416 -1.622 4.205
 -0.385 -1.599 4.149
 -0.365 -1.623 4.212
 -0.337 -1.61 4.179
 -0.31 -1.603 4.163
 -0.287 -1.613 4.19
 -0.262 -1.615 4.197
 -0.237 -1.62 4.21
 -0.21 -1.606 4.175
 -0.185 -1.61 4.186
 -0.161 -1.619 4.21
 -0.135 -1.612 4.191
 -0.11 -1.613 4.194
 -0.085 -1.613 4.194
 -0.06 -1.628 4.233
 -0.034 -1.619 4.21
 -0.009 -1.621 4.215
 0.016 -1.616 4.202
 0.041 -1.618 4.206
 0.066 -1.607 4.178
 0.092 -1.628 4.231
 0.117 -1.616 4.198
 0.141 -1.598 4.151
 0.166 -1.601 4.159
 0.191 -1.603 4.161
 0.217 -1.607 4.171
 0.244 -1.622 4.21
 0.269 -1.615 4.189
 0.293 -1.609 4.172
 0.318 -1.611 4.174
 0.344 -1.615 4.183
 0.368 -1.608 4.164
 0.392 -1.604 4.149
 0.421 -1.62 4.189
 0.446 -1.618 4.181
 0.47 -1.613 4.166
 0.495 -1.611 4.159
 0.514 -1.595 4.113
 0.546 -1.613 4.158
 0.572 -1.618 4.167
 0.591 -1.6 4.117
 0.621 -1.613 4.148
 0.648 -1.618 4.158
 0.676 -1.624 4.169
 0.701 -1.622 4.16
 0.731 -1.634 4.186
 0.754 -1.628 4.167
 0.768 -1.604 4.099
 0.798 -1.615 4.123
 0.819 -1.606 4.096
 0.848 -1.614 4.112
 0.879 -1.625 4.136
 0.908 -1.631 4.146
 0.93 -1.626 4.128
 0.956 -1.626 4.123
 0.982 -1.627 4.12
 1.005 -1.623 4.104
 1.029 -1.622 4.095
 1.054 -1.621 4.086
 1.075 -1.615 4.066
 1.109 -1.627 4.091
 1.139 -1.635 4.103
 1.153 -1.619 4.056
 1.184 -1.627 4.07
 1.212 -1.631 4.073
 1.229 -1.619 4.036
 1.272 -1.642 4.087
 1.287 -1.63 4.048
 1.318 -1.636 4.057
 1.336 -1.627 4.027
 1.375 -1.643 4.059
 1.393 -1.634 4.028
 1.405 -1.619 3.984
 1.443 -1.634 4.012
 1.462 -1.626 3.983
 1.487 -1.627 3.976
 1.521 -1.636 3.989
 1.536 -1.624 3.953
 1.575 -1.639 3.979
 1.589 -1.628 3.942
 1.616 -1.63 3.937
 1.629 -1.617 3.899
 1.666 -1.629 3.916
 1.7 -1.637 3.926
 1.726 -1.638 3.918
 1.734 -1.621 3.868
 1.756 -1.619 3.851
 1.813 -1.647 3.908
 1.811 -1.623 3.839
 1.862 -1.645 3.882
 1.838 -1.603 3.771
 1.863 -1.602 3.758
 1.886 -1.601 3.744
 1.879 -1.575 3.67
 1.883 -1.558 3.62
 1.87 -1.528 3.539
 1.905 -1.537 3.547
 1.849 -1.474 3.39
 1.901 -1.496 3.431
 0 0 0
 0 0 0
 1.845 -1.401 3.178
 1.873 -1.406 3.178
 1.852 -1.374 3.095
 1.844 -1.353 3.036
 1.842 -1.336 2.986
 -2.267 -1.636 3.816
 -2.235 -1.633 3.82
 -2.186 -1.616 3.794
 -2.174 -1.626 3.831
 -2.134 -1.616 3.819
 -2.117 -1.623 3.848
 -2.097 -1.628 3.872
 -2.068 -1.625 3.877
 -2.047 -1.63 3.899
 -2.016 -1.626 3.902
 -1.978 -1.617 3.891
 -1.971 -1.632 3.94
 -1.935 -1.624 3.931
 -1.917 -1.631 3.959
 -1.879 -1.621 3.945
 -1.851 -1.619 3.951
 -1.846 -1.638 4.007
 -1.81 -1.63 3.998
 -1.781 -1.627 4
 -1.753 -1.626 4.007
 -1.712 -1.612 3.982
 -1.694 -1.619 4.01
 -1.666 -1.617 4.015
 -1.639 -1.616 4.022
 -1.624 -1.628 4.059
 -1.567 -1.596 3.989
 -1.565 -1.62 4.057
 -1.539 -1.62 4.065
 -1.524 -1.632 4.103
 -1.489 -1.622 4.087
 -1.465 -1.625 4.101
 -1.431 -1.617 4.088
 -1.406 -1.617 4.097
 -1.389 -1.628 4.133
 -1.352 -1.614 4.105
 -1.328 -1.617 4.118
 -1.289 -1.601 4.084
 -1.275 -1.616 4.129
 -1.254 -1.622 4.152
 -1.222 -1.614 4.139
 -1.189 -1.605 4.121
 -1.174 -1.619 4.164
 -1.134 -1.6 4.119
 -1.115 -1.61 4.151
 -1.09 -1.611 4.16
 -1.07 -1.62 4.187
 -1.035 -1.606 4.157
 -1.014 -1.613 4.18
 -0.991 -1.618 4.197
 -0.959 -1.608 4.177
 -0.929 -1.6 4.161
 -0.908 -1.608 4.187
 -0.875 -1.595 4.158
 -0.854 -1.604 4.184
 -0.833 -1.613 4.212
 -0.808 -1.615 4.221
 -0.781 -1.613 4.22
 -0.749 -1.6 4.189
 -0.719 -1.59 4.166
 -0.703 -1.612 4.227
 -0.676 -1.609 4.223
 -0.651 -1.61 4.229
 -0.619 -1.593 4.186
 -0.597 -1.605 4.22
 -0.575 -1.613 4.244
 -0.544 -1.599 4.21
 -0.517 -1.594 4.199
 -0.494 -1.601 4.219
 -0.471 -1.611 4.25
 -0.441 -1.594 4.207
 -0.416 -1.595 4.211
 -0.39 -1.595 4.211
 -0.368 -1.611 4.257
 -0.342 -1.61 4.256
 -0.314 -1.598 4.226
 -0.289 -1.602 4.236
 -0.264 -1.604 4.244
 -0.24 -1.614 4.269
 -0.213 -1.604 4.245
 -0.187 -1.601 4.238
 -0.162 -1.608 4.257
 -0.137 -1.609 4.26
 -0.111 -1.603 4.243
 -0.085 -1.604 4.247
 -0.059 -1.599 4.233
 -0.034 -1.599 4.232
 -0.009 -1.603 4.244
 0.016 -1.616 4.278
 0.041 -1.597 4.226
 0.066 -1.581 4.184
 0.092 -1.601 4.237
 0.117 -1.589 4.204
 0.143 -1.599 4.228
 0.169 -1.601 4.234
 0.195 -1.608 4.249
 0.221 -1.609 4.251
 0.246 -1.606 4.244
 0.272 -1.606 4.241
 0.295 -1.596 4.213
 0.322 -1.604 4.232
 0.345 -1.592 4.197
 0.372 -1.598 4.212
 0.395 -1.588 4.183
 0.425 -1.606 4.228
 0.448 -1.599 4.206
 0.473 -1.598 4.202
 0.5 -1.603 4.212
 0.525 -1.603 4.208
 0.551 -1.604 4.208
 0.577 -1.604 4.205
 0.599 -1.596 4.181
 0.629 -1.607 4.206
 0.654 -1.606 4.2
 0.681 -1.61 4.208
 0.707 -1.61 4.203
 0.734 -1.613 4.207
 0.756 -1.606 4.184
 0.785 -1.614 4.202
 0.807 -1.606 4.175
 0.83 -1.602 4.16
 0.86 -1.61 4.176
 0.888 -1.614 4.183
 0.909 -1.607 4.158
 0.933 -1.605 4.149
 0.962 -1.611 4.158
 0.99 -1.614 4.161
 1.019 -1.62 4.172
 1.04 -1.613 4.148
 1.062 -1.608 4.128
 1.085 -1.604 4.11
 1.124 -1.624 4.155
 1.144 -1.616 4.128
 1.173 -1.62 4.133
 1.197 -1.618 4.122
 1.228 -1.625 4.133
 1.256 -1.629 4.135
 1.274 -1.619 4.102
 1.296 -1.614 4.083
 1.332 -1.627 4.107
 1.37 -1.642 4.138
 1.393 -1.638 4.121
 1.421 -1.641 4.12
 1.435 -1.628 4.077
 1.465 -1.632 4.079
 1.489 -1.631 4.068
 1.512 -1.627 4.05
 1.53 -1.62 4.022
 1.573 -1.638 4.058
 1.596 -1.635 4.041
 1.616 -1.629 4.018
 1.648 -1.635 4.023
 1.672 -1.633 4.01
 1.691 -1.627 3.984
 1.691 -1.603 3.914
 1.747 -1.632 3.975
 1.776 -1.634 3.971
 1.792 -1.625 3.939
 1.814 -1.623 3.921
 1.847 -1.629 3.926
 1.855 -1.614 3.877
 1.883 -1.616 3.871
 1.881 -1.593 3.804
 1.89 -1.579 3.761
 1.884 -1.554 3.689
 1.909 -1.555 3.679
 1.882 -1.513 3.57
 1.909 -1.515 3.563
 0 0 0
 0 0 0
 0 0 0
 0 0 0
 1.827 -1.366 3.156
 1.821 -1.346 3.097
 1.862 -1.36 3.12
 1.863 -1.345 3.074
 1.851 -1.322 3.01
 -2.274 -1.615 3.839
 -2.227 -1.601 3.817
 -2.217 -1.612 3.857
 -2.182 -1.606 3.855
 -2.181 -1.625 3.913
 -2.176 -1.642 3.966
 -2.118 -1.618 3.921
 -2.099 -1.624 3.947
 -2.069 -1.621 3.951
 -2.056 -1.632 3.99
 -2.005 -1.612 3.953
 -1.984 -1.617 3.976
 -1.962 -1.62 3.995
 -1.932 -1.618 4.001
 -1.921 -1.631 4.044
 -1.882 -1.621 4.029
 -1.852 -1.617 4.03
 -1.815 -1.608 4.017
 -1.813 -1.629 4.082
 -1.789 -1.632 4.098
 -1.735 -1.607 4.044
 -1.71 -1.608 4.058
 -1.685 -1.61 4.071
 -1.665 -1.616 4.095
 -1.65 -1.627 4.132
 -1.621 -1.625 4.136
 -1.583 -1.612 4.113
 -1.554 -1.61 4.116
 -1.542 -1.626 4.164
 -1.51 -1.619 4.156
 -1.465 -1.599 4.111
 -1.452 -1.614 4.158
 -1.425 -1.613 4.164
 -1.396 -1.61 4.162
 -1.374 -1.616 4.184
 -1.338 -1.604 4.161
 -1.325 -1.62 4.209
 -1.29 -1.609 4.188
 -1.262 -1.607 4.189
 -1.231 -1.6 4.179
 -1.204 -1.599 4.181
 -1.187 -1.612 4.22
 -1.163 -1.615 4.235
 -1.123 -1.596 4.191
 -1.103 -1.604 4.216
 -1.081 -1.611 4.241
 -1.049 -1.602 4.223
 -1.02 -1.596 4.213
 -0.995 -1.599 4.226
 -0.97 -1.601 4.236
 -0.946 -1.603 4.246
 -0.912 -1.591 4.217
 -0.887 -1.592 4.226
 -0.871 -1.609 4.275
 -0.841 -1.602 4.26
 -0.809 -1.592 4.236
 -0.788 -1.601 4.266
 -0.758 -1.593 4.246
 -0.733 -1.595 4.256
 -0.707 -1.594 4.256
 -0.686 -1.606 4.292
 -0.653 -1.589 4.249
 -0.628 -1.591 4.259
 -0.602 -1.591 4.261
 -0.577 -1.594 4.271
 -0.544 -1.574 4.221
 -0.52 -1.578 4.234
 -0.497 -1.584 4.253
 -0.472 -1.59 4.27
 -0.444 -1.581 4.247
 -0.42 -1.586 4.264
 -0.392 -1.578 4.244
 -0.366 -1.576 4.239
 -0.34 -1.575 4.238
 -0.315 -1.578 4.247
 -0.29 -1.582 4.261
 -0.263 -1.569 4.226
 -0.238 -1.578 4.25
 -0.213 -1.581 4.26
 -0.187 -1.577 4.25
 -0.161 -1.572 4.238
 -0.136 -1.572 4.237
 -0.11 -1.574 4.242
 -0.085 -1.57 4.232
 -0.06 -1.582 4.263
 -0.034 -1.568 4.226
 -0.008 -1.577 4.251
 0.016 -1.573 4.24
 0.042 -1.576 4.246
 0.067 -1.582 4.262
 0.093 -1.58 4.258
 0.118 -1.569 4.227
 0.142 -1.563 4.21
 0.17 -1.583 4.262
 0.194 -1.573 4.234
 0.219 -1.572 4.229
 0.246 -1.579 4.246
 0.272 -1.583 4.256
 0.296 -1.572 4.225
 0.323 -1.58 4.243
 0.348 -1.577 4.234
 0.372 -1.575 4.226
 0.397 -1.571 4.213
 0.425 -1.58 4.235
 0.447 -1.569 4.203
 0.476 -1.582 4.235
 0.504 -1.588 4.248
 0.528 -1.585 4.238
 0.557 -1.594 4.259
 0.576 -1.574 4.203
 0.603 -1.58 4.216
 0.63 -1.583 4.219
 0.658 -1.589 4.233
 0.689 -1.603 4.265
 0.707 -1.584 4.211
 0.738 -1.597 4.24
 0.763 -1.595 4.23
 0.787 -1.592 4.218
 0.813 -1.592 4.215
 0.84 -1.595 4.218
 0.868 -1.599 4.223
 0.896 -1.603 4.229
 0.922 -1.603 4.224
 0.944 -1.598 4.205
 0.967 -1.594 4.189
 0.999 -1.603 4.208
 1.027 -1.607 4.212
 1.049 -1.601 4.19
 1.073 -1.598 4.176
 1.114 -1.62 4.228
 1.136 -1.615 4.209
 1.158 -1.609 4.187
 1.191 -1.619 4.207
 1.21 -1.609 4.175
 1.242 -1.618 4.19
 1.268 -1.618 4.182
 1.29 -1.613 4.163
 1.311 -1.607 4.14
 1.349 -1.621 4.168
 1.364 -1.608 4.127
 1.398 -1.617 4.143
 1.422 -1.615 4.129
 1.447 -1.615 4.12
 1.489 -1.632 4.156
 1.503 -1.619 4.113
 1.54 -1.631 4.134
 1.558 -1.622 4.104
 1.589 -1.628 4.109
 1.607 -1.619 4.077
 1.636 -1.622 4.075
 1.665 -1.625 4.073
 1.695 -1.629 4.074
 1.725 -1.633 4.074
 1.734 -1.617 4.024
 1.747 -1.605 3.982
 1.799 -1.629 4.031
 1.815 -1.62 3.999
 1.856 -1.634 4.021
 1.858 -1.613 3.958
 1.875 -1.605 3.928
 1.884 -1.591 3.883
 1.894 -1.578 3.839
 1.898 -1.561 3.786
 1.88 -1.526 3.689
 1.911 -1.532 3.692
 1.885 -1.491 3.583
 1.917 -1.498 3.588
 0 0 0
 0 0 0
 0 0 0
 0 0 0
 1.824 -1.342 3.159
 1.831 -1.331 3.122
 1.864 -1.34 3.131
 1.874 -1.332 3.101
 1.837 -1.291 2.995
 -2.309 -1.614 3.908
 -2.301 -1.627 3.953
 -2.262 -1.619 3.947
 -2.224 -1.611 3.94
 -2.229 -1.634 4.01
 -2.169 -1.609 3.962
 -2.163 -1.626 4.015
 -2.112 -1.607 3.982
 -2.083 -1.605 3.988
 -2.081 -1.625 4.049
 -2.056 -1.626 4.064
 -2.022 -1.621 4.062
 -2.001 -1.626 4.086
 -1.952 -1.608 4.052
 -1.924 -1.607 4.06
 -1.919 -1.625 4.116
 -1.876 -1.611 4.092
 -1.859 -1.62 4.125
 -1.831 -1.619 4.133
 -1.816 -1.63 4.17
 -1.776 -1.618 4.149
 -1.747 -1.616 4.154
 -1.722 -1.618 4.17
 -1.691 -1.614 4.168
 -1.663 -1.613 4.176
 -1.627 -1.604 4.159
 -1.598 -1.601 4.162
 -1.572 -1.603 4.174
 -1.546 -1.603 4.184
 -1.525 -1.609 4.207
 -1.493 -1.604 4.201
 -1.473 -1.611 4.227
 -1.432 -1.595 4.193
 -1.41 -1.6 4.214
 -1.38 -1.596 4.212
 -1.374 -1.62 4.282
 -1.337 -1.608 4.256
 -1.304 -1.6 4.243
 -1.269 -1.589 4.221
 -1.252 -1.601 4.258
 -1.221 -1.596 4.251
 -1.193 -1.593 4.249
 -1.171 -1.6 4.274
 -1.143 -1.597 4.272
 -1.118 -1.6 4.285
 -1.083 -1.587 4.256
 -1.053 -1.582 4.248
 -1.027 -1.581 4.251
 -0.997 -1.576 4.242
 -0.984 -1.598 4.306
 -0.947 -1.579 4.26
 -0.916 -1.571 4.242
 -0.895 -1.581 4.274
 -0.86 -1.565 4.234
 -0.837 -1.57 4.252
 -0.814 -1.576 4.272
 -0.777 -1.554 4.217
 -0.757 -1.565 4.25
 -0.732 -1.567 4.259
 -0.705 -1.564 4.253
 -0.682 -1.57 4.274
 -0.653 -1.564 4.26
 -0.625 -1.559 4.25
 -0.603 -1.569 4.281
 -0.577 -1.569 4.283
 -0.548 -1.56 4.259
 -0.524 -1.563 4.271
 -0.496 -1.557 4.257
 -0.472 -1.562 4.274
 -0.444 -1.555 4.254
 -0.42 -1.562 4.275
 -0.394 -1.562 4.279
 -0.368 -1.561 4.276
 -0.34 -1.549 4.244
 -0.317 -1.564 4.287
 -0.29 -1.553 4.259
 -0.264 -1.552 4.255
 -0.238 -1.55 4.252
 -0.213 -1.556 4.271
 -0.188 -1.563 4.291
 -0.162 -1.561 4.283
 -0.136 -1.555 4.269
 -0.11 -1.553 4.262
 -0.085 -1.549 4.253
 -0.06 -1.56 4.281
 -0.034 -1.553 4.263
 -0.008 -1.551 4.258
 0.016 -1.547 4.245
 0.042 -1.555 4.268
 0.067 -1.545 4.238
 0.093 -1.552 4.258
 0.118 -1.551 4.254
 0.144 -1.556 4.267
 0.17 -1.558 4.271
 0.194 -1.546 4.239
 0.221 -1.557 4.265
 0.246 -1.552 4.252
 0.271 -1.549 4.242
 0.297 -1.555 4.255
 0.322 -1.549 4.236
 0.35 -1.561 4.268
 0.374 -1.557 4.255
 0.4 -1.558 4.255
 0.425 -1.555 4.246
 0.449 -1.55 4.228
 0.475 -1.552 4.232
 0.502 -1.556 4.239
 0.526 -1.553 4.228
 0.555 -1.561 4.248
 0.581 -1.563 4.249
 0.605 -1.56 4.238
 0.629 -1.554 4.218
 0.656 -1.558 4.226
 0.683 -1.562 4.232
 0.707 -1.558 4.218
 0.737 -1.569 4.244
 0.762 -1.568 4.236
 0.786 -1.564 4.222
 0.815 -1.57 4.233
 0.838 -1.566 4.218
 0.869 -1.575 4.237
 0.893 -1.572 4.223
 0.915 -1.566 4.203
 0.951 -1.583 4.242
 0.973 -1.577 4.221
 1.002 -1.582 4.228
 1.027 -1.58 4.22
 1.052 -1.579 4.209
 1.077 -1.578 4.2
 1.103 -1.578 4.195
 1.131 -1.581 4.197
 1.167 -1.595 4.227
 1.182 -1.581 4.183
 1.215 -1.59 4.2
 1.25 -1.602 4.225
 1.268 -1.591 4.189
 1.305 -1.605 4.22
 1.332 -1.606 4.213
 1.354 -1.6 4.192
 1.389 -1.611 4.211
 1.409 -1.604 4.186
 1.436 -1.605 4.179
 1.454 -1.596 4.149
 1.491 -1.608 4.171
 1.519 -1.609 4.165
 1.557 -1.622 4.188
 1.566 -1.605 4.135
 1.601 -1.613 4.148
 1.624 -1.61 4.13
 1.666 -1.626 4.161
 1.678 -1.611 4.114
 1.71 -1.617 4.119
 1.725 -1.607 4.083
 1.761 -1.615 4.094
 1.778 -1.607 4.063
 1.818 -1.619 4.083
 1.841 -1.617 4.066
 1.851 -1.602 4.019
 1.871 -1.597 3.994
 1.881 -1.584 3.951
 1.905 -1.582 3.934
 1.909 -1.565 3.879
 1.914 -1.548 3.826
 1.91 -1.525 3.758
 1.902 -1.499 3.681
 0 0 0
 0 0 0
 0 0 0
 0 0 0
 0 0 0
 0 0 0
 0 0 0
 1.829 -1.308 3.126
 1.851 -1.309 3.116
 1.847 -1.292 3.064
 1.859 -1.286 3.038
 -2.359 -1.621 4.003
 -2.304 -1.602 3.969
 -2.309 -1.625 4.039
 -2.276 -1.621 4.042
 -2.222 -1.602 4.008
 -2.189 -1.597 4.008
 -2.187 -1.616 4.069
 -2.141 -1.602 4.046
 -2.13 -1.615 4.09
 -2.094 -1.608 4.084
 -2.07 -1.611 4.103
 -2.041 -1.609 4.11
 -2.006 -1.603 4.106
 -1.978 -1.602 4.115
 -1.96 -1.61 4.146
 -1.923 -1.601 4.135
 -1.903 -1.607 4.161
 -1.88 -1.611 4.182
 -1.853 -1.612 4.193
 -1.815 -1.602 4.179
 -1.788 -1.602 4.188
 -1.754 -1.596 4.182
 -1.727 -1.596 4.192
 -1.713 -1.608 4.233
 -1.674 -1.597 4.211
 -1.654 -1.604 4.24
 -1.615 -1.591 4.215
 -1.608 -1.612 4.278
 -1.563 -1.594 4.24
 -1.536 -1.594 4.246
 -1.502 -1.587 4.235
 -1.487 -1.599 4.278
 -1.459 -1.597 4.28
 -1.422 -1.586 4.258
 -1.395 -1.587 4.266
 -1.37 -1.589 4.279
 -1.337 -1.581 4.264
 -1.314 -1.586 4.285
 -1.282 -1.58 4.275
 -1.254 -1.578 4.276
 -1.226 -1.576 4.277
 -1.194 -1.569 4.264
 -1.159 -1.557 4.237
 -1.145 -1.575 4.292
 -1.125 -1.583 4.322
 -1.091 -1.572 4.296
 -1.063 -1.57 4.296
 -1.029 -1.56 4.272
 -1.006 -1.564 4.289
 -0.972 -1.552 4.261
 -0.95 -1.558 4.283
 -0.921 -1.554 4.275
 -0.893 -1.55 4.269
 -0.868 -1.554 4.283
 -0.841 -1.552 4.282
 -0.815 -1.55 4.282
 -0.785 -1.544 4.267
 -0.763 -1.552 4.294
 -0.73 -1.536 4.254
 -0.706 -1.542 4.272
 -0.684 -1.551 4.301
 -0.654 -1.54 4.272
 -0.627 -1.539 4.273
 -0.602 -1.541 4.281
 -0.575 -1.538 4.277
 -0.551 -1.543 4.292
 -0.521 -1.531 4.261
 -0.494 -1.525 4.248
 -0.471 -1.534 4.274
 -0.447 -1.541 4.295
 -0.419 -1.531 4.27
 -0.392 -1.527 4.261
 -0.366 -1.526 4.258
 -0.341 -1.53 4.272
 -0.315 -1.525 4.259
 -0.291 -1.534 4.285
 -0.264 -1.529 4.272
 -0.238 -1.524 4.258
 -0.212 -1.525 4.263
 -0.186 -1.52 4.249
 -0.161 -1.523 4.259
 -0.136 -1.524 4.261
 -0.111 -1.53 4.277
 -0.085 -1.53 4.279
 -0.06 -1.538 4.302
 -0.033 -1.517 4.242
 -0.008 -1.528 4.272
 0.016 -1.531 4.279
 0.042 -1.533 4.285
 0.067 -1.522 4.254
 0.093 -1.53 4.276
 0.118 -1.526 4.264
 0.144 -1.529 4.271
 0.169 -1.525 4.258
 0.195 -1.523 4.252
 0.22 -1.523 4.252
 0.247 -1.531 4.272
 0.271 -1.522 4.243
 0.298 -1.529 4.263
 0.325 -1.536 4.281
 0.349 -1.531 4.263
 0.372 -1.522 4.238
 0.399 -1.526 4.247
 0.423 -1.523 4.235
 0.452 -1.533 4.261
 0.479 -1.538 4.271
 0.5 -1.524 4.229
 0.531 -1.541 4.273
 0.556 -1.538 4.262
 0.58 -1.533 4.246
 0.603 -1.527 4.225
 0.634 -1.542 4.264
 0.661 -1.544 4.267
 0.682 -1.535 4.236
 0.707 -1.533 4.227
 0.738 -1.544 4.254
 0.763 -1.542 4.245
 0.787 -1.54 4.235
 0.815 -1.544 4.241
 0.843 -1.548 4.248
 0.867 -1.546 4.236
 0.897 -1.553 4.251
 0.921 -1.549 4.235
 0.945 -1.547 4.224
 0.976 -1.555 4.242
 1.001 -1.554 4.232
 1.031 -1.56 4.243
 1.053 -1.554 4.222
 1.085 -1.563 4.239
 1.106 -1.556 4.215
 1.14 -1.568 4.24
 1.168 -1.57 4.24
 1.186 -1.559 4.204
 1.217 -1.566 4.215
 1.245 -1.569 4.217
 1.269 -1.566 4.201
 1.297 -1.569 4.202
 1.322 -1.567 4.19
 1.36 -1.581 4.22
 1.383 -1.578 4.203
 1.409 -1.578 4.194
 1.433 -1.575 4.179
 1.472 -1.589 4.207
 1.5 -1.591 4.205
 1.526 -1.59 4.193
 1.555 -1.593 4.192
 1.58 -1.592 4.181
 1.607 -1.592 4.171
 1.642 -1.6 4.184
 1.677 -1.609 4.196
 1.695 -1.601 4.166
 1.718 -1.597 4.146
 1.753 -1.606 4.158
 1.772 -1.599 4.129
 1.815 -1.613 4.157
 1.819 -1.593 4.094
 1.834 -1.584 4.059
 1.857 -1.581 4.041
 1.899 -1.595 4.064
 1.883 -1.56 3.963
 1.903 -1.555 3.94
 1.923 -1.55 3.916
 1.877 -1.493 3.76
 1.916 -1.504 3.777
 0 0 0
 0 0 0
 0 0 0
 0 0 0
 0 0 0
 0 0 0
 0 0 0
 0 0 0
 1.844 -1.297 3.16
 1.861 -1.294 3.141
 1.876 -1.29 3.119
 1.848 -1.256 3.026
 -2.386 -1.612 4.059
 0 0 0
 -2.312 -1.599 4.054
 -2.312 -1.619 4.116
 -2.278 -1.615 4.119
 -2.242 -1.608 4.116
 -2.202 -1.6 4.106
 -2.19 -1.611 4.149
 -2.14 -1.595 4.118
 -2.109 -1.592 4.123
 -2.09 -1.599 4.152
 -2.057 -1.594 4.152
 -2.033 -1.597 4.171
 -1.998 -1.591 4.167
 -1.972 -1.593 4.182
 -1.96 -1.605 4.226
 -1.919 -1.594 4.207
 -1.903 -1.603 4.242
 -1.876 -1.604 4.255
 -1.841 -1.597 4.247
 -1.816 -1.6 4.265
 -1.781 -1.593 4.255
 -1.757 -1.596 4.273
 -1.719 -1.586 4.256
 -1.693 -1.588 4.27
 -1.669 -1.591 4.287
 -1.635 -1.585 4.279
 -1.607 -1.584 4.285
 -1.582 -1.586 4.3
 -1.54 -1.571 4.268
 -1.516 -1.574 4.284
 -1.478 -1.563 4.26
 -1.457 -1.569 4.285
 -1.427 -1.565 4.282
 -1.4 -1.565 4.289
 -1.375 -1.568 4.304
 -1.341 -1.559 4.286
 -1.324 -1.571 4.325
 -1.287 -1.559 4.3
 -1.252 -1.549 4.279
 -1.226 -1.55 4.287
 -1.199 -1.549 4.291
 -1.17 -1.545 4.286
 -1.144 -1.546 4.296
 -1.113 -1.54 4.283
 -1.088 -1.542 4.295
 -1.059 -1.538 4.288
 -1.032 -1.537 4.29
 -1.001 -1.53 4.275
 -0.983 -1.543 4.317
 -0.952 -1.536 4.302
 -0.919 -1.525 4.276
 -0.897 -1.532 4.299
 -0.873 -1.536 4.315
 -0.842 -1.527 4.294
 -0.812 -1.52 4.278
 -0.789 -1.526 4.298
 -0.761 -1.522 4.292
 -0.739 -1.529 4.315
 -0.704 -1.51 4.265
 -0.676 -1.507 4.258
 -0.653 -1.513 4.278
 -0.63 -1.521 4.303
 -0.601 -1.511 4.279
 -0.577 -1.517 4.298
 -0.551 -1.516 4.298
 -0.521 -1.505 4.268
 -0.493 -1.498 4.252
 -0.472 -1.514 4.297
 -0.444 -1.504 4.273
 -0.42 -1.51 4.292
 -0.392 -1.501 4.268
 -0.367 -1.506 4.282
 -0.341 -1.502 4.274
 -0.315 -1.502 4.274
 -0.289 -1.5 4.269
 -0.265 -1.508 4.293
 -0.238 -1.5 4.272
 -0.213 -1.508 4.294
 -0.188 -1.511 4.304
 -0.161 -1.497 4.264
 -0.136 -1.502 4.279
 -0.11 -1.494 4.255
 -0.084 -1.498 4.268
 -0.059 -1.498 4.267
 -0.034 -1.503 4.282
 -0.008 -1.498 4.268
 0.017 -1.495 4.26
 0.042 -1.505 4.288
 0.067 -1.497 4.264
 0.093 -1.506 4.289
 0.118 -1.494 4.254
 0.144 -1.499 4.265
 0.17 -1.501 4.27
 0.195 -1.5 4.267
 0.221 -1.505 4.278
 0.246 -1.498 4.258
 0.272 -1.501 4.265
 0.297 -1.502 4.265
 0.322 -1.498 4.253
 0.349 -1.503 4.266
 0.373 -1.498 4.249
 0.401 -1.51 4.279
 0.426 -1.506 4.266
 0.449 -1.496 4.237
 0.473 -1.493 4.225
 0.501 -1.501 4.246
 0.527 -1.504 4.249
 0.555 -1.51 4.263
 0.581 -1.51 4.262
 0.606 -1.51 4.259
 0.628 -1.501 4.23
 0.659 -1.514 4.261
 0.681 -1.507 4.237
 0.712 -1.517 4.261
 0.732 -1.506 4.227
 0.759 -1.509 4.232
 0.784 -1.507 4.222
 0.819 -1.524 4.266
 0.843 -1.523 4.257
 0.868 -1.521 4.249
 0.896 -1.525 4.254
 0.926 -1.531 4.266
 0.946 -1.522 4.236
 0.974 -1.526 4.24
 1.005 -1.533 4.255
 1.029 -1.531 4.242
 1.055 -1.531 4.237
 1.082 -1.533 4.237
 1.109 -1.534 4.233
 1.136 -1.536 4.232
 1.166 -1.541 4.242
 1.193 -1.543 4.238
 1.217 -1.54 4.224
 1.248 -1.546 4.233
 1.275 -1.547 4.23
 1.308 -1.555 4.243
 1.328 -1.548 4.218
 1.361 -1.555 4.229
 1.388 -1.557 4.226
 1.416 -1.559 4.224
 1.44 -1.556 4.207
 1.471 -1.562 4.214
 1.499 -1.563 4.211
 1.515 -1.553 4.173
 1.558 -1.569 4.208
 1.586 -1.571 4.203
 1.61 -1.569 4.189
 1.643 -1.574 4.195
 1.677 -1.582 4.204
 1.695 -1.574 4.173
 1.721 -1.573 4.161
 1.758 -1.583 4.177
 1.785 -1.584 4.169
 1.811 -1.583 4.157
 1.831 -1.577 4.129
 1.856 -1.575 4.115
 1.872 -1.567 4.082
 1.896 -1.565 4.065
 1.897 -1.545 4.001
 1.885 -1.514 3.911
 1.89 -1.498 3.858
 1.901 -1.487 3.817
 0 0 0
 0 0 0
 0 0 0
 0 0 0
 0 0 0
 0 0 0
 0 0 0
 0 0 0
 0 0 0
 1.907 -1.319 3.277
 1.861 -1.273 3.148
 1.831 -1.238 3.051
 1.864 -1.246 3.061
 -2.445 -1.624 4.17
 -2.387 -1.604 4.132
 -2.354 -1.601 4.138
 -2.322 -1.598 4.144
 -2.265 -1.578 4.105
 -2.304 -1.625 4.24
 -2.239 -1.599 4.186
 -2.2 -1.591 4.178
 -2.197 -1.609 4.239
 -2.156 -1.6 4.225
 -2.124 -1.597 4.23
 -2.104 -1.603 4.257
 -2.057 -1.588 4.229
 -2.035 -1.593 4.255
 -2.023 -1.606 4.299
 -1.972 -1.587 4.261
 -1.963 -1.603 4.314
 -1.902 -1.575 4.249
 -1.89 -1.588 4.295
 -1.854 -1.582 4.289
 -1.824 -1.58 4.292
 -1.79 -1.574 4.287
 -1.767 -1.578 4.308
 -1.731 -1.57 4.296
 -1.694 -1.562 4.282
 -1.673 -1.568 4.307
 -1.637 -1.56 4.294
 -1.61 -1.56 4.303
 -1.585 -1.562 4.317
 -1.553 -1.557 4.313
 -1.516 -1.547 4.292
 -1.487 -1.546 4.296
 -1.455 -1.54 4.287
 -1.425 -1.537 4.287
 -1.394 -1.533 4.282
 -1.372 -1.537 4.302
 -1.345 -1.537 4.309
 -1.311 -1.529 4.292
 -1.282 -1.526 4.29
 -1.255 -1.526 4.298
 -1.228 -1.526 4.302
 -1.196 -1.518 4.288
 -1.173 -1.523 4.306
 -1.139 -1.514 4.286
 -1.12 -1.523 4.319
 -1.084 -1.511 4.289
 -1.057 -1.51 4.29
 -1.03 -1.508 4.291
 -1.002 -1.506 4.291
 -0.978 -1.509 4.304
 -0.954 -1.513 4.32
 -0.915 -1.493 4.267
 -0.893 -1.498 4.286
 -0.868 -1.501 4.299
 -0.84 -1.498 4.294
 -0.814 -1.498 4.296
 -0.784 -1.491 4.28
 -0.754 -1.483 4.261
 -0.737 -1.501 4.316
 -0.712 -1.503 4.326
 -0.68 -1.489 4.289
 -0.65 -1.48 4.266
 -0.622 -1.474 4.251
 -0.599 -1.482 4.277
 -0.576 -1.49 4.302
 -0.55 -1.488 4.301
 -0.522 -1.482 4.284
 -0.494 -1.476 4.267
 -0.47 -1.481 4.286
 -0.443 -1.475 4.27
 -0.42 -1.486 4.302
 -0.392 -1.478 4.283
 -0.364 -1.468 4.253
 -0.342 -1.483 4.298
 -0.314 -1.47 4.264
 -0.289 -1.474 4.275
 -0.263 -1.472 4.272
 -0.238 -1.475 4.281
 -0.211 -1.467 4.257
 -0.187 -1.476 4.285
 -0.16 -1.462 4.244
 -0.135 -1.47 4.269
 -0.11 -1.477 4.288
 -0.084 -1.47 4.269
 -0.059 -1.474 4.28
 -0.033 -1.469 4.266
 -0.008 -1.473 4.276
 0.017 -1.471 4.27
 0.042 -1.474 4.278
 0.068 -1.475 4.281
 0.094 -1.48 4.294
 0.118 -1.467 4.256
 0.144 -1.471 4.267
 0.17 -1.475 4.278
 0.194 -1.469 4.258
 0.221 -1.476 4.277
 0.246 -1.47 4.26
 0.271 -1.472 4.262
 0.298 -1.479 4.28
 0.323 -1.475 4.268
 0.347 -1.469 4.249
 0.374 -1.476 4.267
 0.397 -1.467 4.239
 0.424 -1.474 4.256
 0.451 -1.477 4.261
 0.474 -1.471 4.243
 0.5 -1.474 4.247
 0.526 -1.475 4.247
 0.551 -1.473 4.239
 0.58 -1.481 4.259
 0.607 -1.485 4.267
 0.633 -1.487 4.268
 0.656 -1.481 4.248
 0.683 -1.484 4.254
 0.708 -1.483 4.248
 0.735 -1.486 4.253
 0.763 -1.49 4.258
 0.789 -1.492 4.26
 0.814 -1.49 4.249
 0.839 -1.489 4.243
 0.872 -1.501 4.271
 0.893 -1.493 4.245
 0.911 -1.48 4.204
 0.947 -1.498 4.247
 0.977 -1.503 4.258
 0.998 -1.497 4.235
 1.026 -1.5 4.236
 1.052 -1.501 4.234
 1.076 -1.498 4.22
 1.113 -1.513 4.256
 1.133 -1.505 4.229
 1.157 -1.503 4.215
 1.186 -1.507 4.219
 1.217 -1.514 4.232
 1.246 -1.517 4.235
 1.267 -1.511 4.209
 1.299 -1.519 4.224
 1.325 -1.518 4.216
 1.355 -1.523 4.221
 1.385 -1.526 4.223
 1.416 -1.532 4.231
 1.437 -1.526 4.207
 1.472 -1.535 4.224
 1.498 -1.535 4.214
 1.531 -1.542 4.224
 1.56 -1.545 4.223
 1.589 -1.547 4.22
 1.607 -1.539 4.189
 1.635 -1.54 4.184
 1.673 -1.551 4.204
 1.704 -1.555 4.204
 1.738 -1.562 4.212
 1.749 -1.548 4.164
 1.785 -1.556 4.177
 1.816 -1.56 4.176
 1.829 -1.549 4.134
 1.853 -1.547 4.118
 1.865 -1.535 4.076
 1.883 -1.528 4.045
 1.887 -1.51 3.989
 1.904 -1.504 3.959
 1.92 -1.496 3.928
 0 0 0
 0 0 0
 0 0 0
 0 0 0
 0 0 0
 0 0 0
 0 0 0
 0 0 0
 0 0 0
 0 0 0
 1.85 -1.258 3.185
 1.887 -1.268 3.199
 1.892 -1.257 3.16
 1.856 -1.22 3.055
 0 0 0
 -2.406 -1.588 4.175
 -2.413 -1.612 4.252
 -2.404 -1.625 4.3
 -2.323 -1.59 4.221
 -2.302 -1.595 4.247
 -2.257 -1.584 4.229
 -2.227 -1.582 4.238
 -2.201 -1.584 4.255
 -2.167 -1.579 4.256
 -2.138 -1.579 4.267
 -2.11 -1.58 4.28
 -2.082 -1.58 4.292
 -2.069 -1.591 4.335
 -2.052 -1.6 4.371
 -2 -1.582 4.332
 -1.952 -1.565 4.298
 -1.927 -1.568 4.315
 -1.898 -1.568 4.324
 -1.867 -1.564 4.326
 -1.828 -1.556 4.312
 -1.797 -1.552 4.312
 -1.763 -1.547 4.307
 -1.741 -1.552 4.33
 -1.701 -1.54 4.307
 -1.666 -1.534 4.297
 -1.632 -1.528 4.29
 -1.611 -1.534 4.315
 -1.575 -1.525 4.298
 -1.556 -1.533 4.329
 -1.509 -1.513 4.281
 -1.495 -1.527 4.328
 -1.451 -1.51 4.286
 -1.432 -1.517 4.316
 -1.398 -1.51 4.303
 -1.368 -1.507 4.3
 -1.344 -1.509 4.314
 -1.315 -1.507 4.313
 -1.29 -1.509 4.326
 -1.255 -1.5 4.306
 -1.229 -1.5 4.313
 -1.196 -1.492 4.296
 -1.17 -1.494 4.307
 -1.141 -1.49 4.302
 -1.111 -1.484 4.291
 -1.088 -1.49 4.311
 -1.062 -1.49 4.318
 -1.033 -1.486 4.312
 -1.004 -1.483 4.306
 -0.977 -1.482 4.309
 -0.947 -1.476 4.296
 -0.924 -1.481 4.316
 -0.89 -1.468 4.281
 -0.865 -1.47 4.291
 -0.837 -1.467 4.286
 -0.816 -1.476 4.318
 -0.789 -1.474 4.316
 -0.755 -1.458 4.272
 -0.73 -1.46 4.28
 -0.705 -1.462 4.291
 -0.677 -1.457 4.279
 -0.653 -1.461 4.292
 -0.628 -1.464 4.304
 -0.594 -1.444 4.249
 -0.571 -1.451 4.273
 -0.55 -1.462 4.306
 -0.522 -1.456 4.292
 -0.497 -1.459 4.303
 -0.47 -1.454 4.29
 -0.443 -1.451 4.283
 -0.417 -1.449 4.277
 -0.39 -1.446 4.271
 -0.365 -1.445 4.27
 -0.339 -1.447 4.276
 -0.314 -1.447 4.277
 -0.288 -1.448 4.28
 -0.262 -1.444 4.272
 -0.239 -1.459 4.315
 -0.211 -1.442 4.266
 -0.187 -1.45 4.289
 -0.16 -1.444 4.275
 -0.135 -1.443 4.272
 -0.11 -1.45 4.291
 -0.084 -1.452 4.296
 -0.058 -1.443 4.273
 -0.033 -1.442 4.269
 -0.008 -1.443 4.271
 0.017 -1.444 4.273
 0.042 -1.447 4.281
 0.068 -1.442 4.268
 0.094 -1.454 4.302
 0.118 -1.44 4.26
 0.144 -1.447 4.278
 0.169 -1.441 4.259
 0.196 -1.451 4.287
 0.22 -1.445 4.269
 0.246 -1.446 4.27
 0.271 -1.442 4.258
 0.297 -1.449 4.274
 0.322 -1.445 4.262
 0.347 -1.442 4.252
 0.372 -1.444 4.255
 0.399 -1.448 4.265
 0.424 -1.448 4.262
 0.449 -1.446 4.254
 0.476 -1.449 4.26
 0.502 -1.453 4.268
 0.527 -1.451 4.261
 0.551 -1.447 4.245
 0.579 -1.454 4.262
 0.602 -1.448 4.242
 0.631 -1.455 4.259
 0.653 -1.449 4.237
 0.685 -1.462 4.273
 0.706 -1.452 4.239
 0.73 -1.451 4.231
 0.762 -1.462 4.259
 0.786 -1.46 4.25
 0.819 -1.472 4.281
 0.839 -1.462 4.246
 0.867 -1.467 4.258
 0.894 -1.469 4.257
 0.921 -1.471 4.257
 0.952 -1.479 4.276
 0.971 -1.468 4.24
 0.997 -1.469 4.235
 1.026 -1.474 4.246
 1.052 -1.474 4.24
 1.08 -1.477 4.243
 1.112 -1.485 4.259
 1.131 -1.477 4.229
 1.17 -1.493 4.271
 1.191 -1.487 4.244
 1.22 -1.49 4.248
 1.253 -1.499 4.267
 1.275 -1.493 4.243
 1.303 -1.496 4.243
 1.327 -1.494 4.231
 1.359 -1.5 4.241
 1.38 -1.495 4.216
 1.415 -1.504 4.236
 1.444 -1.507 4.237
 1.472 -1.509 4.233
 1.507 -1.517 4.247
 1.53 -1.514 4.231
 1.559 -1.517 4.228
 1.584 -1.516 4.216
 1.612 -1.517 4.211
 1.649 -1.527 4.228
 1.68 -1.531 4.23
 1.706 -1.53 4.217
 1.724 -1.522 4.187
 1.763 -1.533 4.207
 1.784 -1.528 4.182
 1.828 -1.543 4.211
 1.847 -1.537 4.184
 1.864 -1.529 4.152
 1.872 -1.514 4.099
 1.906 -1.519 4.104
 1.909 -1.501 4.043
 1.904 -1.478 3.968
 0 0 0
 0 0 0
 0 0 0
 0 0 0
 0 0 0
 0 0 0
 0 0 0
 0 0 0
 0 0 0
 0 0 0
 0 0 0
 1.857 -1.241 3.204
 1.86 -1.228 3.161
 1.884 -1.23 3.154
 1.856 -1.199 3.061
 0 0 0
 -2.437 -1.58 4.24
 -2.443 -1.603 4.314
 -2.388 -1.586 4.283
 -2.346 -1.577 4.272
 -2.357 -1.604 4.358
 -2.283 -1.573 4.288
 -2.275 -1.588 4.34
 -2.234 -1.579 4.329
 -2.195 -1.572 4.321
 -2.146 -1.557 4.292
 -2.136 -1.57 4.341
 -2.083 -1.552 4.303
 -2.046 -1.546 4.297
 -2.019 -1.547 4.31
 -1.996 -1.55 4.331
 -1.945 -1.532 4.292
 -1.928 -1.541 4.327
 -1.89 -1.533 4.314
 -1.858 -1.529 4.314
 -1.832 -1.531 4.329
 -1.803 -1.53 4.337
 -1.752 -1.511 4.29
 -1.727 -1.512 4.304
 -1.698 -1.51 4.308
 -1.68 -1.52 4.344
 -1.642 -1.51 4.324
 -1.61 -1.506 4.321
 -1.58 -1.503 4.322
 -1.549 -1.499 4.318
 -1.516 -1.494 4.311
 -1.495 -1.499 4.335
 -1.452 -1.484 4.297
 -1.419 -1.478 4.287
 -1.401 -1.487 4.321
 -1.365 -1.477 4.298
 -1.346 -1.485 4.329
 -1.315 -1.481 4.323
 -1.284 -1.476 4.315
 -1.252 -1.47 4.304
 -1.232 -1.477 4.333
 -1.195 -1.465 4.303
 -1.171 -1.468 4.317
 -1.141 -1.464 4.31
 -1.113 -1.462 4.31
 -1.09 -1.466 4.327
 -1.057 -1.457 4.306
 -1.03 -1.455 4.307
 -0.994 -1.442 4.271
 -0.977 -1.456 4.318
 -0.946 -1.448 4.299
 -0.916 -1.443 4.287
 -0.893 -1.448 4.307
 -0.862 -1.439 4.285
 -0.839 -1.445 4.305
 -0.815 -1.448 4.32
 -0.791 -1.451 4.332
 -0.756 -1.436 4.289
 -0.73 -1.434 4.287
 -0.706 -1.438 4.302
 -0.677 -1.433 4.291
 -0.653 -1.436 4.302
 -0.624 -1.429 4.284
 -0.601 -1.435 4.306
 -0.574 -1.433 4.303
 -0.548 -1.432 4.302
 -0.52 -1.425 4.283
 -0.496 -1.432 4.305
 -0.463 -1.41 4.242
 -0.443 -1.426 4.292
 -0.419 -1.432 4.312
 -0.391 -1.422 4.282
 -0.367 -1.431 4.311
 -0.339 -1.422 4.285
 -0.314 -1.42 4.282
 -0.289 -1.424 4.295
 -0.262 -1.42 4.282
 -0.236 -1.417 4.274
 -0.212 -1.427 4.306
 -0.186 -1.423 4.293
 -0.161 -1.423 4.295
 -0.135 -1.419 4.283
 -0.109 -1.415 4.271
 -0.083 -1.412 4.261
 -0.058 -1.419 4.284
 -0.033 -1.411 4.258
 -0.007 -1.425 4.3
 0.017 -1.413 4.263
 0.043 -1.422 4.291
 0.068 -1.415 4.27
 0.093 -1.417 4.273
 0.118 -1.414 4.265
 0.144 -1.418 4.275
 0.169 -1.417 4.271
 0.194 -1.413 4.259
 0.22 -1.419 4.274
 0.244 -1.409 4.242
 0.272 -1.421 4.278
 0.297 -1.419 4.27
 0.323 -1.422 4.277
 0.347 -1.418 4.262
 0.374 -1.424 4.279
 0.398 -1.418 4.259
 0.426 -1.426 4.28
 0.451 -1.427 4.28
 0.476 -1.425 4.27
 0.503 -1.429 4.281
 0.529 -1.431 4.283
 0.553 -1.426 4.265
 0.58 -1.429 4.272
 0.598 -1.413 4.22
 0.626 -1.419 4.235
 0.657 -1.43 4.266
 0.682 -1.43 4.26
 0.709 -1.433 4.265
 0.732 -1.428 4.247
 0.758 -1.43 4.248
 0.786 -1.434 4.256
 0.811 -1.433 4.249
 0.838 -1.435 4.249
 0.866 -1.438 4.255
 0.891 -1.437 4.248
 0.917 -1.439 4.246
 0.945 -1.441 4.25
 0.97 -1.441 4.244
 1.001 -1.448 4.26
 1.028 -1.45 4.259
 1.048 -1.443 4.231
 1.082 -1.453 4.257
 1.104 -1.448 4.236
 1.132 -1.451 4.238
 1.168 -1.464 4.271
 1.186 -1.455 4.236
 1.215 -1.458 4.239
 1.248 -1.466 4.255
 1.27 -1.462 4.235
 1.299 -1.466 4.239
 1.331 -1.471 4.249
 1.352 -1.466 4.227
 1.386 -1.474 4.242
 1.404 -1.466 4.21
 1.438 -1.474 4.225
 1.465 -1.475 4.22
 1.496 -1.479 4.223
 1.522 -1.48 4.216
 1.557 -1.488 4.23
 1.586 -1.491 4.229
 1.618 -1.495 4.233
 1.638 -1.489 4.207
 1.66 -1.485 4.186
 1.699 -1.497 4.208
 1.734 -1.504 4.22
 1.748 -1.494 4.179
 1.787 -1.504 4.198
 1.814 -1.504 4.187
 1.835 -1.5 4.164
 1.862 -1.5 4.155
 1.886 -1.498 4.137
 1.879 -1.471 4.054
 0 0 0
 0 0 0
 0 0 0
 0 0 0
 0 0 0
 0 0 0
 0 0 0
 0 0 0
 0 0 0
 0 0 0
 0 0 0
 0 0 0
 0 0 0
 0 0 0
 1.842 -1.195 3.138
 1.897 -1.217 3.183
 1.856 -1.177 3.067
 -2.498 -1.572 4.291
 -2.504 -1.594 4.366
 -2.466 -1.589 4.365
 -2.412 -1.573 4.335
 -2.39 -1.578 4.362
 -2.336 -1.561 4.33
 -2.3 -1.556 4.329
 -2.279 -1.561 4.356
 -2.225 -1.544 4.32
 -2.19 -1.54 4.321
 -2.175 -1.55 4.361
 -2.13 -1.538 4.339
 -2.071 -1.515 4.287
 -2.053 -1.523 4.321
 -2.028 -1.525 4.339
 -2.003 -1.528 4.357
 -1.961 -1.517 4.337
 -1.932 -1.517 4.346
 -1.892 -1.507 4.329
 -1.856 -1.5 4.32
 -1.817 -1.491 4.303
 -1.805 -1.505 4.351
 -1.765 -1.494 4.331
 -1.74 -1.496 4.345
 -1.7 -1.485 4.323
 -1.661 -1.475 4.302
 -1.634 -1.475 4.311
 -1.593 -1.462 4.282
 -1.582 -1.478 4.335
 -1.535 -1.459 4.287
 -1.515 -1.466 4.316
 -1.486 -1.464 4.318
 -1.464 -1.469 4.342
 -1.431 -1.463 4.33
 -1.392 -1.45 4.299
 -1.371 -1.457 4.326
 -1.339 -1.451 4.315
 -1.31 -1.448 4.315
 -1.281 -1.446 4.313
 -1.245 -1.435 4.288
 -1.224 -1.441 4.311
 -1.196 -1.44 4.315
 -1.162 -1.431 4.292
 -1.141 -1.437 4.316
 -1.112 -1.435 4.315
 -1.079 -1.425 4.292
 -1.057 -1.431 4.316
 -1.033 -1.435 4.331
 -1.002 -1.428 4.314
 -0.97 -1.419 4.292
 -0.944 -1.42 4.299
 -0.917 -1.417 4.297
 -0.897 -1.427 4.331
 -0.861 -1.412 4.29
 -0.841 -1.422 4.324
 -0.805 -1.404 4.271
 -0.786 -1.418 4.317
 -0.758 -1.414 4.308
 -0.73 -1.409 4.299
 -0.706 -1.412 4.311
 -0.676 -1.404 4.289
 -0.65 -1.405 4.293
 -0.621 -1.396 4.27
 -0.597 -1.4 4.284
 -0.568 -1.393 4.265
 -0.544 -1.397 4.281
 -0.522 -1.405 4.307
 -0.493 -1.397 4.283
 -0.465 -1.39 4.265
 -0.442 -1.397 4.289
 -0.416 -1.395 4.284
 -0.39 -1.395 4.285
 -0.365 -1.398 4.296
 -0.339 -1.395 4.288
 -0.314 -1.4 4.303
 -0.288 -1.395 4.291
 -0.262 -1.395 4.291
 -0.236 -1.39 4.276
 -0.211 -1.392 4.283
 -0.186 -1.399 4.306
 -0.16 -1.391 4.28
 -0.134 -1.39 4.28
 -0.109 -1.392 4.284
 -0.084 -1.391 4.282
 -0.058 -1.391 4.281
 -0.033 -1.399 4.305
 -0.007 -1.387 4.268
 0.017 -1.378 4.241
 0.042 -1.388 4.272
 0.068 -1.39 4.278
 0.093 -1.384 4.258
 0.118 -1.387 4.268
 0.145 -1.397 4.295
 0.17 -1.395 4.287
 0.193 -1.381 4.243
 0.22 -1.391 4.274
 0.244 -1.384 4.251
 0.271 -1.39 4.268
 0.297 -1.393 4.273
 0.32 -1.386 4.25
 0.347 -1.393 4.272
 0.372 -1.392 4.265
 0.397 -1.388 4.251
 0.423 -1.393 4.263
 0.449 -1.393 4.261
 0.473 -1.39 4.251
 0.504 -1.407 4.298
 0.523 -1.389 4.24
 0.549 -1.389 4.238
 0.578 -1.398 4.263
 0.607 -1.406 4.284
 0.628 -1.396 4.25
 0.651 -1.393 4.237
 0.679 -1.397 4.246
 0.707 -1.402 4.258
 0.733 -1.404 4.261
 0.76 -1.407 4.263
 0.782 -1.4 4.239
 0.809 -1.402 4.24
 0.836 -1.406 4.247
 0.867 -1.415 4.269
 0.885 -1.402 4.227
 0.923 -1.421 4.28
 0.944 -1.414 4.253
 0.972 -1.418 4.258
 0.994 -1.412 4.237
 1.024 -1.418 4.248
 1.051 -1.42 4.249
 1.077 -1.42 4.244
 1.104 -1.422 4.242
 1.134 -1.428 4.253
 1.164 -1.433 4.262
 1.186 -1.428 4.242
 1.214 -1.431 4.243
 1.245 -1.436 4.252
 1.266 -1.431 4.231
 1.301 -1.441 4.253
 1.318 -1.431 4.216
 1.356 -1.444 4.246
 1.386 -1.448 4.249
 1.409 -1.445 4.233
 1.438 -1.447 4.232
 1.463 -1.446 4.22
 1.495 -1.452 4.228
 1.53 -1.461 4.246
 1.543 -1.448 4.2
 1.585 -1.462 4.233
 1.607 -1.459 4.213
 1.64 -1.464 4.22
 1.674 -1.471 4.23
 1.694 -1.465 4.204
 1.727 -1.471 4.21
 1.762 -1.478 4.219
 1.782 -1.473 4.195
 1.812 -1.476 4.192
 1.855 -1.488 4.218
 1.85 -1.463 4.135
 1.887 -1.472 4.149
 1.893 -1.456 4.092
 0 0 0
 0 0 0
 0 0 0
 0 0 0
 0 0 0
 0 0 0
 0 0 0
 0 0 0
 0 0 0
 0 0 0
 0 0 0
 0 0 0
 0 0 0
 0 0 0
 1.837 -1.171 3.136
 1.886 -1.188 3.171
 1.871 -1.165 3.099
 -2.535 -1.566 4.364
 -2.512 -1.57 4.39
 -2.453 -1.551 4.351
 -2.41 -1.542 4.341
 -2.384 -1.544 4.36
 -2.335 -1.531 4.336
 -2.298 -1.527 4.336
 -2.265 -1.523 4.339
 -2.24 -1.526 4.359
 -2.178 -1.503 4.306
 -2.156 -1.508 4.332
 -2.139 -1.516 4.367
 -2.085 -1.498 4.325
 -2.038 -1.484 4.297
 -2.007 -1.481 4.301
 -1.977 -1.48 4.308
 -1.957 -1.487 4.338
 -1.917 -1.477 4.32
 -1.895 -1.481 4.343
 -1.852 -1.469 4.318
 -1.831 -1.475 4.344
 -1.809 -1.48 4.368
 -1.774 -1.474 4.36
 -1.742 -1.47 4.359
 -1.707 -1.464 4.35
 -1.66 -1.448 4.309
 -1.638 -1.452 4.33
 -1.616 -1.456 4.353
 -1.579 -1.448 4.335
 -1.545 -1.441 4.324
 -1.519 -1.443 4.336
 -1.488 -1.439 4.334
 -1.456 -1.434 4.324
 -1.421 -1.426 4.308
 -1.395 -1.427 4.318
 -1.371 -1.43 4.335
 -1.332 -1.417 4.3
 -1.311 -1.423 4.327
 -1.276 -1.413 4.304
 -1.256 -1.421 4.334
 -1.221 -1.412 4.311
 -1.192 -1.409 4.307
 -1.169 -1.413 4.326
 -1.138 -1.407 4.313
 -1.111 -1.407 4.318
 -1.082 -1.403 4.313
 -1.051 -1.397 4.299
 -1.032 -1.407 4.334
 -1.006 -1.407 4.34
 -0.972 -1.396 4.31
 -0.939 -1.387 4.286
 -0.916 -1.391 4.303
 -0.893 -1.395 4.32
 -0.868 -1.398 4.332
 -0.842 -1.398 4.338
 -0.806 -1.381 4.288
 -0.779 -1.379 4.283
 -0.756 -1.385 4.306
 -0.733 -1.388 4.321
 -0.706 -1.387 4.321
 -0.681 -1.39 4.332
 -0.649 -1.377 4.295
 -0.627 -1.385 4.322
 -0.595 -1.371 4.28
 -0.575 -1.383 4.321
 -0.548 -1.382 4.32
 -0.522 -1.382 4.322
 -0.493 -1.372 4.295
 -0.471 -1.382 4.325
 -0.433 -1.346 4.214
 -0.417 -1.375 4.309
 0 0 0
 0 0 0
 0 0 0
 0 0 0
 -0.288 -1.371 4.302
 -0.262 -1.368 4.295
 -0.235 -1.362 4.274
 -0.21 -1.364 4.282
 -0.185 -1.361 4.274
 -0.159 -1.362 4.278
 -0.134 -1.367 4.292
 -0.109 -1.37 4.302
 -0.083 -1.359 4.268
 -0.058 -1.367 4.295
 -0.033 -1.376 4.32
 -0.007 -1.359 4.268
 0.017 -1.349 4.237
 0 0 0
 0.068 -1.372 4.307
 0 0 0
 0 0 0
 0.143 -1.358 4.259
 0 0 0
 0.198 -1.386 4.346
 0.22 -1.364 4.276
 0.245 -1.36 4.26
 0.275 -1.384 4.334
 0.302 -1.392 4.359
 0.328 -1.393 4.358
 0.349 -1.374 4.3
 0.376 -1.377 4.306
 0.395 -1.358 4.243
 0.425 -1.372 4.287
 0.447 -1.36 4.245
 0.469 -1.351 4.214
 0.5 -1.37 4.27
 0.514 -1.339 4.171
 0.556 -1.381 4.3
 0.573 -1.361 4.233
 0.604 -1.374 4.272
 0.631 -1.378 4.28
 0.655 -1.375 4.268
 0.681 -1.375 4.263
 0.701 -1.366 4.232
 0.733 -1.377 4.263
 0.762 -1.384 4.279
 0.784 -1.378 4.257
 0.807 -1.373 4.238
 0.827 -1.364 4.206
 0.863 -1.381 4.253
 0.891 -1.385 4.261
 0.919 -1.389 4.269
 0.939 -1.38 4.236
 0.975 -1.396 4.278
 0.996 -1.389 4.252
 1.019 -1.386 4.237
 1.045 -1.386 4.231
 1.074 -1.39 4.238
 1.103 -1.395 4.245
 1.127 -1.393 4.235
 1.158 -1.399 4.246
 1.186 -1.402 4.249
 1.213 -1.403 4.246
 1.246 -1.411 4.264
 1.268 -1.406 4.242
 1.299 -1.412 4.253
 1.335 -1.423 4.277
 1.353 -1.414 4.243
 1.38 -1.416 4.24
 1.404 -1.413 4.225
 1.442 -1.425 4.252
 1.467 -1.424 4.241
 1.503 -1.433 4.258
 1.516 -1.421 4.215
 1.547 -1.425 4.217
 1.583 -1.434 4.235
 1.605 -1.43 4.214
 1.63 -1.429 4.203
 1.665 -1.437 4.215
 1.693 -1.438 4.21
 1.726 -1.444 4.216
 1.756 -1.446 4.213
 1.781 -1.445 4.199
 1.803 -1.441 4.179
 1.852 -1.459 4.219
 1.855 -1.441 4.156
 1.887 -1.445 4.157
 0 0 0
 0 0 0
 0 0 0
 0 0 0
 0 0 0
 0 0 0
 0 0 0
 0 0 0
 0 0 0
 0 0 0
 0 0 0
 0 0 0
 0 0 0
 0 0 0
 0 0 0
 1.845 -1.154 3.155
 1.9 -1.175 3.202
 1.877 -1.148 3.116
 -2.53 -1.533 4.365
 -2.481 -1.521 4.345
 -2.43 -1.508 4.319
 -2.416 -1.517 4.361
 -2.373 -1.509 4.35
 -2.375 -1.529 4.422
 -2.305 -1.502 4.356
 -2.279 -1.504 4.375
 -2.217 -1.482 4.324
 -2.23 -1.511 4.419
 -2.158 -1.481 4.344
 -2.122 -1.476 4.342
 -2.1 -1.48 4.365
 -2.051 -1.466 4.334
 -2.022 -1.465 4.343
 -1.993 -1.464 4.353
 -1.943 -1.448 4.315
 -1.921 -1.452 4.338
 -1.889 -1.449 4.338
 -1.859 -1.448 4.345
 -1.825 -1.442 4.338
 -1.798 -1.443 4.351
 -1.759 -1.434 4.332
 -1.734 -1.436 4.348
 -1.699 -1.43 4.337
 -1.665 -1.424 4.33
 -1.644 -1.43 4.354
 -1.597 -1.412 4.31
 -1.574 -1.416 4.331
 -1.536 -1.406 4.308
 -1.507 -1.404 4.309
 -1.489 -1.413 4.343
 -1.453 -1.405 4.326
 -1.431 -1.409 4.346
 -1.393 -1.398 4.319
 -1.365 -1.396 4.321
 -1.34 -1.399 4.336
 -1.305 -1.39 4.314
 -1.279 -1.391 4.324
 -1.245 -1.382 4.303
 -1.219 -1.383 4.31
 -1.191 -1.381 4.312
 -1.16 -1.375 4.299
 -1.14 -1.383 4.329
 -1.111 -1.38 4.324
 -1.086 -1.382 4.336
 -1.044 -1.362 4.278
 -1.019 -1.363 4.285
 -0.991 -1.361 4.284
 -0.967 -1.364 4.297
 0 0 0
 0 0 0
 0 0 0
 0 0 0
 0 0 0
 0 0 0
 0 0 0
 0 0 0
 0 0 0
 0 0 0
 0 0 0
 0 0 0
 0 0 0
 0 0 0
 0 0 0
 0 0 0
 0 0 0
 0 0 0
 0 0 0
 0 0 0
 0 0 0
 0 0 0
 0 0 0
 0 0 0
 0 0 0
 -0.286 -1.334 4.273
 -0.261 -1.34 4.293
 -0.236 -1.34 4.294
 -0.209 -1.333 4.271
 -0.183 -1.325 4.245
 -0.159 -1.334 4.276
 -0.134 -1.338 4.288
 -0.108 -1.334 4.274
 -0.083 -1.34 4.294
 -0.058 -1.335 4.279
 -0.032 -1.33 4.263
 -0.007 -1.324 4.242
 0 0 0
 0 0 0
 0 0 0
 0 0 0
 0 0 0
 0 0 0
 0 0 0
 0 0 0
 0 0 0
 0 0 0
 0 0 0
 0 0 0
 0 0 0
 0 0 0
 0 0 0
 0 0 0
 0 0 0
 0 0 0
 0 0 0
 0 0 0
 0 0 0
 0 0 0
 0 0 0
 0 0 0
 0 0 0
 0 0 0
 0 0 0
 0 0 0
 0 0 0
 0 0 0
 0 0 0
 0 0 0
 0 0 0
 0 0 0
 0 0 0
 0 0 0
 0 0 0
 0 0 0
 0 0 0
 1.009 -1.346 4.199
 1.048 -1.365 4.252
 1.073 -1.363 4.241
 1.104 -1.37 4.258
 1.128 -1.368 4.244
 1.156 -1.371 4.248
 1.185 -1.375 4.252
 1.204 -1.367 4.221
 1.237 -1.375 4.241
 1.267 -1.38 4.247
 1.288 -1.375 4.225
 1.32 -1.38 4.235
 1.345 -1.38 4.225
 1.374 -1.382 4.226
 1.405 -1.387 4.233
 1.433 -1.389 4.231
 1.464 -1.394 4.237
 1.489 -1.393 4.228
 1.518 -1.396 4.227
 1.544 -1.396 4.217
 1.572 -1.398 4.214
 1.613 -1.411 4.244
 1.639 -1.41 4.232
 1.663 -1.408 4.218
 1.696 -1.413 4.224
 1.732 -1.421 4.236
 1.744 -1.41 4.193
 1.772 -1.411 4.186
 1.809 -1.419 4.2
 1.841 -1.423 4.202
 1.865 -1.421 4.185
 0 0 0
 0 0 0
 0 0 0
 0 0 0
 0 0 0
 0 0 0
 0 0 0
 0 0 0
 0 0 0
 0 0 0
 0 0 0
 0 0 0
 0 0 0
 0 0 0
 0 0 0
 0 0 0
 1.844 -1.133 3.162
 1.88 -1.141 3.174
 1.855 -1.114 3.086
 -2.499 -1.486 4.321
 -2.449 -1.473 4.298
 -2.47 -1.504 4.401
 -2.416 -1.488 4.37
 -2.381 -1.485 4.373
 -2.345 -1.481 4.374
 -2.3 -1.471 4.357
 -2.289 -1.482 4.404
 -2.222 -1.457 4.343
 -2.204 -1.464 4.376
 -2.168 -1.459 4.374
 -2.116 -1.443 4.336
 -2.096 -1.449 4.366
 -2.058 -1.442 4.356
 -2.028 -1.441 4.364
 -1.984 -1.43 4.341
 -1.948 -1.424 4.333
 -1.913 -1.418 4.328
 -1.887 -1.42 4.343
 -1.845 -1.409 4.32
 -1.83 -1.419 4.36
 -1.8 -1.417 4.364
 -1.763 -1.41 4.352
 -1.726 -1.402 4.336
 -1.701 -1.404 4.35
 -1.665 -1.397 4.339
 -1.623 -1.385 4.307
