0.815 -1.626 3.93
0.845 -1.637 3.953
0.869 -1.636 3.944
0.91 -1.666 4.013
0.926 -1.65 3.969
0.946 -1.642 3.945
0.977 -1.654 3.967
1.002 -1.655 3.964
1.013 -1.633 3.906
1.039 -1.635 3.905
1.074 -1.651 3.937
1.11 -1.669 3.972
1.112 -1.635 3.887
1.151 -1.657 3.932
1.172 -1.651 3.911
1.18 -1.629 3.851
1.236 -1.672 3.946
1.25 -1.658 3.906
1.267 -1.647 3.872
1.307 -1.667 3.914
1.328 -1.662 3.893
1.333 -1.639 3.831
1.366 -1.649 3.847
1.383 -1.641 3.819
1.416 -1.65 3.833
1.437 -1.646 3.815
1.467 -1.652 3.821
1.482 -1.642 3.789
1.52 -1.657 3.815
1.555 -1.668 3.83
1.583 -1.672 3.83
1.586 -1.649 3.767
1.623 -1.662 3.788
1.623 -1.637 3.722
1.659 -1.649 3.739
1.695 -1.66 3.754
1.674 -1.616 3.643
1.733 -1.65 3.71
1.766 -1.658 3.717
1.752 -1.621 3.625
1.748 -1.596 3.558
1.77 -1.595 3.545
1.733 -1.541 3.413
1.663 -1.46 3.224
0 0 0
1.666 -1.425 3.127
1.685 -1.424 3.113
1.683 -1.405 3.061
1.69 -1.393 3.026
1.668 -1.359 2.94
1.653 -1.331 2.869
1.654 -1.316 2.827
1.654 -1.301 2.784
1.672 -1.299 2.771
1.662 -1.277 2.713
1.668 -1.268 2.682
-2.112 -1.598 3.526
-2.123 -1.626 3.599
-2.103 -1.63 3.62
-2.064 -1.619 3.608
-2.002 -1.59 3.554
-2.005 -1.611 3.614
-2.02 -1.643 3.699
-1.99 -1.639 3.701
-1.964 -1.639 3.712
-1.95 -1.649 3.745
-1.871 -1.603 3.651
-1.874 -1.627 3.716
-1.824 -1.605 3.676
-1.814 -1.618 3.718
-1.823 -1.648 3.797
-1.79 -1.641 3.792
-1.727 -1.606 3.72
-1.728 -1.63 3.785
-1.71 -1.637 3.812
-1.703 -1.655 3.862
-1.639 -1.616 3.782
-1.6 -1.602 3.758
-1.591 -1.618 3.804
-1.587 -1.64 3.863
-1.57 -1.648 3.893
-1.531 -1.634 3.867
-1.495 -1.622 3.847
-1.473 -1.626 3.864
-1.463 -1.642 3.912
-1.414 -1.615 3.853
-1.414 -1.643 3.93
-1.392 -1.647 3.947
-1.34 -1.615 3.878
-1.293 -1.588 3.819
-1.303 -1.631 3.93
-1.287 -1.642 3.962
-1.252 -1.629 3.939
-1.233 -1.638 3.966
-1.195 -1.619 3.927
-1.165 -1.613 3.918
-1.139 -1.61 3.918
-1.122 -1.622 3.953
-1.089 -1.609 3.927
-1.081 -1.635 3.995
-1.038 -1.608 3.934
-1.027 -1.629 3.991
-0.994 -1.615 3.963
-0.976 -1.627 3.997
-0.946 -1.619 3.981
-0.906 -1.592 3.918
-0.901 -1.626 4.008
-0.876 -1.627 4.014
-0.851 -1.625 4.014
-0.823 -1.619 4.003
-0.798 -1.619 4.008
-0.772 -1.616 4.005
-0.753 -1.629 4.039
-0.731 -1.635 4.058
-0.694 -1.606 3.991
-0.678 -1.628 4.048
-0.654 -1.629 4.054
-0.63 -1.633 4.066
-0.613 -1.654 4.123
-0.577 -1.623 4.048
-0.553 -1.625 4.055
-0.525 -1.614 4.031
-0.503 -1.625 4.059
-0.481 -1.631 4.078
-0.456 -1.633 4.084
-0.43 -1.63 4.078
-0.405 -1.626 4.07
-0.383 -1.638 4.103
-0.36 -1.647 4.127
-0.332 -1.633 4.094
-0.309 -1.647 4.129
-0.279 -1.614 4.048
-0.258 -1.638 4.108
-0.231 -1.624 4.074
-0.208 -1.635 4.104
-0.181 -1.618 4.062
-0.158 -1.637 4.11
-0.131 -1.613 4.05
-0.108 -1.627 4.086
-0.082 -1.601 4.019
-0.058 -1.619 4.064
-0.034 -1.633 4.101
-0.009 -1.625 4.081
0.015 -1.625 4.079
0.04 -1.624 4.076
0.063 -1.604 4.026
0.089 -1.621 4.069
0.115 -1.647 4.132
0.138 -1.62 4.063
0.163 -1.626 4.078
0.191 -1.65 4.137
0.212 -1.626 4.075
0.238 -1.63 4.083
0.262 -1.627 4.076
0.284 -1.613 4.038
0.308 -1.612 4.034
0.336 -1.628 4.071
0.359 -1.621 4.051
0.387 -1.633 4.08
0.406 -1.61 4.019
0.439 -1.642 4.098
0.457 -1.62 4.039
0.49 -1.648 4.107
0.511 -1.636 4.074
0.536 -1.635 4.07
0.566 -1.652 4.107
0.583 -1.628 4.044
0.616 -1.65 4.096
0.63 -1.622 4.023
0.66 -1.637 4.057
0.688 -1.643 4.068
0.717 -1.652 4.087
0.726 -1.619 3.999
0.77 -1.659 4.094
0.785 -1.639 4.042
0.803 -1.626 4.004
0.841 -1.651 4.061
0.869 -1.658 4.073
0.878 -1.627 3.992
0.904 -1.631 3.997
0.936 -1.642 4.02
0.96 -1.642 4.012
0.999 -1.665 4.064
1.019 -1.658 4.04
1.033 -1.64 3.99
1.056 -1.636 3.976
1.082 -1.639 3.977
1.114 -1.65 3.997
1.142 -1.654 4
1.171 -1.66 4.008
1.198 -1.663 4.009
1.218 -1.655 3.983
1.233 -1.642 3.945
1.268 -1.655 3.968
1.305 -1.67 3.998
1.306 -1.641 3.918
1.333 -1.643 3.917
1.342 -1.625 3.865
1.375 -1.635 3.882
1.428 -1.668 3.952
1.445 -1.659 3.922
1.458 -1.645 3.881
1.483 -1.646 3.873
1.515 -1.653 3.882
1.545 -1.659 3.887
1.579 -1.669 3.9
1.592 -1.655 3.859
1.596 -1.634 3.8
1.646 -1.66 3.85
1.664 -1.653 3.825
1.698 -1.662 3.836
1.69 -1.63 3.752
1.715 -1.63 3.742
1.784 -1.672 3.828
1.761 -1.628 3.716
1.746 -1.592 3.622
1.767 -1.589 3.605
1.745 -1.549 3.504
1.766 -1.546 3.487
1.836 -1.587 3.568
0 0 0
0 0 0
1.655 -1.378 3.066
1.716 -1.41 3.129
1.696 -1.378 3.045
1.683 -1.351 2.975
1.665 -1.32 2.898
1.659 -1.3 2.843
1.673 -1.296 2.823
1.668 -1.277 2.772
1.683 -1.274 2.755
1.674 -1.253 2.7
-2.183 -1.627 3.656
-2.147 -1.619 3.65
-2.124 -1.62 3.666
-2.102 -1.623 3.684
-2.081 -1.627 3.704
-2.055 -1.626 3.715
-2.031 -1.628 3.73
-2.011 -1.631 3.751
-1.982 -1.629 3.756
-1.956 -1.628 3.766
-1.931 -1.629 3.778
-1.904 -1.627 3.785
-1.876 -1.626 3.793
-1.854 -1.628 3.81
-1.827 -1.627 3.816
-1.802 -1.627 3.826
-1.778 -1.628 3.84
-1.755 -1.63 3.855
-1.727 -1.629 3.861
-1.702 -1.629 3.87
-1.674 -1.627 3.875
-1.649 -1.627 3.884
-1.625 -1.628 3.896
-1.599 -1.627 3.904
-1.574 -1.628 3.914
-1.55 -1.629 3.926
-1.523 -1.628 3.93
-1.494 -1.623 3.928
-1.469 -1.623 3.936
-1.442 -1.622 3.941
-1.416 -1.621 3.946
-1.389 -1.619 3.95
-1.366 -1.622 3.963
-1.34 -1.621 3.967
-1.317 -1.623 3.979
-1.291 -1.622 3.985
-1.267 -1.623 3.995
-1.239 -1.62 3.992
-1.215 -1.622 4.004
-1.187 -1.618 4.001
-1.163 -1.62 4.01
-1.137 -1.619 4.016
-1.112 -1.619 4.02
-1.085 -1.617 4.021
-1.061 -1.618 4.028
-1.035 -1.616 4.03
-1.01 -1.616 4.036
-0.984 -1.616 4.04
-0.959 -1.615 4.042
-0.934 -1.616 4.049
-0.909 -1.616 4.054
-0.884 -1.615 4.057
-0.86 -1.618 4.068
-0.835 -1.618 4.073
-0.81 -1.617 4.075
-0.785 -1.619 4.083
-0.76 -1.62 4.088
-0.735 -1.619 4.09
-0.711 -1.622 4.1
-0.687 -1.624 4.109
-0.663 -1.627 4.119
-0.637 -1.626 4.122
-0.612 -1.626 4.124
-0.586 -1.624 4.122
-0.561 -1.622 4.12
-0.535 -1.621 4.119
-0.51 -1.622 4.124
-0.485 -1.622 4.127
-0.46 -1.623 4.131
-0.435 -1.624 4.136
-0.41 -1.623 4.136
-0.385 -1.624 4.138
-0.36 -1.625 4.144
-0.336 -1.627 4.15
-0.31 -1.625 4.146
-0.285 -1.624 4.144
-0.26 -1.624 4.146
-0.234 -1.622 4.142
-0.209 -1.62 4.138
-0.184 -1.62 4.138
-0.159 -1.619 4.136
-0.134 -1.617 4.131
-0.109 -1.618 4.134
-0.084 -1.617 4.132
-0.059 -1.62 4.139
-0.034 -1.621 4.142
-0.009 -1.622 4.143
0.015 -1.621 4.142
0.04 -1.623 4.145
0.065 -1.622 4.142
0.09 -1.621 4.139
0.115 -1.621 4.14
0.14 -1.623 4.142
0.165 -1.623 4.141
0.19 -1.621 4.137
0.215 -1.622 4.138
0.24 -1.621 4.133
0.265 -1.619 4.125
0.29 -1.618 4.123
0.315 -1.621 4.127
0.34 -1.62 4.123
0.365 -1.619 4.119
0.391 -1.624 4.129
0.415 -1.622 4.122
0.44 -1.621 4.116
0.465 -1.622 4.116
0.49 -1.623 4.115
0.515 -1.621 4.107
0.54 -1.623 4.111
0.566 -1.625 4.112
0.591 -1.625 4.107
0.616 -1.626 4.109
0.642 -1.629 4.111
0.668 -1.63 4.11
0.693 -1.629 4.105
0.719 -1.632 4.107
0.744 -1.633 4.106
0.769 -1.631 4.097
0.793 -1.629 4.087
0.818 -1.63 4.084
0.842 -1.629 4.077
0.868 -1.629 4.073
0.893 -1.63 4.069
0.919 -1.631 4.068
0.945 -1.634 4.07
0.972 -1.637 4.072
0.997 -1.636 4.063
1.021 -1.635 4.055
1.046 -1.635 4.05
1.072 -1.636 4.046
1.097 -1.636 4.04
1.123 -1.638 4.037
1.151 -1.642 4.041
1.177 -1.643 4.037
1.203 -1.643 4.032
1.228 -1.644 4.026
1.256 -1.647 4.026
1.281 -1.647 4.02
1.307 -1.648 4.014
1.329 -1.644 3.997
1.354 -1.644 3.989
1.379 -1.644 3.98
1.404 -1.644 3.971
1.429 -1.643 3.963
1.456 -1.645 3.958
1.48 -1.644 3.948
1.505 -1.644 3.938
1.53 -1.644 3.929
1.556 -1.645 3.922
1.582 -1.646 3.915
1.608 -1.646 3.908
1.631 -1.644 3.893
1.655 -1.644 3.882
1.677 -1.641 3.865
1.698 -1.636 3.844
1.72 -1.634 3.828
1.737 -1.627 3.801
1.748 -1.613 3.759
1.756 -1.599 3.714
1.767 -1.587 3.676
1.771 -1.569 3.624
1.775 -1.551 3.572
1.787 -1.541 3.538
1.777 -1.513 3.463
1.705 -1.433 3.268
1.674 -1.39 3.159
1.66 -1.36 3.082
1.668 -1.35 3.049
1.672 -1.337 3.01
1.675 -1.323 2.967
1.67 -1.304 2.914
1.667 -1.286 2.864
1.664 -1.269 2.815
1.664 -1.255 2.773
1.654 -1.233 2.715
1.669 -1.23 2.698
-2.232 -1.637 3.748
-2.202 -1.635 3.754
-2.157 -1.62 3.733
-2.135 -1.623 3.753
-2.112 -1.625 3.769
-2.086 -1.625 3.782
-2.062 -1.626 3.796
-2.039 -1.628 3.813
-2.012 -1.628 3.823
-1.988 -1.629 3.837
-1.961 -1.628 3.847
-1.931 -1.625 3.85
-1.906 -1.625 3.861
-1.882 -1.627 3.878
-1.852 -1.623 3.879
-1.827 -1.624 3.891
-1.803 -1.626 3.905
-1.778 -1.627 3.917
-1.751 -1.625 3.923
-1.726 -1.626 3.936
-1.698 -1.624 3.94
-1.674 -1.625 3.952
-1.648 -1.625 3.961
-1.621 -1.624 3.968
-1.595 -1.623 3.974
-1.57 -1.624 3.985
-1.543 -1.623 3.99
-1.514 -1.62 3.991
-1.489 -1.62 4
-1.463 -1.62 4.008
-1.436 -1.619 4.013
-1.409 -1.617 4.015
-1.383 -1.617 4.022
-1.357 -1.615 4.026
-1.332 -1.616 4.035
-1.306 -1.616 4.041
-1.282 -1.617 4.052
-1.255 -1.616 4.055
-1.231 -1.618 4.067
-1.204 -1.616 4.069
-1.179 -1.617 4.076
-1.152 -1.615 4.079
-1.127 -1.615 4.084
-1.1 -1.614 4.086
-1.075 -1.615 4.094
-1.049 -1.614 4.097
-1.024 -1.613 4.101
-0.997 -1.611 4.1
-0.97 -1.609 4.101
-0.944 -1.609 4.104
-0.919 -1.609 4.109
-0.895 -1.61 4.118
-0.872 -1.615 4.132
-0.847 -1.616 4.14
-0.821 -1.616 4.143
-0.797 -1.618 4.153
-0.771 -1.617 4.154
-0.745 -1.616 4.155
-0.721 -1.619 4.166
-0.696 -1.621 4.175
-0.672 -1.623 4.183
-0.646 -1.623 4.188
-0.621 -1.623 4.19
-0.594 -1.62 4.186
-0.568 -1.619 4.186
-0.542 -1.617 4.183
-0.517 -1.618 4.188
-0.491 -1.618 4.189
-0.466 -1.618 4.191
-0.44 -1.617 4.19
-0.415 -1.617 4.193
-0.389 -1.617 4.196
-0.364 -1.618 4.2
-0.339 -1.619 4.204
-0.314 -1.619 4.206
-0.288 -1.618 4.204
-0.262 -1.618 4.203
-0.237 -1.617 4.201
-0.211 -1.616 4.199
-0.186 -1.614 4.197
-0.16 -1.613 4.195
-0.135 -1.612 4.192
-0.11 -1.611 4.19
-0.084 -1.61 4.188
-0.059 -1.611 4.189
-0.034 -1.611 4.191
-0.009 -1.612 4.192
0.016 -1.612 4.191
0.041 -1.613 4.193
0.066 -1.614 4.195
0.091 -1.613 4.192
0.117 -1.613 4.192
0.142 -1.616 4.198
0.168 -1.616 4.197
0.193 -1.615 4.194
0.218 -1.615 4.193
0.243 -1.615 4.189
0.268 -1.611 4.18
0.293 -1.611 4.177
0.319 -1.612 4.178
0.344 -1.612 4.176
0.369 -1.611 4.17
0.395 -1.614 4.177
0.42 -1.614 4.173
0.445 -1.612 4.167
0.47 -1.612 4.164
0.496 -1.614 4.166
0.52 -1.613 4.16
0.546 -1.615 4.162
0.572 -1.617 4.164
0.597 -1.616 4.159
0.623 -1.617 4.157
0.648 -1.618 4.157
0.674 -1.619 4.156
0.699 -1.619 4.15
0.725 -1.62 4.15
0.751 -1.622 4.152
0.776 -1.621 4.144
0.801 -1.62 4.136
0.826 -1.62 4.132
0.851 -1.62 4.129
0.876 -1.619 4.121
0.902 -1.62 4.118
0.928 -1.621 4.116
0.955 -1.624 4.117
0.981 -1.626 4.117
1.007 -1.627 4.113
1.032 -1.627 4.107
1.058 -1.627 4.102
1.083 -1.627 4.096
1.109 -1.628 4.092
1.135 -1.628 4.087
1.163 -1.632 4.091
1.19 -1.635 4.09
1.216 -1.636 4.085
1.243 -1.637 4.081
1.271 -1.641 4.084
1.296 -1.64 4.074
1.321 -1.64 4.066
1.345 -1.638 4.054
1.37 -1.637 4.044
1.395 -1.637 4.036
1.422 -1.638 4.03
1.448 -1.639 4.023
1.475 -1.641 4.019
1.5 -1.641 4.011
1.525 -1.64 4
1.55 -1.64 3.99
1.575 -1.639 3.979
1.6 -1.639 3.969
1.625 -1.638 3.958
1.648 -1.636 3.944
1.673 -1.636 3.933
1.697 -1.634 3.918
1.717 -1.629 3.897
1.739 -1.626 3.878
1.752 -1.615 3.841
1.76 -1.599 3.794
1.767 -1.584 3.746
1.776 -1.57 3.704
1.781 -1.553 3.653
1.794 -1.544 3.62
1.807 -1.535 3.588
1.827 -1.531 3.568
1.722 -1.425 3.309
1.673 -1.367 3.164
1.656 -1.337 3.084
1.666 -1.328 3.053
1.673 -1.317 3.018
1.678 -1.305 2.981
1.674 -1.287 2.928
1.67 -1.269 2.877
1.666 -1.251 2.827
1.666 -1.237 2.784
1.639 -1.203 2.698
1.672 -1.213 2.71
-2.227 -1.608 3.749
-2.191 -1.601 3.746
-2.194 -1.622 3.808
-2.169 -1.623 3.823
-2.145 -1.625 3.839
-2.119 -1.624 3.851
-2.093 -1.625 3.865
-2.068 -1.626 3.879
-2.042 -1.626 3.89
-2.018 -1.628 3.906
-1.992 -1.628 3.919
-1.963 -1.625 3.923
-1.936 -1.625 3.934
-1.911 -1.626 3.946
-1.88 -1.622 3.948
-1.854 -1.622 3.957
-1.827 -1.622 3.968
-1.802 -1.622 3.978
-1.775 -1.621 3.986
-1.75 -1.623 4
-1.723 -1.621 4.006
-1.697 -1.622 4.017
-1.671 -1.622 4.025
-1.643 -1.62 4.032
-1.615 -1.618 4.035
-1.59 -1.619 4.046
-1.562 -1.618 4.051
-1.534 -1.615 4.053
-1.507 -1.615 4.06
-1.481 -1.614 4.067
-1.454 -1.613 4.071
-1.428 -1.613 4.079
-1.402 -1.612 4.085
-1.375 -1.611 4.089
-1.35 -1.612 4.099
-1.323 -1.611 4.103
-1.297 -1.611 4.111
-1.272 -1.612 4.119
-1.248 -1.615 4.134
-1.221 -1.613 4.136
-1.197 -1.615 4.147
-1.169 -1.613 4.148
-1.142 -1.612 4.149
-1.115 -1.61 4.15
-1.089 -1.61 4.157
-1.063 -1.609 4.16
-1.038 -1.61 4.166
-1.011 -1.609 4.169
-0.985 -1.607 4.171
-0.959 -1.607 4.174
-0.933 -1.607 4.178
-0.907 -1.607 4.185
-0.883 -1.61 4.197
-0.858 -1.611 4.204
-0.831 -1.61 4.205
-0.806 -1.611 4.211
-0.78 -1.61 4.211
-0.753 -1.608 4.21
-0.728 -1.61 4.219
-0.703 -1.611 4.226
-0.678 -1.613 4.233
-0.652 -1.613 4.236
-0.626 -1.612 4.237
-0.599 -1.609 4.232
-0.573 -1.609 4.235
-0.547 -1.607 4.231
-0.521 -1.607 4.234
-0.496 -1.607 4.236
-0.47 -1.607 4.238
-0.444 -1.605 4.235
-0.418 -1.605 4.236
-0.392 -1.605 4.238
-0.367 -1.605 4.24
-0.342 -1.606 4.245
-0.316 -1.606 4.247
-0.29 -1.606 4.248
-0.264 -1.605 4.246
-0.239 -1.605 4.246
-0.213 -1.603 4.243
-0.187 -1.603 4.241
-0.162 -1.6 4.236
-0.136 -1.601 4.237
-0.111 -1.6 4.235
-0.085 -1.599 4.232
-0.059 -1.599 4.232
-0.034 -1.6 4.236
-0.009 -1.599 4.233
0.016 -1.599 4.234
0.041 -1.601 4.236
0.067 -1.601 4.236
0.092 -1.599 4.232
0.118 -1.6 4.233
0.143 -1.6 4.233
0.169 -1.6 4.232
0.194 -1.6 4.231
0.22 -1.6 4.228
0.245 -1.599 4.224
0.27 -1.598 4.22
0.296 -1.598 4.217
0.321 -1.6 4.221
0.347 -1.601 4.221
0.372 -1.599 4.215
0.398 -1.602 4.22
0.423 -1.6 4.213
0.448 -1.597 4.203
0.473 -1.597 4.199
0.499 -1.598 4.199
0.523 -1.596 4.19
0.55 -1.599 4.195
0.576 -1.601 4.196
0.601 -1.601 4.194
0.627 -1.601 4.192
0.653 -1.603 4.193
0.678 -1.604 4.191
0.704 -1.605 4.189
0.73 -1.604 4.184
0.756 -1.606 4.185
0.781 -1.606 4.179
0.806 -1.604 4.171
0.831 -1.603 4.163
0.857 -1.605 4.164
0.883 -1.605 4.159
0.909 -1.607 4.157
0.935 -1.608 4.156
0.962 -1.611 4.158
0.988 -1.611 4.153
1.014 -1.612 4.149
1.039 -1.612 4.143
1.065 -1.612 4.139
1.091 -1.613 4.135
1.118 -1.615 4.134
1.143 -1.615 4.126
1.171 -1.618 4.128
1.198 -1.62 4.126
1.225 -1.621 4.122
1.251 -1.622 4.118
1.28 -1.626 4.121
1.306 -1.627 4.115
1.332 -1.627 4.108
1.358 -1.627 4.1
1.384 -1.627 4.093
1.41 -1.628 4.087
1.436 -1.628 4.079
1.463 -1.63 4.074
1.489 -1.63 4.067
1.515 -1.631 4.06
1.541 -1.63 4.05
1.566 -1.63 4.04
1.591 -1.63 4.03
1.618 -1.63 4.022
1.642 -1.629 4.009
1.666 -1.628 3.995
1.692 -1.628 3.986
1.714 -1.625 3.968
1.734 -1.619 3.945
1.753 -1.613 3.919
1.764 -1.6 3.877
1.772 -1.585 3.828
1.778 -1.568 3.778
1.787 -1.554 3.734
1.795 -1.541 3.69
1.807 -1.53 3.654
1.821 -1.522 3.624
0 0 0
0 0 0
1.638 -1.317 3.105
1.655 -1.315 3.089
1.665 -1.306 3.058
1.672 -1.296 3.024
1.678 -1.285 2.989
1.676 -1.268 2.939
1.671 -1.25 2.886
1.666 -1.232 2.834
1.665 -1.217 2.789
1.648 -1.191 2.719
1.644 -1.175 2.672
0 0 0
-2.267 -1.63 3.886
-2.227 -1.62 3.875
-2.198 -1.618 3.884
-2.175 -1.621 3.902
-2.149 -1.621 3.915
-2.124 -1.622 3.931
-2.099 -1.624 3.947
-2.074 -1.625 3.961
-2.049 -1.626 3.976
-2.022 -1.626 3.988
-1.991 -1.623 3.99
-1.966 -1.624 4.004
-1.94 -1.624 4.017
-1.91 -1.622 4.021
-1.882 -1.62 4.028
-1.854 -1.619 4.036
-1.827 -1.618 4.043
-1.8 -1.618 4.052
-1.774 -1.619 4.066
-1.748 -1.619 4.074
-1.722 -1.62 4.086
-1.695 -1.619 4.095
-1.667 -1.618 4.101
-1.638 -1.615 4.102
-1.611 -1.614 4.109
-1.583 -1.613 4.115
-1.555 -1.611 4.117
-1.528 -1.61 4.124
-1.502 -1.611 4.135
-1.475 -1.61 4.14
-1.449 -1.61 4.148
-1.422 -1.61 4.154
-1.395 -1.608 4.158
-1.368 -1.608 4.165
-1.341 -1.608 4.17
-1.315 -1.607 4.177
-1.289 -1.608 4.186
-1.265 -1.61 4.198
-1.238 -1.61 4.203
-1.213 -1.611 4.213
-1.186 -1.61 4.217
-1.159 -1.609 4.219
-1.131 -1.607 4.22
-1.105 -1.607 4.225
-1.078 -1.606 4.228
-1.051 -1.604 4.229
-1.024 -1.603 4.23
-0.997 -1.603 4.235
-0.971 -1.602 4.238
-0.944 -1.601 4.239
-0.919 -1.602 4.249
-0.894 -1.604 4.256
-0.867 -1.603 4.259
-0.84 -1.602 4.259
-0.814 -1.601 4.262
-0.786 -1.598 4.257
-0.76 -1.597 4.257
-0.734 -1.598 4.263
-0.709 -1.598 4.268
-0.683 -1.6 4.275
-0.658 -1.601 4.282
-0.631 -1.6 4.282
-0.604 -1.598 4.279
-0.578 -1.597 4.279
-0.551 -1.594 4.274
-0.525 -1.593 4.274
-0.499 -1.592 4.273
-0.473 -1.591 4.274
-0.447 -1.59 4.272
-0.421 -1.591 4.276
-0.395 -1.591 4.279
-0.37 -1.592 4.283
-0.344 -1.593 4.286
-0.318 -1.592 4.285
-0.292 -1.591 4.283
-0.266 -1.588 4.277
-0.24 -1.587 4.274
-0.214 -1.585 4.271
-0.188 -1.585 4.272
-0.162 -1.583 4.265
-0.137 -1.583 4.268
-0.111 -1.582 4.265
-0.085 -1.581 4.262
-0.06 -1.58 4.26
-0.034 -1.582 4.264
-0.008 -1.58 4.26
0.016 -1.581 4.26
0.042 -1.581 4.261
0.067 -1.581 4.26
0.093 -1.58 4.256
0.118 -1.581 4.26
0.144 -1.581 4.257
0.17 -1.582 4.258
0.195 -1.582 4.257
0.221 -1.582 4.255
0.246 -1.58 4.249
0.271 -1.579 4.246
0.297 -1.579 4.243
0.323 -1.581 4.246
0.348 -1.581 4.245
0.374 -1.58 4.24
0.4 -1.583 4.245
0.425 -1.581 4.239
0.45 -1.579 4.23
0.475 -1.578 4.225
0.501 -1.58 4.226
0.526 -1.578 4.219
0.552 -1.579 4.22
0.578 -1.581 4.221
0.604 -1.583 4.222
0.63 -1.583 4.22
0.656 -1.586 4.223
0.683 -1.588 4.225
0.709 -1.589 4.223
0.734 -1.588 4.217
0.76 -1.589 4.214
0.785 -1.588 4.208
0.81 -1.587 4.201
0.835 -1.586 4.194
0.861 -1.587 4.193
0.888 -1.588 4.191
0.913 -1.589 4.186
0.94 -1.59 4.185
0.967 -1.593 4.187
0.993 -1.594 4.183
1.02 -1.595 4.181
1.046 -1.596 4.177
1.072 -1.597 4.175
1.099 -1.598 4.172
1.126 -1.601 4.171
1.151 -1.6 4.163
1.179 -1.603 4.164
1.205 -1.603 4.158
1.231 -1.603 4.151
1.258 -1.605 4.148
1.286 -1.608 4.15
1.314 -1.61 4.147
1.341 -1.611 4.143
1.368 -1.613 4.139
1.394 -1.613 4.132
1.42 -1.614 4.126
1.447 -1.614 4.119
1.474 -1.616 4.114
1.502 -1.618 4.11
1.529 -1.619 4.105
1.555 -1.62 4.098
1.582 -1.62 4.09
1.609 -1.621 4.083
1.635 -1.621 4.074
1.659 -1.62 4.059
1.685 -1.619 4.049
1.709 -1.618 4.035
1.73 -1.614 4.014
1.749 -1.607 3.986
1.765 -1.599 3.956
1.775 -1.585 3.911
1.783 -1.569 3.861
1.789 -1.552 3.81
1.799 -1.54 3.768
1.803 -1.523 3.716
1.813 -1.511 3.676
0 0 0
0 0 0
0 0 0
1.643 -1.3 3.122
1.659 -1.297 3.104
1.67 -1.289 3.076
1.677 -1.279 3.041
1.684 -1.269 3.006
1.681 -1.251 2.954
1.675 -1.232 2.9
1.667 -1.213 2.843
1.666 -1.198 2.798
1.68 -1.195 2.78
1.671 -1.175 2.724
-2.319 -1.621 3.925
-2.272 -1.606 3.903
-2.263 -1.619 3.948
-2.233 -1.617 3.955
-2.209 -1.619 3.974
-2.182 -1.619 3.986
-2.157 -1.621 4.003
-2.133 -1.623 4.021
-2.108 -1.625 4.037
-2.08 -1.624 4.046
-2.052 -1.623 4.057
-2.021 -1.62 4.06
-1.995 -1.621 4.073
-1.969 -1.621 4.086
-1.938 -1.619 4.09
-1.911 -1.618 4.099
-1.883 -1.618 4.109
-1.853 -1.615 4.113
-1.825 -1.614 4.121
-1.801 -1.616 4.136
-1.773 -1.616 4.144
-1.746 -1.615 4.152
-1.717 -1.613 4.157
-1.689 -1.612 4.164
-1.658 -1.608 4.163
-1.631 -1.608 4.171
-1.604 -1.608 4.18
-1.578 -1.608 4.188
-1.55 -1.607 4.194
-1.524 -1.608 4.205
-1.496 -1.607 4.209
-1.469 -1.606 4.216
-1.442 -1.606 4.222
-1.415 -1.605 4.228
-1.387 -1.604 4.232
-1.36 -1.603 4.238
-1.334 -1.604 4.247
-1.308 -1.604 4.254
-1.281 -1.604 4.259
-1.253 -1.603 4.263
-1.227 -1.604 4.272
-1.198 -1.601 4.27
-1.171 -1.599 4.272
-1.142 -1.597 4.271
-1.116 -1.596 4.276
-1.088 -1.595 4.277
-1.061 -1.594 4.281
-1.034 -1.592 4.28
-1.007 -1.593 4.287
-0.981 -1.593 4.292
-0.954 -1.591 4.293
-0.928 -1.591 4.298
-0.902 -1.592 4.303
-0.875 -1.591 4.306
-0.847 -1.589 4.304
-0.82 -1.587 4.304
-0.792 -1.584 4.298
-0.766 -1.583 4.299
-0.739 -1.583 4.302
-0.713 -1.582 4.302
-0.687 -1.582 4.307
-0.661 -1.583 4.313
-0.634 -1.581 4.309
-0.607 -1.579 4.306
-0.581 -1.579 4.308
-0.554 -1.576 4.303
-0.527 -1.574 4.302
-0.501 -1.574 4.302
-0.475 -1.572 4.3
-0.448 -1.57 4.297
-0.423 -1.571 4.301
-0.397 -1.571 4.302
-0.371 -1.571 4.305
-0.345 -1.572 4.308
-0.319 -1.57 4.305
-0.293 -1.57 4.305
-0.267 -1.568 4.301
-0.24 -1.566 4.298
-0.215 -1.566 4.296
-0.189 -1.565 4.295
-0.163 -1.562 4.287
-0.137 -1.563 4.29
-0.111 -1.561 4.286
-0.085 -1.56 4.284
-0.06 -1.56 4.282
-0.034 -1.56 4.284
-0.008 -1.559 4.279
0.016 -1.559 4.279
0.042 -1.558 4.276
0.068 -1.558 4.275
0.093 -1.557 4.273
0.119 -1.559 4.276
0.144 -1.557 4.271
0.17 -1.558 4.272
0.196 -1.557 4.269
0.221 -1.557 4.267
0.246 -1.556 4.262
0.272 -1.556 4.261
0.298 -1.556 4.257
0.323 -1.557 4.259
0.349 -1.558 4.259
0.374 -1.556 4.253
0.4 -1.558 4.255
0.426 -1.557 4.251
0.451 -1.556 4.245
0.476 -1.556 4.242
0.503 -1.558 4.246
0.528 -1.558 4.241
0.554 -1.558 4.24
0.579 -1.559 4.238
0.605 -1.56 4.237
0.631 -1.559 4.233
0.657 -1.561 4.234
0.683 -1.563 4.235
0.709 -1.564 4.233
0.735 -1.563 4.228
0.761 -1.564 4.226
0.786 -1.563 4.219
0.811 -1.563 4.214
0.837 -1.563 4.209
0.863 -1.564 4.208
0.89 -1.566 4.208
0.916 -1.567 4.206
0.942 -1.568 4.204
0.97 -1.572 4.207
0.996 -1.572 4.202
1.022 -1.573 4.2
1.049 -1.574 4.198
1.076 -1.576 4.197
1.103 -1.578 4.194
1.13 -1.58 4.195
1.156 -1.58 4.187
1.183 -1.582 4.186
1.209 -1.581 4.178
1.235 -1.582 4.172
1.262 -1.584 4.17
1.29 -1.587 4.171
1.317 -1.588 4.166
1.346 -1.591 4.167
1.374 -1.594 4.168
1.401 -1.594 4.16
1.428 -1.596 4.157
1.456 -1.598 4.154
1.483 -1.599 4.147
1.51 -1.6 4.14
1.538 -1.602 4.138
1.565 -1.603 4.132
1.592 -1.604 4.124
1.619 -1.605 4.118
1.646 -1.606 4.11
1.671 -1.605 4.097
1.697 -1.605 4.087
1.721 -1.603 4.072
1.74 -1.597 4.047
1.757 -1.588 4.015
1.773 -1.579 3.981
1.782 -1.565 3.934
1.79 -1.55 3.887
1.8 -1.537 3.843
1.808 -1.522 3.796
1.812 -1.505 3.741
0 0 0
0 0 0
0 0 0
0 0 0
1.649 -1.284 3.141
1.663 -1.279 3.119
1.676 -1.273 3.093
1.681 -1.261 3.055
1.686 -1.25 3.017
1.684 -1.234 2.968
1.678 -1.215 2.912
1.669 -1.194 2.853
1.667 -1.179 2.806
1.65 -1.154 2.736
1.665 -1.151 2.72
-2.372 -1.63 4.025
-2.298 -1.598 3.958
-2.296 -1.616 4.016
-2.264 -1.612 4.02
-2.238 -1.613 4.036
-2.21 -1.613 4.047
-2.094 -1.547 3.895
-1.985 -1.485 3.749
-1.962 -1.487 3.765
-1.936 -1.486 3.775
-1.91 -1.486 3.785
-1.967 -1.551 3.962
-2.023 -1.616 4.141
-1.994 -1.615 4.15
-1.965 -1.614 4.157
-1.937 -1.614 4.167
-1.909 -1.612 4.174
-1.88 -1.611 4.182
-1.853 -1.611 4.192
-1.827 -1.613 4.206
-1.798 -1.612 4.213
-1.771 -1.611 4.222
-1.739 -1.607 4.221
-1.711 -1.606 4.227
-1.682 -1.604 4.231
-1.654 -1.603 4.239
-1.627 -1.604 4.249
-1.6 -1.604 4.256
-1.573 -1.604 4.265
-1.545 -1.603 4.271
-1.516 -1.601 4.274
-1.487 -1.599 4.277
-1.459 -1.598 4.282
-1.43 -1.596 4.283
-1.402 -1.594 4.287
-1.375 -1.594 4.294
-1.347 -1.594 4.299
-1.321 -1.594 4.306
-1.292 -1.592 4.309
-1.264 -1.591 4.311
-1.238 -1.591 4.318
-1.209 -1.588 4.316
-1.18 -1.586 4.317
-1.152 -1.584 4.317
-1.125 -1.583 4.319
-1.096 -1.58 4.318
-1.069 -1.58 4.322
-1.042 -1.578 4.323
-1.015 -1.578 4.328
-0.988 -1.577 4.329
-0.96 -1.575 4.328
-0.933 -1.573 4.329
-0.906 -1.573 4.333
-0.878 -1.571 4.332
-0.851 -1.569 4.329
-0.823 -1.566 4.326
-0.795 -1.563 4.322
-0.768 -1.561 4.32
-0.741 -1.561 4.322
-0.715 -1.56 4.323
-0.688 -1.559 4.324
-0.662 -1.559 4.328
-0.635 -1.557 4.325
-0.608 -1.555 4.322
-0.582 -1.556 4.325
-0.555 -1.553 4.32
-0.528 -1.552 4.32
-0.502 -1.551 4.318
-0.476 -1.55 4.318
-0.449 -1.547 4.313
-0.423 -1.547 4.315
-0.397 -1.546 4.313
-0.371 -1.546 4.314
-0.345 -1.545 4.315
-0.318 -1.544 4.312
-0.293 -1.544 4.314
-0.267 -1.543 4.312
-0.24 -1.542 4.308
-0.215 -1.541 4.307
-0.189 -1.539 4.303
-0.162 -1.536 4.294
-0.137 -1.537 4.297
-0.111 -1.535 4.293
-0.085 -1.534 4.291
-0.06 -1.536 4.294
-0.034 -1.537 4.297
-0.008 -1.535 4.292
0.017 -1.535 4.291
0.042 -1.533 4.286
0.068 -1.532 4.283
0.093 -1.531 4.28
0.119 -1.533 4.284
0.145 -1.532 4.279
0.17 -1.532 4.279
0.196 -1.531 4.274
0.221 -1.531 4.274
0.246 -1.529 4.267
0.272 -1.529 4.265
0.298 -1.53 4.265
0.324 -1.532 4.27
0.349 -1.533 4.268
0.375 -1.531 4.262
0.4 -1.532 4.264
0.426 -1.532 4.259
0.451 -1.53 4.252
0.476 -1.53 4.248
0.503 -1.532 4.252
0.528 -1.533 4.251
0.554 -1.533 4.249
0.58 -1.533 4.246
0.605 -1.534 4.245
0.631 -1.533 4.239
0.657 -1.534 4.239
0.684 -1.537 4.243
0.709 -1.538 4.24
0.735 -1.538 4.237
0.761 -1.539 4.235
0.787 -1.539 4.231
0.812 -1.538 4.225
0.838 -1.539 4.222
0.864 -1.54 4.22
0.891 -1.542 4.222
0.917 -1.543 4.219
0.944 -1.544 4.217
0.971 -1.547 4.219
0.996 -1.546 4.212
1.023 -1.548 4.211
1.05 -1.549 4.209
1.077 -1.551 4.207
1.103 -1.552 4.203
1.131 -1.555 4.204
1.157 -1.555 4.199
1.185 -1.558 4.2
1.211 -1.558 4.195
1.237 -1.559 4.19
1.265 -1.561 4.189
1.292 -1.563 4.186
1.319 -1.564 4.18
1.347 -1.566 4.179
1.376 -1.57 4.182
1.403 -1.571 4.175
1.431 -1.573 4.173
1.459 -1.575 4.172
1.486 -1.576 4.165
1.513 -1.577 4.16
1.542 -1.58 4.158
1.569 -1.581 4.152
1.596 -1.582 4.145
1.625 -1.584 4.14
1.651 -1.584 4.13
1.675 -1.582 4.116
1.701 -1.582 4.106
1.725 -1.58 4.09
1.744 -1.574 4.064
1.762 -1.566 4.035
1.78 -1.559 4.006
1.792 -1.548 3.965
1.804 -1.536 3.925
1.82 -1.528 3.893
1.826 -1.513 3.843
0 0 0
0 0 0
0 0 0
0 0 0
0 0 0
1.632 -1.25 3.116
1.654 -1.251 3.108
1.672 -1.249 3.094
1.681 -1.241 3.063
1.688 -1.23 3.027
1.689 -1.216 2.983
1.683 -1.198 2.927
1.673 -1.177 2.866
1.67 -1.162 2.818
1.64 -1.128 2.726
1.676 -1.14 2.744
-2.378 -1.607 4.045
-2.382 -1.628 4.113
-1.852 -1.281 3.244
-1.827 -1.28 3.251
-1.806 -1.28 3.262
-1.782 -1.279 3.27
-1.673 -1.215 3.116
-1.569 -1.155 2.969
-1.55 -1.155 2.979
-1.529 -1.155 2.986
-1.596 -1.221 3.167
-1.659 -1.286 3.346
-1.718 -1.35 3.523
-1.695 -1.35 3.532
-1.752 -1.415 3.714
-1.647 -1.349 3.548
-1.698 -1.411 3.721
-1.75 -1.475 3.901
-1.801 -1.54 4.084
-1.775 -1.541 4.096
-1.823 -1.606 4.28
-1.795 -1.606 4.289
-1.763 -1.602 4.288
-1.734 -1.601 4.295
-1.704 -1.598 4.296
-1.674 -1.596 4.3
-1.647 -1.596 4.311
-1.619 -1.596 4.317
-1.591 -1.595 4.323
-1.562 -1.594 4.329
-1.533 -1.592 4.332
-1.503 -1.589 4.333
-1.474 -1.587 4.335
-1.444 -1.584 4.334
-1.414 -1.581 4.333
-1.385 -1.579 4.335
-1.357 -1.578 4.339
-1.329 -1.577 4.343
-1.3 -1.575 4.343
-1.272 -1.573 4.345
-1.245 -1.573 4.353
-1.216 -1.571 4.351
-1.187 -1.568 4.35
-1.158 -1.566 4.35
-1.13 -1.564 4.351
-1.102 -1.561 4.348
-1.074 -1.561 4.352
-1.047 -1.56 4.356
-1.02 -1.559 4.357
-0.992 -1.558 4.36
-0.964 -1.556 4.357
-0.936 -1.553 4.354
-0.908 -1.551 4.352
-0.88 -1.548 4.349
-0.852 -1.545 4.344
-0.824 -1.543 4.342
-0.796 -1.54 4.338
-0.769 -1.538 4.336
-0.742 -1.537 4.337
-0.715 -1.535 4.335
-0.688 -1.534 4.334
-0.662 -1.534 4.337
-0.635 -1.531 4.334
-0.608 -1.53 4.331
-0.582 -1.529 4.333
-0.555 -1.526 4.327
-0.528 -1.525 4.324
-0.501 -1.523 4.323
-0.475 -1.522 4.322
-0.449 -1.521 4.32
-0.423 -1.521 4.323
-0.397 -1.52 4.321
-0.371 -1.52 4.323
-0.345 -1.52 4.323
-0.318 -1.517 4.318
-0.292 -1.517 4.318
-0.266 -1.516 4.317
-0.24 -1.514 4.312
-0.214 -1.513 4.31
-0.188 -1.512 4.307
-0.162 -1.51 4.3
-0.137 -1.51 4.301
-0.111 -1.509 4.299
-0.085 -1.509 4.298
-0.059 -1.51 4.302
-0.034 -1.51 4.301
-0.008 -1.508 4.296
0.017 -1.508 4.295
0.042 -1.506 4.29
0.068 -1.505 4.285
0.093 -1.505 4.284
0.119 -1.506 4.287
0.145 -1.505 4.283
0.17 -1.504 4.281
0.196 -1.503 4.276
0.221 -1.504 4.276
0.246 -1.501 4.266
0.272 -1.501 4.265
0.297 -1.502 4.266
0.323 -1.504 4.27
0.349 -1.504 4.267
0.374 -1.503 4.264
0.4 -1.504 4.265
0.425 -1.503 4.259
0.45 -1.502 4.254
0.476 -1.503 4.254
0.502 -1.505 4.257
0.528 -1.507 4.257
0.554 -1.507 4.256
0.58 -1.508 4.255
0.605 -1.507 4.25
0.631 -1.507 4.246
0.657 -1.508 4.245
0.683 -1.51 4.248
0.709 -1.51 4.244
0.735 -1.512 4.245
0.761 -1.513 4.242
0.787 -1.513 4.24
0.813 -1.514 4.236
0.839 -1.514 4.232
0.864 -1.514 4.228
0.891 -1.517 4.231
0.917 -1.517 4.226
0.943 -1.518 4.224
0.971 -1.52 4.225
0.996 -1.52 4.22
1.023 -1.521 4.217
1.049 -1.523 4.215
1.076 -1.524 4.212
1.103 -1.526 4.211
1.131 -1.529 4.213
1.158 -1.53 4.211
1.186 -1.533 4.211
1.212 -1.533 4.206
1.239 -1.534 4.202
1.265 -1.535 4.197
1.292 -1.536 4.193
1.32 -1.538 4.19
1.347 -1.54 4.189
1.376 -1.543 4.189
1.404 -1.545 4.187
1.432 -1.548 4.185
1.461 -1.55 4.184
1.488 -1.552 4.179
1.515 -1.553 4.173
1.543 -1.555 4.17
1.57 -1.556 4.163
1.597 -1.556 4.155
1.626 -1.559 4.153
1.654 -1.56 4.146
1.68 -1.56 4.136
1.707 -1.56 4.128
1.731 -1.559 4.113
1.748 -1.551 4.082
1.767 -1.544 4.054
1.785 -1.537 4.026
1.799 -1.528 3.99
1.813 -1.518 3.954
1.833 -1.514 3.931
0 0 0
0 0 0
0 0 0
0 0 0
0 0 0
0 0 0
1.633 -1.229 3.124
1.655 -1.231 3.118
1.673 -1.229 3.103
1.683 -1.221 3.074
1.69 -1.212 3.039
1.692 -1.198 2.995
1.686 -1.18 2.94
1.675 -1.159 2.876
1.671 -1.143 2.826
1.668 -1.128 2.779
1.678 -1.122 2.755
-2.394 -1.59 4.083
-2.361 -1.586 4.087
-1.41 -0.959 2.473
-1.39 -0.957 2.476
-1.374 -0.958 2.485
-1.355 -0.956 2.489
-1.25 -0.893 2.331
-1.149 -0.832 2.176
-1.135 -0.832 2.184
-1.119 -0.831 2.187
-1.192 -0.896 2.367
-1.259 -0.96 2.543
-1.326 -1.024 2.722
-1.308 -1.025 2.731
-1.371 -1.089 2.91
-1.27 -1.023 2.74
-1.407 -1.149 3.087
-1.462 -1.211 3.263
-1.593 -1.339 3.618
-1.645 -1.404 3.804
-1.769 -1.531 4.161
-1.741 -1.531 4.17
-1.783 -1.592 4.346
-1.753 -1.59 4.35
-1.721 -1.587 4.35
-1.69 -1.584 4.351
-1.662 -1.583 4.359
-1.633 -1.582 4.365
-1.605 -1.582 4.373
-1.576 -1.581 4.378
-1.547 -1.579 4.38
-1.516 -1.576 4.379
-1.486 -1.573 4.379
-1.454 -1.568 4.374
-1.423 -1.564 4.371
-1.393 -1.561 4.369
-1.364 -1.56 4.372
-1.335 -1.557 4.372
-1.305 -1.554 4.369
-1.276 -1.552 4.369
-1.249 -1.552 4.376
-1.219 -1.548 4.373
-1.191 -1.547 4.374
-1.163 -1.545 4.375
-1.135 -1.544 4.376
-1.105 -1.539 4.369
-1.077 -1.537 4.37
-1.049 -1.536 4.371
-1.02 -1.533 4.369
-0.992 -1.531 4.366
-0.964 -1.528 4.363
-0.935 -1.526 4.36
-0.907 -1.523 4.357
-0.879 -1.521 4.354
-0.851 -1.518 4.351
-0.824 -1.516 4.35
-0.796 -1.513 4.345
-0.769 -1.511 4.343
-0.742 -1.511 4.346
-0.715 -1.51 4.345
-0.688 -1.508 4.343
-0.662 -1.508 4.346
-0.635 -1.506 4.343
-0.608 -1.504 4.34
-0.581 -1.503 4.34
-0.555 -1.501 4.336
-0.528 -1.499 4.334
-0.501 -1.497 4.331
-0.475 -1.496 4.33
-0.449 -1.495 4.328
-0.422 -1.495 4.329
-0.396 -1.494 4.327
-0.37 -1.494 4.33
-0.344 -1.493 4.329
-0.318 -1.491 4.323
-0.292 -1.49 4.323
-0.266 -1.49 4.322
-0.24 -1.487 4.316
-0.214 -1.486 4.313
-0.188 -1.485 4.31
-0.162 -1.483 4.305
-0.136 -1.482 4.303
-0.11 -1.481 4.299
-0.085 -1.481 4.299
-0.059 -1.482 4.302
-0.033 -1.481 4.3
-0.008 -1.48 4.296
0.017 -1.48 4.297
0.042 -1.479 4.294
0.068 -1.478 4.289
0.094 -1.479 4.291
0.119 -1.479 4.291
0.145 -1.478 4.287
0.17 -1.476 4.281
0.195 -1.476 4.279
0.221 -1.476 4.278
0.246 -1.475 4.273
0.272 -1.475 4.271
0.297 -1.476 4.272
0.323 -1.476 4.272
0.348 -1.475 4.267
0.373 -1.474 4.261
0.399 -1.475 4.26
0.424 -1.474 4.257
0.45 -1.475 4.255
0.476 -1.476 4.257
0.502 -1.478 4.26
0.528 -1.48 4.262
0.554 -1.48 4.259
0.579 -1.481 4.258
0.605 -1.48 4.253
0.63 -1.48 4.25
0.656 -1.481 4.249
0.683 -1.483 4.25
0.708 -1.482 4.245
0.734 -1.485 4.248
0.76 -1.485 4.244
0.787 -1.486 4.244
0.813 -1.487 4.242
0.838 -1.487 4.238
0.864 -1.487 4.234
0.891 -1.49 4.236
0.916 -1.489 4.227
0.942 -1.49 4.225
0.969 -1.492 4.226
0.995 -1.493 4.223
1.022 -1.494 4.22
1.049 -1.496 4.219
1.075 -1.497 4.217
1.102 -1.499 4.216
1.13 -1.501 4.216
1.157 -1.503 4.215
1.185 -1.506 4.217
1.212 -1.507 4.212
1.238 -1.508 4.209
1.265 -1.509 4.204
1.292 -1.51 4.2
1.319 -1.511 4.195
1.347 -1.514 4.196
1.376 -1.517 4.196
1.404 -1.519 4.195
1.432 -1.521 4.192
1.461 -1.524 4.192
1.488 -1.525 4.186
1.516 -1.527 4.182
1.543 -1.528 4.177
1.571 -1.529 4.172
1.598 -1.53 4.164
1.626 -1.532 4.16
1.653 -1.533 4.153
1.679 -1.533 4.144
1.706 -1.533 4.134
1.729 -1.53 4.116
1.748 -1.524 4.09
1.767 -1.518 4.063
1.787 -1.513 4.039
1.805 -1.507 4.011
1.822 -1.499 3.98
1.841 -1.494 3.955
0 0 0
0 0 0
0 0 0
0 0 0
0 0 0
0 0 0
1.777 -1.315 3.408
1.718 -1.255 3.243
1.713 -1.237 3.185
1.682 -1.2 3.079
1.69 -1.19 3.044
1.694 -1.179 3.005
1.689 -1.162 2.951
1.679 -1.142 2.891
1.674 -1.126 2.838
1.656 -1.101 2.766
1.688 -1.11 2.778
-0.032 -0.022 0.041
-0.052 -0.036 0.078
-0.976 -0.653 1.712
-0.96 -0.65 1.71
-0.946 -0.648 1.71
-0.931 -0.646 1.71
-0.83 -0.583 1.547
-0.734 -0.523 1.389
-0.724 -0.522 1.392
-0.711 -0.519 1.387
-0.787 -0.582 1.562
-0.859 -0.644 1.734
-0.929 -0.705 1.907
-0.915 -0.704 1.91
-0.983 -0.767 2.086
-0.886 -0.702 1.912
-1.027 -0.825 2.256
-1.087 -0.885 2.429
-1.3 -1.074 2.957
-1.431 -1.199 3.313
-1.632 -1.389 3.848
-1.68 -1.451 4.031
-1.794 -1.574 4.383
-1.764 -1.572 4.387
-1.732 -1.569 4.387
-1.701 -1.566 4.388
-1.672 -1.565 4.394
-1.643 -1.564 4.4
-1.613 -1.562 4.404
-1.583 -1.56 4.406
-1.552 -1.557 4.404
-1.521 -1.553 4.402
-1.49 -1.55 4.401
-1.459 -1.546 4.397
-1.427 -1.542 4.392
-1.397 -1.538 4.389
-1.367 -1.535 4.389
-1.337 -1.532 4.387
-1.306 -1.528 4.382
-1.278 -1.526 4.383
-1.249 -1.525 4.386
-1.219 -1.522 4.382
-1.19 -1.519 4.379
-1.162 -1.517 4.38
-1.133 -1.515 4.379
-1.104 -1.511 4.375
-1.076 -1.51 4.376
-1.048 -1.508 4.376
-1.019 -1.505 4.371
-0.991 -1.503 4.37
-0.963 -1.5 4.367
-0.934 -1.497 4.363
-0.907 -1.496 4.363
-0.879 -1.494 4.361
-0.851 -1.491 4.357
-0.824 -1.49 4.357
-0.796 -1.487 4.354
-0.768 -1.484 4.349
-0.742 -1.484 4.351
-0.715 -1.482 4.349
-0.687 -1.48 4.346
-0.661 -1.479 4.347
-0.634 -1.478 4.344
-0.607 -1.475 4.341
-0.58 -1.475 4.341
-0.554 -1.473 4.337
-0.527 -1.471 4.334
-0.5 -1.469 4.332
-0.474 -1.468 4.33
-0.448 -1.467 4.328
-0.421 -1.465 4.326
-0.395 -1.465 4.326
-0.369 -1.464 4.326
-0.343 -1.464 4.328
-0.317 -1.462 4.323
-0.291 -1.462 4.324
-0.265 -1.462 4.324
-0.239 -1.46 4.32
-0.213 -1.458 4.313
-0.187 -1.457 4.311
-0.162 -1.455 4.306
-0.136 -1.454 4.303
-0.11 -1.453 4.302
-0.085 -1.454 4.304
-0.059 -1.454 4.304
-0.033 -1.453 4.301
-0.008 -1.453 4.3
0.017 -1.452 4.297
0.042 -1.452 4.296
0.068 -1.451 4.292
0.094 -1.452 4.295
0.119 -1.452 4.294
0.145 -1.451 4.29
0.17 -1.449 4.282
0.195 -1.448 4.279
0.221 -1.448 4.277
0.246 -1.446 4.27
0.271 -1.447 4.27
0.297 -1.449 4.275
0.323 -1.449 4.274
0.348 -1.448 4.27
0.374 -1.448 4.268
0.399 -1.448 4.264
0.424 -1.447 4.259
0.45 -1.448 4.259
0.476 -1.45 4.263
0.502 -1.451 4.264
0.528 -1.453 4.267
0.554 -1.454 4.265
0.579 -1.454 4.263
0.604 -1.453 4.256
0.63 -1.453 4.253
0.655 -1.452 4.248
0.681 -1.453 4.246
0.706 -1.453 4.242
0.733 -1.455 4.243
0.759 -1.456 4.243
0.786 -1.459 4.246
0.812 -1.46 4.247
0.838 -1.46 4.242
0.864 -1.461 4.239
0.89 -1.462 4.238
0.915 -1.462 4.232
0.941 -1.463 4.229
0.969 -1.465 4.231
0.995 -1.466 4.228
1.022 -1.468 4.227
1.048 -1.469 4.224
1.075 -1.47 4.222
1.102 -1.471 4.22
1.129 -1.473 4.219
1.156 -1.475 4.218
1.185 -1.479 4.222
1.211 -1.48 4.219
1.238 -1.481 4.215
1.265 -1.482 4.21
1.291 -1.483 4.205
1.317 -1.482 4.197
1.345 -1.485 4.197
1.373 -1.487 4.196
1.402 -1.49 4.195
1.429 -1.492 4.193
1.459 -1.495 4.194
1.485 -1.496 4.187
1.513 -1.498 4.184
1.542 -1.5 4.181
1.569 -1.501 4.175
1.596 -1.501 4.167
1.624 -1.503 4.163
1.65 -1.504 4.154
1.676 -1.503 4.144
1.703 -1.504 4.135
1.727 -1.502 4.12
1.748 -1.497 4.098
1.769 -1.494 4.077
1.792 -1.491 4.058
1.812 -1.486 4.034
1.828 -1.478 4.002
0 0 0
0 0 0
0 0 0
0 0 0
0 0 0
0 0 0
0 0 0
0 0 0
1.724 -1.238 3.263
1.718 -1.219 3.2
1.683 -1.18 3.087
1.69 -1.17 3.052
1.697 -1.161 3.018
1.693 -1.145 2.965
1.684 -1.126 2.905
1.679 -1.11 2.854
1.645 -1.075 2.754
1.675 -1.082 2.761
-0.051 -0.034 0.075
-0.048 -0.032 0.07
-0.55 -0.362 0.962
-0.538 -0.358 0.955
-0.532 -0.359 0.958
-0.505 -0.345 0.924
-0.408 -0.283 0.756
-0.315 -0.221 0.589
-0.308 -0.219 0.585
-0.298 -0.214 0.574
-0.377 -0.275 0.744
-0.453 -0.334 0.911
-0.526 -0.393 1.077
-0.518 -0.392 1.077
-0.589 -0.452 1.248
-0.497 -0.387 1.068
-0.643 -0.507 1.41
-0.708 -0.567 1.581
-1.003 -0.814 2.283
-1.212 -0.998 2.811
-1.492 -1.247 3.523
-1.615 -1.371 3.883
-1.803 -1.554 4.413
-1.77 -1.55 4.411
-1.739 -1.547 4.414
-1.706 -1.543 4.409
-1.675 -1.54 4.411
-1.645 -1.538 4.414
-1.616 -1.537 4.421
-1.585 -1.534 4.42
-1.554 -1.531 4.42
-1.523 -1.528 4.418
-1.492 -1.524 4.414
-1.459 -1.519 4.408
-1.428 -1.515 4.404
-1.396 -1.51 4.396
-1.366 -1.507 4.394
-1.336 -1.504 4.392
-1.305 -1.5 4.387
-1.276 -1.498 4.387
-1.248 -1.496 4.389
-1.218 -1.493 4.385
-1.189 -1.49 4.382
-1.161 -1.489 4.384
-1.132 -1.486 4.383
-1.104 -1.484 4.382
-1.075 -1.483 4.382
-1.047 -1.481 4.382
-1.019 -1.478 4.378
-0.99 -1.475 4.376
-0.961 -1.472 4.37
-0.933 -1.469 4.366
-0.905 -1.468 4.365
-0.877 -1.465 4.361
-0.849 -1.462 4.356
-0.822 -1.461 4.359
-0.795 -1.459 4.357
-0.767 -1.456 4.351
-0.741 -1.456 4.352
-0.714 -1.454 4.351
-0.687 -1.452 4.349
-0.66 -1.451 4.348
-0.633 -1.45 4.347
-0.606 -1.448 4.343
-0.58 -1.447 4.344
-0.553 -1.444 4.337
-0.526 -1.443 4.335
-0.499 -1.441 4.333
-0.473 -1.44 4.332
-0.447 -1.439 4.329
-0.421 -1.438 4.328
-0.395 -1.438 4.33
-0.369 -1.438 4.331
-0.343 -1.437 4.331
-0.317 -1.436 4.329
-0.291 -1.436 4.33
-0.265 -1.435 4.328
-0.239 -1.434 4.324
-0.213 -1.431 4.316
-0.187 -1.429 4.312
-0.161 -1.428 4.309
-0.135 -1.425 4.302
-0.11 -1.426 4.304
-0.084 -1.427 4.307
-0.059 -1.428 4.309
-0.033 -1.427 4.306
-0.008 -1.428 4.309
0.017 -1.426 4.302
0.043 -1.426 4.301
0.068 -1.424 4.297
0.094 -1.426 4.3
0.119 -1.425 4.298
0.145 -1.424 4.295
0.17 -1.421 4.284
0.195 -1.421 4.283
0.221 -1.421 4.281
0.246 -1.419 4.274
0.271 -1.42 4.274
0.297 -1.423 4.282
0.323 -1.423 4.28
0.348 -1.422 4.275
0.374 -1.423 4.275
0.399 -1.422 4.271
0.424 -1.421 4.264
0.45 -1.421 4.263
0.476 -1.424 4.267
0.501 -1.424 4.266
0.527 -1.426 4.268
0.553 -1.426 4.267
0.579 -1.427 4.265
0.604 -1.426 4.259
0.629 -1.426 4.257
0.655 -1.426 4.252
0.68 -1.426 4.25
0.706 -1.427 4.248
0.732 -1.428 4.248
0.758 -1.429 4.247
0.786 -1.432 4.252
0.812 -1.434 4.253
0.838 -1.434 4.249
0.864 -1.435 4.245
0.89 -1.436 4.244
0.915 -1.435 4.237
0.941 -1.436 4.235
0.968 -1.438 4.235
0.995 -1.44 4.234
1.022 -1.441 4.233
1.047 -1.441 4.227
1.073 -1.441 4.222
1.1 -1.443 4.221
1.126 -1.444 4.217
1.153 -1.445 4.215
1.182 -1.45 4.221
1.21 -1.452 4.221
1.236 -1.452 4.216
1.263 -1.453 4.211
1.289 -1.454 4.206
1.316 -1.455 4.201
1.343 -1.457 4.199
1.372 -1.459 4.199
1.401 -1.463 4.2
1.428 -1.464 4.197
1.457 -1.467 4.196
1.484 -1.468 4.191
1.512 -1.47 4.189
1.54 -1.471 4.183
1.567 -1.473 4.178
1.594 -1.474 4.171
1.622 -1.475 4.167
1.649 -1.475 4.158
1.676 -1.476 4.15
1.702 -1.477 4.142
1.728 -1.476 4.13
1.749 -1.472 4.109
1.773 -1.471 4.094
1.796 -1.468 4.076
1.816 -1.463 4.051
1.83 -1.453 4.014
0 0 0
0 0 0
0 0 0
0 0 0
0 0 0
0 0 0
0 0 0
0 0 0
1.725 -1.217 3.27
1.719 -1.198 3.208
1.684 -1.159 3.095
1.69 -1.15 3.059
1.697 -1.141 3.025
1.694 -1.125 2.973
1.684 -1.106 2.911
1.68 -1.09 2.86
1.7 -1.091 2.852
1.655 -1.051 2.736
-0.155 -0.099 0.255
-0.169 -0.109 0.283
-0.09 -0.059 0.147
-0.08 -0.053 0.131
-0.078 -0.053 0.131
-0.073 -0.05 0.122
-0.069 -0.048 0.117
-0.065 -0.046 0.111
-0.062 -0.044 0.107
-0.052 -0.038 0.091
-0.134 -0.097 0.256
-0.126 -0.092 0.244
-0.12 -0.089 0.237
-0.116 -0.087 0.232
-0.191 -0.145 0.396
-0.102 -0.079 0.21
-0.255 -0.198 0.551
-0.401 -0.316 0.892
-0.777 -0.619 1.769
-1.065 -0.862 2.474
-1.422 -1.167 3.364
-1.619 -1.35 3.902
-1.808 -1.53 4.434
-1.774 -1.526 4.432
-1.742 -1.522 4.431
-1.708 -1.517 4.425
-1.676 -1.513 4.422
-1.645 -1.511 4.424
-1.615 -1.508 4.426
-1.584 -1.506 4.427
-1.554 -1.503 4.427
-1.523 -1.501 4.427
-1.492 -1.497 4.424
-1.46 -1.493 4.419
-1.428 -1.488 4.412
-1.396 -1.483 4.404
-1.365 -1.479 4.401
-1.335 -1.476 4.399
-1.304 -1.472 4.391
-1.276 -1.471 4.395
-1.248 -1.47 4.397
-1.217 -1.466 4.391
-1.188 -1.462 4.388
-1.16 -1.462 4.391
-1.131 -1.459 4.389
-1.103 -1.456 4.386
-1.074 -1.454 4.385
-1.046 -1.452 4.384
-1.018 -1.45 4.382
-0.989 -1.447 4.379
-0.96 -1.444 4.373
-0.932 -1.442 4.371
-0.904 -1.439 4.366
-0.876 -1.436 4.361
-0.848 -1.433 4.356
-0.821 -1.432 4.358
-0.794 -1.431 4.359
-0.767 -1.43 4.359
-0.741 -1.43 4.36
-0.714 -1.428 4.36
-0.687 -1.427 4.36
-0.66 -1.425 4.355
-0.633 -1.424 4.354
-0.606 -1.422 4.351
-0.579 -1.421 4.35
-0.552 -1.417 4.342
-0.526 -1.416 4.34
-0.499 -1.414 4.338
-0.473 -1.413 4.336
-0.447 -1.412 4.336
-0.421 -1.412 4.337
-0.395 -1.412 4.338
-0.369 -1.412 4.339
-0.343 -1.411 4.339
-0.317 -1.41 4.336
-0.291 -1.408 4.332
-0.265 -1.408 4.33
-0.239 -1.406 4.326
-0.213 -1.404 4.319
-0.187 -1.402 4.316
-0.161 -1.402 4.314
-0.135 -1.4 4.31
-0.11 -1.401 4.312
-0.084 -1.402 4.316
-0.059 -1.401 4.313
-0.033 -1.4 4.309
-0.007 -1.4 4.311
0.017 -1.398 4.301
0.043 -1.397 4.3
0.068 -1.397 4.298
0.094 -1.399 4.304
0.119 -1.398 4.3
0.145 -1.398 4.298
0.17 -1.395 4.288
0.195 -1.395 4.289
0.221 -1.394 4.283
0.246 -1.393 4.279
0.272 -1.395 4.282
0.298 -1.398 4.289
0.323 -1.397 4.284
0.348 -1.396 4.281
0.374 -1.397 4.281
0.399 -1.396 4.276
0.424 -1.394 4.268
0.449 -1.395 4.268
0.476 -1.398 4.273
0.501 -1.398 4.273
0.527 -1.4 4.275
0.554 -1.401 4.276
0.579 -1.402 4.275
0.605 -1.401 4.27
0.63 -1.402 4.268
0.655 -1.401 4.261
0.68 -1.4 4.256
0.706 -1.401 4.253
0.732 -1.401 4.25
0.757 -1.401 4.247
0.784 -1.404 4.252
0.812 -1.408 4.257
0.838 -1.408 4.254
0.864 -1.409 4.252
0.889 -1.409 4.249
0.915 -1.409 4.242
0.941 -1.409 4.238
0.967 -1.41 4.236
0.994 -1.412 4.236
1.02 -1.414 4.235
1.046 -1.414 4.23
1.072 -1.414 4.224
1.099 -1.415 4.223
1.125 -1.416 4.219
1.151 -1.417 4.216
1.18 -1.421 4.22
1.208 -1.423 4.221
1.234 -1.424 4.216
1.261 -1.425 4.212
1.288 -1.427 4.21
1.315 -1.427 4.204
1.342 -1.429 4.201
1.37 -1.431 4.201
1.399 -1.434 4.201
1.426 -1.436 4.198
1.454 -1.438 4.197
1.483 -1.44 4.194
1.51 -1.441 4.19
1.537 -1.442 4.183
1.564 -1.444 4.178
1.591 -1.445 4.172
1.62 -1.446 4.168
1.646 -1.447 4.16
1.675 -1.449 4.157
1.702 -1.45 4.149
1.728 -1.45 4.138
1.751 -1.447 4.122
1.778 -1.448 4.112
1.799 -1.444 4.091
1.818 -1.439 4.065
0 0 0
0 0 0
0 0 0
0 0 0
0 0 0
0 0 0
0 0 0
0 0 0
0 0 0
1.527 -1.058 2.901
1.733 -1.186 3.242
1.686 -1.14 3.104
1.692 -1.13 3.068
1.697 -1.12 3.03
1.694 -1.105 2.98
1.685 -1.086 2.919
1.681 -1.072 2.869
1.68 -1.059 2.824
1.693 -1.055 2.804
-0.139 -0.087 0.227
-0.086 -0.055 0.138
-0.116 -0.075 0.193
-0.104 -0.068 0.175
-0.1 -0.066 0.17
-0.091 -0.061 0.157
-0.086 -0.058 0.15
-0.08 -0.055 0.14
-0.074 -0.052 0.132
-0.065 -0.046 0.115
-0.06 -0.043 0.108
-0.051 -0.038 0.092
-0.045 -0.033 0.08
-0.04 -0.031 0.072
-0.033 -0.026 0.058
-0.025 -0.02 0.041
-0.101 -0.078 0.211
-0.172 -0.133 0.375
-0.473 -0.37 1.073
-0.841 -0.668 1.954
-1.2 -0.968 2.844
-1.472 -1.205 3.553
-1.734 -1.441 4.263
-1.773 -1.497 4.437
-1.741 -1.493 4.436
-1.706 -1.487 4.428
-1.674 -1.483 4.425
-1.643 -1.481 4.427
-1.612 -1.478 4.427
-1.582 -1.476 4.428
-1.551 -1.473 4.428
-1.521 -1.47 4.428
-1.49 -1.467 4.426
-1.459 -1.464 4.423
-1.427 -1.46 4.417
-1.396 -1.456 4.413
-1.366 -1.453 4.41
-1.335 -1.449 4.406
-1.304 -1.444 4.399
-1.275 -1.442 4.399
-1.246 -1.441 4.4
-1.217 -1.438 4.397
-1.188 -1.436 4.397
-1.161 -1.435 4.4
-1.132 -1.433 4.401
-1.104 -1.431 4.398
-1.075 -1.428 4.395
-1.046 -1.425 4.391
-1.018 -1.424 4.39
-0.989 -1.42 4.385
-0.96 -1.417 4.379
-0.932 -1.414 4.375
-0.903 -1.412 4.371
-0.875 -1.409 4.367
-0.847 -1.406 4.361
-0.82 -1.405 4.362
-0.794 -1.404 4.364
-0.767 -1.403 4.363
-0.74 -1.402 4.364
-0.713 -1.401 4.363
-0.687 -1.401 4.366
-0.659 -1.398 4.36
-0.632 -1.396 4.358
-0.605 -1.394 4.352
-0.579 -1.394 4.354
-0.551 -1.39 4.345
-0.525 -1.389 4.343
-0.499 -1.388 4.343
-0.473 -1.388 4.345
-0.446 -1.384 4.335
-0.42 -1.384 4.337
-0.394 -1.384 4.338
-0.368 -1.384 4.338
-0.342 -1.383 4.337
-0.316 -1.383 4.339
-0.29 -1.381 4.334
-0.264 -1.38 4.33
-0.238 -1.378 4.326
-0.212 -1.376 4.32
-0.186 -1.374 4.316
-0.161 -1.374 4.314
-0.135 -1.373 4.311
-0.109 -1.373 4.313
-0.084 -1.374 4.316
-0.058 -1.374 4.315
-0.033 -1.374 4.315
-0.007 -1.375 4.318
0.017 -1.371 4.307
0.043 -1.371 4.305
0.068 -1.371 4.305
0.094 -1.373 4.31
0.119 -1.371 4.303
0.145 -1.37 4.299
0.17 -1.367 4.287
0.195 -1.368 4.289
0.22 -1.366 4.282
0.246 -1.367 4.285
0.272 -1.37 4.292
0.298 -1.374 4.301
0.323 -1.372 4.294
0.349 -1.372 4.291
0.374 -1.371 4.288
0.399 -1.369 4.279
0.424 -1.368 4.272
0.449 -1.369 4.273
0.476 -1.371 4.278
0.501 -1.372 4.276
0.527 -1.373 4.279
0.553 -1.374 4.278
0.579 -1.375 4.277
0.604 -1.375 4.274
0.63 -1.375 4.272
0.655 -1.375 4.266
0.68 -1.374 4.259
0.706 -1.374 4.256
0.73 -1.373 4.249
0.756 -1.374 4.248
0.783 -1.377 4.253
0.811 -1.381 4.261
0.837 -1.381 4.258
0.863 -1.382 4.257
0.888 -1.381 4.249
0.914 -1.381 4.243
0.939 -1.381 4.238
0.965 -1.382 4.236
0.992 -1.383 4.234
1.019 -1.386 4.236
1.044 -1.385 4.229
1.07 -1.386 4.225
1.097 -1.387 4.222
1.123 -1.388 4.22
1.149 -1.389 4.215
1.178 -1.392 4.219
1.206 -1.394 4.22
1.232 -1.395 4.214
1.258 -1.396 4.211
1.286 -1.398 4.208
1.312 -1.398 4.202
1.339 -1.399 4.199
1.368 -1.403 4.202
1.396 -1.405 4.2
1.424 -1.407 4.199
1.452 -1.409 4.197
1.479 -1.411 4.192
1.506 -1.411 4.186
1.533 -1.412 4.18
1.561 -1.414 4.177
1.589 -1.416 4.173
1.617 -1.418 4.169
1.644 -1.418 4.161
1.672 -1.42 4.157
1.7 -1.421 4.15
1.725 -1.42 4.138
1.75 -1.42 4.127
1.778 -1.422 4.121
1.802 -1.42 4.105
0 0 0
0 0 0
0 0 0
0 0 0
0 0 0
0 0 0
0 0 0
0 0 0
0 0 0
0 0 0
1.47 -1 2.797
1.743 -1.171 3.267
1.683 -1.117 3.106
1.689 -1.108 3.07
1.696 -1.099 3.036
1.696 -1.086 2.989
1.688 -1.069 2.931
1.683 -1.053 2.879
1.659 -1.027 2.795
1.69 -1.034 2.804
-0.146 -0.09 0.241
-0.114 -0.071 0.187
-0.138 -0.087 0.234
-0.127 -0.081 0.217
-0.119 -0.077 0.207
-0.108 -0.071 0.189
-0.1 -0.066 0.176
-0.092 -0.062 0.165
-0.085 -0.058 0.153
-0.074 -0.052 0.134
-0.068 -0.048 0.124
-0.058 -0.042 0.105
-0.047 -0.034 0.085
-0.04 -0.03 0.071
-0.032 -0.025 0.057
-0.023 -0.018 0.037
-0.099 -0.075 0.207
-0.248 -0.189 0.549
-0.548 -0.422 1.25
-0.915 -0.713 2.131
-1.274 -1.007 3.024
-1.543 -1.239 3.733
-1.732 -1.412 4.266
-1.771 -1.466 4.44
-1.738 -1.463 4.438
-1.704 -1.457 4.43
-1.672 -1.454 4.428
-1.641 -1.452 4.431
-1.61 -1.448 4.428
-1.579 -1.445 4.428
-1.547 -1.442 4.425
-1.517 -1.44 4.426
-1.487 -1.437 4.426
-1.457 -1.435 4.427
-1.426 -1.431 4.423
-1.397 -1.429 4.423
-1.366 -1.426 4.42
-1.335 -1.422 4.413
-1.303 -1.417 4.404
-1.274 -1.415 4.404
-1.245 -1.413 4.405
-1.216 -1.41 4.402
-1.188 -1.409 4.403
-1.159 -1.407 4.403
-1.131 -1.405 4.403
-1.102 -1.403 4.402
-1.074 -1.401 4.4
-1.044 -1.397 4.393
-1.017 -1.397 4.397
-0.989 -1.394 4.394
-0.96 -1.391 4.387
-0.932 -1.388 4.384
-0.903 -1.386 4.38
-0.875 -1.383 4.374
-0.846 -1.379 4.366
-0.82 -1.378 4.367
-0.794 -1.379 4.373
-0.767 -1.378 4.374
-0.74 -1.377 4.373
-0.713 -1.375 4.372
-0.687 -1.375 4.375
-0.658 -1.371 4.363
-0.631 -1.369 4.36
-0.605 -1.367 4.357
-0.579 -1.367 4.36
-0.551 -1.362 4.347
-0.524 -1.361 4.344
-0.498 -1.36 4.344
-0.472 -1.359 4.343
-0.444 -1.354 4.33
-0.419 -1.355 4.334
-0.393 -1.355 4.335
-0.367 -1.355 4.335
-0.341 -1.354 4.335
-0.316 -1.354 4.337
-0.29 -1.353 4.333
-0.264 -1.351 4.329
-0.238 -1.35 4.327
-0.212 -1.348 4.32
-0.186 -1.347 4.318
-0.16 -1.347 4.317
-0.135 -1.347 4.316
-0.109 -1.348 4.32
-0.084 -1.349 4.325
-0.058 -1.35 4.326
-0.033 -1.35 4.328
-0.007 -1.352 4.334
0.017 -1.345 4.31
0.043 -1.343 4.304
0.068 -1.343 4.303
0.094 -1.344 4.307
0.119 -1.343 4.3
0.145 -1.343 4.302
0.17 -1.34 4.288
0.195 -1.339 4.286
0.22 -1.338 4.28
0.245 -1.337 4.277
0.271 -1.34 4.282
0.298 -1.346 4.301
0.323 -1.346 4.299
0.349 -1.346 4.296
0.375 -1.348 4.302
0.4 -1.346 4.294
0.425 -1.345 4.286
0.45 -1.345 4.284
0.476 -1.348 4.29
0.502 -1.347 4.285
0.528 -1.35 4.294
0.554 -1.35 4.289
0.579 -1.35 4.286
0.605 -1.35 4.283
0.63 -1.349 4.276
0.654 -1.347 4.266
0.679 -1.346 4.258
0.705 -1.347 4.258
0.729 -1.345 4.249
0.756 -1.347 4.251
0.783 -1.351 4.259
0.812 -1.355 4.269
0.838 -1.357 4.271
0.864 -1.357 4.265
0.887 -1.353 4.248
0.912 -1.353 4.243
0.938 -1.353 4.239
0.964 -1.354 4.236
0.99 -1.355 4.234
1.018 -1.358 4.237
1.043 -1.358 4.23
1.069 -1.358 4.227
1.095 -1.359 4.222
1.122 -1.361 4.221
1.148 -1.361 4.216
1.176 -1.364 4.219
1.204 -1.366 4.22
1.23 -1.367 4.214
1.257 -1.368 4.211
1.283 -1.369 4.207
1.31 -1.37 4.204
1.337 -1.371 4.2
1.366 -1.375 4.203
1.394 -1.377 4.201
1.422 -1.379 4.201
1.45 -1.381 4.197
1.477 -1.382 4.193
1.503 -1.382 4.186
1.53 -1.383 4.179
1.558 -1.385 4.175
1.585 -1.386 4.17
1.613 -1.388 4.166
1.641 -1.389 4.161
1.669 -1.391 4.158
1.698 -1.393 4.154
1.725 -1.394 4.146
1.752 -1.395 4.138
1.781 -1.397 4.135
1.808 -1.398 4.126
0 0 0
0 0 0
0 0 0
0 0 0
0 0 0
0 0 0
0 0 0
0 0 0
0 0 0
0 0 0
1.273 -0.85 2.426
1.68 -1.108 3.155
1.688 -1.099 3.121
1.691 -1.088 3.08
1.697 -1.079 3.043
1.697 -1.067 2.998
1.686 -1.048 2.934
1.68 -1.032 2.88
1.674 -1.017 2.826
1.677 -1.007 2.789
-0.184 -0.111 0.306
-0.176 -0.108 0.298
-0.146 -0.09 0.247
-0.134 -0.084 0.23
-0.124 -0.078 0.215
-0.111 -0.071 0.195
-0.102 -0.067 0.181
-0.09 -0.06 0.16
-0.083 -0.056 0.15
-0.074 -0.051 0.135
-0.068 -0.047 0.124
-0.056 -0.04 0.102
-0.048 -0.035 0.088
-0.04 -0.03 0.073
-0.033 -0.025 0.057
-0.024 -0.019 0.04
-0.179 -0.132 0.386
-0.404 -0.301 0.903
-0.624 -0.471 1.428
-0.991 -0.757 2.313
-1.347 -1.045 3.205
-1.542 -1.215 3.737
-1.658 -1.326 4.092
-1.769 -1.438 4.445
-1.737 -1.434 4.443
-1.702 -1.429 4.436
-1.67 -1.425 4.434
-1.64 -1.423 4.435
-1.608 -1.419 4.432
-1.576 -1.416 4.429
-1.545 -1.413 4.428
-1.515 -1.41 4.426
-1.486 -1.409 4.431
-1.457 -1.407 4.434
-1.427 -1.405 4.432
-1.397 -1.402 4.432
-1.368 -1.401 4.436
-1.335 -1.395 4.423
