 1.784 -1.471 3.195
 1.778 -1.449 3.135
 1.775 -1.429 3.082
 1.748 -1.391 2.988
 1.752 -1.377 2.948
 1.784 -1.386 2.957
 1.744 -1.34 2.848
 1.762 -1.339 2.834
 -2.152 -1.629 3.593
 -2.114 -1.619 3.583
 -2.063 -1.598 3.55
 -2.092 -1.64 3.656
 -2.037 -1.617 3.616
 -2.035 -1.635 3.669
 -2 -1.627 3.662
 -1.971 -1.624 3.666
 -1.945 -1.623 3.676
 -1.892 -1.6 3.634
 -1.897 -1.625 3.701
 -1.901 -1.65 3.769
 -1.882 -1.656 3.794
 -1.822 -1.625 3.733
 -1.789 -1.617 3.726
 -1.782 -1.634 3.776
 -1.742 -1.62 3.753
 -1.748 -1.65 3.831
 -1.706 -1.634 3.804
 -1.68 -1.632 3.81
 -1.661 -1.639 3.835
 -1.637 -1.64 3.846
 -1.596 -1.624 3.818
 -1.555 -1.607 3.787
 -1.533 -1.609 3.8
 -1.501 -1.602 3.791
 -1.494 -1.622 3.846
 -1.488 -1.642 3.902
 -1.447 -1.625 3.869
 -1.423 -1.625 3.878
 -1.392 -1.618 3.868
 -1.356 -1.605 3.845
 -1.367 -1.647 3.954
 -1.318 -1.619 3.893
 -1.274 -1.594 3.84
 -1.271 -1.623 3.915
 -1.258 -1.637 3.958
 -1.226 -1.628 3.941
 -1.174 -1.591 3.859
 -1.173 -1.624 3.946
 -1.145 -1.619 3.939
 -1.108 -1.602 3.902
 -1.082 -1.599 3.902
 -1.081 -1.634 3.994
 -1.043 -1.615 3.951
 -0.998 -1.582 3.876
 -1.002 -1.628 3.994
 -0.973 -1.622 3.985
 -0.945 -1.617 3.977
 -0.936 -1.644 4.049
 -0.892 -1.61 3.969
 -0.868 -1.61 3.973
 -0.844 -1.611 3.981
 -0.824 -1.622 4.011
 -0.797 -1.618 4.004
 -0.774 -1.621 4.016
 -0.752 -1.626 4.032
 -0.719 -1.608 3.991
 -0.693 -1.606 3.989
 -0.672 -1.613 4.01
 -0.648 -1.616 4.02
 -0.617 -1.599 3.981
 -0.601 -1.62 4.038
 -0.587 -1.651 4.117
 -0.549 -1.615 4.029
 -0.518 -1.592 3.975
 -0.496 -1.6 3.997
 -0.482 -1.635 4.088
 -0.454 -1.626 4.066
 -0.43 -1.627 4.07
 -0.408 -1.64 4.106
 -0.373 -1.596 3.997
 -0.354 -1.62 4.06
 -0.329 -1.618 4.054
 -0.302 -1.608 4.031
 -0.279 -1.616 4.053
 -0.256 -1.627 4.081
 -0.231 -1.627 4.081
 -0.205 -1.616 4.055
 -0.178 -1.595 4.003
 -0.155 -1.608 4.037
 -0.131 -1.611 4.043
 -0.106 -1.604 4.028
 -0.084 -1.639 4.117
 -0.058 -1.607 4.034
 -0.033 -1.609 4.04
 -0.009 -1.599 4.016
 0.015 -1.613 4.048
 0.04 -1.625 4.08
 0.063 -1.605 4.028
 0.088 -1.61 4.04
 0.113 -1.621 4.068
 0.138 -1.627 4.082
 0.16 -1.594 3.998
 0.183 -1.585 3.972
 0.21 -1.606 4.024
 0.235 -1.609 4.032
 0.258 -1.605 4.018
 0.285 -1.619 4.052
 0.311 -1.624 4.063
 0.336 -1.628 4.073
 0.357 -1.613 4.032
 0.386 -1.629 4.069
 0.41 -1.626 4.059
 0.438 -1.641 4.095
 0.454 -1.607 4.007
 0.483 -1.623 4.044
 0.503 -1.608 4.004
 0.53 -1.616 4.021
 0.553 -1.613 4.011
 0.578 -1.614 4.01
 0.599 -1.607 3.988
 0.631 -1.625 4.029
 0.655 -1.623 4.021
 0.682 -1.63 4.035
 0.705 -1.625 4.019
 0.723 -1.612 3.983
 0.749 -1.616 3.987
 0.782 -1.632 4.024
 0.803 -1.626 4.003
 0.826 -1.621 3.988
 0.857 -1.634 4.015
 0.874 -1.621 3.978
 0.907 -1.636 4.01
 0.923 -1.62 3.963
 0.954 -1.631 3.986
 0.994 -1.656 4.042
 1.005 -1.635 3.984
 1.028 -1.632 3.972
 1.058 -1.64 3.986
 1.08 -1.636 3.971
 1.106 -1.637 3.966
 1.142 -1.654 3.999
 1.163 -1.649 3.981
 1.18 -1.637 3.946
 1.202 -1.634 3.931
 1.233 -1.642 3.945
 1.248 -1.63 3.907
 1.285 -1.646 3.939
 1.318 -1.656 3.955
 1.325 -1.634 3.894
 1.336 -1.617 3.846
 1.366 -1.624 3.854
 1.394 -1.628 3.856
 1.436 -1.648 3.896
 1.467 -1.655 3.905
 1.472 -1.633 3.843
 1.512 -1.65 3.874
 1.528 -1.64 3.843
 1.552 -1.639 3.831
 1.565 -1.628 3.794
 1.609 -1.647 3.831
 1.631 -1.645 3.816
 1.661 -1.65 3.818
 1.674 -1.638 3.78
 1.704 -1.644 3.783
 1.727 -1.642 3.77
 1.751 -1.641 3.756
 1.798 -1.662 3.794
 1.763 -1.608 3.658
 1.816 -1.633 3.706
 1.837 -1.63 3.688
 1.834 -1.606 3.623
 1.818 -1.572 3.534
 1.834 -1.565 3.508
 1.809 -1.525 3.406
 1.803 -1.5 3.34
 1.769 -1.454 3.227
 1.806 -1.466 3.242
 1.798 -1.442 3.178
 1.792 -1.42 3.118
 1.77 -1.386 3.033
 1.765 -1.367 2.979
 1.748 -1.338 2.906
 1.758 -1.331 2.879
 1.755 -1.314 2.831
 -2.165 -1.613 3.624
 -2.158 -1.627 3.668
 -2.128 -1.623 3.673
 -2.104 -1.625 3.688
 -2.08 -1.626 3.703
 -2.057 -1.628 3.72
 -2.03 -1.626 3.728
 -2.005 -1.627 3.74
 -1.979 -1.627 3.751
 -1.954 -1.626 3.762
 -1.928 -1.626 3.772
 -1.904 -1.627 3.786
 -1.88 -1.629 3.8
 -1.855 -1.629 3.811
 -1.827 -1.627 3.817
 -1.801 -1.626 3.825
 -1.774 -1.624 3.831
 -1.747 -1.623 3.838
 -1.722 -1.624 3.849
 -1.698 -1.625 3.861
 -1.673 -1.625 3.871
 -1.646 -1.624 3.877
 -1.622 -1.624 3.888
 -1.595 -1.623 3.894
 -1.568 -1.622 3.899
 -1.543 -1.621 3.906
 -1.52 -1.624 3.921
 -1.493 -1.623 3.926
 -1.467 -1.621 3.931
 -1.441 -1.621 3.937
 -1.415 -1.62 3.944
 -1.389 -1.619 3.949
 -1.363 -1.618 3.953
 -1.338 -1.618 3.96
 -1.312 -1.617 3.966
 -1.287 -1.617 3.972
 -1.26 -1.615 3.973
 -1.236 -1.616 3.984
 -1.211 -1.617 3.992
 -1.187 -1.618 4
 -1.159 -1.615 3.998
 -1.134 -1.615 4.005
 -1.109 -1.614 4.008
 -1.082 -1.611 4.007
 -1.056 -1.61 4.01
 -1.031 -1.611 4.017
 -1.005 -1.609 4.019
 -0.98 -1.609 4.023
 -0.956 -1.61 4.031
 -0.93 -1.609 4.031
 -0.906 -1.61 4.039
 -0.882 -1.613 4.05
 -0.856 -1.611 4.05
 -0.832 -1.612 4.056
 -0.807 -1.613 4.063
 -0.782 -1.612 4.065
 -0.756 -1.61 4.064
 -0.731 -1.61 4.066
 -0.705 -1.608 4.066
 -0.68 -1.608 4.068
 -0.656 -1.609 4.076
 -0.632 -1.614 4.089
 -0.608 -1.615 4.096
 -0.583 -1.616 4.102
 -0.558 -1.615 4.102
 -0.533 -1.615 4.104
 -0.507 -1.613 4.1
 -0.482 -1.613 4.103
 -0.458 -1.616 4.112
 -0.433 -1.616 4.116
 -0.408 -1.614 4.112
 -0.383 -1.615 4.117
 -0.358 -1.616 4.119
 -0.333 -1.613 4.113
 -0.308 -1.614 4.118
 -0.283 -1.617 4.127
 -0.258 -1.615 4.123
 -0.233 -1.615 4.123
 -0.208 -1.615 4.125
 -0.183 -1.615 4.126
 -0.158 -1.613 4.121
 -0.133 -1.614 4.124
 -0.108 -1.613 4.122
 -0.083 -1.613 4.12
 -0.058 -1.612 4.12
 -0.034 -1.614 4.124
 -0.009 -1.613 4.122
 0.015 -1.615 4.127
 0.04 -1.616 4.127
 0.065 -1.617 4.13
 0.09 -1.616 4.126
 0.115 -1.616 4.125
 0.14 -1.614 4.12
 0.164 -1.613 4.117
 0.189 -1.61 4.108
 0.214 -1.609 4.104
 0.239 -1.61 4.106
 0.264 -1.612 4.109
 0.289 -1.613 4.108
 0.314 -1.616 4.115
 0.339 -1.617 4.116
 0.364 -1.617 4.114
 0.389 -1.619 4.115
 0.414 -1.618 4.112
 0.439 -1.619 4.112
 0.464 -1.619 4.109
 0.488 -1.617 4.1
 0.513 -1.615 4.092
 0.538 -1.615 4.09
 0.562 -1.613 4.083
 0.587 -1.613 4.078
 0.613 -1.618 4.086
 0.638 -1.618 4.084
 0.664 -1.62 4.085
 0.689 -1.621 4.084
 0.715 -1.623 4.084
 0.739 -1.621 4.075
 0.764 -1.622 4.074
 0.789 -1.622 4.069
 0.814 -1.622 4.066
 0.84 -1.625 4.066
 0.865 -1.625 4.063
 0.891 -1.626 4.061
 0.917 -1.628 4.059
 0.942 -1.628 4.056
 0.967 -1.628 4.05
 0.992 -1.629 4.046
 1.017 -1.629 4.041
 1.043 -1.63 4.037
 1.069 -1.631 4.034
 1.094 -1.632 4.029
 1.12 -1.633 4.027
 1.146 -1.634 4.022
 1.171 -1.634 4.015
 1.196 -1.634 4.008
 1.222 -1.636 4.005
 1.248 -1.636 4
 1.273 -1.637 3.995
 1.3 -1.64 3.993
 1.325 -1.639 3.985
 1.349 -1.637 3.973
 1.373 -1.637 3.963
 1.398 -1.636 3.953
 1.422 -1.635 3.943
 1.448 -1.636 3.937
 1.474 -1.638 3.932
 1.5 -1.639 3.926
 1.525 -1.639 3.917
 1.551 -1.639 3.909
 1.575 -1.638 3.897
 1.6 -1.639 3.889
 1.624 -1.637 3.876
 1.649 -1.637 3.866
 1.675 -1.639 3.86
 1.701 -1.639 3.852
 1.724 -1.637 3.836
 1.752 -1.64 3.832
 1.772 -1.635 3.81
 1.787 -1.627 3.781
 1.802 -1.618 3.748
 1.813 -1.605 3.708
 1.811 -1.583 3.646
 1.818 -1.568 3.6
 1.818 -1.547 3.542
 1.82 -1.529 3.489
 1.815 -1.506 3.424
 1.806 -1.48 3.355
 1.788 -1.447 3.268
 1.78 -1.423 3.204
 1.773 -1.401 3.143
 1.773 -1.384 3.095
 1.773 -1.368 3.047
 1.767 -1.348 2.991
 1.764 -1.33 2.94
 1.754 -1.307 2.879
 1.769 -1.304 2.86
 -2.241 -1.644 3.763
 -2.19 -1.626 3.733
 -2.158 -1.621 3.736
 -2.13 -1.62 3.744
 -2.107 -1.621 3.76
 -2.084 -1.623 3.778
 -2.058 -1.624 3.79
 -2.033 -1.624 3.803
 -2.006 -1.623 3.813
 -1.979 -1.622 3.821
 -1.954 -1.623 3.834
 -1.93 -1.624 3.849
 -1.907 -1.626 3.864
 -1.882 -1.627 3.878
 -1.856 -1.627 3.887
 -1.828 -1.625 3.893
 -1.801 -1.624 3.9
 -1.774 -1.622 3.906
 -1.747 -1.621 3.913
 -1.722 -1.622 3.925
 -1.696 -1.622 3.935
 -1.668 -1.62 3.939
 -1.642 -1.62 3.948
 -1.617 -1.62 3.957
 -1.59 -1.619 3.964
 -1.565 -1.62 3.974
 -1.541 -1.621 3.987
 -1.516 -1.622 3.995
 -1.489 -1.62 4
 -1.462 -1.619 4.005
 -1.435 -1.618 4.01
 -1.408 -1.616 4.012
 -1.381 -1.614 4.016
 -1.355 -1.613 4.02
 -1.329 -1.612 4.025
 -1.303 -1.612 4.031
 -1.277 -1.611 4.036
 -1.253 -1.613 4.047
 -1.228 -1.614 4.057
 -1.203 -1.615 4.066
 -1.176 -1.613 4.066
 -1.151 -1.613 4.072
 -1.123 -1.61 4.072
 -1.096 -1.608 4.072
 -1.071 -1.608 4.077
 -1.046 -1.608 4.083
 -1.02 -1.608 4.087
 -0.995 -1.608 4.094
 -0.969 -1.608 4.097
 -0.943 -1.606 4.098
 -0.918 -1.607 4.105
 -0.894 -1.609 4.114
 -0.868 -1.608 4.116
 -0.844 -1.61 4.125
 -0.819 -1.611 4.132
 -0.794 -1.611 4.136
 -0.767 -1.609 4.134
 -0.741 -1.607 4.131
 -0.715 -1.605 4.131
 -0.689 -1.604 4.131
 -0.664 -1.604 4.135
 -0.64 -1.608 4.148
 -0.615 -1.61 4.155
 -0.591 -1.612 4.163
 -0.565 -1.61 4.162
 -0.54 -1.611 4.166
 -0.514 -1.608 4.161
 -0.489 -1.609 4.165
 -0.464 -1.61 4.17
 -0.439 -1.611 4.177
 -0.413 -1.609 4.173
 -0.388 -1.61 4.177
 -0.362 -1.61 4.179
 -0.337 -1.607 4.173
 -0.311 -1.608 4.175
 -0.287 -1.611 4.184
 -0.261 -1.609 4.18
 -0.236 -1.608 4.178
 -0.21 -1.608 4.18
 -0.185 -1.609 4.183
 -0.16 -1.606 4.175
 -0.135 -1.607 4.179
 -0.109 -1.606 4.177
 -0.084 -1.606 4.177
 -0.059 -1.604 4.172
 -0.034 -1.607 4.178
 -0.009 -1.606 4.176
 0.016 -1.608 4.182
 0.041 -1.607 4.178
 0.066 -1.608 4.181
 0.091 -1.607 4.176
 0.116 -1.607 4.175
 0.141 -1.605 4.17
 0.166 -1.605 4.167
 0.191 -1.604 4.164
 0.216 -1.602 4.159
 0.242 -1.604 4.162
 0.267 -1.605 4.163
 0.292 -1.606 4.165
 0.318 -1.608 4.167
 0.343 -1.61 4.171
 0.368 -1.61 4.168
 0.394 -1.61 4.167
 0.419 -1.61 4.164
 0.444 -1.611 4.163
 0.469 -1.61 4.157
 0.494 -1.608 4.149
 0.518 -1.606 4.143
 0.543 -1.606 4.138
 0.568 -1.605 4.134
 0.593 -1.606 4.133
 0.62 -1.61 4.14
 0.646 -1.611 4.14
 0.672 -1.615 4.144
 0.698 -1.616 4.144
 0.723 -1.616 4.14
 0.748 -1.614 4.132
 0.774 -1.616 4.131
 0.798 -1.615 4.125
 0.824 -1.616 4.121
 0.85 -1.618 4.121
 0.876 -1.619 4.119
 0.902 -1.62 4.118
 0.927 -1.621 4.114
 0.953 -1.621 4.11
 0.978 -1.622 4.106
 1.005 -1.623 4.105
 1.03 -1.624 4.1
 1.057 -1.626 4.099
 1.083 -1.626 4.094
 1.109 -1.627 4.09
 1.134 -1.628 4.085
 1.16 -1.629 4.081
 1.185 -1.628 4.073
 1.212 -1.63 4.071
 1.238 -1.632 4.068
 1.265 -1.633 4.063
 1.29 -1.633 4.056
 1.318 -1.635 4.055
 1.342 -1.634 4.045
 1.366 -1.632 4.032
 1.391 -1.632 4.023
 1.416 -1.631 4.013
 1.441 -1.632 4.006
 1.468 -1.633 4
 1.494 -1.634 3.994
 1.52 -1.635 3.987
 1.545 -1.635 3.978
 1.57 -1.634 3.967
 1.595 -1.634 3.958
 1.622 -1.636 3.952
 1.647 -1.635 3.94
 1.673 -1.635 3.932
 1.699 -1.636 3.924
 1.723 -1.635 3.911
 1.746 -1.633 3.896
 1.771 -1.632 3.883
 1.788 -1.625 3.855
 1.803 -1.616 3.823
 1.815 -1.604 3.785
 1.823 -1.59 3.739
 1.824 -1.57 3.681
 1.832 -1.556 3.637
 1.831 -1.534 3.576
 1.835 -1.518 3.527
 1.83 -1.495 3.461
 1.812 -1.462 3.374
 1.784 -1.422 3.27
 1.775 -1.398 3.203
 1.772 -1.378 3.148
 1.773 -1.363 3.102
 1.775 -1.348 3.057
 1.77 -1.329 3.004
 1.766 -1.311 2.951
 1.777 -1.304 2.925
 1.755 -1.273 2.845
 -2.254 -1.628 3.796
 -2.201 -1.608 3.762
 -2.193 -1.621 3.806
 -2.164 -1.619 3.813
 -2.138 -1.619 3.826
 -2.113 -1.62 3.841
 -2.088 -1.621 3.855
 -2.064 -1.622 3.87
 -2.037 -1.622 3.88
 -2.008 -1.62 3.886
 -1.981 -1.619 3.897
 -1.957 -1.621 3.913
 -1.932 -1.622 3.925
 -1.906 -1.622 3.936
 -1.881 -1.623 3.95
 -1.852 -1.621 3.954
 -1.824 -1.619 3.961
 -1.796 -1.617 3.967
 -1.769 -1.617 3.975
 -1.743 -1.616 3.984
 -1.719 -1.618 3.998
 -1.691 -1.616 4.002
 -1.666 -1.617 4.014
 -1.642 -1.619 4.028
 -1.615 -1.619 4.036
 -1.589 -1.619 4.045
 -1.565 -1.621 4.059
 -1.538 -1.619 4.063
 -1.51 -1.618 4.067
 -1.483 -1.617 4.073
 -1.456 -1.615 4.076
 -1.427 -1.612 4.076
 -1.402 -1.612 4.085
 -1.373 -1.61 4.085
 -1.346 -1.607 4.087
 -1.32 -1.608 4.095
 -1.295 -1.608 4.102
 -1.269 -1.608 4.11
 -1.245 -1.611 4.122
 -1.22 -1.612 4.133
 -1.193 -1.61 4.134
 -1.165 -1.608 4.134
 -1.138 -1.606 4.135
 -1.111 -1.604 4.135
 -1.085 -1.603 4.139
 -1.059 -1.603 4.144
 -1.034 -1.604 4.152
 -1.008 -1.604 4.156
 -0.981 -1.602 4.156
 -0.955 -1.601 4.158
 -0.93 -1.602 4.166
 -0.905 -1.603 4.173
 -0.879 -1.602 4.176
 -0.854 -1.604 4.185
 -0.828 -1.604 4.189
 -0.802 -1.604 4.191
 -0.776 -1.601 4.189
 -0.749 -1.6 4.188
 -0.723 -1.597 4.186
 -0.697 -1.597 4.189
 -0.671 -1.596 4.189
 -0.647 -1.599 4.2
 -0.621 -1.6 4.205
 -0.597 -1.603 4.216
 -0.571 -1.602 4.215
 -0.545 -1.602 4.218
 -0.519 -1.599 4.214
 -0.493 -1.6 4.216
 -0.468 -1.599 4.217
 -0.442 -1.6 4.221
 -0.416 -1.598 4.219
 -0.391 -1.6 4.225
 -0.366 -1.6 4.227
 -0.34 -1.598 4.223
 -0.314 -1.597 4.222
 -0.289 -1.6 4.23
 -0.263 -1.597 4.225
 -0.238 -1.597 4.224
 -0.212 -1.597 4.226
 -0.187 -1.599 4.231
 -0.161 -1.596 4.225
 -0.136 -1.596 4.225
 -0.11 -1.594 4.221
 -0.085 -1.594 4.221
 -0.059 -1.592 4.214
 -0.034 -1.594 4.221
 -0.009 -1.594 4.22
 0.016 -1.597 4.227
 0.041 -1.596 4.223
 0.067 -1.596 4.224
 0.092 -1.594 4.218
 0.117 -1.595 4.221
 0.143 -1.594 4.216
 0.168 -1.594 4.215
 0.193 -1.594 4.214
 0.219 -1.593 4.21
 0.244 -1.594 4.211
 0.269 -1.594 4.209
 0.295 -1.594 4.207
 0.32 -1.595 4.208
 0.346 -1.596 4.21
 0.371 -1.596 4.207
 0.397 -1.597 4.207
 0.422 -1.598 4.207
 0.448 -1.599 4.206
 0.473 -1.598 4.202
 0.498 -1.597 4.195
 0.523 -1.596 4.191
 0.548 -1.595 4.186
 0.574 -1.595 4.182
 0.599 -1.596 4.18
 0.626 -1.599 4.186
 0.652 -1.6 4.185
 0.678 -1.603 4.188
 0.704 -1.605 4.189
 0.73 -1.606 4.188
 0.755 -1.604 4.178
 0.781 -1.605 4.178
 0.806 -1.605 4.173
 0.832 -1.605 4.169
 0.858 -1.607 4.169
 0.884 -1.609 4.168
 0.911 -1.611 4.169
 0.937 -1.611 4.165
 0.963 -1.612 4.16
 0.989 -1.612 4.156
 1.016 -1.615 4.157
 1.041 -1.614 4.149
 1.068 -1.616 4.149
 1.094 -1.618 4.146
 1.12 -1.617 4.14
 1.145 -1.618 4.133
 1.173 -1.62 4.133
 1.198 -1.62 4.126
 1.225 -1.622 4.124
 1.253 -1.625 4.125
 1.28 -1.626 4.12
 1.305 -1.625 4.111
 1.333 -1.628 4.11
 1.358 -1.628 4.103
 1.382 -1.626 4.09
 1.409 -1.627 4.085
 1.435 -1.627 4.076
 1.46 -1.627 4.066
 1.486 -1.627 4.058
 1.512 -1.628 4.052
 1.539 -1.628 4.044
 1.565 -1.629 4.037
 1.591 -1.63 4.03
 1.617 -1.63 4.02
 1.644 -1.631 4.013
 1.668 -1.629 3.999
 1.694 -1.63 3.991
 1.72 -1.63 3.981
 1.744 -1.629 3.968
 1.768 -1.627 3.953
 1.791 -1.625 3.937
 1.807 -1.616 3.904
 1.818 -1.604 3.864
 1.827 -1.589 3.819
 1.832 -1.572 3.766
 1.833 -1.552 3.706
 1.839 -1.537 3.659
 1.839 -1.517 3.602
 1.845 -1.503 3.556
 1.84 -1.479 3.488
 1.816 -1.442 3.39
 1.772 -1.39 3.255
 1.763 -1.366 3.19
 1.765 -1.351 3.143
 1.769 -1.339 3.103
 1.775 -1.327 3.065
 1.771 -1.309 3.013
 1.767 -1.291 2.961
 1.765 -1.275 2.912
 1.762 -1.258 2.864
 -2.306 -1.638 3.892
 -2.258 -1.623 3.869
 -2.227 -1.62 3.876
 -2.196 -1.617 3.881
 -2.17 -1.617 3.895
 -2.146 -1.619 3.91
 -2.119 -1.619 3.922
 -2.094 -1.62 3.937
 -2.067 -1.62 3.949
 -2.037 -1.617 3.953
 -2.009 -1.616 3.962
 -1.984 -1.617 3.975
 -1.957 -1.617 3.987
 -1.929 -1.616 3.995
 -1.905 -1.617 4.01
 -1.878 -1.616 4.018
 -1.852 -1.617 4.03
 -1.825 -1.617 4.04
 -1.797 -1.615 4.046
 -1.77 -1.615 4.056
 -1.744 -1.615 4.066
 -1.714 -1.612 4.067
 -1.687 -1.611 4.074
 -1.664 -1.615 4.093
 -1.637 -1.614 4.101
 -1.611 -1.614 4.109
 -1.585 -1.615 4.12
 -1.558 -1.614 4.126
 -1.53 -1.612 4.13
 -1.502 -1.611 4.134
 -1.475 -1.61 4.139
 -1.446 -1.607 4.141
 -1.42 -1.607 4.148
 -1.391 -1.604 4.147
 -1.364 -1.603 4.151
 -1.338 -1.604 4.161
 -1.312 -1.603 4.166
 -1.286 -1.603 4.173
 -1.261 -1.605 4.184
 -1.234 -1.605 4.19
 -1.207 -1.603 4.192
 -1.18 -1.602 4.196
 -1.153 -1.601 4.197
 -1.124 -1.597 4.194
 -1.098 -1.597 4.199
 -1.072 -1.597 4.205
 -1.046 -1.597 4.209
 -1.02 -1.597 4.214
 -0.994 -1.596 4.218
 -0.967 -1.595 4.219
 -0.94 -1.594 4.223
 -0.915 -1.596 4.23
 -0.888 -1.594 4.23
 -0.863 -1.595 4.236
 -0.836 -1.594 4.238
 -0.81 -1.593 4.24
 -0.783 -1.59 4.237
 -0.756 -1.589 4.238
 -0.73 -1.588 4.237
 -0.704 -1.588 4.241
 -0.677 -1.586 4.239
 -0.652 -1.587 4.245
 -0.626 -1.587 4.246
 -0.601 -1.588 4.253
 -0.575 -1.587 4.252
 -0.549 -1.588 4.258
 -0.523 -1.587 4.258
 -0.498 -1.588 4.262
 -0.472 -1.588 4.263
 -0.446 -1.588 4.266
 -0.42 -1.585 4.261
 -0.394 -1.585 4.263
 -0.368 -1.585 4.265
 -0.342 -1.583 4.259
 -0.316 -1.582 4.257
 -0.291 -1.583 4.263
 -0.265 -1.581 4.258
 -0.239 -1.58 4.255
 -0.213 -1.58 4.256
 -0.188 -1.581 4.261
 -0.162 -1.579 4.257
 -0.136 -1.58 4.259
 -0.111 -1.578 4.255
 -0.085 -1.579 4.256
 -0.059 -1.577 4.25
 -0.034 -1.579 4.255
 -0.008 -1.577 4.251
 0.016 -1.579 4.256
 0.042 -1.577 4.251
 0.067 -1.579 4.254
 0.093 -1.577 4.249
 0.118 -1.578 4.251
 0.144 -1.578 4.248
 0.169 -1.578 4.247
 0.195 -1.576 4.243
 0.22 -1.576 4.239
 0.246 -1.577 4.241
 0.271 -1.576 4.238
 0.296 -1.576 4.236
 0.322 -1.578 4.24
 0.348 -1.58 4.242
 0.373 -1.579 4.238
 0.399 -1.58 4.237
 0.425 -1.581 4.238
 0.451 -1.582 4.237
 0.476 -1.581 4.232
 0.501 -1.581 4.23
 0.527 -1.581 4.228
 0.552 -1.58 4.221
 0.577 -1.58 4.217
 0.603 -1.581 4.217
 0.63 -1.583 4.219
 0.656 -1.584 4.219
 0.682 -1.587 4.223
 0.709 -1.588 4.222
 0.734 -1.589 4.22
 0.76 -1.588 4.212
 0.786 -1.589 4.211
 0.811 -1.589 4.207
 0.837 -1.59 4.204
 0.864 -1.591 4.203
 0.89 -1.593 4.204
 0.917 -1.595 4.204
 0.943 -1.596 4.2
 0.969 -1.596 4.196
 0.996 -1.598 4.194
 1.023 -1.6 4.193
 1.048 -1.6 4.188
 1.076 -1.602 4.189
 1.103 -1.605 4.189
 1.129 -1.605 4.184
 1.156 -1.606 4.18
 1.183 -1.609 4.179
 1.209 -1.609 4.173
 1.237 -1.611 4.172
 1.265 -1.613 4.17
 1.291 -1.614 4.164
 1.317 -1.614 4.156
 1.344 -1.616 4.154
 1.371 -1.616 4.149
 1.397 -1.616 4.14
 1.424 -1.619 4.138
 1.45 -1.618 4.129
 1.477 -1.62 4.124
 1.503 -1.619 4.114
 1.53 -1.621 4.108
 1.557 -1.621 4.101
 1.583 -1.622 4.094
 1.61 -1.622 4.086
 1.637 -1.623 4.078
 1.664 -1.624 4.071
 1.688 -1.623 4.058
 1.715 -1.624 4.05
 1.74 -1.622 4.036
 1.763 -1.62 4.019
 1.783 -1.615 3.996
 1.805 -1.611 3.976
 1.818 -1.6 3.939
 1.829 -1.588 3.897
 1.835 -1.571 3.845
 1.842 -1.556 3.796
 1.845 -1.537 3.74
 1.852 -1.523 3.694
 1.855 -1.505 3.64
 1.864 -1.493 3.599
 1.866 -1.477 3.548
 1.83 -1.43 3.424
 1.738 -1.342 3.201
 1.739 -1.326 3.153
 1.755 -1.322 3.134
 1.765 -1.314 3.104
 1.773 -1.304 3.07
 1.773 -1.289 3.023
 1.769 -1.272 2.971
 1.763 -1.253 2.916
 1.741 -1.224 2.838
 -2.338 -1.634 3.957
 -2.313 -1.636 3.975
 -2.258 -1.616 3.939
 -2.226 -1.612 3.943
 -2.201 -1.613 3.959
 -2.176 -1.615 3.976
 -2.15 -1.616 3.99
 -2.124 -1.616 4.004
 -2.099 -1.618 4.019
 -2.067 -1.614 4.022
 -2.04 -1.614 4.033
 -2.014 -1.614 4.045
 -1.987 -1.615 4.058
 -1.958 -1.612 4.063
 -1.934 -1.615 4.081
 -1.905 -1.613 4.087
 -1.878 -1.613 4.097
 -1.852 -1.614 4.11
 -1.825 -1.614 4.119
 -1.798 -1.614 4.13
 -1.77 -1.613 4.137
 -1.741 -1.611 4.141
 -1.711 -1.608 4.143
 -1.687 -1.61 4.158
 -1.658 -1.608 4.161
 -1.632 -1.609 4.173
 -1.605 -1.609 4.182
 -1.577 -1.607 4.186
 -1.549 -1.607 4.193
 -1.522 -1.606 4.2
 -1.493 -1.604 4.201
 -1.464 -1.601 4.202
 -1.438 -1.601 4.209
 -1.408 -1.597 4.207
 -1.38 -1.595 4.21
 -1.354 -1.597 4.22
 -1.328 -1.597 4.227
 -1.301 -1.596 4.233
 -1.275 -1.598 4.243
 -1.248 -1.596 4.246
 -1.22 -1.594 4.247
 -1.193 -1.593 4.25
 -1.164 -1.59 4.248
 -1.135 -1.587 4.244
 -1.108 -1.585 4.247
 -1.082 -1.585 4.251
 -1.055 -1.584 4.254
 -1.029 -1.586 4.263
 -1.002 -1.584 4.263
 -0.975 -1.583 4.266
 -0.948 -1.581 4.266
 -0.922 -1.582 4.271
 -0.895 -1.579 4.27
 -0.869 -1.581 4.278
 -0.843 -1.58 4.28
 -0.816 -1.579 4.282
 -0.788 -1.576 4.276
 -0.762 -1.575 4.277
 -0.734 -1.572 4.272
 -0.708 -1.571 4.272
 -0.681 -1.568 4.269
 -0.656 -1.57 4.277
 -0.629 -1.569 4.277
 -0.604 -1.571 4.286
 -0.578 -1.57 4.285
 -0.552 -1.571 4.29
 -0.526 -1.57 4.289
 -0.5 -1.57 4.291
 -0.473 -1.568 4.288
 -0.448 -1.568 4.291
 -0.421 -1.567 4.289
 -0.395 -1.566 4.29
 -0.369 -1.566 4.289
 -0.343 -1.564 4.287
 -0.317 -1.562 4.283
 -0.291 -1.562 4.284
 -0.265 -1.561 4.281
 -0.239 -1.56 4.28
 -0.214 -1.559 4.278
 -0.188 -1.56 4.282
 -0.162 -1.56 4.281
 -0.137 -1.56 4.282
 -0.111 -1.559 4.281
 -0.085 -1.561 4.285
 -0.06 -1.559 4.28
 -0.034 -1.56 4.282
 -0.008 -1.558 4.277
 0.016 -1.558 4.277
 0.042 -1.556 4.269
 0.068 -1.557 4.271
 0.093 -1.556 4.268
 0.119 -1.556 4.269
 0.144 -1.556 4.267
 0.17 -1.557 4.269
 0.195 -1.556 4.264
 0.221 -1.556 4.262
 0.247 -1.557 4.264
 0.272 -1.556 4.262
 0.298 -1.556 4.26
 0.323 -1.557 4.259
 0.349 -1.559 4.262
 0.375 -1.558 4.258
 0.4 -1.558 4.255
 0.426 -1.56 4.258
 0.452 -1.561 4.259
 0.478 -1.561 4.256
 0.504 -1.561 4.254
 0.529 -1.562 4.254
 0.555 -1.561 4.247
 0.58 -1.56 4.241
 0.605 -1.56 4.238
 0.632 -1.562 4.239
 0.658 -1.563 4.238
 0.684 -1.564 4.239
 0.711 -1.567 4.243
 0.737 -1.568 4.242
 0.762 -1.567 4.235
 0.789 -1.57 4.236
 0.815 -1.571 4.235
 0.841 -1.57 4.229
 0.867 -1.572 4.228
 0.894 -1.573 4.227
 0.921 -1.575 4.228
 0.947 -1.576 4.225
 0.974 -1.578 4.225
 1.001 -1.58 4.224
 1.029 -1.583 4.227
 1.055 -1.583 4.222
 1.082 -1.586 4.222
 1.109 -1.587 4.218
 1.135 -1.587 4.213
 1.162 -1.589 4.211
 1.189 -1.59 4.209
 1.216 -1.592 4.205
 1.245 -1.595 4.208
 1.273 -1.598 4.208
 1.299 -1.598 4.2
 1.325 -1.598 4.192
 1.352 -1.599 4.187
 1.379 -1.6 4.182
 1.405 -1.599 4.173
 1.434 -1.602 4.173
 1.462 -1.605 4.17
 1.49 -1.607 4.167
 1.516 -1.607 4.159
 1.543 -1.608 4.153
 1.57 -1.608 4.145
 1.598 -1.61 4.139
 1.625 -1.611 4.133
 1.652 -1.612 4.125
 1.68 -1.614 4.12
 1.706 -1.613 4.108
 1.732 -1.613 4.099
 1.755 -1.61 4.08
 1.778 -1.607 4.062
 1.796 -1.6 4.034
 1.814 -1.593 4.006
 1.826 -1.581 3.964
 1.838 -1.569 3.924
 1.843 -1.552 3.87
 1.851 -1.538 3.824
 1.858 -1.523 3.775
 1.869 -1.512 3.737
 1.878 -1.499 3.694
 1.897 -1.496 3.674
 0 0 0
 0 0 0
 1.712 -1.3 3.161
 1.734 -1.301 3.151
 1.754 -1.3 3.139
 1.764 -1.292 3.11
 1.773 -1.283 3.077
 1.776 -1.271 3.036
 1.773 -1.254 2.986
 1.739 -1.216 2.884
 1.758 -1.215 2.872
 -2.372 -1.63 4.025
 -2.315 -1.61 3.988
 -2.289 -1.611 4.003
 -2.257 -1.608 4.009
 -2.231 -1.608 4.023
 -2.207 -1.61 4.042
 -2.181 -1.612 4.057
 -2.154 -1.612 4.07
 -2.129 -1.614 4.087
 -2.097 -1.61 4.091
 -2.069 -1.61 4.101
 -2.042 -1.61 4.113
 -2.014 -1.609 4.122
 -1.985 -1.608 4.129
 -1.96 -1.61 4.147
 -1.931 -1.609 4.154
 -1.905 -1.609 4.166
 -1.88 -1.611 4.181
 -1.851 -1.61 4.189
 -1.823 -1.609 4.196
 -1.794 -1.607 4.202
 -1.764 -1.605 4.205
 -1.733 -1.602 4.206
 -1.708 -1.603 4.219
 -1.679 -1.601 4.224
 -1.652 -1.602 4.233
 -1.624 -1.601 4.241
 -1.596 -1.6 4.247
 -1.568 -1.599 4.253
 -1.54 -1.598 4.257
 -1.511 -1.595 4.259
 -1.481 -1.593 4.26
 -1.454 -1.592 4.266
 -1.424 -1.589 4.264
 -1.395 -1.587 4.267
 -1.369 -1.588 4.276
 -1.341 -1.587 4.28
 -1.313 -1.585 4.281
 -1.286 -1.584 4.286
 -1.257 -1.581 4.285
 -1.228 -1.578 4.284
 -1.2 -1.577 4.286
 -1.172 -1.575 4.286
 -1.144 -1.572 4.284
 -1.116 -1.571 4.287
 -1.089 -1.57 4.291
 -1.063 -1.57 4.295
 -1.037 -1.571 4.302
 -1.008 -1.567 4.299
 -0.981 -1.566 4.3
 -0.953 -1.564 4.298
 -0.926 -1.562 4.297
 -0.898 -1.559 4.294
 -0.872 -1.56 4.301
 -0.846 -1.56 4.306
 -0.82 -1.56 4.31
 -0.792 -1.557 4.305
 -0.765 -1.557 4.307
 -0.738 -1.554 4.303
 -0.711 -1.551 4.298
 -0.683 -1.548 4.294
 -0.658 -1.55 4.301
 -0.631 -1.548 4.3
 -0.606 -1.55 4.307
 -0.58 -1.55 4.309
 -0.553 -1.549 4.309
 -0.527 -1.548 4.308
 -0.501 -1.547 4.307
 -0.474 -1.545 4.304
 -0.448 -1.544 4.304
 -0.422 -1.543 4.302
 -0.395 -1.541 4.298
 -0.369 -1.54 4.298
 -0.343 -1.538 4.295
 -0.317 -1.538 4.294
 -0.291 -1.537 4.294
 -0.266 -1.537 4.294
 -0.24 -1.536 4.293
 -0.214 -1.535 4.289
 -0.188 -1.533 4.287
 -0.162 -1.534 4.288
 -0.137 -1.534 4.289
 -0.111 -1.533 4.287
 -0.085 -1.535 4.294
 -0.059 -1.535 4.291
 -0.034 -1.535 4.293
 -0.008 -1.533 4.288
 0.017 -1.533 4.287
 0.042 -1.531 4.279
 0.068 -1.531 4.28
 0.093 -1.53 4.275
 0.119 -1.53 4.275
 0.144 -1.53 4.275
 0.17 -1.53 4.273
 0.196 -1.531 4.274
 0.221 -1.531 4.272
 0.247 -1.531 4.273
 0.272 -1.53 4.268
 0.298 -1.531 4.268
 0.323 -1.531 4.266
 0.349 -1.533 4.27
 0.375 -1.533 4.269
 0.401 -1.533 4.266
 0.427 -1.535 4.269
 0.452 -1.535 4.267
 0.478 -1.535 4.264
 0.504 -1.536 4.264
 0.53 -1.538 4.266
 0.555 -1.537 4.26
 0.581 -1.537 4.256
 0.606 -1.536 4.251
 0.632 -1.537 4.25
 0.658 -1.538 4.25
 0.685 -1.54 4.25
 0.711 -1.542 4.252
 0.738 -1.543 4.252
 0.763 -1.543 4.248
 0.79 -1.544 4.247
 0.816 -1.546 4.246
 0.842 -1.546 4.242
 0.868 -1.548 4.241
 0.896 -1.55 4.243
 0.923 -1.553 4.245
 0.949 -1.554 4.243
 0.977 -1.556 4.243
 1.003 -1.558 4.242
 1.031 -1.56 4.243
 1.057 -1.56 4.239
 1.085 -1.563 4.24
 1.112 -1.564 4.237
 1.138 -1.565 4.234
 1.165 -1.567 4.231
 1.193 -1.569 4.23
 1.22 -1.57 4.227
 1.25 -1.575 4.232
 1.278 -1.578 4.233
 1.305 -1.578 4.226
 1.331 -1.579 4.22
 1.359 -1.581 4.218
 1.387 -1.582 4.213
 1.413 -1.582 4.207
 1.443 -1.586 4.208
 1.471 -1.588 4.206
 1.499 -1.59 4.201
 1.526 -1.59 4.194
 1.553 -1.592 4.188
 1.58 -1.592 4.181
 1.608 -1.594 4.175
 1.635 -1.595 4.168
 1.663 -1.595 4.161
 1.692 -1.598 4.158
 1.719 -1.598 4.148
 1.745 -1.598 4.137
 1.766 -1.593 4.115
 1.788 -1.589 4.094
 1.807 -1.583 4.066
 1.821 -1.572 4.029
 1.832 -1.559 3.985
 1.845 -1.549 3.948
 1.851 -1.533 3.895
 1.857 -1.518 3.845
 1.866 -1.505 3.801
 1.875 -1.492 3.757
 1.881 -1.477 3.709
 0 0 0
 0 0 0
 0 0 0
 1.705 -1.273 3.155
 1.733 -1.279 3.158
 1.755 -1.279 3.148
 1.768 -1.274 3.123
 1.778 -1.266 3.094
 1.785 -1.256 3.058
 1.783 -1.24 3.009
 1.761 -1.211 2.928
 1.758 -1.195 2.879
 -2.386 -1.612 4.058
 -2.353 -1.609 4.064
 -1.851 -1.28 3.242
 -1.824 -1.277 3.245
 -1.894 -1.342 3.421
 -1.963 -1.409 3.604
 -1.94 -1.41 3.617
 -2.004 -1.475 3.795
 -2.069 -1.542 3.981
 -1.954 -1.475 3.818
 -1.927 -1.474 3.827
 -1.985 -1.539 4.007
 -1.957 -1.538 4.015
 -1.928 -1.536 4.021
 -1.984 -1.602 4.207
 -1.956 -1.601 4.216
 -1.928 -1.601 4.227
 -1.903 -1.603 4.242
 -1.874 -1.603 4.251
 -1.844 -1.6 4.255
 -1.815 -1.599 4.261
 -1.785 -1.597 4.265
 -1.754 -1.594 4.266
 -1.727 -1.594 4.276
 -1.698 -1.592 4.281
 -1.67 -1.592 4.288
 -1.641 -1.59 4.293
 -1.611 -1.587 4.295
 -1.582 -1.586 4.301
 -1.552 -1.584 4.301
 -1.523 -1.581 4.303
 -1.493 -1.579 4.304
 -1.464 -1.577 4.307
 -1.434 -1.573 4.303
 -1.405 -1.572 4.307
 -1.379 -1.572 4.314
 -1.349 -1.569 4.313
 -1.32 -1.566 4.314
 -1.292 -1.565 4.318
 -1.263 -1.563 4.316
 -1.233 -1.558 4.31
 -1.205 -1.556 4.312
 -1.177 -1.555 4.314
 -1.148 -1.552 4.31
 -1.12 -1.55 4.31
 -1.093 -1.55 4.315
 -1.066 -1.548 4.317
 -1.038 -1.547 4.318
 -1.011 -1.545 4.319
 -0.984 -1.544 4.321
 -0.955 -1.541 4.317
 -0.928 -1.54 4.317
 -0.9 -1.536 4.312
 -0.873 -1.536 4.315
 -0.846 -1.535 4.317
 -0.82 -1.534 4.318
 -0.792 -1.532 4.317
 -0.766 -1.532 4.319
 -0.738 -1.529 4.314
 -0.711 -1.527 4.311
 -0.684 -1.525 4.31
 -0.658 -1.526 4.314
 -0.632 -1.524 4.312
 -0.606 -1.525 4.318
 -0.58 -1.525 4.319
 -0.553 -1.522 4.316
 -0.527 -1.522 4.316
 -0.501 -1.521 4.316
 -0.474 -1.519 4.314
 -0.448 -1.518 4.311
 -0.422 -1.518 4.313
 -0.395 -1.516 4.309
 -0.369 -1.515 4.308
 -0.343 -1.514 4.306
 -0.317 -1.513 4.305
 -0.291 -1.511 4.302
 -0.265 -1.511 4.301
 -0.24 -1.511 4.302
 -0.214 -1.509 4.298
 -0.188 -1.508 4.296
 -0.162 -1.508 4.297
 -0.136 -1.508 4.296
 -0.111 -1.507 4.292
 -0.085 -1.508 4.296
 -0.059 -1.508 4.296
 -0.034 -1.509 4.299
 -0.008 -1.508 4.296
 0.017 -1.507 4.293
 0.042 -1.505 4.288
 0.068 -1.505 4.286
 0.093 -1.504 4.282
 0.119 -1.503 4.28
 0.144 -1.504 4.28
 0.17 -1.504 4.279
 0.196 -1.504 4.279
 0.221 -1.505 4.279
 0.247 -1.505 4.277
 0.272 -1.505 4.276
 0.298 -1.505 4.275
 0.324 -1.505 4.274
 0.349 -1.506 4.273
 0.375 -1.507 4.275
 0.401 -1.507 4.273
 0.427 -1.509 4.275
 0.452 -1.509 4.273
 0.478 -1.509 4.27
 0.504 -1.511 4.272
 0.53 -1.512 4.273
 0.556 -1.511 4.267
 0.581 -1.511 4.264
 0.607 -1.511 4.261
 0.632 -1.511 4.258
 0.658 -1.512 4.257
 0.685 -1.514 4.258
 0.711 -1.515 4.256
 0.737 -1.517 4.258
 0.763 -1.517 4.255
 0.79 -1.519 4.256
 0.816 -1.52 4.254
 0.843 -1.521 4.253
 0.869 -1.523 4.252
 0.896 -1.524 4.252
 0.923 -1.526 4.251
 0.95 -1.529 4.253
 0.978 -1.531 4.256
 1.004 -1.533 4.254
 1.032 -1.535 4.255
 1.058 -1.535 4.249
 1.085 -1.537 4.248
 1.112 -1.538 4.246
 1.139 -1.539 4.243
 1.167 -1.542 4.242
 1.195 -1.545 4.244
 1.222 -1.546 4.242
 1.251 -1.55 4.244
 1.28 -1.553 4.246
 1.307 -1.554 4.24
 1.334 -1.555 4.236
 1.362 -1.557 4.234
 1.389 -1.558 4.229
 1.417 -1.56 4.225
 1.446 -1.563 4.225
 1.475 -1.565 4.223
 1.503 -1.567 4.22
 1.53 -1.568 4.214
 1.558 -1.57 4.21
 1.586 -1.571 4.203
 1.615 -1.573 4.2
 1.643 -1.574 4.195
 1.671 -1.576 4.189
 1.699 -1.578 4.185
 1.728 -1.58 4.179
 1.753 -1.579 4.166
 1.774 -1.574 4.142
 1.797 -1.57 4.123
 1.815 -1.563 4.093
 1.828 -1.552 4.054
 1.84 -1.54 4.012
 1.854 -1.531 3.975
 1.86 -1.515 3.924
 1.868 -1.501 3.876
 1.877 -1.488 3.831
 1.885 -1.475 3.786
 0 0 0
 0 0 0
 0 0 0
 0 0 0
 1.285 -0.944 2.381
 1.542 -1.119 2.814
 1.632 -1.17 2.933
 1.767 -1.252 3.129
 1.782 -1.247 3.108
 1.796 -1.242 3.085
 1.8 -1.231 3.046
 1.82 -1.23 3.032
 1.786 -1.195 2.933
 -2.384 -1.583 4.066
 -2.381 -1.6 4.122
 -1.504 -1.023 2.638
 -1.48 -1.019 2.637
 -1.464 -1.02 2.648
 -1.539 -1.086 2.828
 -1.52 -1.086 2.837
 -1.585 -1.147 3.006
 -1.657 -1.214 3.192
 -1.548 -1.149 3.029
 -1.61 -1.211 3.203
 -1.672 -1.274 3.38
 -1.648 -1.273 3.387
 -1.706 -1.335 3.564
 -1.844 -1.463 3.917
 -1.817 -1.463 3.926
 -1.87 -1.527 4.109
 -1.922 -1.592 4.296
 -1.893 -1.591 4.302
 -1.862 -1.588 4.306
 -1.832 -1.586 4.31
 -1.801 -1.584 4.314
 -1.769 -1.58 4.313
 -1.74 -1.578 4.318
 -1.709 -1.576 4.32
 -1.679 -1.574 4.323
 -1.649 -1.571 4.324
 -1.619 -1.569 4.328
 -1.59 -1.567 4.332
 -1.56 -1.564 4.331
 -1.531 -1.562 4.334
 -1.5 -1.559 4.334
 -1.47 -1.556 4.333
 -1.439 -1.552 4.329
 -1.411 -1.551 4.333
 -1.384 -1.551 4.339
 -1.354 -1.548 4.338
 -1.325 -1.545 4.338
 -1.296 -1.543 4.339
 -1.267 -1.541 4.338
 -1.237 -1.536 4.332
 -1.209 -1.535 4.334
 -1.18 -1.533 4.334
 -1.151 -1.53 4.331
 -1.122 -1.527 4.328
 -1.095 -1.526 4.332
 -1.067 -1.524 4.331
 -1.04 -1.523 4.333
 -1.012 -1.521 4.333
 -0.985 -1.52 4.334
 -0.956 -1.516 4.329
 -0.928 -1.514 4.326
 -0.9 -1.511 4.322
 -0.873 -1.51 4.323
 -0.847 -1.509 4.326
 -0.82 -1.508 4.327
 -0.793 -1.507 4.327
 -0.766 -1.506 4.327
 -0.738 -1.503 4.322
 -0.711 -1.5 4.318
 -0.684 -1.499 4.316
 -0.658 -1.498 4.318
 -0.631 -1.497 4.318
 -0.606 -1.499 4.325
 -0.579 -1.498 4.324
 -0.553 -1.496 4.321
 -0.526 -1.495 4.322
 -0.5 -1.494 4.32
 -0.474 -1.492 4.317
 -0.447 -1.491 4.317
 -0.422 -1.491 4.319
 -0.395 -1.489 4.312
 -0.369 -1.488 4.312
 -0.343 -1.487 4.31
 -0.317 -1.485 4.307
 -0.291 -1.483 4.303
 -0.265 -1.484 4.305
 -0.239 -1.483 4.304
 -0.213 -1.482 4.302
 -0.187 -1.481 4.298
 -0.162 -1.482 4.302
 -0.136 -1.482 4.302
 -0.11 -1.481 4.299
 -0.085 -1.482 4.302
 -0.059 -1.483 4.306
 -0.034 -1.483 4.307
 -0.008 -1.483 4.304
 0.017 -1.482 4.302
 0.042 -1.48 4.297
 0.068 -1.48 4.294
 0.093 -1.478 4.288
 0.119 -1.477 4.284
 0.145 -1.477 4.285
 0.17 -1.477 4.282
 0.196 -1.477 4.281
 0.221 -1.477 4.281
 0.247 -1.477 4.279
 0.272 -1.478 4.279
 0.298 -1.479 4.28
 0.324 -1.479 4.281
 0.349 -1.48 4.281
 0.375 -1.481 4.281
 0.401 -1.481 4.277
 0.426 -1.481 4.278
 0.452 -1.481 4.275
 0.478 -1.482 4.274
 0.504 -1.484 4.276
 0.53 -1.485 4.277
 0.556 -1.485 4.274
 0.581 -1.485 4.271
 0.607 -1.484 4.266
 0.632 -1.485 4.264
 0.658 -1.485 4.261
 0.684 -1.487 4.262
 0.71 -1.488 4.261
 0.737 -1.49 4.262
 0.763 -1.491 4.26
 0.79 -1.493 4.263
 0.816 -1.493 4.259
 0.841 -1.493 4.254
 0.868 -1.495 4.256
 0.895 -1.497 4.256
 0.922 -1.499 4.255
 0.949 -1.501 4.258
 0.978 -1.505 4.263
 1.004 -1.505 4.258
 1.031 -1.507 4.256
 1.057 -1.508 4.254
 1.084 -1.509 4.252
 1.111 -1.511 4.25
 1.138 -1.512 4.249
 1.166 -1.515 4.248
 1.194 -1.517 4.248
 1.222 -1.519 4.248
 1.25 -1.522 4.248
 1.279 -1.525 4.249
 1.306 -1.527 4.247
 1.334 -1.528 4.243
 1.362 -1.53 4.241
 1.389 -1.531 4.237
 1.417 -1.533 4.234
 1.446 -1.536 4.233
 1.475 -1.539 4.234
 1.504 -1.541 4.232
 1.533 -1.544 4.229
 1.561 -1.546 4.226
 1.589 -1.547 4.22
 1.618 -1.55 4.219
 1.647 -1.551 4.213
 1.675 -1.553 4.209
 1.704 -1.555 4.204
 1.734 -1.558 4.203
 1.759 -1.556 4.187
 1.779 -1.551 4.163
 1.801 -1.547 4.141
 1.818 -1.54 4.11
 1.83 -1.528 4.067
 1.844 -1.517 4.029
 1.86 -1.51 3.998
 1.868 -1.495 3.947
 1.876 -1.481 3.901
 1.888 -1.471 3.861
 0 0 0
 0 0 0
 0 0 0
 0 0 0
 0 0 0
 0 0 0
 1.517 -1.082 2.776
 1.623 -1.144 2.924
 1.77 -1.233 3.142
 1.788 -1.23 3.126
 1.806 -1.228 3.11
 1.816 -1.221 3.079
 1.792 -1.191 2.994
 0 0 0
 -0.042 -0.029 0.06
 -0.032 -0.022 0.043
 -1.101 -0.736 1.932
 -1.083 -0.733 1.93
 -1.029 -0.705 1.863
 -1.109 -0.769 2.04
 -1.095 -0.769 2.045
 -1.164 -0.828 2.209
 -1.239 -0.892 2.389
 -1.134 -0.827 2.221
 -1.201 -0.888 2.391
 -1.267 -0.949 2.564
 -1.248 -0.948 2.568
 -1.312 -1.009 2.744
 -1.535 -1.197 3.267
 -1.593 -1.26 3.446
 -1.726 -1.385 3.799
 -1.857 -1.511 4.159
 -1.905 -1.573 4.34
 -1.874 -1.571 4.344
 -1.844 -1.569 4.348
 -1.813 -1.567 4.352
 -1.781 -1.563 4.351
 -1.75 -1.56 4.352
 -1.718 -1.556 4.351
 -1.687 -1.554 4.353
 -1.656 -1.55 4.352
 -1.625 -1.547 4.352
 -1.595 -1.545 4.355
 -1.564 -1.541 4.352
 -1.533 -1.538 4.351
 -1.503 -1.535 4.35
 -1.472 -1.531 4.347
 -1.441 -1.528 4.345
 -1.413 -1.526 4.348
 -1.384 -1.525 4.351
 -1.355 -1.521 4.349
 -1.325 -1.519 4.348
 -1.296 -1.516 4.347
 -1.266 -1.513 4.344
 -1.237 -1.509 4.34
 -1.208 -1.508 4.341
 -1.179 -1.505 4.34
 -1.151 -1.503 4.339
 -1.122 -1.5 4.335
 -1.094 -1.498 4.337
 -1.066 -1.496 4.335
 -1.039 -1.495 4.338
 -1.01 -1.492 4.334
 -0.984 -1.492 4.338
 -0.955 -1.489 4.334
 -0.928 -1.487 4.332
 -0.9 -1.484 4.329
 -0.873 -1.483 4.33
 -0.846 -1.482 4.331
 -0.819 -1.481 4.332
 -0.792 -1.48 4.331
 -0.765 -1.477 4.328
 -0.737 -1.475 4.324
 -0.71 -1.473 4.322
 -0.683 -1.471 4.319
 -0.657 -1.471 4.321
 -0.631 -1.471 4.325
 -0.605 -1.472 4.33
 -0.579 -1.47 4.329
 -0.552 -1.469 4.326
 -0.526 -1.468 4.325
 -0.499 -1.465 4.32
 -0.473 -1.463 4.316
 -0.447 -1.463 4.317
 -0.421 -1.463 4.318
 -0.394 -1.459 4.311
 -0.368 -1.459 4.309
 -0.342 -1.458 4.308
 -0.316 -1.456 4.306
 -0.29 -1.456 4.305
 -0.265 -1.457 4.31
 -0.239 -1.456 4.309
 -0.213 -1.455 4.306
 -0.187 -1.454 4.304
 -0.161 -1.454 4.302
 -0.136 -1.452 4.298
 -0.11 -1.453 4.299
 -0.084 -1.453 4.3
 -0.059 -1.454 4.302
 -0.033 -1.454 4.302
 -0.008 -1.454 4.303
 0.017 -1.452 4.298
 0.042 -1.452 4.295
 0.068 -1.45 4.291
 0.093 -1.45 4.288
 0.119 -1.448 4.283
 0.144 -1.449 4.286
 0.17 -1.449 4.283
 0.196 -1.45 4.285
 0.221 -1.451 4.286
 0.247 -1.45 4.282
 0.272 -1.451 4.284
 0.298 -1.452 4.284
 0.323 -1.452 4.282
 0.349 -1.452 4.28
 0.375 -1.454 4.284
 0.4 -1.453 4.28
 0.426 -1.453 4.278
 0.451 -1.453 4.275
 0.477 -1.454 4.275
 0.503 -1.455 4.274
 0.529 -1.456 4.274
 0.555 -1.457 4.274
 0.58 -1.457 4.272
 0.606 -1.457 4.268
 0.632 -1.457 4.265
 0.657 -1.457 4.26
 0.683 -1.458 4.26
 0.709 -1.459 4.259
 0.736 -1.461 4.261
 0.762 -1.462 4.26
 0.789 -1.465 4.264
 0.815 -1.466 4.262
 0.841 -1.466 4.258
 0.867 -1.467 4.257
 0.894 -1.469 4.257
 0.921 -1.471 4.258
 0.948 -1.473 4.259
 0.976 -1.477 4.265
 1.003 -1.478 4.263
 1.03 -1.48 4.263
 1.057 -1.481 4.26
 1.084 -1.482 4.258
 1.11 -1.483 4.255
 1.137 -1.485 4.252
 1.165 -1.487 4.251
 1.193 -1.489 4.251
 1.22 -1.491 4.25
 1.249 -1.494 4.251
 1.277 -1.496 4.251
 1.305 -1.499 4.251
 1.332 -1.5 4.247
 1.361 -1.503 4.247
 1.388 -1.504 4.242
 1.417 -1.506 4.242
 1.445 -1.508 4.238
 1.474 -1.511 4.238
 1.502 -1.513 4.235
 1.531 -1.515 4.232
 1.56 -1.517 4.23
 1.588 -1.519 4.226
 1.618 -1.523 4.226
 1.646 -1.524 4.22
 1.676 -1.527 4.219
 1.705 -1.529 4.214
 1.734 -1.531 4.21
 1.758 -1.529 4.195
 1.781 -1.526 4.176
 1.805 -1.523 4.158
 1.825 -1.518 4.133
 1.839 -1.508 4.095
 1.853 -1.499 4.058
 1.873 -1.493 4.032
 1.882 -1.48 3.986
 1.889 -1.465 3.935
 0 0 0
 0 0 0
 0 0 0
 0 0 0
 0 0 0
 0 0 0
 0 0 0
 1.324 -0.929 2.427
 1.482 -1.027 2.676
 1.782 -1.219 3.17
 1.8 -1.217 3.153
 1.818 -1.215 3.137
 1.829 -1.208 3.109
 1.925 -1.257 3.222
 0 0 0
 -0.05 -0.034 0.073
 -2.406 -1.56 4.185
 -0.637 -0.419 1.115
 -0.625 -0.416 1.111
 -0.592 -0.399 1.069
 -0.676 -0.461 1.241
 -0.666 -0.46 1.242
 -0.738 -0.516 1.399
 -0.814 -0.576 1.57
 -0.717 -0.514 1.402
 -0.788 -0.572 1.567
 -0.941 -0.693 1.906
 -1.009 -0.753 2.079
 -1.157 -0.875 2.424
 -1.462 -1.12 3.116
 -1.6 -1.243 3.469
 -1.733 -1.366 3.823
 -1.863 -1.489 4.182
 -1.91 -1.55 4.361
 -1.88 -1.548 4.366
 -1.848 -1.545 4.369
 -1.818 -1.543 4.372
 -1.785 -1.539 4.37
 -1.753 -1.535 4.37
 -1.723 -1.533 4.372
 -1.69 -1.529 4.37
 -1.658 -1.525 4.367
 -1.628 -1.522 4.369
 -1.598 -1.52 4.369
 -1.565 -1.514 4.362
 -1.534 -1.512 4.363
 -1.504 -1.508 4.361
 -1.473 -1.505 4.359
 -1.442 -1.501 4.355
 -1.414 -1.5 4.359
 -1.384 -1.497 4.357
 -1.353 -1.493 4.354
 -1.323 -1.49 4.351
 -1.294 -1.488 4.35
 -1.265 -1.485 4.349
 -1.236 -1.482 4.346
 -1.208 -1.48 4.347
 -1.179 -1.478 4.347
 -1.15 -1.475 4.345
 -1.121 -1.472 4.341
 -1.094 -1.471 4.342
 -1.065 -1.469 4.34
 -1.038 -1.467 4.341
 -1.009 -1.464 4.337
 -0.982 -1.463 4.34
 -0.954 -1.46 4.335
 -0.926 -1.458 4.332
 -0.898 -1.456 4.331
 -0.872 -1.455 4.333
 -0.844 -1.453 4.33
 -0.818 -1.453 4.333
 -0.791 -1.451 4.333
 -0.763 -1.449 4.329
 -0.736 -1.447 4.326
 -0.71 -1.446 4.327
 -0.683 -1.444 4.324
 -0.656 -1.443 4.324
 -0.63 -1.442 4.324
 -0.604 -1.443 4.328
 -0.578 -1.442 4.328
 -0.551 -1.44 4.326
 -0.525 -1.44 4.326
 -0.498 -1.438 4.324
 -0.472 -1.436 4.321
 -0.445 -1.434 4.315
 -0.419 -1.433 4.315
 -0.393 -1.431 4.308
 -0.367 -1.429 4.306
 -0.341 -1.428 4.303
 -0.315 -1.428 4.306
 -0.289 -1.428 4.305
 -0.264 -1.429 4.309
 -0.238 -1.428 4.308
 -0.212 -1.428 4.307
 -0.187 -1.426 4.304
 -0.161 -1.426 4.303
 -0.135 -1.424 4.299
 -0.11 -1.425 4.3
 -0.084 -1.425 4.301
 -0.059 -1.425 4.301
 -0.033 -1.424 4.299
 -0.008 -1.426 4.303
 0.017 -1.425 4.301
 0.043 -1.425 4.299
 0.068 -1.423 4.291
 0.094 -1.423 4.291
 0.119 -1.42 4.281
 0.144 -1.421 4.284
 0.17 -1.421 4.282
 0.196 -1.423 4.288
 0.221 -1.423 4.288
 0.247 -1.423 4.286
 0.272 -1.423 4.285
 0.297 -1.423 4.282
 0.323 -1.423 4.28
 0.348 -1.422 4.276
 0.374 -1.424 4.279
 0.4 -1.425 4.278
 0.425 -1.424 4.275
 0.451 -1.425 4.276
 0.477 -1.427 4.278
 0.503 -1.428 4.277
 0.528 -1.428 4.275
 0.554 -1.43 4.277
 0.58 -1.429 4.273
 0.606 -1.43 4.271
 0.632 -1.431 4.272
 0.657 -1.431 4.267
 0.683 -1.432 4.268
 0.709 -1.433 4.266
 0.735 -1.434 4.265
 0.761 -1.434 4.261
 0.788 -1.437 4.265
 0.814 -1.437 4.262
 0.84 -1.438 4.259
 0.866 -1.439 4.258
 0.893 -1.441 4.259
 0.92 -1.442 4.258
 0.947 -1.444 4.259
 0.975 -1.448 4.263
 1.001 -1.449 4.261
 1.028 -1.451 4.261
 1.055 -1.452 4.26
 1.082 -1.453 4.257
 1.109 -1.455 4.255
 1.136 -1.456 4.252
 1.163 -1.458 4.252
 1.192 -1.461 4.254
 1.22 -1.464 4.255
 1.248 -1.466 4.255
 1.276 -1.468 4.255
 1.305 -1.472 4.257
 1.332 -1.473 4.252
 1.361 -1.476 4.253
 1.388 -1.476 4.248
 1.417 -1.479 4.248
 1.444 -1.481 4.244
 1.472 -1.483 4.241
 1.501 -1.485 4.239
 1.53 -1.487 4.238
 1.559 -1.49 4.236
 1.588 -1.492 4.233
 1.618 -1.495 4.233
 1.645 -1.496 4.226
 1.675 -1.499 4.226
 1.704 -1.501 4.22
 1.734 -1.504 4.218
 1.759 -1.503 4.205
 1.784 -1.502 4.192
 1.808 -1.499 4.175
 1.83 -1.496 4.154
 1.845 -1.487 4.117
 1.863 -1.479 4.087
 1.882 -1.474 4.06
 1.891 -1.461 4.014
 0 0 0
 0 0 0
 0 0 0
 0 0 0
 0 0 0
 0.064 -0.049 0.117
 0.065 -0.049 0.117
 0.066 -0.049 0.117
 1.019 -0.703 1.871
 1.427 -0.971 2.582
 1.785 -1.199 3.181
 1.808 -1.201 3.175
 1.828 -1.2 3.16
 1.848 -1.199 3.147
 0 0 0
 0 0 0
 -0.087 -0.056 0.138
 0 0 0
 -0.172 -0.112 0.292
 -0.163 -0.108 0.282
 -0.151 -0.101 0.264
 -0.239 -0.161 0.432
 -0.234 -0.159 0.428
 -0.309 -0.213 0.579
 -0.39 -0.272 0.746
 -0.296 -0.21 0.574
 -0.371 -0.266 0.734
 -0.528 -0.382 1.065
 -0.684 -0.502 1.408
 -0.835 -0.62 1.749
 -1.224 -0.921 2.613
 -1.445 -1.102 3.138
 -1.659 -1.284 3.667
 -1.79 -1.405 4.024
 -1.914 -1.525 4.379
 -1.883 -1.522 4.383
 -1.852 -1.52 4.386
 -1.82 -1.516 4.386
 -1.786 -1.512 4.383
 -1.755 -1.509 4.382
 -1.723 -1.505 4.381
 -1.69 -1.501 4.379
 -1.659 -1.498 4.377
 -1.627 -1.494 4.376
 -1.597 -1.491 4.375
 -1.564 -1.486 4.369
 -1.533 -1.483 4.368
 -1.502 -1.48 4.366
 -1.472 -1.477 4.364
 -1.441 -1.473 4.36
 -1.412 -1.472 4.363
 -1.383 -1.469 4.363
 -1.352 -1.465 4.359
 -1.323 -1.462 4.357
 -1.294 -1.46 4.356
 -1.264 -1.457 4.355
 -1.234 -1.454 4.35
 -1.206 -1.452 4.352
 -1.177 -1.449 4.348
 -1.149 -1.447 4.347
 -1.12 -1.444 4.344
 -1.091 -1.442 4.342
 -1.063 -1.439 4.338
 -1.036 -1.438 4.341
 -1.007 -1.435 4.336
 -0.98 -1.434 4.337
 -0.952 -1.431 4.335
 -0.924 -1.429 4.333
 -0.898 -1.43 4.338
 -0.871 -1.428 4.339
 -0.843 -1.426 4.335
 -0.817 -1.425 4.336
 -0.79 -1.424 4.337
 -0.762 -1.42 4.328
 -0.735 -1.418 4.326
 -0.709 -1.418 4.329
 -0.682 -1.417 4.328
 -0.655 -1.415 4.326
 -0.629 -1.414 4.325
 -0.603 -1.415 4.332
 -0.577 -1.414 4.33
 -0.551 -1.413 4.33
 -0.524 -1.413 4.331
 -0.498 -1.411 4.329
 -0.472 -1.41 4.326
 -0.445 -1.407 4.32
 -0.419 -1.407 4.32
 -0.393 -1.405 4.316
 -0.367 -1.403 4.311
 -0.34 -1.401 4.306
 -0.315 -1.401 4.307
 -0.289 -1.4 4.306
 -0.263 -1.399 4.305
 -0.237 -1.399 4.303
 -0.212 -1.399 4.305
 -0.186 -1.399 4.305
 -0.161 -1.398 4.303
 -0.135 -1.397 4.3
 -0.109 -1.398 4.303
 -0.084 -1.397 4.301
 -0.058 -1.398 4.302
 -0.033 -1.397 4.301
 -0.007 -1.399 4.306
 0.017 -1.398 4.304
 0.043 -1.399 4.304
 0.068 -1.396 4.296
 0.094 -1.397 4.297
 0.119 -1.394 4.287
 0.144 -1.395 4.288
 0.17 -1.395 4.289
 0.196 -1.397 4.294
 0.221 -1.398 4.295
 0.247 -1.397 4.291
 0.272 -1.398 4.292
 0.297 -1.397 4.286
 0.323 -1.397 4.284
 0.348 -1.395 4.278
 0.374 -1.397 4.282
 0.4 -1.398 4.282
 0.425 -1.398 4.278
 0.451 -1.399 4.281
 0.477 -1.401 4.284
 0.503 -1.402 4.282
 0.528 -1.401 4.277
 0.554 -1.403 4.281
 0.579 -1.402 4.276
 0.605 -1.403 4.276
 0.632 -1.406 4.279
 0.657 -1.405 4.275
 0.684 -1.407 4.276
 0.71 -1.408 4.275
 0.735 -1.408 4.272
 0.761 -1.408 4.267
 0.788 -1.411 4.271
 0.814 -1.411 4.269
 0.84 -1.412 4.265
 0.866 -1.413 4.264
 0.893 -1.414 4.263
 0.919 -1.415 4.261
 0.946 -1.417 4.261
 0.974 -1.42 4.266
 1 -1.421 4.264
 1.027 -1.423 4.264
 1.055 -1.425 4.265
 1.081 -1.426 4.26
 1.108 -1.427 4.258
 1.135 -1.429 4.256
 1.162 -1.431 4.256
 1.19 -1.433 4.257
 1.22 -1.437 4.262
 1.247 -1.439 4.26
 1.274 -1.44 4.257
 1.303 -1.443 4.259
 1.33 -1.444 4.255
 1.358 -1.446 4.252
 1.385 -1.447 4.248
 1.415 -1.451 4.25
 1.442 -1.452 4.246
 1.47 -1.454 4.243
 1.5 -1.457 4.242
 1.529 -1.459 4.242
 1.558 -1.462 4.242
 1.587 -1.464 4.238
 1.617 -1.468 4.24
 1.645 -1.469 4.234
 1.675 -1.472 4.233
 1.703 -1.473 4.227
 1.733 -1.476 4.224
 1.758 -1.475 4.21
 1.784 -1.475 4.2
 1.81 -1.473 4.186
 1.832 -1.471 4.167
 1.851 -1.464 4.139
 1.875 -1.462 4.121
 1.895 -1.458 4.097
 0 0 0
 0 0 0
 0 0 0
 0 0 0
 0 0 0
 0 0 0
 0.061 -0.046 0.112
 0.062 -0.046 0.111
 0.066 -0.049 0.117
 0.898 -0.609 1.651
 1.395 -0.933 2.53
 1.791 -1.182 3.199
 1.816 -1.184 3.194
 1.84 -1.186 3.189
 1.722 -1.098 2.939
 0 0 0
 0 0 0
 -0.102 -0.064 0.163
 -0.105 -0.067 0.17
 -0.191 -0.122 0.326
 -0.181 -0.117 0.314
 -0.075 -0.05 0.125
 -0.07 -0.047 0.118
 -0.065 -0.045 0.11
 -0.052 -0.037 0.088
 -0.047 -0.033 0.078
 -0.042 -0.031 0.071
 -0.12 -0.085 0.229
 -0.194 -0.139 0.384
 -0.354 -0.255 0.723
 -0.59 -0.431 1.236
 -0.984 -0.727 2.102
 -1.287 -0.964 2.801
 -1.583 -1.202 3.505
 -1.792 -1.381 4.037
 -1.916 -1.498 4.392
 -1.883 -1.494 4.391
 -1.851 -1.491 4.392
 -1.818 -1.487 4.39
 -1.784 -1.483 4.387
 -1.753 -1.479 4.386
 -1.721 -1.476 4.386
 -1.688 -1.472 4.381
 -1.656 -1.468 4.379
 -1.626 -1.465 4.38
 -1.594 -1.462 4.377
 -1.562 -1.457 4.372
 -1.532 -1.455 4.374
 -1.502 -1.453 4.374
 -1.471 -1.449 4.371
 -1.441 -1.446 4.368
 -1.412 -1.444 4.37
 -1.382 -1.441 4.367
 -1.351 -1.437 4.364
 -1.321 -1.434 4.361
 -1.293 -1.432 4.361
 -1.263 -1.43 4.36
 -1.233 -1.425 4.351
 -1.207 -1.426 4.361
 -1.178 -1.423 4.358
 -1.15 -1.422 4.359
 -1.121 -1.419 4.356
 -1.093 -1.418 4.357
 -1.062 -1.412 4.345
 -1.036 -1.412 4.349
 -1.007 -1.408 4.343
 -0.979 -1.407 4.344
 -0.952 -1.405 4.342
 -0.924 -1.403 4.34
 -0.898 -1.404 4.346
 -0.871 -1.402 4.347
 -0.843 -1.4 4.342
 -0.817 -1.399 4.344
 -0.79 -1.397 4.342
 -0.761 -1.393 4.331
 -0.734 -1.391 4.33
 -0.708 -1.391 4.333
 -0.681 -1.389 4.33
 -0.655 -1.388 4.329
 -0.628 -1.387 4.328
 -0.603 -1.388 4.335
 -0.576 -1.387 4.334
 -0.55 -1.387 4.337
 -0.524 -1.386 4.336
 -0.498 -1.385 4.333
 -0.471 -1.383 4.33
 -0.444 -1.38 4.321
 -0.418 -1.379 4.321
 -0.392 -1.377 4.316
 -0.366 -1.376 4.313
 -0.34 -1.373 4.307
 -0.314 -1.373 4.309
 -0.288 -1.373 4.308
 -0.263 -1.373 4.31
 -0.237 -1.371 4.305
 -0.212 -1.372 4.308
 -0.186 -1.372 4.309
 -0.16 -1.372 4.307
 -0.135 -1.37 4.303
 -0.109 -1.371 4.305
 -0.084 -1.37 4.302
 -0.058 -1.37 4.302
 -0.033 -1.369 4.299
 -0.007 -1.37 4.302
 0.017 -1.371 4.305
 0.043 -1.372 4.307
 0.068 -1.37 4.3
 0.094 -1.37 4.301
 0.119 -1.368 4.292
 0.144 -1.368 4.293
 0.17 -1.369 4.294
 0.196 -1.371 4.298
 0.221 -1.371 4.298
 0.247 -1.37 4.294
 0.272 -1.371 4.294
 0.297 -1.369 4.288
 0.323 -1.369 4.285
 0.348 -1.369 4.282
 0.374 -1.37 4.285
 0.399 -1.372 4.286
 0.425 -1.371 4.282
 0.451 -1.373 4.285
 0.477 -1.375 4.289
 0.502 -1.375 4.287
 0.528 -1.375 4.283
 0.554 -1.377 4.287
 0.579 -1.376 4.28
 0.605 -1.376 4.277
 0.631 -1.378 4.282
 0.656 -1.377 4.274
 0.682 -1.378 4.274
 0.709 -1.381 4.278
 0.735 -1.381 4.273
 0.76 -1.38 4.268
 0.787 -1.383 4.272
 0.813 -1.384 4.272
 0.839 -1.384 4.265
 0.865 -1.385 4.265
 0.892 -1.387 4.266
 0.919 -1.389 4.267
 0.945 -1.39 4.265
 0.973 -1.394 4.272
 1 -1.395 4.271
 1.027 -1.397 4.27
 1.054 -1.399 4.27
 1.08 -1.399 4.265
 1.107 -1.4 4.262
 1.134 -1.401 4.259
 1.161 -1.403 4.258
 1.188 -1.404 4.257
 1.218 -1.409 4.263
 1.245 -1.41 4.26
 1.272 -1.412 4.258
 1.301 -1.414 4.259
 1.328 -1.415 4.254
 1.356 -1.418 4.254
 1.383 -1.418 4.248
 1.412 -1.421 4.248
 1.44 -1.423 4.245
 1.468 -1.425 4.244
 1.497 -1.427 4.242
 1.526 -1.43 4.243
 1.556 -1.434 4.243
 1.585 -1.435 4.24
 1.615 -1.439 4.241
 1.643 -1.44 4.235
 1.673 -1.444 4.236
 1.702 -1.445 4.231
 1.731 -1.447 4.227
 1.757 -1.447 4.216
 1.785 -1.448 4.208
 1.81 -1.447 4.195
 1.835 -1.446 4.181
 1.859 -1.444 4.165
 1.885 -1.444 4.153
 0 0 0
 0 0 0
 0 0 0
 0 0 0
 0 0 0
 0 0 0
 0 0 0
 0.065 -0.048 0.119
 0.066 -0.048 0.119
 0 0 0
 0.907 -0.604 1.671
 1.499 -0.984 2.724
 1.807 -1.171 3.234
 1.825 -1.168 3.217
 1.846 -1.168 3.206
 1.628 -1.019 2.784
 0 0 0
 0 0 0
 -0.123 -0.076 0.201
 -0.142 -0.089 0.237
 -0.103 -0.066 0.172
 -0.095 -0.061 0.159
 -0.081 -0.053 0.136
 -0.074 -0.049 0.124
 -0.069 -0.047 0.118
 -0.059 -0.041 0.101
 -0.051 -0.035 0.086
 -0.044 -0.031 0.074
 -0.035 -0.025 0.058
 -0.194 -0.136 0.384
 -0.353 -0.25 0.722
 -0.59 -0.422 1.237
 -0.985 -0.714 2.108
 -1.368 -1.006 2.984
 -1.583 -1.18 3.513
 -1.791 -1.354 4.043
 -1.914 -1.469 4.397
 -1.88 -1.464 4.394
 -1.848 -1.461 4.394
 -1.816 -1.457 4.393
 -1.783 -1.454 4.391
 -1.751 -1.45 4.391
 -1.72 -1.448 4.392
 -1.687 -1.444 4.388
 -1.655 -1.439 4.384
 -1.624 -1.437 4.384
 -1.593 -1.433 4.381
 -1.56 -1.428 4.376
 -1.53 -1.426 4.376
 -1.501 -1.424 4.377
 -1.47 -1.42 4.374
 -1.439 -1.417 4.372
 -1.411 -1.416 4.375
 -1.381 -1.413 4.373
 -1.35 -1.41 4.369
 -1.32 -1.406 4.366
 -1.292 -1.404 4.365
 -1.262 -1.401 4.363
 -1.231 -1.397 4.354
 -1.206 -1.399 4.367
 -1.177 -1.396 4.364
 -1.149 -1.395 4.365
 -1.12 -1.392 4.362
 -1.093 -1.391 4.363
 -1.061 -1.383 4.345
 -1.033 -1.382 4.347
 -1.004 -1.379 4.34
 -0.977 -1.378 4.342
 -0.95 -1.376 4.34
 -0.923 -1.375 4.342
 -0.898 -1.377 4.353
 -0.871 -1.376 4.353
 -0.843 -1.373 4.347
 -0.816 -1.373 4.35
 -0.789 -1.371 4.347
 -0.76 -1.365 4.333
 -0.733 -1.364 4.334
 -0.708 -1.365 4.339
 -0.681 -1.364 4.339
 -0.654 -1.362 4.335
 -0.628 -1.36 4.333
 -0.602 -1.361 4.337
 -0.576 -1.361 4.34
 -0.55 -1.361 4.343
 -0.524 -1.36 4.342
 -0.498 -1.359 4.342
 -0.471 -1.357 4.337
 -0.444 -1.352 4.323
 -0.418 -1.351 4.321
 -0.391 -1.348 4.312
 -0.365 -1.346 4.307
 -0.339 -1.344 4.303
 -0.313 -1.345 4.306
 -0.288 -1.345 4.307
 -0.262 -1.345 4.309
 -0.237 -1.344 4.306
 -0.211 -1.344 4.307
 -0.186 -1.344 4.308
 -0.16 -1.343 4.305
 -0.134 -1.342 4.3
 -0.109 -1.343 4.304
 -0.083 -1.342 4.302
 -0.058 -1.342 4.301
 -0.032 -1.34 4.297
 -0.007 -1.342 4.303
 0.017 -1.342 4.302
 0.043 -1.343 4.305
 0.068 -1.341 4.296
 0.094 -1.343 4.302
 0.119 -1.34 4.293
 0.145 -1.342 4.298
 0.17 -1.343 4.299
 0.196 -1.346 4.306
 0.222 -1.346 4.307
 0.247 -1.346 4.304
 0.272 -1.345 4.298
 0.297 -1.342 4.288
 0.322 -1.342 4.285
 0.347 -1.341 4.28
 0.373 -1.342 4.283
 0.399 -1.344 4.286
 0.424 -1.344 4.283
 0.451 -1.346 4.288
 0.476 -1.347 4.29
 0.502 -1.348 4.288
 0.527 -1.347 4.283
 0.553 -1.349 4.286
 0.578 -1.348 4.279
 0.605 -1.349 4.281
 0.631 -1.352 4.286
 0.656 -1.351 4.281
 0.682 -1.352 4.28
 0.709 -1.355 4.283
