 0.307 -1.629 4.095
 0.318 -1.625 4.082
 0.33 -1.622 4.074
 0.342 -1.618 4.065
 0.353 -1.613 4.05
 0.364 -1.61 4.041
 0.377 -1.612 4.045
 0.39 -1.614 4.048
 0.403 -1.617 4.056
 0.415 -1.618 4.056
 0.428 -1.62 4.06
 0.44 -1.619 4.057
 0.453 -1.619 4.054
 0.464 -1.615 4.044
 0.476 -1.615 4.042
 0.488 -1.613 4.037
 0.5 -1.612 4.033
 0.512 -1.613 4.035
 0.525 -1.613 4.032
 0.538 -1.616 4.038
 0.55 -1.616 4.036
 0.563 -1.619 4.043
 0.577 -1.622 4.048
 0.591 -1.626 4.056
 0.602 -1.623 4.048
 0.614 -1.624 4.048
 0.625 -1.62 4.035
 0.638 -1.62 4.035
 0.65 -1.62 4.033
 0.664 -1.624 4.041
 0.677 -1.626 4.044
 0.692 -1.633 4.06
 0.705 -1.635 4.061
 0.717 -1.633 4.055
 0.729 -1.631 4.048
 0.74 -1.629 4.04
 0.75 -1.625 4.028
 0.761 -1.621 4.017
 0.774 -1.622 4.017
 0.785 -1.62 4.011
 0.797 -1.619 4.006
 0.808 -1.617 3.998
 0.822 -1.62 4.003
 0.835 -1.622 4.005
 0.849 -1.624 4.008
 0.862 -1.626 4.011
 0.876 -1.629 4.016
 0.887 -1.626 4.006
 0.898 -1.625 4
 0.91 -1.623 3.993
 0.923 -1.625 3.995
 0.936 -1.626 3.995
 0.949 -1.627 3.995
 0.961 -1.626 3.99
 0.975 -1.629 3.995
 0.985 -1.626 3.985
 0.997 -1.626 3.981
 1.013 -1.631 3.99
 1.026 -1.631 3.989
 1.037 -1.63 3.982
 1.05 -1.631 3.982
 1.061 -1.629 3.975
 1.072 -1.627 3.965
 1.084 -1.627 3.963
 1.099 -1.63 3.968
 1.113 -1.633 3.971
 1.127 -1.635 3.974
 1.138 -1.634 3.966
 1.152 -1.635 3.967
 1.163 -1.634 3.96
 1.174 -1.632 3.951
 1.186 -1.631 3.946
 1.198 -1.631 3.943
 1.21 -1.631 3.939
 1.222 -1.629 3.932
 1.235 -1.631 3.932
 1.248 -1.632 3.931
 1.262 -1.634 3.932
 1.273 -1.632 3.923
 1.286 -1.632 3.921
 1.299 -1.634 3.92
 1.312 -1.634 3.919
 1.326 -1.637 3.92
 1.345 -1.644 3.934
 1.358 -1.645 3.934
 1.369 -1.644 3.925
 1.379 -1.64 3.913
 1.388 -1.637 3.901
 1.399 -1.634 3.891
 1.412 -1.635 3.889
 1.424 -1.635 3.884
 1.44 -1.639 3.889
 1.452 -1.639 3.886
 1.464 -1.639 3.88
 1.474 -1.636 3.869
 1.486 -1.636 3.864
 1.495 -1.631 3.85
 1.507 -1.632 3.846
 1.517 -1.629 3.835
 1.533 -1.633 3.84
 1.546 -1.634 3.838
 1.561 -1.637 3.839
 1.573 -1.636 3.833
 1.586 -1.637 3.83
 1.594 -1.632 3.815
 1.605 -1.631 3.807
 1.617 -1.63 3.801
 1.631 -1.633 3.802
 1.646 -1.634 3.801
 1.66 -1.637 3.801
 1.673 -1.637 3.797
 1.686 -1.638 3.794
 1.693 -1.633 3.777
 1.704 -1.631 3.769
 1.715 -1.63 3.761
 1.725 -1.628 3.752
 1.737 -1.628 3.745
 1.75 -1.628 3.74
 1.762 -1.628 3.736
 1.775 -1.629 3.732
 1.789 -1.631 3.73
 1.8 -1.629 3.721
 1.811 -1.628 3.714
 1.816 -1.622 3.694
 1.826 -1.62 3.683
 1.832 -1.614 3.666
 1.84 -1.611 3.652
 1.846 -1.605 3.634
 1.856 -1.604 3.624
 1.861 -1.597 3.605
 1.865 -1.59 3.583
 1.867 -1.582 3.56
 1.87 -1.575 3.537
 1.873 -1.567 3.514
 1.87 -1.555 3.48
 1.865 -1.541 3.444
 1.857 -1.525 3.402
 1.86 -1.518 3.38
 1.854 -1.504 3.343
 1.858 -1.498 3.325
 1.857 -1.488 3.297
 1.854 -1.477 3.267
 1.849 -1.464 3.233
 1.842 -1.45 3.195
 1.84 -1.44 3.168
 1.84 -1.432 3.144
 1.838 -1.422 3.116
 1.83 -1.408 3.079
 1.826 -1.396 3.049
 1.82 -1.384 3.015
 1.817 -1.373 2.988
 1.811 -1.362 2.957
 1.851 -1.383 2.998
 1.812 -1.347 2.914
 -2.215 -1.652 3.692
 -2.195 -1.647 3.687
 -2.159 -1.629 3.654
 -2.146 -1.629 3.66
 -2.133 -1.629 3.665
 -2.127 -1.634 3.682
 -2.111 -1.632 3.684
 -2.095 -1.629 3.683
 -2.083 -1.629 3.691
 -2.07 -1.629 3.696
 -2.058 -1.63 3.703
 -2.05 -1.634 3.719
 -2.041 -1.637 3.731
 -2.027 -1.636 3.735
 -2.014 -1.635 3.74
 -2.003 -1.637 3.748
 -1.987 -1.634 3.748
 -1.978 -1.637 3.76
 -1.968 -1.64 3.772
 -1.955 -1.639 3.777
 -1.945 -1.642 3.789
 -1.935 -1.644 3.799
 -1.918 -1.64 3.796
 -1.904 -1.64 3.8
 -1.896 -1.643 3.813
 -1.878 -1.639 3.81
 -1.864 -1.638 3.812
 -1.851 -1.638 3.817
 -1.838 -1.637 3.821
 -1.824 -1.636 3.823
 -1.813 -1.638 3.833
 -1.801 -1.638 3.838
 -1.787 -1.637 3.841
 -1.771 -1.634 3.839
 -1.758 -1.634 3.843
 -1.742 -1.631 3.841
 -1.732 -1.633 3.851
 -1.721 -1.635 3.86
 -1.707 -1.634 3.862
 -1.695 -1.634 3.869
 -1.684 -1.636 3.877
 -1.669 -1.634 3.877
 -1.655 -1.633 3.879
 -1.644 -1.634 3.886
 -1.63 -1.633 3.889
 -1.616 -1.631 3.889
 -1.604 -1.632 3.895
 -1.59 -1.631 3.896
 -1.577 -1.631 3.9
 -1.56 -1.626 3.895
 -1.547 -1.626 3.898
 -1.535 -1.626 3.902
 -1.524 -1.628 3.911
 -1.512 -1.629 3.917
 -1.504 -1.634 3.933
 -1.489 -1.632 3.932
 -1.475 -1.63 3.932
 -1.461 -1.628 3.933
 -1.449 -1.629 3.937
 -1.433 -1.625 3.933
 -1.423 -1.628 3.944
 -1.413 -1.631 3.954
 -1.401 -1.631 3.959
 -1.388 -1.631 3.963
 -1.377 -1.634 3.972
 -1.364 -1.633 3.975
 -1.349 -1.631 3.972
 -1.338 -1.632 3.979
 -1.324 -1.631 3.979
 -1.311 -1.63 3.981
 -1.297 -1.628 3.981
 -1.284 -1.628 3.984
 -1.273 -1.63 3.991
 -1.258 -1.627 3.986
 -1.244 -1.625 3.986
 -1.23 -1.623 3.985
 -1.219 -1.626 3.994
 -1.204 -1.621 3.987
 -1.194 -1.625 3.999
 -1.184 -1.629 4.012
 -1.174 -1.633 4.024
 -1.161 -1.632 4.026
 -1.149 -1.634 4.032
 -1.133 -1.629 4.023
 -1.117 -1.624 4.014
 -1.103 -1.621 4.009
 -1.089 -1.62 4.009
 -1.077 -1.619 4.011
 -1.067 -1.623 4.023
 -1.055 -1.625 4.031
 -1.043 -1.625 4.034
 -1.03 -1.626 4.037
 -1.017 -1.624 4.037
 -1.004 -1.623 4.036
 -0.991 -1.623 4.038
 -0.977 -1.621 4.036
 -0.963 -1.618 4.031
 -0.95 -1.616 4.029
 -0.938 -1.618 4.035
 -0.924 -1.616 4.032
 -0.913 -1.618 4.04
 -0.9 -1.616 4.038
 -0.888 -1.617 4.043
 -0.874 -1.616 4.041
 -0.861 -1.614 4.04
 -0.849 -1.614 4.042
 -0.837 -1.615 4.047
 -0.824 -1.615 4.047
 -0.811 -1.615 4.049
 -0.799 -1.616 4.054
 -0.787 -1.616 4.056
 -0.775 -1.617 4.061
 -0.762 -1.617 4.062
 -0.751 -1.619 4.07
 -0.738 -1.618 4.069
 -0.725 -1.617 4.067
 -0.711 -1.614 4.063
 -0.7 -1.616 4.069
 -0.686 -1.613 4.063
 -0.674 -1.615 4.07
 -0.662 -1.616 4.073
 -0.65 -1.616 4.076
 -0.636 -1.613 4.07
 -0.624 -1.615 4.076
 -0.612 -1.616 4.079
 -0.6 -1.617 4.084
 -0.589 -1.619 4.091
 -0.577 -1.621 4.098
 -0.564 -1.62 4.095
 -0.552 -1.621 4.099
 -0.539 -1.62 4.099
 -0.526 -1.62 4.099
 -0.514 -1.62 4.101
 -0.502 -1.621 4.104
 -0.488 -1.618 4.097
 -0.476 -1.618 4.098
 -0.463 -1.615 4.093
 -0.45 -1.616 4.096
 -0.437 -1.612 4.086
 -0.425 -1.614 4.092
 -0.412 -1.613 4.092
 -0.399 -1.611 4.086
 -0.386 -1.609 4.083
 -0.375 -1.613 4.094
 -0.362 -1.613 4.094
 -0.35 -1.614 4.096
 -0.339 -1.618 4.109
 -0.327 -1.62 4.113
 -0.314 -1.622 4.119
 -0.301 -1.617 4.107
 -0.289 -1.617 4.107
 -0.276 -1.615 4.104
 -0.263 -1.615 4.104
 -0.25 -1.612 4.097
 -0.239 -1.618 4.113
 -0.226 -1.614 4.103
 -0.214 -1.615 4.107
 -0.201 -1.616 4.108
 -0.189 -1.617 4.113
 -0.177 -1.616 4.111
 -0.164 -1.62 4.121
 -0.152 -1.616 4.111
 -0.139 -1.616 4.111
 -0.127 -1.615 4.109
 -0.114 -1.615 4.108
 -0.102 -1.616 4.11
 -0.09 -1.618 4.117
 -0.077 -1.617 4.114
 -0.065 -1.616 4.111
 -0.052 -1.616 4.111
 -0.04 -1.617 4.113
 -0.027 -1.616 4.11
 -0.015 -1.616 4.112
 -0.003 -1.619 4.119
 0.009 -1.619 4.117
 0.021 -1.616 4.111
 0.034 -1.616 4.111
 0.046 -1.616 4.109
 0.059 -1.615 4.107
 0.071 -1.616 4.11
 0.083 -1.616 4.11
 0.096 -1.618 4.114
 0.108 -1.619 4.117
 0.121 -1.617 4.111
 0.133 -1.618 4.114
 0.146 -1.619 4.113
 0.158 -1.621 4.119
 0.171 -1.621 4.118
 0.183 -1.62 4.116
 0.195 -1.619 4.112
 0.208 -1.62 4.115
 0.22 -1.618 4.107
 0.233 -1.618 4.106
 0.245 -1.618 4.106
 0.258 -1.619 4.11
 0.27 -1.619 4.107
 0.282 -1.619 4.107
 0.295 -1.619 4.107
 0.308 -1.622 4.111
 0.32 -1.618 4.102
 0.332 -1.617 4.097
 0.344 -1.614 4.09
 0.355 -1.612 4.083
 0.367 -1.608 4.072
 0.379 -1.609 4.073
 0.392 -1.609 4.073
 0.405 -1.614 4.084
 0.418 -1.614 4.081
 0.431 -1.616 4.087
 0.443 -1.615 4.081
 0.455 -1.615 4.081
 0.466 -1.61 4.068
 0.478 -1.61 4.067
 0.491 -1.611 4.067
 0.504 -1.614 4.072
 0.517 -1.615 4.073
 0.529 -1.615 4.074
 0.543 -1.619 4.08
 0.555 -1.618 4.077
 0.568 -1.619 4.077
 0.581 -1.621 4.081
 0.594 -1.624 4.087
 0.606 -1.621 4.079
 0.618 -1.621 4.077
 0.629 -1.617 4.065
 0.642 -1.619 4.066
 0.655 -1.619 4.066
 0.668 -1.622 4.072
 0.681 -1.623 4.072
 0.696 -1.63 4.087
 0.709 -1.631 4.087
 0.72 -1.627 4.075
 0.732 -1.626 4.071
 0.744 -1.624 4.065
 0.755 -1.622 4.057
 0.766 -1.619 4.046
 0.778 -1.619 4.044
 0.79 -1.617 4.037
 0.803 -1.618 4.039
 0.814 -1.615 4.029
 0.827 -1.616 4.029
 0.84 -1.619 4.033
 0.853 -1.62 4.034
 0.865 -1.62 4.03
 0.879 -1.623 4.036
 0.891 -1.622 4.03
 0.904 -1.621 4.027
 0.915 -1.62 4.022
 0.929 -1.623 4.026
 0.941 -1.623 4.022
 0.954 -1.623 4.02
 0.965 -1.621 4.013
 0.979 -1.624 4.017
 0.991 -1.622 4.011
 1.004 -1.623 4.01
 1.018 -1.627 4.016
 1.031 -1.627 4.013
 1.042 -1.625 4.006
 1.054 -1.625 4.002
 1.067 -1.625 3.999
 1.078 -1.624 3.994
 1.091 -1.625 3.993
 1.105 -1.627 3.994
 1.119 -1.629 3.997
 1.132 -1.629 3.994
 1.143 -1.627 3.987
 1.157 -1.629 3.988
 1.169 -1.63 3.986
 1.182 -1.63 3.983
 1.195 -1.631 3.982
 1.208 -1.632 3.981
 1.222 -1.634 3.981
 1.234 -1.633 3.976
 1.246 -1.633 3.971
 1.258 -1.632 3.966
 1.27 -1.632 3.962
 1.281 -1.629 3.952
 1.294 -1.63 3.951
 1.31 -1.634 3.957
 1.324 -1.637 3.959
 1.34 -1.641 3.966
 1.358 -1.647 3.976
 1.369 -1.646 3.97
 1.379 -1.643 3.958
 1.389 -1.64 3.947
 1.399 -1.636 3.935
 1.41 -1.635 3.927
 1.423 -1.636 3.925
 1.436 -1.636 3.922
 1.45 -1.638 3.922
 1.462 -1.638 3.917
 1.473 -1.636 3.908
 1.483 -1.633 3.897
 1.494 -1.631 3.889
 1.502 -1.627 3.873
 1.516 -1.628 3.872
 1.526 -1.626 3.863
 1.542 -1.63 3.868
 1.556 -1.632 3.866
 1.572 -1.635 3.871
 1.583 -1.634 3.862
 1.595 -1.634 3.858
 1.603 -1.629 3.842
 1.614 -1.628 3.834
 1.625 -1.626 3.825
 1.64 -1.629 3.827
 1.655 -1.631 3.827
 1.671 -1.635 3.831
 1.684 -1.635 3.826
 1.698 -1.637 3.827
 1.705 -1.632 3.809
 1.717 -1.631 3.801
 1.727 -1.629 3.791
 1.739 -1.628 3.785
 1.751 -1.629 3.78
 1.765 -1.629 3.777
 1.777 -1.63 3.772
 1.791 -1.631 3.771
 1.804 -1.632 3.766
 1.813 -1.629 3.754
 1.824 -1.627 3.745
 1.83 -1.621 3.726
 1.837 -1.617 3.709
 1.842 -1.61 3.689
 1.847 -1.604 3.67
 1.853 -1.599 3.652
 1.859 -1.594 3.635
 1.866 -1.59 3.62
 1.87 -1.583 3.598
 1.873 -1.575 3.575
 1.874 -1.566 3.548
 1.878 -1.56 3.529
 1.873 -1.546 3.491
 1.872 -1.535 3.461
 1.861 -1.517 3.415
 1.866 -1.512 3.397
 1.861 -1.498 3.361
 1.865 -1.492 3.342
 1.859 -1.479 3.306
 1.858 -1.469 3.278
 1.853 -1.456 3.244
 1.842 -1.439 3.2
 1.842 -1.431 3.176
 1.844 -1.424 3.155
 1.844 -1.415 3.13
 1.835 -1.4 3.091
 1.832 -1.391 3.064
 1.825 -1.377 3.028
 1.82 -1.366 2.998
 1.816 -1.355 2.968
 1.79 -1.328 2.903
 1.794 -1.323 2.888
 -2.204 -1.632 3.68
 -2.184 -1.626 3.673
 -2.172 -1.626 3.681
 -2.159 -1.626 3.687
 -2.146 -1.626 3.693
 -2.139 -1.63 3.708
 -2.125 -1.63 3.713
 -2.109 -1.627 3.714
 -2.099 -1.63 3.725
 -2.089 -1.631 3.735
 -2.077 -1.632 3.743
 -2.069 -1.636 3.757
 -2.058 -1.637 3.766
 -2.045 -1.637 3.772
 -2.028 -1.634 3.77
 -2.018 -1.636 3.781
 -2.002 -1.634 3.782
 -1.994 -1.638 3.797
 -1.982 -1.638 3.804
 -1.969 -1.638 3.809
 -1.954 -1.636 3.81
 -1.942 -1.637 3.817
 -1.925 -1.634 3.815
 -1.911 -1.633 3.818
 -1.901 -1.635 3.829
 -1.887 -1.634 3.833
 -1.874 -1.634 3.838
 -1.863 -1.635 3.845
 -1.85 -1.635 3.851
 -1.838 -1.636 3.859
 -1.829 -1.64 3.872
 -1.816 -1.639 3.875
 -1.802 -1.638 3.879
 -1.785 -1.634 3.874
 -1.771 -1.633 3.877
 -1.753 -1.629 3.871
 -1.745 -1.633 3.886
 -1.732 -1.633 3.89
 -1.721 -1.634 3.898
 -1.706 -1.632 3.899
 -1.696 -1.635 3.91
 -1.68 -1.631 3.906
 -1.665 -1.63 3.908
 -1.653 -1.631 3.914
 -1.639 -1.629 3.915
 -1.623 -1.626 3.912
 -1.611 -1.627 3.918
 -1.599 -1.627 3.924
 -1.587 -1.628 3.929
 -1.573 -1.627 3.931
 -1.561 -1.627 3.936
 -1.548 -1.627 3.94
 -1.535 -1.627 3.944
 -1.524 -1.629 3.954
 -1.515 -1.633 3.967
 -1.499 -1.63 3.963
 -1.485 -1.628 3.962
 -1.47 -1.626 3.962
 -1.456 -1.624 3.961
 -1.44 -1.621 3.957
 -1.429 -1.622 3.964
 -1.418 -1.625 3.975
 -1.407 -1.626 3.981
 -1.396 -1.628 3.99
 -1.385 -1.631 4
 -1.374 -1.632 4.008
 -1.36 -1.63 4.007
 -1.349 -1.632 4.016
 -1.333 -1.629 4.01
 -1.318 -1.626 4.007
 -1.306 -1.627 4.012
 -1.294 -1.627 4.017
 -1.279 -1.626 4.016
 -1.265 -1.623 4.013
 -1.251 -1.621 4.013
 -1.236 -1.618 4.008
 -1.223 -1.618 4.01
 -1.21 -1.617 4.012
 -1.2 -1.622 4.026
 -1.191 -1.626 4.04
 -1.181 -1.629 4.052
 -1.169 -1.631 4.06
 -1.157 -1.632 4.065
 -1.141 -1.627 4.056
 -1.125 -1.623 4.047
 -1.109 -1.617 4.035
 -1.094 -1.614 4.031
 -1.081 -1.614 4.033
 -1.071 -1.617 4.044
 -1.06 -1.619 4.052
 -1.05 -1.623 4.064
 -1.038 -1.625 4.071
 -1.025 -1.624 4.072
 -1.013 -1.625 4.076
 -1 -1.625 4.08
 -0.986 -1.622 4.075
 -0.971 -1.619 4.069
 -0.956 -1.615 4.062
 -0.943 -1.614 4.062
 -0.929 -1.611 4.057
 -0.917 -1.613 4.064
 -0.904 -1.612 4.063
 -0.893 -1.614 4.07
 -0.879 -1.613 4.07
 -0.867 -1.613 4.071
 -0.854 -1.612 4.071
 -0.842 -1.614 4.08
 -0.829 -1.613 4.08
 -0.817 -1.613 4.081
 -0.804 -1.613 4.083
 -0.792 -1.614 4.087
 -0.779 -1.614 4.088
 -0.766 -1.612 4.087
 -0.755 -1.615 4.095
 -0.742 -1.615 4.097
 -0.73 -1.615 4.098
 -0.717 -1.614 4.099
 -0.705 -1.616 4.106
 -0.692 -1.615 4.104
 -0.68 -1.617 4.111
 -0.667 -1.615 4.108
 -0.654 -1.615 4.108
 -0.641 -1.613 4.105
 -0.629 -1.614 4.11
 -0.616 -1.614 4.11
 -0.605 -1.616 4.118
 -0.593 -1.618 4.125
 -0.581 -1.62 4.129
 -0.567 -1.618 4.127
 -0.555 -1.618 4.127
 -0.542 -1.617 4.125
 -0.529 -1.616 4.125
 -0.517 -1.616 4.127
 -0.504 -1.616 4.128
 -0.491 -1.615 4.126
 -0.479 -1.616 4.129
 -0.465 -1.613 4.123
 -0.453 -1.614 4.126
 -0.44 -1.611 4.121
 -0.428 -1.613 4.125
 -0.415 -1.613 4.127
 -0.402 -1.611 4.123
 -0.389 -1.61 4.12
 -0.378 -1.612 4.128
 -0.365 -1.613 4.13
 -0.353 -1.612 4.129
 -0.341 -1.617 4.141
 -0.329 -1.618 4.146
 -0.316 -1.62 4.151
 -0.303 -1.615 4.14
 -0.29 -1.614 4.138
 -0.277 -1.612 4.133
 -0.265 -1.612 4.134
 -0.252 -1.612 4.132
 -0.241 -1.618 4.148
 -0.228 -1.615 4.142
 -0.216 -1.617 4.148
 -0.203 -1.617 4.147
 -0.19 -1.617 4.148
 -0.178 -1.615 4.144
 -0.165 -1.618 4.152
 -0.153 -1.616 4.147
 -0.14 -1.614 4.142
 -0.128 -1.614 4.143
 -0.115 -1.613 4.139
 -0.102 -1.613 4.14
 -0.09 -1.614 4.142
 -0.078 -1.617 4.149
 -0.065 -1.614 4.142
 -0.052 -1.614 4.142
 -0.04 -1.613 4.141
 -0.027 -1.613 4.139
 -0.015 -1.611 4.135
 -0.002 -1.614 4.141
 0.009 -1.615 4.144
 0.022 -1.616 4.146
 0.034 -1.617 4.148
 0.047 -1.615 4.143
 0.059 -1.615 4.144
 0.072 -1.615 4.143
 0.084 -1.612 4.136
 0.097 -1.614 4.141
 0.109 -1.618 4.149
 0.122 -1.615 4.141
 0.134 -1.617 4.146
 0.147 -1.618 4.148
 0.16 -1.619 4.151
 0.172 -1.619 4.149
 0.185 -1.619 4.15
 0.197 -1.619 4.148
 0.21 -1.62 4.15
 0.222 -1.618 4.145
 0.235 -1.619 4.146
 0.247 -1.618 4.143
 0.26 -1.621 4.148
 0.272 -1.62 4.146
 0.285 -1.619 4.142
 0.297 -1.618 4.139
 0.31 -1.621 4.147
 0.322 -1.617 4.136
 0.334 -1.616 4.132
 0.347 -1.616 4.13
 0.358 -1.613 4.121
 0.37 -1.609 4.11
 0.383 -1.611 4.114
 0.395 -1.609 4.109
 0.408 -1.613 4.117
 0.421 -1.613 4.115
 0.433 -1.614 4.117
 0.445 -1.61 4.105
 0.458 -1.611 4.108
 0.469 -1.608 4.097
 0.481 -1.607 4.094
 0.494 -1.608 4.095
 0.507 -1.61 4.1
 0.52 -1.611 4.099
 0.532 -1.611 4.098
 0.546 -1.615 4.107
 0.558 -1.613 4.101
 0.57 -1.614 4.1
 0.584 -1.616 4.105
 0.597 -1.618 4.109
 0.608 -1.616 4.1
 0.621 -1.615 4.098
 0.632 -1.612 4.088
 0.645 -1.612 4.086
 0.658 -1.616 4.093
 0.672 -1.619 4.1
 0.686 -1.622 4.104
 0.701 -1.628 4.118
 0.714 -1.63 4.121
 0.725 -1.626 4.109
 0.738 -1.626 4.106
 0.749 -1.624 4.099
 0.76 -1.62 4.088
 0.772 -1.618 4.08
 0.784 -1.618 4.077
 0.795 -1.615 4.069
 0.807 -1.615 4.065
 0.819 -1.614 4.061
 0.832 -1.615 4.06
 0.845 -1.615 4.06
 0.859 -1.618 4.063
 0.872 -1.619 4.064
 0.886 -1.621 4.068
 0.897 -1.62 4.062
 0.911 -1.621 4.063
 0.923 -1.62 4.058
 0.937 -1.624 4.064
 0.949 -1.624 4.06
 0.962 -1.623 4.057
 0.973 -1.621 4.048
 0.986 -1.622 4.047
 0.997 -1.62 4.04
 1.01 -1.62 4.039
 1.024 -1.623 4.042
 1.036 -1.623 4.039
 1.049 -1.623 4.036
 1.061 -1.623 4.032
 1.072 -1.62 4.023
 1.085 -1.621 4.021
 1.098 -1.621 4.02
 1.113 -1.625 4.025
 1.126 -1.627 4.026
 1.14 -1.629 4.028
 1.151 -1.627 4.02
 1.165 -1.628 4.019
 1.176 -1.626 4.013
 1.19 -1.628 4.014
 1.204 -1.63 4.015
 1.218 -1.632 4.017
 1.232 -1.634 4.017
 1.245 -1.634 4.014
 1.257 -1.634 4.009
 1.268 -1.632 4.002
 1.28 -1.631 3.996
 1.291 -1.629 3.988
 1.304 -1.63 3.985
 1.319 -1.633 3.989
 1.333 -1.635 3.991
 1.349 -1.639 3.996
 1.366 -1.644 4.005
 1.378 -1.643 3.999
 1.387 -1.639 3.984
 1.396 -1.635 3.969
 1.405 -1.631 3.958
 1.417 -1.63 3.951
 1.431 -1.632 3.951
 1.443 -1.632 3.946
 1.459 -1.636 3.951
 1.471 -1.635 3.946
 1.483 -1.634 3.938
 1.493 -1.631 3.927
 1.506 -1.632 3.924
 1.514 -1.627 3.908
 1.528 -1.629 3.908
 1.54 -1.628 3.903
 1.556 -1.632 3.906
 1.568 -1.632 3.901
 1.585 -1.636 3.907
 1.596 -1.635 3.899
 1.606 -1.632 3.888
 1.615 -1.628 3.874
 1.628 -1.629 3.871
 1.639 -1.627 3.862
 1.655 -1.631 3.865
 1.669 -1.632 3.865
 1.686 -1.636 3.869
 1.697 -1.635 3.86
 1.711 -1.636 3.859
 1.716 -1.63 3.839
 1.729 -1.63 3.834
 1.738 -1.626 3.82
 1.75 -1.626 3.813
 1.762 -1.626 3.808
 1.775 -1.626 3.804
 1.787 -1.626 3.798
 1.8 -1.626 3.793
 1.812 -1.626 3.788
 1.82 -1.622 3.771
 1.83 -1.62 3.762
 1.834 -1.612 3.739
 1.842 -1.609 3.726
 1.846 -1.601 3.702
 1.851 -1.595 3.683
 1.856 -1.589 3.663
 1.862 -1.584 3.646
 1.868 -1.579 3.627
 1.875 -1.574 3.611
 1.876 -1.565 3.584
 1.876 -1.556 3.557
 1.879 -1.548 3.535
 1.871 -1.532 3.492
 1.871 -1.523 3.465
 1.864 -1.507 3.424
 1.868 -1.501 3.404
 1.864 -1.489 3.371
 1.868 -1.483 3.352
 1.856 -1.465 3.304
 1.851 -1.452 3.269
 1.839 -1.434 3.224
 1.833 -1.421 3.189
 1.838 -1.417 3.173
 1.842 -1.411 3.155
 1.845 -1.405 3.136
 1.84 -1.393 3.104
 1.838 -1.384 3.077
 1.83 -1.37 3.041
 1.826 -1.359 3.011
 1.82 -1.347 2.979
 1.806 -1.33 2.934
 1.794 -1.313 2.892
 -2.219 -1.63 3.71
 0 0 0
 -2.183 -1.622 3.704
 -2.168 -1.62 3.707
 -2.154 -1.619 3.711
 -2.148 -1.624 3.729
 -2.135 -1.625 3.736
 -2.124 -1.626 3.745
 -2.116 -1.63 3.76
 -2.107 -1.633 3.773
 -2.095 -1.634 3.781
 -2.085 -1.635 3.791
 -2.072 -1.636 3.798
 -2.06 -1.637 3.806
 -2.042 -1.633 3.803
 -2.032 -1.634 3.813
 -2.017 -1.633 3.814
 -2.008 -1.636 3.828
 -1.995 -1.636 3.833
 -1.983 -1.637 3.842
 -1.966 -1.633 3.839
 -1.956 -1.636 3.85
 -1.94 -1.633 3.849
 -1.924 -1.631 3.85
 -1.912 -1.631 3.856
 -1.899 -1.632 3.862
 -1.885 -1.631 3.865
 -1.873 -1.631 3.872
 -1.861 -1.632 3.879
 -1.85 -1.634 3.888
 -1.84 -1.637 3.9
 -1.825 -1.635 3.901
 -1.813 -1.635 3.906
 -1.796 -1.632 3.903
 -1.781 -1.63 3.904
 -1.763 -1.625 3.898
 -1.755 -1.63 3.914
 -1.742 -1.629 3.918
 -1.73 -1.63 3.925
 -1.717 -1.63 3.928
 -1.706 -1.632 3.938
 -1.69 -1.628 3.935
 -1.675 -1.626 3.935
 -1.662 -1.627 3.94
 -1.648 -1.626 3.942
 -1.635 -1.625 3.945
 -1.623 -1.626 3.951
 -1.611 -1.627 3.959
 -1.599 -1.628 3.964
 -1.587 -1.628 3.97
 -1.573 -1.627 3.971
 -1.56 -1.627 3.976
 -1.547 -1.627 3.981
 -1.536 -1.629 3.989
 -1.524 -1.63 3.997
 -1.51 -1.628 3.996
 -1.495 -1.626 3.995
 -1.479 -1.623 3.99
 -1.464 -1.62 3.988
 -1.449 -1.618 3.986
 -1.437 -1.618 3.991
 -1.425 -1.619 3.997
 -1.412 -1.62 4.002
 -1.402 -1.622 4.012
 -1.392 -1.626 4.024
 -1.38 -1.626 4.029
 -1.366 -1.625 4.031
 -1.356 -1.629 4.043
 -1.341 -1.626 4.04
 -1.325 -1.622 4.032
 -1.313 -1.623 4.038
 -1.302 -1.625 4.047
 -1.287 -1.623 4.045
 -1.273 -1.621 4.044
 -1.259 -1.62 4.045
 -1.245 -1.618 4.044
 -1.231 -1.615 4.04
 -1.218 -1.615 4.043
 -1.208 -1.619 4.057
 -1.198 -1.623 4.069
 -1.187 -1.625 4.077
 -1.176 -1.628 4.089
 -1.164 -1.629 4.094
 -1.149 -1.626 4.088
 -1.134 -1.623 4.084
 -1.118 -1.619 4.076
 -1.103 -1.614 4.068
 -1.09 -1.615 4.071
 -1.08 -1.619 4.084
 -1.069 -1.621 4.093
 -1.059 -1.624 4.104
 -1.047 -1.626 4.111
 -1.033 -1.625 4.11
 -1.02 -1.624 4.112
 -1.006 -1.621 4.107
 -0.991 -1.618 4.102
 -0.977 -1.616 4.097
 -0.962 -1.612 4.091
 -0.948 -1.609 4.086
 -0.934 -1.607 4.083
 -0.923 -1.611 4.094
 -0.91 -1.61 4.094
 -0.898 -1.611 4.1
 -0.886 -1.612 4.105
 -0.874 -1.614 4.112
 -0.86 -1.612 4.108
 -0.848 -1.613 4.113
 -0.835 -1.613 4.114
 -0.822 -1.612 4.114
 -0.809 -1.61 4.112
 -0.797 -1.611 4.116
 -0.784 -1.612 4.119
 -0.771 -1.61 4.117
 -0.759 -1.612 4.124
 -0.747 -1.613 4.129
 -0.734 -1.613 4.13
 -0.722 -1.613 4.133
 -0.71 -1.614 4.136
 -0.696 -1.611 4.13
 -0.684 -1.613 4.137
 -0.671 -1.613 4.138
 -0.658 -1.611 4.135
 -0.644 -1.609 4.132
 -0.632 -1.611 4.138
 -0.619 -1.609 4.135
 -0.607 -1.612 4.143
 -0.596 -1.614 4.15
 -0.584 -1.616 4.158
 -0.57 -1.613 4.151
 -0.557 -1.612 4.149
 -0.543 -1.609 4.141
 -0.53 -1.607 4.138
 -0.517 -1.607 4.139
 -0.506 -1.609 4.146
 -0.493 -1.61 4.149
 -0.481 -1.611 4.154
 -0.468 -1.61 4.152
 -0.456 -1.611 4.155
 -0.443 -1.61 4.153
 -0.43 -1.61 4.155
 -0.418 -1.612 4.161
 -0.405 -1.608 4.152
 -0.392 -1.607 4.149
 -0.379 -1.607 4.15
 -0.366 -1.606 4.148
 -0.353 -1.604 4.145
 -0.342 -1.611 4.163
 -0.33 -1.613 4.17
 -0.318 -1.615 4.175
 -0.305 -1.613 4.171
 -0.292 -1.612 4.17
 -0.279 -1.611 4.167
 -0.267 -1.611 4.166
 -0.254 -1.61 4.166
 -0.242 -1.615 4.179
 -0.229 -1.613 4.174
 -0.217 -1.613 4.175
 -0.204 -1.614 4.176
 -0.192 -1.615 4.18
 -0.179 -1.613 4.175
 -0.166 -1.614 4.179
 -0.154 -1.614 4.178
 -0.141 -1.612 4.174
 -0.128 -1.612 4.174
 -0.116 -1.611 4.17
 -0.103 -1.612 4.174
 -0.09 -1.612 4.174
 -0.078 -1.613 4.175
 -0.065 -1.61 4.169
 -0.053 -1.609 4.165
 -0.04 -1.606 4.158
 -0.027 -1.606 4.157
 -0.015 -1.606 4.158
 -0.002 -1.607 4.161
 0.009 -1.61 4.167
 0.022 -1.612 4.172
 0.034 -1.613 4.174
 0.047 -1.609 4.166
 0.059 -1.611 4.169
 0.072 -1.609 4.165
 0.084 -1.608 4.161
 0.097 -1.608 4.162
 0.11 -1.614 4.176
 0.122 -1.611 4.169
 0.135 -1.612 4.171
 0.148 -1.612 4.169
 0.16 -1.614 4.174
 0.173 -1.612 4.169
 0.186 -1.614 4.173
 0.198 -1.615 4.174
 0.211 -1.618 4.181
 0.224 -1.616 4.176
 0.236 -1.615 4.173
 0.248 -1.613 4.167
 0.261 -1.616 4.172
 0.273 -1.613 4.165
 0.286 -1.612 4.162
 0.299 -1.613 4.163
 0.311 -1.615 4.167
 0.323 -1.612 4.158
 0.336 -1.611 4.156
 0.348 -1.611 4.153
 0.36 -1.607 4.144
 0.372 -1.606 4.139
 0.385 -1.607 4.139
 0.397 -1.606 4.136
 0.41 -1.608 4.14
 0.423 -1.608 4.141
 0.435 -1.608 4.139
 0.448 -1.607 4.134
 0.461 -1.609 4.138
 0.473 -1.607 4.133
 0.485 -1.605 4.125
 0.498 -1.607 4.128
 0.511 -1.609 4.133
 0.523 -1.609 4.131
 0.535 -1.607 4.125
 0.549 -1.612 4.136
 0.561 -1.61 4.129
 0.573 -1.609 4.124
 0.586 -1.609 4.123
 0.6 -1.612 4.13
 0.611 -1.61 4.121
 0.624 -1.61 4.119
 0.636 -1.609 4.116
 0.649 -1.609 4.115
 0.662 -1.613 4.121
 0.676 -1.615 4.126
 0.69 -1.619 4.133
 0.705 -1.623 4.143
 0.718 -1.625 4.146
 0.73 -1.623 4.138
 0.742 -1.623 4.136
 0.753 -1.618 4.122
 0.764 -1.615 4.112
 0.776 -1.614 4.106
 0.786 -1.61 4.095
 0.798 -1.608 4.086
 0.81 -1.608 4.085
 0.823 -1.608 4.082
 0.836 -1.609 4.083
 0.85 -1.611 4.086
 0.863 -1.613 4.089
 0.877 -1.616 4.094
 0.891 -1.618 4.095
 0.902 -1.616 4.089
 0.916 -1.619 4.093
 0.929 -1.62 4.092
 0.943 -1.621 4.093
 0.955 -1.621 4.089
 0.967 -1.62 4.084
 0.979 -1.618 4.077
 0.992 -1.619 4.076
 1.005 -1.62 4.076
 1.017 -1.619 4.072
 1.031 -1.621 4.074
 1.043 -1.621 4.069
 1.055 -1.62 4.064
 1.068 -1.62 4.061
 1.08 -1.619 4.056
 1.094 -1.622 4.06
 1.107 -1.622 4.057
 1.121 -1.624 4.058
 1.133 -1.623 4.053
 1.146 -1.624 4.053
 1.156 -1.621 4.041
 1.17 -1.623 4.044
 1.184 -1.625 4.045
 1.199 -1.627 4.048
 1.213 -1.629 4.048
 1.227 -1.631 4.05
 1.239 -1.631 4.046
 1.251 -1.63 4.04
 1.263 -1.628 4.033
 1.275 -1.628 4.028
 1.286 -1.626 4.02
 1.298 -1.625 4.013
 1.31 -1.625 4.009
 1.326 -1.629 4.014
 1.341 -1.632 4.018
 1.356 -1.635 4.023
 1.374 -1.641 4.034
 1.387 -1.641 4.029
 1.397 -1.638 4.018
 1.407 -1.635 4.007
 1.419 -1.634 4
 1.429 -1.632 3.989
 1.443 -1.633 3.988
 1.455 -1.632 3.983
 1.469 -1.634 3.983
 1.481 -1.633 3.976
 1.493 -1.632 3.969
 1.503 -1.63 3.96
 1.516 -1.63 3.956
 1.527 -1.628 3.946
 1.541 -1.63 3.946
 1.555 -1.631 3.945
 1.571 -1.635 3.95
 1.582 -1.633 3.94
 1.598 -1.637 3.945
 1.609 -1.635 3.935
 1.618 -1.632 3.922
 1.627 -1.628 3.909
 1.64 -1.628 3.905
 1.65 -1.626 3.894
 1.664 -1.627 3.893
 1.68 -1.63 3.894
 1.695 -1.632 3.894
 1.704 -1.629 3.881
 1.718 -1.631 3.881
 1.727 -1.627 3.866
 1.739 -1.627 3.861
 1.75 -1.625 3.852
 1.764 -1.626 3.849
 1.776 -1.626 3.842
 1.79 -1.627 3.841
 1.803 -1.627 3.836
 1.814 -1.626 3.827
 1.826 -1.626 3.821
 1.833 -1.621 3.803
 1.839 -1.615 3.785
 1.842 -1.607 3.761
 1.85 -1.603 3.746
 1.853 -1.595 3.721
 1.857 -1.588 3.699
 1.861 -1.581 3.677
 1.866 -1.575 3.658
 1.869 -1.567 3.634
 1.876 -1.563 3.618
 1.879 -1.556 3.596
 1.882 -1.548 3.573
 1.886 -1.542 3.551
 1.878 -1.526 3.51
 1.878 -1.516 3.482
 1.868 -1.499 3.436
 1.867 -1.489 3.406
 1.863 -1.476 3.373
 1.87 -1.473 3.359
 1.846 -1.446 3.291
 0 0 0
 1.818 -1.407 3.191
 1.817 -1.398 3.165
 1.824 -1.395 3.153
 1.832 -1.393 3.143
 1.837 -1.388 3.126
 1.836 -1.38 3.101
 1.837 -1.372 3.079
 1.834 -1.362 3.051
 1.828 -1.351 3.019
 1.826 -1.342 2.993
 1.82 -1.33 2.961
 1.839 -1.336 2.968
 0 0 0
 -2.219 -1.626 3.743
 -2.198 -1.62 3.735
 -2.184 -1.619 3.739
 -2.168 -1.617 3.741
 -2.165 -1.625 3.765
 -2.152 -1.624 3.77
 -2.14 -1.625 3.778
 -2.134 -1.631 3.797
 -2.123 -1.632 3.806
 -2.108 -1.631 3.809
 -2.096 -1.632 3.818
 -2.082 -1.631 3.821
 -2.069 -1.631 3.827
 -2.054 -1.629 3.83
 -2.044 -1.632 3.841
 -2.03 -1.63 3.844
 -2.021 -1.634 3.858
 -2.008 -1.634 3.864
 -1.995 -1.634 3.87
 -1.978 -1.63 3.867
 -1.967 -1.633 3.878
 -1.952 -1.63 3.878
 -1.937 -1.629 3.879
 -1.924 -1.629 3.885
 -1.911 -1.629 3.892
 -1.897 -1.628 3.895
 -1.885 -1.629 3.902
 -1.871 -1.628 3.906
 -1.859 -1.628 3.911
 -1.849 -1.631 3.923
 -1.835 -1.63 3.926
 -1.821 -1.63 3.93
 -1.805 -1.627 3.928
 -1.791 -1.626 3.932
 -1.777 -1.625 3.932
 -1.766 -1.626 3.942
 -1.753 -1.627 3.948
 -1.741 -1.627 3.954
 -1.727 -1.627 3.957
 -1.715 -1.628 3.965
 -1.701 -1.627 3.967
 -1.687 -1.625 3.967
 -1.673 -1.625 3.971
 -1.661 -1.625 3.976
 -1.646 -1.623 3.976
 -1.634 -1.624 3.982
 -1.622 -1.625 3.99
 -1.611 -1.627 4
 -1.598 -1.627 4.004
 -1.586 -1.627 4.009
 -1.573 -1.628 4.015
 -1.559 -1.627 4.017
 -1.546 -1.627 4.021
 -1.535 -1.628 4.028
 -1.519 -1.625 4.024
 -1.502 -1.621 4.018
 -1.487 -1.618 4.015
 -1.472 -1.617 4.016
 -1.458 -1.615 4.015
 -1.445 -1.615 4.019
 -1.433 -1.616 4.026
 -1.42 -1.616 4.03
 -1.41 -1.619 4.04
 -1.398 -1.62 4.048
 -1.387 -1.622 4.056
 -1.374 -1.622 4.059
 -1.364 -1.625 4.071
 -1.348 -1.622 4.066
 -1.332 -1.618 4.06
 -1.319 -1.618 4.063
 -1.308 -1.62 4.072
 -1.294 -1.618 4.07
 -1.279 -1.616 4.069
 -1.267 -1.616 4.072
 -1.254 -1.617 4.078
 -1.24 -1.615 4.077
 -1.229 -1.617 4.084
 -1.219 -1.621 4.099
 -1.208 -1.624 4.108
 -1.194 -1.622 4.106
 -1.183 -1.625 4.117
 -1.17 -1.625 4.119
 -1.156 -1.622 4.116
 -1.141 -1.62 4.114
 -1.126 -1.617 4.11
 -1.11 -1.612 4.1
 -1.098 -1.613 4.103
 -1.085 -1.614 4.108
 -1.074 -1.616 4.118
 -1.063 -1.619 4.127
 -1.051 -1.62 4.133
 -1.037 -1.618 4.13
 -1.024 -1.618 4.133
 -1.009 -1.615 4.127
 -0.995 -1.612 4.124
 -0.982 -1.611 4.123
 -0.967 -1.609 4.119
 -0.953 -1.605 4.113
 -0.94 -1.605 4.114
 -0.929 -1.608 4.123
 -0.915 -1.607 4.124
 -0.903 -1.608 4.127
 -0.891 -1.609 4.135
 -0.879 -1.61 4.139
 -0.866 -1.61 4.139
 -0.854 -1.611 4.144
 -0.841 -1.61 4.146
 -0.828 -1.61 4.147
 -0.815 -1.609 4.145
 -0.803 -1.611 4.153
 -0.79 -1.61 4.152
 -0.777 -1.609 4.152
 -0.764 -1.61 4.156
 -0.752 -1.611 4.161
 -0.738 -1.608 4.154
 -0.725 -1.608 4.156
 -0.713 -1.608 4.159
 -0.699 -1.607 4.156
 -0.687 -1.609 4.163
 -0.676 -1.612 4.172
 -0.662 -1.61 4.169
 -0.649 -1.608 4.167
 -0.637 -1.61 4.172
 -0.624 -1.609 4.17
 -0.611 -1.609 4.173
 -0.599 -1.611 4.18
 -0.587 -1.613 4.186
 -0.573 -1.61 4.18
 -0.56 -1.609 4.179
 -0.547 -1.608 4.178
 -0.534 -1.606 4.174
 -0.521 -1.606 4.175
 -0.509 -1.608 4.181
 -0.496 -1.607 4.178
 -0.483 -1.606 4.178
 -0.47 -1.605 4.176
 -0.458 -1.605 4.176
 -0.444 -1.603 4.173
 -0.432 -1.604 4.177
 -0.42 -1.606 4.182
 -0.407 -1.603 4.177
 -0.394 -1.602 4.175
 -0.381 -1.603 4.176
 -0.368 -1.602 4.177
 -0.356 -1.602 4.175
 -0.344 -1.606 4.188
 -0.332 -1.61 4.197
 -0.319 -1.611 4.201
 -0.306 -1.608 4.194
 -0.293 -1.607 4.191
 -0.281 -1.607 4.193
 -0.268 -1.605 4.188
 -0.255 -1.607 4.193
 -0.243 -1.61 4.203
 -0.23 -1.609 4.2
 -0.217 -1.607 4.196
 -0.205 -1.608 4.199
 -0.192 -1.608 4.2
 -0.179 -1.607 4.197
 -0.167 -1.607 4.198
 -0.154 -1.608 4.199
 -0.141 -1.607 4.197
 -0.129 -1.607 4.196
 -0.116 -1.606 4.195
 -0.104 -1.608 4.199
 -0.091 -1.607 4.197
 -0.078 -1.607 4.198
 -0.065 -1.605 4.194
 -0.053 -1.603 4.188
 -0.04 -1.602 4.185
 -0.028 -1.602 4.185
 -0.015 -1.603 4.187
 -0.002 -1.603 4.186
 0.009 -1.606 4.194
 0.022 -1.608 4.2
 0.035 -1.608 4.2
 0.047 -1.605 4.193
 0.06 -1.608 4.2
 0.073 -1.607 4.196
 0.085 -1.604 4.187
 0.098 -1.605 4.19
 0.111 -1.609 4.199
 0.123 -1.605 4.189
 0.136 -1.605 4.188
 0.148 -1.607 4.192
 0.161 -1.607 4.194
 0.174 -1.607 4.191
 0.186 -1.607 4.191
 0.199 -1.608 4.192
 0.212 -1.609 4.194
 0.224 -1.608 4.193
 0.237 -1.61 4.195
 0.25 -1.609 4.194
 0.263 -1.612 4.201
 0.275 -1.611 4.196
 0.288 -1.61 4.192
 0.3 -1.609 4.19
 0.313 -1.61 4.192
 0.325 -1.607 4.183
 0.338 -1.608 4.183
 0.351 -1.609 4.185
 0.362 -1.604 4.173
 0.375 -1.603 4.169
 0.387 -1.602 4.165
 0.399 -1.601 4.16
 0.412 -1.602 4.161
 0.425 -1.603 4.164
 0.438 -1.604 4.163
 0.45 -1.604 4.162
 0.464 -1.607 4.169
 0.476 -1.606 4.166
 0.488 -1.604 4.158
 0.5 -1.603 4.154
 0.513 -1.605 4.158
 0.526 -1.604 4.156
 0.538 -1.603 4.151
 0.552 -1.608 4.161
 0.565 -1.609 4.164
 0.577 -1.607 4.157
 0.589 -1.605 4.15
 0.602 -1.606 4.151
 0.614 -1.604 4.142
 0.626 -1.603 4.14
 0.638 -1.603 4.136
 0.652 -1.605 4.141
 0.666 -1.608 4.146
 0.679 -1.611 4.151
 0.694 -1.614 4.159
 0.708 -1.619 4.169
 0.722 -1.62 4.17
 0.734 -1.62 4.167
 0.747 -1.62 4.166
 0.758 -1.616 4.153
 0.769 -1.614 4.145
 0.782 -1.614 4.142
 0.792 -1.609 4.128
 0.804 -1.607 4.122
 0.816 -1.607 4.119
 0.829 -1.607 4.118
 0.842 -1.608 4.116
 0.856 -1.61 4.12
 0.87 -1.613 4.124
 0.883 -1.614 4.125
 0.896 -1.615 4.124
 0.908 -1.613 4.117
 0.922 -1.616 4.122
 0.935 -1.616 4.121
 0.948 -1.617 4.12
 0.96 -1.616 4.114
 0.973 -1.616 4.111
 0.984 -1.613 4.102
 0.996 -1.613 4.098
 1.01 -1.615 4.101
 1.024 -1.617 4.102
 1.038 -1.619 4.105
 1.051 -1.62 4.103
 1.063 -1.619 4.099
 1.075 -1.618 4.094
 1.087 -1.617 4.088
 1.101 -1.619 4.09
 1.113 -1.619 4.085
 1.127 -1.62 4.085
 1.14 -1.621 4.084
 1.154 -1.622 4.085
 1.164 -1.619 4.073
 1.178 -1.621 4.074
 1.193 -1.623 4.077
 1.206 -1.625 4.077
 1.22 -1.626 4.078
 1.236 -1.63 4.083
 1.248 -1.629 4.077
 1.26 -1.629 4.073
 1.27 -1.625 4.061
 1.281 -1.623 4.053
 1.292 -1.621 4.042
 1.305 -1.621 4.039
 1.316 -1.619 4.031
 1.332 -1.624 4.038
 1.349 -1.629 4.047
 1.364 -1.632 4.051
 1.38 -1.636 4.056
 1.393 -1.635 4.052
 1.406 -1.635 4.047
 1.415 -1.632 4.034
 1.427 -1.63 4.026
 1.439 -1.63 4.021
 1.452 -1.631 4.019
 1.464 -1.63 4.012
 1.478 -1.63 4.01
 1.49 -1.63 4.004
 1.5 -1.627 3.993
 1.511 -1.625 3.984
 1.524 -1.626 3.981
 1.536 -1.625 3.974
 1.55 -1.626 3.973
 1.566 -1.63 3.977
 1.583 -1.634 3.983
 1.595 -1.633 3.976
 1.609 -1.635 3.975
 1.621 -1.634 3.968
 1.629 -1.63 3.954
 1.639 -1.626 3.94
 1.65 -1.625 3.933
 1.662 -1.625 3.927
 1.677 -1.626 3.926
 1.691 -1.628 3.925
 1.707 -1.631 3.927
 1.717 -1.629 3.916
 1.731 -1.629 3.913
 1.74 -1.626 3.9
 1.752 -1.626 3.893
 1.763 -1.625 3.886
 1.778 -1.626 3.884
 1.79 -1.626 3.879
 1.803 -1.626 3.874
 1.817 -1.627 3.87
 1.826 -1.624 3.857
 1.835 -1.621 3.844
 1.84 -1.615 3.824
 1.849 -1.611 3.809
 1.852 -1.603 3.786
 1.859 -1.599 3.769
 1.865 -1.593 3.749
 1.868 -1.585 3.726
 1.869 -1.575 3.697
 1.871 -1.567 3.671
 1.872 -1.558 3.644
 1.877 -1.551 3.624
 1.878 -1.543 3.598
 1.882 -1.536 3.577
 1.886 -1.53 3.557
 1.881 -1.516 3.519
 1.88 -1.506 3.49
 1.871 -1.49 3.446
 1.864 -1.475 3.405
 1.861 -1.464 3.374
 1.868 -1.46 3.359
 0 0 0
 0 0 0
 1.821 -1.398 3.2
 1.822 -1.391 3.178
 1.821 -1.382 3.151
 1.83 -1.381 3.143
 1.837 -1.378 3.131
 1.839 -1.371 3.11
 1.837 -1.362 3.084
 1.836 -1.353 3.058
 1.83 -1.342 3.027
 1.829 -1.333 3.002
 1.833 -1.329 2.986
 1.857 -1.338 3.002
 0 0 0
 -2.254 -1.639 3.807
 -2.22 -1.623 3.777
 -2.204 -1.622 3.78
 -2.189 -1.62 3.782
 -2.185 -1.627 3.804
 -2.168 -1.624 3.804
 -2.156 -1.625 3.812
 -2.148 -1.628 3.827
 -2.133 -1.627 3.83
 -2.122 -1.628 3.839
 -2.11 -1.629 3.847
 -2.096 -1.628 3.851
 -2.082 -1.628 3.856
 -2.068 -1.627 3.86
 -2.056 -1.628 3.869
 -2.043 -1.628 3.873
 -2.032 -1.63 3.884
 -2.02 -1.631 3.893
 -2.01 -1.633 3.904
 -1.993 -1.63 3.903
 -1.985 -1.634 3.917
 -1.97 -1.633 3.92
 -1.954 -1.63 3.918
 -1.938 -1.627 3.918
 -1.925 -1.628 3.924
 -1.907 -1.624 3.921
 -1.895 -1.625 3.928
 -1.883 -1.625 3.935
 -1.87 -1.626 3.94
 -1.857 -1.626 3.946
 -1.843 -1.625 3.95
 -1.833 -1.627 3.96
 -1.818 -1.626 3.962
 -1.805 -1.625 3.966
 -1.79 -1.624 3.968
 -1.78 -1.627 3.98
 -1.764 -1.624 3.978
 -1.75 -1.623 3.98
 -1.739 -1.625 3.989
 -1.726 -1.625 3.994
 -1.713 -1.625 3.999
 -1.698 -1.623 3.999
 -1.686 -1.624 4.006
 -1.672 -1.623 4.007
 -1.658 -1.622 4.011
 -1.645 -1.622 4.015
 -1.634 -1.624 4.024
 -1.622 -1.626 4.033
 -1.609 -1.626 4.037
 -1.596 -1.625 4.041
 -1.584 -1.626 4.047
 -1.568 -1.623 4.043
 -1.553 -1.621 4.043
 -1.541 -1.622 4.049
 -1.527 -1.621 4.05
 -1.51 -1.616 4.043
 -1.496 -1.616 4.046
 -1.483 -1.616 4.051
 -1.469 -1.614 4.05
 -1.454 -1.613 4.05
 -1.442 -1.614 4.056
 -1.428 -1.612 4.056
 -1.416 -1.613 4.062
 -1.403 -1.613 4.067
 -1.393 -1.616 4.078
 -1.379 -1.615 4.079
 -1.37 -1.619 4.093
 -1.354 -1.616 4.088
 -1.339 -1.613 4.085
 -1.325 -1.612 4.085
 -1.314 -1.615 4.096
 -1.3 -1.613 4.095
 -1.286 -1.612 4.096
 -1.274 -1.613 4.101
 -1.263 -1.615 4.109
 -1.247 -1.611 4.103
 -1.235 -1.612 4.109
 -1.226 -1.617 4.125
 -1.214 -1.619 4.133
 -1.199 -1.616 4.128
 -1.19 -1.622 4.146
 -1.178 -1.622 4.15
 -1.163 -1.62 4.148
 -1.148 -1.617 4.144
 -1.134 -1.615 4.142
 -1.116 -1.609 4.128
 -1.104 -1.609 4.13
 -1.09 -1.608 4.132
 -1.079 -1.611 4.141
 -1.068 -1.613 4.15
 -1.056 -1.615 4.156
 -1.041 -1.612 4.152
 -1.029 -1.613 4.158
 -1.015 -1.611 4.154
 -1 -1.608 4.15
 -0.987 -1.608 4.151
 -0.973 -1.606 4.148
 -0.958 -1.601 4.139
 -0.943 -1.599 4.135
 -0.932 -1.601 4.143
 -0.919 -1.601 4.145
 -0.906 -1.601 4.147
 -0.895 -1.604 4.157
 -0.884 -1.607 4.168
 -0.871 -1.607 4.169
 -0.858 -1.606 4.169
 -0.846 -1.608 4.176
 -0.833 -1.607 4.177
 -0.819 -1.605 4.173
 -0.807 -1.606 4.179
 -0.795 -1.607 4.182
 -0.781 -1.605 4.179
 -0.769 -1.606 4.184
 -0.757 -1.608 4.191
 -0.743 -1.606 4.187
 -0.73 -1.607 4.191
 -0.718 -1.608 4.195
 -0.704 -1.605 4.188
 -0.692 -1.606 4.195
 -0.68 -1.609 4.204
 -0.667 -1.608 4.201
 -0.653 -1.607 4.2
 -0.641 -1.608 4.205
 -0.628 -1.606 4.201
 -0.614 -1.605 4.199
 -0.602 -1.606 4.205
 -0.59 -1.607 4.209
 -0.576 -1.606 4.207
 -0.563 -1.605 4.206
 -0.55 -1.604 4.203
 -0.537 -1.602 4.201
 -0.524 -1.602 4.202
 -0.512 -1.603 4.205
 -0.498 -1.6 4.199
 -0.485 -1.601 4.201
 -0.472 -1.599 4.198
 -0.46 -1.6 4.2
 -0.446 -1.598 4.197
 -0.435 -1.601 4.206
 -0.422 -1.602 4.21
 -0.409 -1.601 4.207
 -0.396 -1.598 4.202
 -0.383 -1.598 4.203
 -0.37 -1.598 4.202
 -0.357 -1.597 4.199
 -0.345 -1.599 4.207
 -0.333 -1.602 4.214
 -0.32 -1.603 4.218
 -0.307 -1.602 4.216
 -0.294 -1.6 4.213
 -0.282 -1.601 4.214
 -0.269 -1.6 4.212
 -0.256 -1.601 4.217
 -0.244 -1.602 4.22
 -0.231 -1.603 4.222
 -0.218 -1.602 4.221
 -0.206 -1.602 4.22
 -0.193 -1.601 4.218
 -0.18 -1.602 4.221
 -0.167 -1.601 4.219
 -0.155 -1.602 4.22
 -0.142 -1.601 4.219
 -0.129 -1.6 4.217
 -0.116 -1.598 4.211
 -0.104 -1.598 4.211
 -0.091 -1.597 4.21
 -0.078 -1.598 4.212
 -0.066 -1.598 4.211
 -0.053 -1.598 4.21
 -0.04 -1.598 4.211
 -0.028 -1.598 4.212
 -0.015 -1.598 4.21
 -0.002 -1.597 4.207
 0.009 -1.598 4.212
 0.022 -1.6 4.217
 0.035 -1.6 4.217
 0.047 -1.597 4.208
 0.06 -1.601 4.218
 0.073 -1.6 4.216
 0.085 -1.597 4.206
 0.098 -1.598 4.208
 0.111 -1.602 4.219
 0.123 -1.598 4.209
 0.136 -1.599 4.21
 0.149 -1.599 4.209
 0.161 -1.597 4.204
 0.174 -1.597 4.204
 0.187 -1.598 4.206
 0.199 -1.598 4.206
 0.213 -1.602 4.214
 0.225 -1.603 4.217
 0.238 -1.604 4.217
 0.251 -1.603 4.215
 0.264 -1.604 4.217
 0.276 -1.602 4.21
 0.288 -1.6 4.203
 0.3 -1.597 4.195
 0.313 -1.599 4.199
 0.326 -1.599 4.198
 0.339 -1.6 4.2
 0.352 -1.602 4.205
 0.364 -1.601 4.2
 0.377 -1.599 4.194
 0.389 -1.596 4.185
 0.401 -1.594 4.179
 0.413 -1.594 4.177
 0.427 -1.597 4.185
 0.439 -1.597 4.182
 0.452 -1.596 4.181
 0.465 -1.599 4.186
 0.478 -1.6 4.189
 0.49 -1.597 4.179
 0.503 -1.599 4.181
 0.517 -1.602 4.188
 0.529 -1.602 4.186
 0.542 -1.601 4.182
 0.556 -1.604 4.189
 0.568 -1.605 4.189
 0.58 -1.602 4.181
 0.592 -1.601 4.175
 0.605 -1.601 4.174
 0.617 -1.599 4.168
 0.63 -1.6 4.167
 0.643 -1.601 4.169
 0.657 -1.604 4.174
 0.67 -1.606 4.177
 0.684 -1.608 4.181
 0.698 -1.61 4.186
 0.711 -1.611 4.186
 0.724 -1.612 4.187
 0.736 -1.612 4.184
 0.75 -1.613 4.185
 0.76 -1.608 4.171
 0.772 -1.607 4.166
 0.786 -1.609 4.168
 0.797 -1.605 4.156
 0.808 -1.602 4.145
 0.822 -1.605 4.15
 0.836 -1.607 4.153
 0.847 -1.604 4.144
 0.86 -1.606 4.145
 0.875 -1.609 4.152
 0.886 -1.607 4.143
 0.899 -1.607 4.142
 0.913 -1.609 4.143
 0.928 -1.613 4.151
 0.94 -1.613 4.149
 0.955 -1.616 4.153
 0.967 -1.615 4.148
 0.979 -1.614 4.143
 0.991 -1.612 4.136
 1.003 -1.612 4.133
 1.019 -1.617 4.142
 1.032 -1.617 4.14
 1.045 -1.618 4.138
 1.058 -1.618 4.136
 1.072 -1.619 4.136
 1.082 -1.616 4.124
 1.094 -1.614 4.118
 1.108 -1.616 4.119
 1.121 -1.617 4.117
 1.134 -1.617 4.114
 1.148 -1.619 4.117
 1.162 -1.621 4.118
 1.174 -1.619 4.11
 1.186 -1.619 4.106
 1.2 -1.62 4.106
 1.213 -1.621 4.106
 1.227 -1.623 4.106
 1.241 -1.624 4.106
 1.254 -1.624 4.102
 1.266 -1.624 4.098
 1.276 -1.62 4.085
 1.288 -1.619 4.078
 1.3 -1.618 4.071
 1.313 -1.618 4.069
 1.325 -1.618 4.064
 1.342 -1.623 4.072
 1.357 -1.625 4.075
 1.372 -1.628 4.078
 1.387 -1.63 4.08
 1.399 -1.63 4.074
 1.411 -1.628 4.067
 1.422 -1.627 4.059
 1.434 -1.626 4.051
 1.446 -1.625 4.046
 1.46 -1.626 4.045
 1.474 -1.627 4.043
 1.487 -1.628 4.04
 1.499 -1.627 4.034
 1.51 -1.625 4.025
 1.522 -1.624 4.018
 1.534 -1.623 4.011
 1.547 -1.623 4.007
 1.561 -1.625 4.006
 1.578 -1.629 4.012
 1.594 -1.632 4.015
 1.606 -1.632 4.009
 1.619 -1.632 4.005
 1.631 -1.631 3.998
 1.64 -1.627 3.984
 1.65 -1.625 3.972
 1.662 -1.624 3.966
 1.673 -1.623 3.958
 1.687 -1.624 3.955
 1.702 -1.625 3.954
 1.715 -1.626 3.951
 1.726 -1.624 3.94
 1.741 -1.626 3.941
 1.752 -1.624 3.931
 1.765 -1.625 3.926
 1.779 -1.626 3.925
 1.793 -1.627 3.922
 1.805 -1.627 3.915
 1.818 -1.627 3.911
 1.831 -1.627 3.906
 1.838 -1.622 3.888
 1.846 -1.617 3.871
 1.851 -1.611 3.851
 1.856 -1.605 3.83
 1.859 -1.596 3.804
 1.865 -1.591 3.785
 1.869 -1.584 3.763
 1.871 -1.575 3.737
 1.872 -1.565 3.707
 1.874 -1.557 3.681
 1.874 -1.547 3.652
 1.88 -1.542 3.635
 1.882 -1.534 3.61
 1.887 -1.528 3.591
 1.89 -1.521 3.568
 1.886 -1.508 3.533
 1.885 -1.498 3.502
 1.873 -1.479 3.453
 1.862 -1.462 3.406
 1.863 -1.454 3.382
 0 0 0
 0 0 0
 0 0 0
 0 0 0
 1.811 -1.371 3.162
 1.812 -1.364 3.141
 1.829 -1.369 3.145
 1.837 -1.367 3.136
 1.842 -1.363 3.12
 1.843 -1.356 3.098
 1.842 -1.347 3.073
 1.834 -1.334 3.036
 1.832 -1.324 3.01
 1.849 -1.33 3.016
 1.835 -1.312 2.97
 -2.214 -1.588 3.716
 -2.297 -1.656 3.884
 -2.241 -1.626 3.818
 -2.226 -1.624 3.822
 -2.209 -1.622 3.822
 -2.202 -1.626 3.839
 -2.185 -1.623 3.838
 -2.17 -1.622 3.841
 -2.159 -1.624 3.852
 -2.144 -1.622 3.855
 -2.132 -1.623 3.863
 -2.119 -1.623 3.869
 -2.104 -1.622 3.872
 -2.093 -1.623 3.881
 -2.081 -1.625 3.891
 -2.069 -1.626 3.899
 -2.057 -1.626 3.905
 -2.045 -1.627 3.914
 -2.031 -1.626 3.918
 -2.018 -1.627 3.925
 -2.002 -1.624 3.924
 -1.992 -1.627 3.937
 -1.981 -1.629 3.946
 -1.965 -1.626 3.946
 -1.95 -1.625 3.948
 -1.939 -1.626 3.958
 -1.923 -1.624 3.957
 -1.908 -1.623 3.96
 -1.895 -1.623 3.965
 -1.881 -1.622 3.968
 -1.866 -1.62 3.969
 -1.851 -1.619 3.97
 -1.841 -1.621 3.982
 -1.829 -1.623 3.991
 -1.815 -1.622 3.995
 -1.802 -1.622 3.999
 -1.79 -1.623 4.007
 -1.776 -1.622 4.009
 -1.761 -1.62 4.009
 -1.748 -1.621 4.016
 -1.738 -1.623 4.027
 -1.726 -1.624 4.034
 -1.71 -1.622 4.032
 -1.696 -1.621 4.035
 -1.683 -1.62 4.039
 -1.668 -1.619 4.039
 -1.655 -1.619 4.044
 -1.644 -1.621 4.055
 -1.633 -1.623 4.064
 -1.622 -1.625 4.073
 -1.609 -1.625 4.078
 -1.596 -1.625 4.082
 -1.578 -1.62 4.074
 -1.562 -1.618 4.072
 -1.547 -1.616 4.071
 -1.532 -1.613 4.068
 -1.517 -1.611 4.068
 -1.504 -1.612 4.073
 -1.493 -1.614 4.082
 -1.481 -1.614 4.088
 -1.467 -1.614 4.09
 -1.454 -1.614 4.094
 -1.44 -1.612 4.094
 -1.426 -1.611 4.095
 -1.411 -1.609 4.094
 -1.399 -1.61 4.1
 -1.385 -1.609 4.102
 -1.375 -1.613 4.114
 -1.361 -1.612 4.116
 -1.348 -1.611 4.117
 -1.334 -1.61 4.117
 -1.322 -1.612 4.126
 -1.307 -1.609 4.123
 -1.293 -1.608 4.124
 -1.281 -1.609 4.13
 -1.27 -1.612 4.14
 -1.254 -1.608 4.132
 -1.242 -1.609 4.138
 -1.232 -1.612 4.15
 -1.219 -1.613 4.154
 -1.204 -1.61 4.151
 -1.195 -1.616 4.168
 -1.182 -1.616 4.172
 -1.168 -1.614 4.171
 -1.155 -1.614 4.174
 -1.141 -1.613 4.172
 -1.124 -1.606 4.159
 -1.11 -1.606 4.161
 -1.096 -1.604 4.158
 -1.083 -1.604 4.16
 -1.072 -1.606 4.17
 -1.061 -1.609 4.179
 -1.047 -1.608 4.181
 -1.036 -1.612 4.192
 -1.023 -1.61 4.19
 -1.009 -1.609 4.19
 -0.995 -1.608 4.191
 -0.982 -1.608 4.192
 -0.966 -1.602 4.178
 -0.951 -1.599 4.172
 -0.939 -1.6 4.179
 -0.926 -1.6 4.18
 -0.912 -1.599 4.18
 -0.902 -1.603 4.194
 -0.891 -1.606 4.204
 -0.877 -1.605 4.202
 -0.863 -1.603 4.2
 -0.851 -1.604 4.205
 -0.838 -1.604 4.205
 -0.824 -1.603 4.205
 -0.812 -1.604 4.21
 -0.799 -1.603 4.21
 -0.785 -1.601 4.206
 -0.772 -1.6 4.207
 -0.759 -1.601 4.209
 -0.746 -1.599 4.208
 -0.733 -1.601 4.212
 -0.721 -1.603 4.219
 -0.708 -1.603 4.221
 -0.697 -1.605 4.228
 -0.684 -1.606 4.234
 -0.671 -1.606 4.235
 -0.658 -1.606 4.236
 -0.645 -1.605 4.236
 -0.631 -1.602 4.23
 -0.618 -1.601 4.227
 -0.605 -1.601 4.23
 -0.592 -1.601 4.229
 -0.578 -1.599 4.225
 -0.565 -1.598 4.226
 -0.553 -1.598 4.228
 -0.539 -1.596 4.223
 -0.526 -1.596 4.223
 -0.514 -1.596 4.226
 -0.5 -1.596 4.224
 -0.487 -1.594 4.22
 -0.474 -1.593 4.219
 -0.462 -1.594 4.223
 -0.448 -1.593 4.221
 -0.436 -1.593 4.222
 -0.424 -1.595 4.229
 -0.411 -1.594 4.229
 -0.397 -1.592 4.223
 -0.384 -1.591 4.222
 -0.372 -1.592 4.225
 -0.358 -1.59 4.22
 -0.346 -1.592 4.225
 -0.334 -1.594 4.232
 -0.321 -1.596 4.237
 -0.308 -1.594 4.234
 -0.295 -1.594 4.233
 -0.283 -1.594 4.233
 -0.27 -1.592 4.231
 -0.257 -1.593 4.233
 -0.244 -1.593 4.232
 -0.232 -1.594 4.236
 -0.219 -1.592 4.231
 -0.206 -1.591 4.23
 -0.193 -1.591 4.228
 -0.18 -1.592 4.232
 -0.167 -1.59 4.227
 -0.155 -1.592 4.232
 -0.142 -1.591 4.232
 -0.129 -1.591 4.232
 -0.117 -1.59 4.229
 -0.104 -1.592 4.233
 -0.091 -1.591 4.23
 -0.078 -1.59 4.229
 -0.066 -1.59 4.229
 -0.053 -1.589 4.224
 -0.04 -1.586 4.218
 -0.028 -1.588 4.222
 -0.015 -1.587 4.22
 -0.002 -1.586 4.216
 0.01 -1.589 4.225
 0.022 -1.593 4.234
 0.035 -1.591 4.231
 0.048 -1.589 4.225
 0.06 -1.591 4.23
 0.073 -1.59 4.227
 0.086 -1.587 4.218
 0.098 -1.588 4.22
 0.111 -1.592 4.23
 0.124 -1.589 4.223
 0.136 -1.588 4.22
 0.149 -1.587 4.217
 0.161 -1.585 4.21
 0.174 -1.585 4.209
 0.187 -1.587 4.214
 0.2 -1.588 4.216
 0.213 -1.592 4.226
 0.226 -1.595 4.233
 0.239 -1.595 4.234
 0.251 -1.594 4.228
 0.265 -1.596 4.233
 0.277 -1.594 4.228
 0.289 -1.593 4.223
 0.302 -1.592 4.22
 0.315 -1.593 4.223
 0.327 -1.592 4.217
 0.34 -1.591 4.214
 0.353 -1.593 4.219
 0.365 -1.591 4.213
 0.378 -1.59 4.209
 0.39 -1.589 4.205
 0.403 -1.589 4.204
 0.415 -1.587 4.196
 0.428 -1.588 4.2
 0.44 -1.587 4.194
 0.453 -1.587 4.193
 0.466 -1.588 4.195
 0.479 -1.591 4.2
 0.492 -1.59 4.196
 0.505 -1.593 4.203
 0.518 -1.594 4.205
 0.531 -1.593 4.202
 0.543 -1.592 4.197
 0.557 -1.594 4.201
 0.569 -1.594 4.199
 0.582 -1.593 4.195
 0.594 -1.593 4.193
 0.607 -1.594 4.193
 0.619 -1.591 4.185
 0.632 -1.592 4.184
 0.645 -1.594 4.187
 0.658 -1.595 4.188
 0.672 -1.597 4.192
 0.685 -1.599 4.195
 0.7 -1.602 4.201
 0.712 -1.601 4.198
 0.726 -1.603 4.201
 0.739 -1.604 4.201
 0.752 -1.606 4.203
 0.763 -1.6 4.187
 0.775 -1.601 4.186
 0.788 -1.601 4.185
 0.8 -1.599 4.177
 0.812 -1.598 4.173
 0.827 -1.601 4.178
 0.84 -1.602 4.179
 0.852 -1.601 4.172
 0.864 -1.6 4.168
 0.878 -1.601 4.169
 0.89 -1.6 4.163
 0.903 -1.601 4.162
 0.916 -1.601 4.16
 0.931 -1.605 4.168
 0.944 -1.605 4.167
 0.957 -1.606 4.167
 0.971 -1.608 4.167
 0.983 -1.607 4.164
 0.996 -1.607 4.16
 1.008 -1.607 4.156
 1.025 -1.612 4.168
 1.037 -1.612 4.163
 1.052 -1.614 4.168
 1.064 -1.615 4.165
 1.078 -1.615 4.164
 1.088 -1.612 4.152
 1.101 -1.611 4.147
 1.113 -1.611 4.143
 1.126 -1.611 4.141
 1.139 -1.612 4.139
 1.153 -1.613 4.14
 1.167 -1.615 4.14
 1.18 -1.614 4.136
 1.193 -1.615 4.135
 1.207 -1.617 4.134
 1.22 -1.617 4.133
 1.233 -1.617 4.128
 1.246 -1.617 4.125
 1.257 -1.615 4.117
 1.27 -1.615 4.113
 1.281 -1.613 4.105
 1.294 -1.614 4.102
 1.308 -1.615 4.101
 1.322 -1.616 4.1
 1.334 -1.616 4.096
 1.349 -1.618 4.097
 1.364 -1.62 4.099
 1.377 -1.621 4.097
 1.391 -1.623 4.097
 1.405 -1.623 4.094
 1.418 -1.624 4.092
 1.43 -1.622 4.085
 1.441 -1.621 4.077
 1.455 -1.621 4.074
 1.468 -1.622 4.07
 1.481 -1.622 4.066
 1.495 -1.624 4.067
 1.508 -1.624 4.063
 1.52 -1.623 4.055
 1.531 -1.621 4.046
 1.543 -1.62 4.04
 1.556 -1.62 4.035
 1.571 -1.622 4.036
 1.587 -1.626 4.041
 1.604 -1.63 4.045
 1.617 -1.63 4.04
 1.629 -1.629 4.033
 1.642 -1.629 4.029
 1.651 -1.625 4.015
 1.661 -1.623 4.004
 1.673 -1.622 3.996
 1.687 -1.622 3.993
 1.699 -1.622 3.988
 1.714 -1.624 3.987
 1.728 -1.625 3.985
 1.739 -1.623 3.976
 1.752 -1.624 3.972
 1.765 -1.624 3.965
 1.778 -1.624 3.962
 1.792 -1.625 3.958
 1.807 -1.626 3.956
 1.819 -1.626 3.949
 1.83 -1.624 3.94
 1.84 -1.622 3.93
 1.848 -1.617 3.912
 1.854 -1.612 3.894
 1.859 -1.606 3.873
 1.865 -1.599 3.852
 1.866 -1.589 3.822
 1.871 -1.583 3.801
 1.873 -1.574 3.775
 1.874 -1.565 3.747
 1.872 -1.553 3.713
 1.874 -1.545 3.687
 1.872 -1.533 3.653
 1.879 -1.529 3.637
 1.882 -1.521 3.614
 1.89 -1.518 3.6
 1.893 -1.511 3.578
 1.895 -1.503 3.553
 1.889 -1.489 3.515
 1.885 -1.477 3.479
 0 0 0
 0 0 0
 0 0 0
 0 0 0
 0 0 0
 0 0 0
 1.796 -1.349 3.14
 1.8 -1.344 3.122
 1.818 -1.35 3.131
 1.829 -1.35 3.126
 1.835 -1.347 3.112
 1.839 -1.342 3.094
 1.841 -1.335 3.075
 1.833 -1.322 3.038
 1.829 -1.312 3.01
 1.799 -1.283 2.937
 1.871 -1.327 3.032
 -2.313 -1.645 3.888
 -2.27 -1.624 3.844
 -2.254 -1.622 3.845
 -2.24 -1.621 3.85
 -2.221 -1.617 3.848
 -2.212 -1.621 3.862
 -2.199 -1.62 3.868
 -2.182 -1.617 3.867
 -2.17 -1.619 3.876
 -2.156 -1.618 3.88
 -2.146 -1.62 3.893
 -2.13 -1.618 3.894
 -2.119 -1.62 3.905
 -2.109 -1.623 3.917
 -2.1 -1.626 3.93
 -2.087 -1.626 3.936
 -2.077 -1.628 3.948
 -2.062 -1.628 3.952
 -2.048 -1.627 3.956
 -2.034 -1.626 3.96
 -2.018 -1.624 3.961
 -2.007 -1.626 3.972
 -1.996 -1.628 3.982
 -1.979 -1.625 3.98
 -1.965 -1.624 3.983
 -1.953 -1.625 3.991
 -1.938 -1.623 3.993
 -1.923 -1.623 3.996
 -1.911 -1.623 4.003
 -1.895 -1.621 4.002
 -1.878 -1.617 4
 -1.862 -1.615 3.999
 -1.849 -1.615 4.004
 -1.835 -1.614 4.008
 -1.823 -1.616 4.016
 -1.812 -1.618 4.026
 -1.801 -1.619 4.035
 -1.79 -1.621 4.045
 -1.775 -1.62 4.046
 -1.761 -1.619 4.05
 -1.748 -1.62 4.056
 -1.734 -1.619 4.059
 -1.717 -1.615 4.053
 -1.704 -1.615 4.059
 -1.693 -1.617 4.068
 -1.68 -1.617 4.073
 -1.668 -1.618 4.08
 -1.657 -1.621 4.091
 -1.645 -1.622 4.099
 -1.631 -1.621 4.1
 -1.617 -1.62 4.103
 -1.604 -1.621 4.108
 -1.586 -1.616 4.101
 -1.571 -1.614 4.1
 -1.557 -1.613 4.101
 -1.542 -1.611 4.102
 -1.528 -1.61 4.102
 -1.517 -1.612 4.113
 -1.506 -1.614 4.122
 -1.492 -1.614 4.124
 -1.478 -1.613 4.126
 -1.465 -1.613 4.13
 -1.449 -1.609 4.124
 -1.433 -1.606 4.121
 -1.418 -1.605 4.12
 -1.404 -1.603 4.121
 -1.389 -1.601 4.118
 -1.379 -1.604 4.13
 -1.367 -1.606 4.137
 -1.355 -1.607 4.144
 -1.341 -1.606 4.146
 -1.33 -1.608 4.155
 -1.317 -1.608 4.158
 -1.302 -1.606 4.157
 -1.29 -1.607 4.162
 -1.278 -1.609 4.171
 -1.263 -1.606 4.166
 -1.25 -1.606 4.168
 -1.239 -1.609 4.18
 -1.225 -1.608 4.181
 -1.21 -1.605 4.176
 -1.2 -1.609 4.19
 -1.187 -1.61 4.195
 -1.173 -1.607 4.191
 -1.159 -1.607 4.193
 -1.147 -1.609 4.201
 -1.131 -1.604 4.192
 -1.117 -1.602 4.189
 -1.103 -1.601 4.189
 -1.09 -1.601 4.193
 -1.077 -1.601 4.193
 -1.064 -1.601 4.196
 -1.051 -1.601 4.199
 -1.039 -1.603 4.207
 -1.026 -1.603 4.211
 -1.013 -1.603 4.213
 -1.001 -1.604 4.217
 -0.988 -1.605 4.222
 -0.972 -1.6 4.212
 -0.957 -1.596 4.204
 -0.945 -1.597 4.209
 -0.932 -1.597 4.212
 -0.918 -1.596 4.212
 -0.907 -1.6 4.223
 -0.896 -1.602 4.231
 -0.882 -1.601 4.231
 -0.868 -1.599 4.227
 -0.855 -1.599 4.229
 -0.842 -1.598 4.229
 -0.828 -1.597 4.227
 -0.815 -1.597 4.229
 -0.801 -1.595 4.228
 -0.788 -1.594 4.226
 -0.775 -1.593 4.226
 -0.761 -1.593 4.226
 -0.748 -1.591 4.224
 -0.736 -1.593 4.231
 -0.723 -1.594 4.235
 -0.71 -1.594 4.236
 -0.698 -1.595 4.24
 -0.686 -1.598 4.249
 -0.673 -1.597 4.249
 -0.659 -1.595 4.246
 -0.646 -1.594 4.246
 -0.632 -1.592 4.242
 -0.618 -1.59 4.237
 -0.605 -1.59 4.237
