 0.964 -1.613 4.165
 0.99 -1.615 4.163
 1.015 -1.614 4.155
 1.043 -1.617 4.157
 1.069 -1.619 4.156
 1.096 -1.62 4.153
 1.122 -1.621 4.148
 1.148 -1.621 4.143
 1.173 -1.62 4.133
 1.199 -1.621 4.129
 1.225 -1.622 4.123
 1.251 -1.622 4.118
 1.279 -1.625 4.119
 1.308 -1.629 4.12
 1.333 -1.629 4.112
 1.361 -1.632 4.111
 1.387 -1.631 4.103
 1.412 -1.631 4.093
 1.438 -1.631 4.085
 1.465 -1.632 4.081
 1.49 -1.631 4.069
 1.517 -1.633 4.064
 1.544 -1.634 4.058
 1.57 -1.634 4.049
 1.594 -1.632 4.036
 1.618 -1.631 4.024
 1.643 -1.63 4.012
 1.668 -1.629 4
 1.691 -1.627 3.983
 1.717 -1.627 3.973
 1.741 -1.626 3.961
 1.767 -1.626 3.951
 1.788 -1.622 3.93
 1.805 -1.614 3.901
 1.818 -1.604 3.864
 1.828 -1.59 3.82
 1.828 -1.569 3.759
 1.834 -1.553 3.709
 1.84 -1.537 3.661
 1.845 -1.522 3.612
 1.849 -1.505 3.562
 1.861 -1.496 3.529
 1.829 -1.452 3.414
 1.773 -1.39 3.257
 1.758 -1.362 3.18
 1.766 -1.352 3.145
 1.775 -1.343 3.114
 1.779 -1.33 3.073
 1.778 -1.314 3.025
 1.772 -1.295 2.969
 1.768 -1.277 2.917
 1.772 -1.265 2.88
 -2.295 -1.63 3.874
 -2.232 -1.604 3.825
 -2.226 -1.619 3.874
 -2.199 -1.619 3.886
 -2.173 -1.619 3.899
 -2.143 -1.617 3.905
 -2.114 -1.615 3.914
 -2.085 -1.613 3.921
 -2.059 -1.614 3.933
 -2.032 -1.613 3.943
 -2.008 -1.614 3.959
 -1.983 -1.616 3.973
 -1.959 -1.618 3.991
 -1.932 -1.618 4.001
 -1.909 -1.62 4.018
 -1.883 -1.621 4.03
 -1.857 -1.621 4.042
 -1.831 -1.622 4.052
 -1.803 -1.621 4.06
 -1.774 -1.619 4.064
 -1.75 -1.62 4.079
 -1.721 -1.619 4.085
 -1.693 -1.617 4.09
 -1.666 -1.616 4.097
 -1.64 -1.617 4.108
 -1.611 -1.615 4.111
 -1.584 -1.614 4.117
 -1.557 -1.613 4.123
 -1.53 -1.613 4.131
 -1.504 -1.613 4.138
 -1.476 -1.612 4.144
 -1.449 -1.61 4.149
 -1.422 -1.609 4.153
 -1.397 -1.611 4.166
 -1.37 -1.61 4.171
 -1.344 -1.611 4.179
 -1.319 -1.612 4.19
 -1.293 -1.613 4.198
 -1.264 -1.61 4.196
 -1.237 -1.608 4.199
 -1.209 -1.606 4.2
 -1.182 -1.605 4.203
 -1.155 -1.604 4.205
 -1.127 -1.601 4.204
 -1.1 -1.599 4.205
 -1.073 -1.598 4.207
 -1.046 -1.596 4.208
 -1.019 -1.596 4.212
 -0.994 -1.597 4.221
 -0.968 -1.598 4.227
 -0.942 -1.597 4.23
 -0.916 -1.598 4.236
 -0.89 -1.597 4.237
 -0.863 -1.595 4.236
 -0.835 -1.591 4.23
 -0.809 -1.592 4.236
 -0.782 -1.589 4.234
 -0.756 -1.589 4.236
 -0.73 -1.589 4.24
 -0.706 -1.592 4.251
 -0.679 -1.59 4.249
 -0.653 -1.59 4.253
 -0.628 -1.591 4.258
 -0.602 -1.592 4.263
 -0.576 -1.591 4.263
 -0.55 -1.591 4.265
 -0.524 -1.591 4.267
 -0.498 -1.589 4.265
 -0.472 -1.588 4.265
 -0.446 -1.587 4.265
 -0.42 -1.586 4.263
 -0.394 -1.584 4.259
 -0.368 -1.583 4.26
 -0.342 -1.584 4.262
 -0.316 -1.582 4.259
 -0.291 -1.583 4.262
 -0.265 -1.584 4.266
 -0.239 -1.583 4.265
 -0.213 -1.582 4.261
 -0.188 -1.583 4.265
 -0.162 -1.581 4.261
 -0.136 -1.581 4.261
 -0.111 -1.581 4.262
 -0.085 -1.58 4.259
 -0.06 -1.579 4.257
 -0.034 -1.58 4.258
 -0.008 -1.58 4.259
 0.016 -1.581 4.26
 0.042 -1.583 4.265
 0.067 -1.583 4.266
 0.093 -1.584 4.267
 0.118 -1.581 4.26
 0.144 -1.581 4.257
 0.169 -1.58 4.253
 0.195 -1.579 4.251
 0.22 -1.579 4.249
 0.246 -1.581 4.253
 0.272 -1.581 4.252
 0.297 -1.582 4.251
 0.323 -1.582 4.249
 0.348 -1.581 4.244
 0.374 -1.581 4.244
 0.4 -1.582 4.242
 0.425 -1.582 4.24
 0.451 -1.582 4.238
 0.477 -1.583 4.239
 0.502 -1.584 4.238
 0.528 -1.585 4.237
 0.555 -1.587 4.241
 0.58 -1.588 4.239
 0.606 -1.588 4.237
 0.632 -1.588 4.234
 0.657 -1.588 4.228
 0.683 -1.587 4.223
 0.708 -1.588 4.221
 0.734 -1.589 4.219
 0.76 -1.588 4.214
 0.787 -1.591 4.216
 0.813 -1.592 4.215
 0.839 -1.593 4.212
 0.865 -1.594 4.21
 0.892 -1.597 4.214
 0.918 -1.597 4.207
 0.942 -1.595 4.197
 0.97 -1.597 4.199
 0.997 -1.599 4.198
 1.022 -1.599 4.192
 1.05 -1.603 4.196
 1.079 -1.607 4.2
 1.104 -1.606 4.192
 1.13 -1.607 4.188
 1.157 -1.607 4.183
 1.182 -1.607 4.176
 1.209 -1.608 4.172
 1.236 -1.61 4.17
 1.263 -1.612 4.166
 1.291 -1.614 4.165
 1.319 -1.617 4.165
 1.345 -1.617 4.157
 1.374 -1.62 4.158
 1.4 -1.62 4.149
 1.426 -1.62 4.142
 1.453 -1.621 4.136
 1.48 -1.622 4.13
 1.504 -1.621 4.117
 1.532 -1.623 4.114
 1.56 -1.625 4.11
 1.586 -1.625 4.101
 1.612 -1.624 4.091
 1.638 -1.625 4.082
 1.663 -1.624 4.069
 1.687 -1.622 4.055
 1.711 -1.619 4.039
 1.736 -1.618 4.026
 1.759 -1.616 4.01
 1.782 -1.614 3.993
 1.8 -1.607 3.966
 1.817 -1.599 3.935
 1.827 -1.586 3.893
 1.835 -1.571 3.844
 1.838 -1.552 3.787
 1.844 -1.537 3.739
 1.848 -1.52 3.686
 1.856 -1.506 3.642
 1.863 -1.493 3.598
 1.876 -1.485 3.567
 1.842 -1.44 3.447
 1.746 -1.347 3.215
 1.738 -1.325 3.152
 1.758 -1.324 3.138
 1.769 -1.317 3.11
 1.777 -1.307 3.076
 1.779 -1.293 3.033
 1.774 -1.276 2.98
 1.761 -1.252 2.914
 1.751 -1.231 2.853
 -2.298 -1.606 3.889
 -2.275 -1.609 3.91
 -2.263 -1.619 3.948
 -2.234 -1.618 3.958
 -2.207 -1.618 3.97
 -2.176 -1.615 3.976
 -2.147 -1.613 3.984
 -2.116 -1.61 3.989
 -2.09 -1.611 4.002
 -2.063 -1.61 4.013
 -2.038 -1.612 4.029
 -2.013 -1.614 4.044
 -1.989 -1.616 4.061
 -1.961 -1.615 4.071
 -1.935 -1.616 4.083
 -1.909 -1.617 4.097
 -1.883 -1.617 4.108
 -1.857 -1.618 4.12
 -1.829 -1.617 4.129
 -1.801 -1.616 4.136
 -1.774 -1.616 4.146
 -1.745 -1.614 4.151
 -1.716 -1.613 4.156
 -1.687 -1.611 4.159
 -1.661 -1.611 4.169
 -1.632 -1.609 4.172
 -1.603 -1.607 4.176
 -1.575 -1.605 4.181
 -1.548 -1.605 4.189
 -1.521 -1.605 4.195
 -1.494 -1.604 4.201
 -1.466 -1.603 4.207
 -1.438 -1.601 4.21
 -1.412 -1.602 4.221
 -1.385 -1.602 4.226
 -1.358 -1.601 4.233
 -1.333 -1.603 4.244
 -1.307 -1.603 4.251
 -1.278 -1.6 4.25
 -1.25 -1.599 4.254
 -1.222 -1.597 4.254
 -1.194 -1.595 4.254
 -1.166 -1.593 4.256
 -1.138 -1.591 4.255
 -1.11 -1.588 4.254
 -1.083 -1.588 4.259
 -1.056 -1.587 4.26
 -1.03 -1.586 4.265
 -1.004 -1.586 4.27
 -0.977 -1.586 4.274
 -0.95 -1.584 4.274
 -0.923 -1.584 4.277
 -0.895 -1.581 4.273
 -0.868 -1.58 4.274
 -0.841 -1.576 4.27
 -0.814 -1.576 4.272
 -0.788 -1.574 4.272
 -0.761 -1.574 4.274
 -0.735 -1.574 4.277
 -0.71 -1.576 4.286
 -0.683 -1.574 4.284
 -0.657 -1.574 4.288
 -0.631 -1.575 4.292
 -0.605 -1.574 4.294
 -0.579 -1.573 4.293
 -0.553 -1.573 4.294
 -0.526 -1.571 4.292
 -0.5 -1.57 4.291
 -0.474 -1.568 4.29
 -0.448 -1.568 4.29
 -0.421 -1.566 4.288
 -0.395 -1.565 4.287
 -0.369 -1.566 4.289
 -0.344 -1.565 4.29
 -0.317 -1.564 4.287
 -0.292 -1.564 4.289
 -0.266 -1.565 4.292
 -0.24 -1.563 4.289
 -0.214 -1.562 4.285
 -0.188 -1.561 4.284
 -0.162 -1.56 4.281
 -0.137 -1.559 4.278
 -0.111 -1.558 4.276
 -0.085 -1.557 4.275
 -0.06 -1.558 4.276
 -0.034 -1.558 4.277
 -0.008 -1.559 4.28
 0.016 -1.56 4.281
 0.042 -1.561 4.283
 0.068 -1.56 4.282
 0.093 -1.56 4.28
 0.119 -1.558 4.275
 0.144 -1.558 4.273
 0.17 -1.559 4.273
 0.196 -1.559 4.272
 0.221 -1.558 4.269
 0.247 -1.559 4.27
 0.273 -1.559 4.268
 0.298 -1.558 4.263
 0.323 -1.557 4.26
 0.349 -1.558 4.259
 0.375 -1.559 4.26
 0.401 -1.56 4.26
 0.426 -1.56 4.259
 0.452 -1.56 4.257
 0.478 -1.561 4.256
 0.503 -1.561 4.253
 0.529 -1.562 4.252
 0.555 -1.563 4.253
 0.582 -1.565 4.254
 0.608 -1.566 4.255
 0.634 -1.568 4.255
 0.659 -1.567 4.25
 0.685 -1.567 4.246
 0.712 -1.569 4.247
 0.737 -1.569 4.244
 0.763 -1.569 4.239
 0.79 -1.572 4.243
 0.817 -1.574 4.243
 0.842 -1.573 4.238
 0.869 -1.575 4.236
 0.896 -1.577 4.239
 0.922 -1.577 4.231
 0.947 -1.577 4.227
 0.975 -1.58 4.23
 1.002 -1.582 4.23
 1.029 -1.583 4.226
 1.057 -1.586 4.229
 1.085 -1.589 4.231
 1.11 -1.588 4.221
 1.136 -1.588 4.216
 1.162 -1.589 4.212
 1.189 -1.59 4.207
 1.216 -1.591 4.204
 1.244 -1.594 4.203
 1.272 -1.596 4.203
 1.3 -1.599 4.203
 1.328 -1.6 4.2
 1.354 -1.601 4.194
 1.383 -1.605 4.195
 1.409 -1.604 4.185
 1.436 -1.605 4.18
 1.464 -1.607 4.177
 1.491 -1.608 4.172
 1.516 -1.607 4.159
 1.546 -1.611 4.16
 1.573 -1.612 4.154
 1.6 -1.612 4.146
 1.627 -1.613 4.137
 1.655 -1.614 4.131
 1.68 -1.613 4.119
 1.705 -1.612 4.106
 1.728 -1.609 4.089
 1.75 -1.606 4.07
 1.773 -1.602 4.051
 1.793 -1.598 4.028
 1.811 -1.59 3.998
 1.825 -1.58 3.961
 1.837 -1.568 3.921
 1.843 -1.552 3.87
 1.849 -1.536 3.819
 1.856 -1.521 3.77
 1.862 -1.506 3.722
 1.869 -1.493 3.677
 1.881 -1.482 3.641
 0 0 0
 0 0 0
 1.709 -1.298 3.155
 1.732 -1.299 3.148
 1.753 -1.3 3.138
 1.766 -1.293 3.113
 1.776 -1.285 3.082
 1.779 -1.272 3.04
 1.775 -1.256 2.989
 1.763 -1.233 2.924
 1.746 -1.208 2.853
 -2.356 -1.619 3.998
 -2.31 -1.606 3.979
 -2.292 -1.613 4.01
 -2.264 -1.612 4.021
 -2.238 -1.613 4.036
 -2.207 -1.611 4.043
 -2.179 -1.61 4.053
 -2.146 -1.606 4.055
 -2.119 -1.606 4.068
 -2.09 -1.605 4.076
 -2.064 -1.606 4.091
 -2.039 -1.607 4.106
 -2.016 -1.611 4.126
 -1.987 -1.61 4.135
 -1.961 -1.61 4.147
 -1.933 -1.61 4.158
 -1.905 -1.61 4.167
 -1.878 -1.609 4.177
 -1.85 -1.609 4.185
 -1.822 -1.608 4.194
 -1.795 -1.609 4.205
 -1.767 -1.607 4.212
 -1.737 -1.605 4.216
 -1.707 -1.602 4.217
 -1.678 -1.601 4.223
 -1.649 -1.599 4.226
 -1.619 -1.596 4.226
 -1.59 -1.594 4.231
 -1.565 -1.596 4.243
 -1.537 -1.595 4.25
 -1.509 -1.594 4.254
 -1.482 -1.593 4.261
 -1.453 -1.591 4.263
 -1.425 -1.59 4.268
 -1.398 -1.59 4.275
 -1.371 -1.59 4.281
 -1.345 -1.591 4.291
 -1.318 -1.59 4.297
 -1.289 -1.588 4.297
 -1.26 -1.585 4.296
 -1.231 -1.582 4.293
 -1.202 -1.579 4.292
 -1.174 -1.578 4.294
 -1.146 -1.575 4.294
 -1.118 -1.573 4.293
 -1.091 -1.573 4.298
 -1.063 -1.571 4.297
 -1.036 -1.57 4.3
 -1.009 -1.569 4.303
 -0.982 -1.568 4.304
 -0.955 -1.566 4.304
 -0.928 -1.565 4.306
 -0.899 -1.562 4.302
 -0.873 -1.561 4.304
 -0.845 -1.559 4.301
 -0.818 -1.557 4.3
 -0.791 -1.555 4.299
 -0.764 -1.554 4.299
 -0.737 -1.553 4.299
 -0.712 -1.554 4.305
 -0.685 -1.552 4.304
 -0.659 -1.551 4.305
 -0.633 -1.552 4.308
 -0.606 -1.55 4.307
 -0.58 -1.55 4.309
 -0.553 -1.549 4.31
 -0.527 -1.548 4.308
 -0.501 -1.547 4.307
 -0.475 -1.547 4.309
 -0.448 -1.545 4.308
 -0.422 -1.545 4.309
 -0.396 -1.544 4.306
 -0.37 -1.543 4.307
 -0.344 -1.543 4.306
 -0.318 -1.541 4.303
 -0.292 -1.54 4.302
 -0.266 -1.54 4.302
 -0.24 -1.539 4.3
 -0.214 -1.536 4.294
 -0.188 -1.535 4.292
 -0.162 -1.534 4.29
 -0.137 -1.534 4.289
 -0.111 -1.532 4.284
 -0.085 -1.533 4.286
 -0.059 -1.533 4.286
 -0.034 -1.533 4.285
 -0.008 -1.533 4.286
 0.017 -1.534 4.288
 0.042 -1.534 4.288
 0.068 -1.534 4.287
 0.093 -1.534 4.286
 0.119 -1.533 4.283
 0.145 -1.533 4.282
 0.17 -1.532 4.28
 0.196 -1.532 4.278
 0.221 -1.532 4.277
 0.247 -1.532 4.274
 0.273 -1.532 4.273
 0.298 -1.532 4.27
 0.324 -1.533 4.271
 0.349 -1.533 4.269
 0.375 -1.534 4.271
 0.401 -1.536 4.273
 0.427 -1.536 4.272
 0.453 -1.536 4.268
 0.478 -1.536 4.267
 0.504 -1.537 4.265
 0.53 -1.537 4.262
 0.556 -1.539 4.264
 0.582 -1.54 4.266
 0.609 -1.542 4.268
 0.635 -1.544 4.268
 0.66 -1.543 4.263
 0.686 -1.544 4.261
 0.713 -1.545 4.261
 0.738 -1.545 4.257
 0.765 -1.546 4.255
 0.792 -1.549 4.26
 0.819 -1.551 4.26
 0.844 -1.551 4.255
 0.871 -1.553 4.255
 0.898 -1.554 4.253
 0.923 -1.553 4.246
 0.949 -1.553 4.241
 0.977 -1.556 4.245
 1.004 -1.558 4.244
 1.03 -1.559 4.24
 1.058 -1.562 4.244
 1.086 -1.565 4.245
 1.112 -1.565 4.238
 1.139 -1.566 4.234
 1.166 -1.568 4.234
 1.193 -1.569 4.23
 1.221 -1.571 4.23
 1.249 -1.574 4.231
 1.277 -1.577 4.23
 1.304 -1.578 4.225
 1.332 -1.579 4.221
 1.359 -1.58 4.215
 1.387 -1.583 4.215
 1.414 -1.583 4.208
 1.443 -1.586 4.209
 1.472 -1.588 4.206
 1.5 -1.591 4.205
 1.526 -1.591 4.195
 1.556 -1.594 4.196
 1.584 -1.596 4.19
 1.612 -1.597 4.185
 1.639 -1.598 4.177
 1.667 -1.6 4.172
 1.693 -1.599 4.161
 1.719 -1.598 4.149
 1.743 -1.597 4.134
 1.765 -1.592 4.111
 1.786 -1.588 4.09
 1.804 -1.58 4.06
 1.82 -1.572 4.028
 1.834 -1.562 3.991
 1.846 -1.55 3.949
 1.853 -1.535 3.9
 1.863 -1.522 3.856
 1.868 -1.506 3.804
 1.872 -1.489 3.75
 1.881 -1.477 3.709
 0 0 0
 0 0 0
 0 0 0
 0 0 0
 1.729 -1.276 3.15
 1.752 -1.277 3.143
 1.766 -1.272 3.12
 1.776 -1.264 3.09
 1.78 -1.252 3.05
 1.777 -1.236 3
 1.763 -1.212 2.931
 1.757 -1.195 2.878
 -2.397 -1.62 4.078
 -2.372 -1.622 4.097
 -2.025 -1.401 3.55
 -1.923 -1.347 3.422
 -1.808 -1.282 3.266
 -1.783 -1.28 3.272
 -1.76 -1.279 3.28
 -1.733 -1.275 3.28
 -1.798 -1.34 3.458
 -1.86 -1.404 3.635
 -1.923 -1.471 3.819
 -1.983 -1.537 4.003
 -2.042 -1.604 4.189
 -2.013 -1.603 4.198
 -1.984 -1.602 4.207
 -1.955 -1.601 4.215
 -1.928 -1.601 4.226
 -1.901 -1.602 4.238
 -1.871 -1.6 4.243
 -1.843 -1.6 4.253
 -1.816 -1.6 4.264
 -1.786 -1.598 4.267
 -1.755 -1.595 4.27
 -1.725 -1.592 4.271
 -1.696 -1.591 4.277
 -1.667 -1.589 4.282
 -1.636 -1.585 4.281
 -1.606 -1.583 4.282
 -1.579 -1.584 4.293
 -1.551 -1.582 4.297
 -1.521 -1.58 4.299
 -1.493 -1.579 4.304
 -1.464 -1.576 4.305
 -1.435 -1.575 4.308
 -1.407 -1.574 4.312
 -1.378 -1.571 4.314
 -1.352 -1.572 4.323
 -1.324 -1.571 4.326
 -1.294 -1.567 4.323
 -1.264 -1.564 4.319
 -1.235 -1.561 4.318
 -1.205 -1.557 4.314
 -1.177 -1.555 4.315
 -1.15 -1.554 4.317
 -1.122 -1.552 4.318
 -1.095 -1.553 4.324
 -1.068 -1.551 4.324
 -1.04 -1.55 4.327
 -1.013 -1.549 4.329
 -0.985 -1.547 4.328
 -0.957 -1.544 4.326
 -0.93 -1.544 4.328
 -0.902 -1.54 4.323
 -0.875 -1.539 4.323
 -0.848 -1.538 4.324
 -0.82 -1.535 4.319
 -0.792 -1.532 4.317
 -0.766 -1.531 4.316
 -0.738 -1.529 4.314
 -0.712 -1.527 4.313
 -0.685 -1.526 4.313
 -0.658 -1.525 4.312
 -0.632 -1.524 4.313
 -0.606 -1.524 4.314
 -0.58 -1.524 4.318
 -0.553 -1.523 4.318
 -0.527 -1.522 4.316
 -0.501 -1.521 4.316
 -0.474 -1.52 4.317
 -0.448 -1.518 4.313
 -0.422 -1.518 4.313
 -0.396 -1.517 4.313
 -0.37 -1.517 4.312
 -0.343 -1.514 4.307
 -0.317 -1.513 4.306
 -0.291 -1.512 4.304
 -0.265 -1.511 4.301
 -0.24 -1.511 4.301
 -0.214 -1.509 4.299
 -0.188 -1.508 4.297
 -0.162 -1.509 4.297
 -0.136 -1.509 4.299
 -0.111 -1.507 4.293
 -0.085 -1.507 4.295
 -0.059 -1.508 4.297
 -0.034 -1.507 4.293
 -0.008 -1.508 4.295
 0.017 -1.509 4.298
 0.042 -1.509 4.297
 0.068 -1.508 4.296
 0.094 -1.508 4.293
 0.119 -1.507 4.29
 0.145 -1.506 4.287
 0.17 -1.506 4.285
 0.196 -1.505 4.282
 0.221 -1.506 4.283
 0.247 -1.506 4.28
 0.272 -1.505 4.277
 0.298 -1.505 4.276
 0.324 -1.508 4.28
 0.35 -1.508 4.279
 0.376 -1.509 4.281
 0.402 -1.512 4.286
 0.428 -1.512 4.283
 0.453 -1.511 4.277
 0.479 -1.511 4.275
 0.504 -1.511 4.272
 0.53 -1.511 4.271
 0.556 -1.513 4.272
 0.582 -1.513 4.271
 0.608 -1.515 4.272
 0.635 -1.517 4.273
 0.66 -1.516 4.267
 0.686 -1.517 4.266
 0.713 -1.519 4.268
 0.739 -1.52 4.267
 0.765 -1.521 4.266
 0.793 -1.524 4.27
 0.819 -1.526 4.27
 0.845 -1.526 4.265
 0.871 -1.526 4.262
 0.898 -1.528 4.261
 0.923 -1.527 4.255
 0.95 -1.528 4.253
 0.977 -1.531 4.255
 1.005 -1.533 4.255
 1.031 -1.534 4.251
 1.059 -1.537 4.253
 1.087 -1.539 4.254
 1.113 -1.54 4.25
 1.141 -1.542 4.25
 1.168 -1.544 4.248
 1.196 -1.546 4.246
 1.224 -1.548 4.246
 1.252 -1.551 4.247
 1.28 -1.553 4.245
 1.307 -1.554 4.241
 1.334 -1.555 4.237
 1.361 -1.556 4.231
 1.389 -1.557 4.228
 1.416 -1.558 4.221
 1.445 -1.561 4.222
 1.474 -1.564 4.221
 1.503 -1.567 4.221
 1.531 -1.568 4.216
 1.561 -1.572 4.217
 1.589 -1.574 4.212
 1.618 -1.576 4.208
 1.646 -1.577 4.202
 1.674 -1.579 4.198
 1.701 -1.579 4.188
 1.727 -1.579 4.178
 1.753 -1.578 4.164
 1.773 -1.573 4.141
 1.794 -1.568 4.118
 1.812 -1.561 4.087
 1.829 -1.553 4.055
 1.842 -1.542 4.017
 1.855 -1.531 3.978
 1.866 -1.52 3.936
 1.879 -1.509 3.898
 1.886 -1.495 3.849
 1.892 -1.48 3.8
 0 0 0
 0 0 0
 0 0 0
 0 0 0
 0 0 0
 1.724 -1.25 3.147
 1.749 -1.254 3.146
 1.764 -1.249 3.124
 1.774 -1.242 3.093
 1.781 -1.232 3.059
 1.779 -1.217 3.01
 1.743 -1.178 2.904
 1.766 -1.181 2.899
 -2.386 -1.585 4.069
 -2.384 -1.601 4.126
 -1.567 -1.066 2.75
 -1.58 -1.088 2.816
 -1.467 -1.022 2.653
 -1.448 -1.022 2.661
 -1.429 -1.021 2.667
 -1.495 -1.081 2.834
 -1.475 -1.081 2.841
 -1.541 -1.144 3.017
 -1.605 -1.207 3.192
 -1.667 -1.27 3.371
 -1.73 -1.336 3.555
 -1.787 -1.399 3.733
 -1.841 -1.461 3.91
 -1.894 -1.524 4.091
 -1.946 -1.589 4.276
 -1.919 -1.589 4.287
 -1.888 -1.587 4.292
 -1.861 -1.587 4.303
 -1.833 -1.587 4.313
 -1.801 -1.584 4.314
 -1.77 -1.581 4.316
 -1.739 -1.578 4.316
 -1.708 -1.575 4.318
 -1.679 -1.573 4.321
 -1.647 -1.569 4.32
 -1.616 -1.566 4.32
 -1.589 -1.566 4.328
 -1.56 -1.564 4.332
 -1.53 -1.561 4.331
 -1.5 -1.559 4.334
 -1.471 -1.557 4.336
 -1.442 -1.555 4.338
 -1.413 -1.553 4.339
 -1.383 -1.55 4.337
 -1.356 -1.55 4.345
 -1.327 -1.548 4.346
 -1.297 -1.545 4.343
 -1.268 -1.542 4.342
 -1.239 -1.539 4.341
 -1.209 -1.535 4.335
 -1.179 -1.531 4.331
 -1.152 -1.53 4.332
 -1.123 -1.527 4.329
 -1.096 -1.527 4.335
 -1.068 -1.526 4.336
 -1.042 -1.526 4.341
 -1.014 -1.523 4.34
 -0.986 -1.521 4.338
 -0.957 -1.518 4.334
 -0.93 -1.517 4.335
 -0.901 -1.513 4.328
 -0.874 -1.511 4.328
 -0.847 -1.511 4.33
 -0.82 -1.508 4.326
 -0.792 -1.506 4.324
 -0.766 -1.505 4.325
 -0.739 -1.503 4.324
 -0.711 -1.501 4.321
 -0.685 -1.5 4.321
 -0.658 -1.499 4.32
 -0.632 -1.498 4.319
 -0.605 -1.496 4.318
 -0.579 -1.496 4.32
 -0.552 -1.495 4.319
 -0.526 -1.494 4.318
 -0.5 -1.493 4.318
 -0.474 -1.492 4.317
 -0.447 -1.49 4.314
 -0.421 -1.49 4.316
 -0.395 -1.489 4.315
 -0.369 -1.489 4.316
 -0.343 -1.487 4.312
 -0.317 -1.486 4.31
 -0.291 -1.486 4.31
 -0.265 -1.485 4.307
 -0.239 -1.484 4.306
 -0.213 -1.482 4.303
 -0.188 -1.482 4.303
 -0.162 -1.482 4.302
 -0.136 -1.482 4.304
 -0.11 -1.48 4.298
 -0.085 -1.481 4.301
 -0.059 -1.481 4.301
 -0.033 -1.48 4.297
 -0.008 -1.48 4.298
 0.017 -1.482 4.301
 0.042 -1.482 4.301
 0.068 -1.482 4.3
 0.094 -1.481 4.297
 0.119 -1.48 4.295
 0.145 -1.481 4.294
 0.17 -1.48 4.291
 0.196 -1.479 4.286
 0.221 -1.479 4.288
 0.247 -1.479 4.284
 0.272 -1.477 4.278
 0.298 -1.477 4.277
 0.324 -1.48 4.282
 0.349 -1.479 4.279
 0.375 -1.481 4.282
 0.401 -1.483 4.286
 0.427 -1.484 4.285
 0.453 -1.483 4.281
 0.479 -1.485 4.282
 0.504 -1.484 4.278
 0.53 -1.486 4.279
 0.556 -1.487 4.28
 0.582 -1.488 4.279
 0.608 -1.489 4.279
 0.634 -1.49 4.278
 0.66 -1.49 4.274
 0.686 -1.49 4.271
 0.712 -1.492 4.272
 0.739 -1.493 4.272
 0.766 -1.495 4.274
 0.793 -1.499 4.279
 0.82 -1.501 4.28
 0.846 -1.501 4.276
 0.872 -1.501 4.271
 0.898 -1.502 4.27
 0.923 -1.501 4.262
 0.95 -1.502 4.259
 0.977 -1.504 4.259
 1.004 -1.506 4.261
 1.031 -1.507 4.257
 1.058 -1.509 4.258
 1.086 -1.512 4.259
 1.113 -1.513 4.257
 1.141 -1.516 4.258
 1.168 -1.517 4.256
 1.196 -1.519 4.254
 1.224 -1.521 4.254
 1.252 -1.524 4.254
 1.279 -1.526 4.251
 1.306 -1.526 4.246
 1.333 -1.528 4.242
 1.36 -1.528 4.237
 1.388 -1.53 4.235
 1.417 -1.532 4.232
 1.446 -1.536 4.235
 1.475 -1.539 4.234
 1.505 -1.543 4.235
 1.533 -1.543 4.229
 1.561 -1.545 4.225
 1.59 -1.548 4.223
 1.619 -1.551 4.221
 1.648 -1.552 4.216
 1.677 -1.555 4.214
 1.705 -1.556 4.207
 1.732 -1.556 4.197
 1.758 -1.556 4.185
 1.779 -1.551 4.163
 1.802 -1.548 4.144
 1.818 -1.539 4.109
 1.835 -1.532 4.079
 1.851 -1.523 4.044
 1.866 -1.514 4.01
 1.877 -1.502 3.966
 1.897 -1.498 3.945
 1.907 -1.486 3.901
 0 0 0
 0 0 0
 0 0 0
 0 0 0
 0 0 0
 0 0 0
 1.722 -1.228 3.151
 1.748 -1.232 3.15
 1.766 -1.229 3.134
 1.776 -1.222 3.103
 1.784 -1.213 3.07
 1.784 -1.199 3.025
 1.77 -1.176 2.956
 1.777 -1.168 2.924
 0 0 0
 -2.392 -1.579 4.15
 -1.11 -0.742 1.949
 -1.144 -0.774 2.039
 -1.034 -0.708 1.871
 -1.019 -0.706 1.872
 -1.005 -0.706 1.876
 -1.076 -0.765 2.041
 -1.061 -0.764 2.045
 -1.132 -0.826 2.216
 -1.2 -0.887 2.388
 -1.35 -1.011 2.734
 -1.497 -1.136 3.083
 -1.638 -1.26 3.43
 -1.776 -1.385 3.78
 -1.829 -1.447 3.96
 -1.88 -1.508 4.14
 -1.853 -1.508 4.149
 -1.824 -1.506 4.154
 -1.796 -1.505 4.162
 -1.843 -1.568 4.345
 -1.81 -1.564 4.344
 -1.779 -1.561 4.347
 -1.747 -1.557 4.344
 -1.716 -1.554 4.347
 -1.686 -1.552 4.349
 -1.655 -1.55 4.351
 -1.624 -1.546 4.35
 -1.597 -1.546 4.358
 -1.566 -1.543 4.357
 -1.534 -1.539 4.354
 -1.506 -1.538 4.359
 -1.476 -1.535 4.358
 -1.445 -1.532 4.356
 -1.416 -1.529 4.357
 -1.385 -1.525 4.352
 -1.356 -1.523 4.354
 -1.327 -1.52 4.353
 -1.297 -1.517 4.35
 -1.267 -1.513 4.346
 -1.238 -1.511 4.346
 -1.208 -1.507 4.34
 -1.178 -1.503 4.335
 -1.15 -1.502 4.335
 -1.122 -1.499 4.334
 -1.095 -1.499 4.34
 -1.068 -1.498 4.341
 -1.041 -1.499 4.348
 -1.013 -1.496 4.345
 -0.985 -1.494 4.343
 -0.957 -1.491 4.34
 -0.929 -1.489 4.338
 -0.9 -1.485 4.331
 -0.873 -1.484 4.333
 -0.847 -1.483 4.335
 -0.819 -1.48 4.329
 -0.791 -1.478 4.327
 -0.765 -1.477 4.328
 -0.737 -1.475 4.325
 -0.71 -1.473 4.323
 -0.684 -1.473 4.325
 -0.657 -1.471 4.323
 -0.63 -1.469 4.32
 -0.604 -1.469 4.321
 -0.578 -1.468 4.322
 -0.551 -1.467 4.32
 -0.525 -1.466 4.321
 -0.499 -1.466 4.321
 -0.473 -1.465 4.321
 -0.447 -1.463 4.318
 -0.421 -1.463 4.319
 -0.395 -1.462 4.318
 -0.368 -1.461 4.316
 -0.342 -1.459 4.312
 -0.316 -1.458 4.31
 -0.29 -1.458 4.31
 -0.265 -1.456 4.308
 -0.239 -1.457 4.311
 -0.213 -1.456 4.309
 -0.187 -1.456 4.308
 -0.162 -1.456 4.308
 -0.136 -1.456 4.309
 -0.11 -1.453 4.301
 -0.085 -1.454 4.304
 -0.059 -1.454 4.303
 -0.033 -1.452 4.299
 -0.008 -1.452 4.299
 0.017 -1.454 4.303
 0.043 -1.454 4.301
 0.068 -1.454 4.301
 0.094 -1.453 4.299
 0.119 -1.453 4.297
 0.145 -1.452 4.295
 0.17 -1.452 4.292
 0.196 -1.452 4.29
 0.222 -1.453 4.292
 0.247 -1.452 4.289
 0.272 -1.451 4.283
 0.298 -1.451 4.281
 0.324 -1.452 4.283
 0.349 -1.451 4.279
 0.375 -1.453 4.281
 0.401 -1.454 4.282
 0.426 -1.455 4.282
 0.452 -1.455 4.281
 0.478 -1.456 4.281
 0.504 -1.457 4.28
 0.53 -1.459 4.283
 0.556 -1.46 4.283
 0.582 -1.46 4.28
 0.608 -1.461 4.281
 0.633 -1.461 4.278
 0.659 -1.461 4.273
 0.685 -1.462 4.271
 0.711 -1.463 4.273
 0.738 -1.466 4.274
 0.765 -1.468 4.279
 0.792 -1.471 4.283
 0.819 -1.473 4.282
 0.845 -1.473 4.278
 0.871 -1.473 4.274
 0.897 -1.474 4.271
 0.923 -1.474 4.268
 0.95 -1.476 4.268
 0.977 -1.478 4.267
 1.004 -1.479 4.265
 1.03 -1.48 4.262
 1.057 -1.481 4.261
 1.084 -1.483 4.26
 1.112 -1.485 4.26
 1.141 -1.489 4.265
 1.168 -1.491 4.264
 1.196 -1.494 4.264
 1.224 -1.496 4.264
 1.252 -1.497 4.262
 1.279 -1.498 4.257
 1.306 -1.499 4.253
 1.333 -1.5 4.247
 1.36 -1.502 4.244
 1.388 -1.504 4.242
 1.417 -1.506 4.241
 1.446 -1.509 4.242
 1.475 -1.512 4.242
 1.505 -1.515 4.242
 1.532 -1.517 4.237
 1.561 -1.518 4.233
 1.59 -1.521 4.232
 1.62 -1.524 4.23
 1.648 -1.526 4.225
 1.677 -1.528 4.222
 1.705 -1.529 4.216
 1.732 -1.53 4.207
 1.759 -1.529 4.196
 1.782 -1.526 4.177
 1.805 -1.523 4.158
 1.822 -1.516 4.127
 1.841 -1.509 4.099
 1.858 -1.502 4.068
 1.875 -1.495 4.036
 1.889 -1.485 4
 1.914 -1.485 3.987
 0 0 0
 0 0 0
 0 0 0
 0 0 0
 0 0 0
 0 0 0
 0 0 0
 1.733 -1.214 3.178
 1.755 -1.215 3.17
 1.771 -1.212 3.15
 1.779 -1.203 3.116
 1.785 -1.193 3.08
 1.786 -1.18 3.036
 1.771 -1.157 2.966
 1.782 -1.151 2.939
 -0.061 -0.04 0.092
 -0.1 -0.066 0.162
 -0.647 -0.426 1.134
 -0.702 -0.467 1.25
 -0.595 -0.401 1.074
 -0.585 -0.399 1.072
 -0.575 -0.397 1.07
 -0.65 -0.455 1.231
 -0.64 -0.453 1.231
 -0.716 -0.514 1.401
 -0.788 -0.573 1.569
 -0.944 -0.695 1.911
 -1.095 -0.816 2.255
 -1.24 -0.937 2.597
 -1.462 -1.12 3.118
 -1.598 -1.242 3.466
 -1.731 -1.364 3.819
 -1.782 -1.425 3.998
 -1.831 -1.485 4.179
 -1.802 -1.484 4.185
 -1.848 -1.545 4.368
 -1.816 -1.541 4.367
 -1.784 -1.538 4.369
 -1.751 -1.533 4.365
 -1.72 -1.53 4.365
 -1.69 -1.528 4.368
 -1.659 -1.525 4.368
 -1.627 -1.522 4.367
 -1.598 -1.52 4.372
 -1.568 -1.517 4.371
 -1.536 -1.513 4.367
 -1.506 -1.511 4.369
 -1.477 -1.509 4.37
 -1.446 -1.505 4.368
 -1.416 -1.502 4.365
 -1.384 -1.497 4.357
 -1.354 -1.494 4.356
 -1.324 -1.491 4.354
 -1.295 -1.488 4.352
 -1.265 -1.485 4.349
 -1.237 -1.484 4.352
 -1.208 -1.481 4.35
 -1.178 -1.477 4.344
 -1.15 -1.475 4.343
 -1.122 -1.473 4.342
 -1.094 -1.472 4.345
 -1.066 -1.47 4.344
 -1.04 -1.47 4.35
 -1.012 -1.468 4.348
 -0.983 -1.465 4.345
 -0.955 -1.463 4.342
 -0.927 -1.46 4.34
 -0.899 -1.457 4.334
 -0.873 -1.457 4.338
 -0.846 -1.456 4.34
 -0.818 -1.453 4.333
 -0.79 -1.451 4.33
 -0.763 -1.449 4.33
 -0.736 -1.446 4.324
 -0.708 -1.443 4.319
 -0.682 -1.443 4.322
 -0.656 -1.442 4.322
 -0.629 -1.44 4.319
 -0.603 -1.44 4.32
 -0.577 -1.44 4.322
 -0.551 -1.439 4.323
 -0.525 -1.44 4.327
 -0.499 -1.439 4.327
 -0.473 -1.438 4.326
 -0.446 -1.436 4.321
 -0.42 -1.436 4.325
 -0.394 -1.434 4.318
 -0.368 -1.432 4.315
 -0.342 -1.431 4.313
 -0.316 -1.431 4.313
 -0.29 -1.429 4.309
 -0.264 -1.429 4.308
 -0.238 -1.429 4.312
 -0.213 -1.428 4.309
 -0.187 -1.428 4.308
 -0.161 -1.428 4.308
 -0.136 -1.429 4.312
 -0.11 -1.427 4.307
 -0.084 -1.428 4.311
 -0.059 -1.428 4.309
 -0.033 -1.425 4.302
 -0.007 -1.425 4.302
 0.017 -1.426 4.304
 0.043 -1.424 4.297
 0.068 -1.425 4.299
 0.094 -1.425 4.299
 0.119 -1.425 4.297
 0.145 -1.425 4.295
 0.17 -1.425 4.297
 0.196 -1.425 4.295
 0.222 -1.427 4.299
 0.247 -1.425 4.292
 0.272 -1.425 4.288
 0.298 -1.425 4.287
 0.323 -1.425 4.287
 0.349 -1.425 4.283
 0.375 -1.427 4.288
 0.401 -1.428 4.288
 0.427 -1.429 4.289
 0.452 -1.43 4.289
 0.478 -1.43 4.288
 0.504 -1.431 4.287
 0.53 -1.432 4.287
 0.556 -1.433 4.287
 0.581 -1.432 4.282
 0.607 -1.432 4.279
 0.632 -1.431 4.273
 0.658 -1.432 4.27
 0.683 -1.432 4.266
 0.71 -1.434 4.27
 0.737 -1.437 4.275
 0.765 -1.441 4.283
 0.792 -1.444 4.288
 0.819 -1.446 4.289
 0.844 -1.446 4.283
 0.871 -1.446 4.28
 0.897 -1.447 4.276
 0.923 -1.447 4.273
 0.949 -1.448 4.271
 0.976 -1.45 4.27
 1.003 -1.451 4.267
 1.029 -1.452 4.264
 1.056 -1.453 4.262
 1.084 -1.456 4.264
 1.111 -1.458 4.265
 1.14 -1.461 4.268
 1.168 -1.464 4.27
 1.195 -1.466 4.268
 1.223 -1.467 4.266
 1.251 -1.469 4.265
 1.278 -1.471 4.261
 1.304 -1.471 4.254
 1.331 -1.472 4.25
 1.359 -1.473 4.247
 1.387 -1.475 4.245
 1.415 -1.478 4.243
 1.445 -1.481 4.245
 1.474 -1.484 4.245
 1.503 -1.487 4.245
 1.531 -1.488 4.241
 1.559 -1.49 4.236
 1.588 -1.492 4.234
 1.617 -1.495 4.231
 1.646 -1.497 4.228
 1.675 -1.499 4.224
 1.703 -1.501 4.219
 1.731 -1.502 4.212
 1.759 -1.502 4.204
 1.783 -1.501 4.189
 1.807 -1.498 4.172
 1.827 -1.493 4.146
 1.846 -1.487 4.118
 1.865 -1.481 4.091
 1.884 -1.475 4.064
 1.898 -1.467 4.029
 0 0 0
 0 0 0
 0 0 0
 0 0 0
 0 0 0
 0 0 0
 0 0 0
 0 0 0
 1.192 -0.822 2.188
 1.594 -1.085 2.885
 1.774 -1.192 3.162
 1.783 -1.184 3.13
 1.789 -1.174 3.093
 1.79 -1.161 3.048
 1.786 -1.146 2.997
 1.776 -1.127 2.935
 -0.147 -0.094 0.24
 -0.08 -0.053 0.128
 -0.183 -0.119 0.311
 -0.258 -0.17 0.452
 -0.155 -0.103 0.27
 -0.146 -0.099 0.258
 -0.139 -0.096 0.25
 -0.219 -0.151 0.407
 -0.212 -0.149 0.4
 -0.293 -0.207 0.568
 -0.371 -0.265 0.732
 -0.53 -0.384 1.07
 -0.685 -0.502 1.409
 -0.917 -0.681 1.923
 -1.225 -0.922 2.615
 -1.443 -1.101 3.136
 -1.657 -1.282 3.662
 -1.786 -1.402 4.017
 -1.835 -1.462 4.197
 -1.805 -1.46 4.201
 -1.85 -1.519 4.382
 -1.818 -1.515 4.381
 -1.786 -1.512 4.381
 -1.753 -1.507 4.377
 -1.721 -1.504 4.377
 -1.69 -1.501 4.379
 -1.66 -1.498 4.379
 -1.627 -1.494 4.375
 -1.597 -1.492 4.377
 -1.566 -1.488 4.374
 -1.534 -1.484 4.37
 -1.504 -1.482 4.372
 -1.476 -1.481 4.376
 -1.446 -1.478 4.376
 -1.415 -1.474 4.372
 -1.383 -1.469 4.363
 -1.353 -1.466 4.36
 -1.322 -1.462 4.356
 -1.292 -1.458 4.351
 -1.263 -1.456 4.349
 -1.236 -1.455 4.355
 -1.207 -1.452 4.352
 -1.176 -1.448 4.345
 -1.148 -1.446 4.344
 -1.12 -1.444 4.343
 -1.091 -1.442 4.342
 -1.063 -1.439 4.339
 -1.037 -1.439 4.345
 -1.009 -1.438 4.345
 -0.981 -1.436 4.344
 -0.954 -1.434 4.342
 -0.926 -1.432 4.342
 -0.899 -1.43 4.34
 -0.872 -1.429 4.341
 -0.845 -1.428 4.342
 -0.817 -1.425 4.336
 -0.788 -1.421 4.328
 -0.762 -1.42 4.327
 -0.734 -1.418 4.324
 -0.707 -1.415 4.318
 -0.681 -1.415 4.323
 -0.655 -1.416 4.328
 -0.629 -1.414 4.324
 -0.602 -1.413 4.325
 -0.576 -1.413 4.327
 -0.55 -1.412 4.327
 -0.525 -1.413 4.332
 -0.498 -1.412 4.331
 -0.472 -1.411 4.328
 -0.445 -1.409 4.324
 -0.42 -1.409 4.328
 -0.393 -1.406 4.32
 -0.367 -1.404 4.315
 -0.341 -1.403 4.314
 -0.315 -1.404 4.316
 -0.289 -1.402 4.311
 -0.264 -1.402 4.313
 -0.238 -1.403 4.317
 -0.212 -1.402 4.316
 -0.187 -1.401 4.311
 -0.161 -1.4 4.31
 -0.135 -1.4 4.31
 -0.11 -1.399 4.306
 -0.084 -1.399 4.307
 -0.058 -1.399 4.308
 -0.033 -1.398 4.303
 -0.007 -1.399 4.305
 0.017 -1.4 4.308
 0.043 -1.398 4.303
 0.068 -1.399 4.306
 0.094 -1.4 4.307
 0.119 -1.399 4.303
 0.145 -1.399 4.302
 0.171 -1.4 4.304
 0.196 -1.4 4.303
 0.222 -1.401 4.306
 0.247 -1.4 4.3
 0.272 -1.399 4.295
 0.298 -1.399 4.293
 0.323 -1.398 4.289
 0.349 -1.398 4.285
 0.375 -1.4 4.291
 0.4 -1.4 4.289
 0.426 -1.402 4.293
 0.452 -1.404 4.296
 0.478 -1.405 4.294
 0.504 -1.405 4.294
 0.53 -1.407 4.296
 0.556 -1.407 4.294
 0.581 -1.407 4.289
 0.607 -1.407 4.285
 0.632 -1.405 4.278
 0.657 -1.406 4.276
 0.683 -1.405 4.27
 0.71 -1.408 4.276
 0.737 -1.411 4.281
 0.765 -1.415 4.289
 0.792 -1.418 4.294
 0.819 -1.42 4.294
 0.844 -1.419 4.287
 0.87 -1.42 4.285
 0.896 -1.42 4.281
 0.923 -1.422 4.282
 0.95 -1.423 4.281
 0.977 -1.425 4.279
 1.003 -1.425 4.274
 1.029 -1.426 4.271
 1.055 -1.426 4.265
 1.082 -1.427 4.265
 1.109 -1.429 4.264
 1.138 -1.432 4.268
 1.165 -1.434 4.267
 1.193 -1.437 4.267
 1.22 -1.438 4.265
 1.248 -1.44 4.264
 1.275 -1.441 4.259
 1.302 -1.442 4.254
 1.329 -1.443 4.251
 1.357 -1.445 4.248
 1.385 -1.447 4.247
 1.413 -1.449 4.245
 1.442 -1.452 4.245
 1.471 -1.454 4.244
 1.5 -1.457 4.244
 1.528 -1.458 4.239
 1.556 -1.46 4.236
 1.585 -1.463 4.233
 1.614 -1.465 4.231
 1.644 -1.468 4.229
 1.674 -1.472 4.231
 1.703 -1.473 4.225
 1.731 -1.474 4.219
 1.759 -1.476 4.213
 1.783 -1.474 4.197
 1.807 -1.471 4.179
 1.828 -1.467 4.157
 1.85 -1.464 4.136
 1.867 -1.456 4.105
 1.888 -1.452 4.081
 0 0 0
 0 0 0
 0 0 0
 0 0 0
 0 0 0
 0 0 0
 0 0 0
 0 0 0
 0 0 0
 1.085 -0.735 1.995
 1.573 -1.051 2.852
 1.771 -1.169 3.164
 1.783 -1.163 3.136
 1.788 -1.153 3.098
 1.79 -1.141 3.056
 1.774 -1.118 2.983
 1.769 -1.102 2.93
 -0.154 -0.096 0.252
 -0.123 -0.078 0.202
 -0.101 -0.066 0.168
 -0.182 -0.118 0.315
 -0.169 -0.111 0.297
 -0.158 -0.105 0.281
 -0.15 -0.101 0.271
 -0.229 -0.155 0.427
 -0.133 -0.092 0.246
 -0.127 -0.089 0.238
 -0.119 -0.085 0.227
 -0.28 -0.2 0.56
 -0.438 -0.316 0.898
 -0.756 -0.551 1.585
 -1.146 -0.847 2.452
 -1.446 -1.083 3.149
 -1.659 -1.26 3.675
 -1.787 -1.377 4.028
 -1.836 -1.435 4.208
 -1.806 -1.433 4.211
 -1.85 -1.491 4.391
 -1.817 -1.486 4.388
 -1.784 -1.483 4.386
 -1.75 -1.477 4.38
 -1.718 -1.474 4.378
 -1.687 -1.471 4.379
 -1.657 -1.469 4.381
 -1.625 -1.465 4.379
 -1.596 -1.464 4.384
 -1.565 -1.46 4.38
 -1.533 -1.456 4.375
 -1.503 -1.454 4.377
 -1.474 -1.452 4.38
 -1.444 -1.449 4.378
 -1.413 -1.445 4.374
 -1.382 -1.441 4.369
 -1.352 -1.438 4.365
 -1.321 -1.434 4.361
 -1.292 -1.432 4.359
 -1.263 -1.429 4.359
 -1.236 -1.428 4.362
 -1.207 -1.426 4.361
 -1.177 -1.422 4.355
 -1.147 -1.419 4.35
 -1.119 -1.417 4.348
 -1.09 -1.414 4.344
 -1.062 -1.411 4.342
 -1.035 -1.411 4.348
 -1.008 -1.41 4.349
 -0.981 -1.409 4.35
 -0.953 -1.407 4.349
 -0.926 -1.405 4.348
 -0.898 -1.404 4.346
 -0.871 -1.403 4.347
 -0.844 -1.401 4.347
 -0.816 -1.398 4.341
 -0.788 -1.394 4.333
 -0.761 -1.393 4.331
 -0.734 -1.39 4.327
 -0.706 -1.388 4.324
 -0.681 -1.389 4.328
 -0.655 -1.39 4.336
 -0.629 -1.388 4.332
 -0.602 -1.387 4.331
 -0.576 -1.386 4.331
 -0.55 -1.385 4.331
 -0.524 -1.386 4.336
 -0.498 -1.385 4.334
 -0.472 -1.384 4.334
 -0.445 -1.382 4.33
 -0.42 -1.383 4.335
 -0.393 -1.379 4.323
 -0.366 -1.377 4.318
 -0.341 -1.377 4.318
 -0.315 -1.377 4.318
 -0.289 -1.375 4.315
 -0.264 -1.376 4.32
 -0.238 -1.377 4.322
 -0.212 -1.375 4.318
 -0.186 -1.374 4.316
 -0.161 -1.373 4.313
 -0.135 -1.373 4.311
 -0.109 -1.371 4.307
 -0.084 -1.373 4.312
 -0.058 -1.373 4.311
 -0.033 -1.372 4.308
 -0.007 -1.372 4.307
 0.017 -1.373 4.312
 0.043 -1.37 4.302
 0.068 -1.371 4.305
 0.094 -1.372 4.308
 0.119 -1.371 4.303
 0.145 -1.372 4.305
 0.171 -1.374 4.309
 0.196 -1.375 4.31
 0.222 -1.376 4.312
 0.247 -1.374 4.306
 0.273 -1.373 4.301
 0.298 -1.372 4.295
 0.323 -1.371 4.289
 0.348 -1.37 4.287
 0.374 -1.373 4.294
 0.4 -1.373 4.29
 0.426 -1.377 4.299
 0.452 -1.378 4.301
 0.478 -1.378 4.3
 0.504 -1.38 4.301
 0.53 -1.381 4.301
 0.556 -1.381 4.299
 0.581 -1.381 4.296
 0.607 -1.381 4.292
 0.632 -1.379 4.283
 0.658 -1.38 4.282
 0.683 -1.379 4.275
 0.71 -1.382 4.281
 0.737 -1.384 4.284
 0.764 -1.389 4.294
 0.792 -1.391 4.297
 0.818 -1.393 4.297
 0.843 -1.391 4.289
 0.87 -1.393 4.289
 0.895 -1.392 4.283
 0.923 -1.395 4.286
 0.949 -1.396 4.284
 0.976 -1.397 4.283
 1.002 -1.397 4.277
 1.028 -1.397 4.272
 1.053 -1.397 4.266
 1.081 -1.399 4.266
 1.108 -1.401 4.264
 1.135 -1.403 4.265
 1.164 -1.406 4.267
 1.191 -1.408 4.267
 1.219 -1.41 4.265
 1.246 -1.411 4.262
 1.273 -1.412 4.26
 1.3 -1.413 4.256
 1.327 -1.415 4.252
 1.355 -1.416 4.25
 1.383 -1.419 4.249
 1.412 -1.421 4.248
 1.441 -1.424 4.248
 1.469 -1.426 4.247
 1.498 -1.428 4.245
 1.527 -1.43 4.243
 1.556 -1.433 4.242
 1.584 -1.435 4.238
 1.613 -1.437 4.235
 1.642 -1.439 4.233
 1.673 -1.443 4.235
 1.7 -1.444 4.226
 1.728 -1.445 4.22
 1.757 -1.447 4.216
 1.783 -1.446 4.203
 1.807 -1.444 4.188
 1.831 -1.443 4.172
 1.855 -1.441 4.156
 1.872 -1.434 4.124
 0 0 0
 0 0 0
 0 0 0
 0 0 0
 0 0 0
 0 0 0
 0 0 0
 0 0 0
 0 0 0
 0 0 0
 0.918 -0.611 1.691
 1.545 -1.014 2.808
 1.767 -1.145 3.163
 1.782 -1.141 3.141
 1.787 -1.131 3.103
 1.792 -1.121 3.065
 1.76 -1.089 2.966
 1.763 -1.079 2.927
 -0.149 -0.091 0.244
 -0.12 -0.075 0.198
 -0.109 -0.069 0.182
 -0.098 -0.063 0.165
 -0.088 -0.057 0.148
 -0.076 -0.051 0.13
 -0.07 -0.047 0.121
 -0.061 -0.041 0.104
 -0.05 -0.035 0.086
 -0.044 -0.031 0.075
 -0.123 -0.085 0.235
 -0.281 -0.196 0.563
 -0.438 -0.309 0.899
 -0.674 -0.482 1.415
 -1.064 -0.772 2.279
 -1.286 -0.945 2.803
 -1.5 -1.118 3.328
 -1.708 -1.292 3.856
 -1.832 -1.406 4.208
 -1.802 -1.404 4.211
 -1.846 -1.459 4.388
 -1.813 -1.455 4.387
 -1.78 -1.452 4.385
 -1.747 -1.447 4.381
 -1.715 -1.444 4.38
 -1.685 -1.442 4.383
 -1.654 -1.439 4.383
 -1.623 -1.436 4.381
 -1.594 -1.434 4.385
 -1.563 -1.431 4.384
 -1.531 -1.427 4.379
 -1.502 -1.425 4.38
 -1.472 -1.423 4.382
 -1.441 -1.419 4.377
 -1.411 -1.416 4.375
 -1.381 -1.413 4.372
 -1.35 -1.409 4.368
 -1.321 -1.407 4.367
 -1.291 -1.404 4.364
 -1.262 -1.401 4.362
 -1.234 -1.4 4.365
 -1.206 -1.399 4.366
 -1.176 -1.395 4.359
 -1.147 -1.392 4.357
 -1.119 -1.39 4.357
 -1.089 -1.386 4.349
 -1.061 -1.383 4.346
 -1.035 -1.384 4.353
 -1.008 -1.383 4.355
 -0.98 -1.382 4.355
 -0.953 -1.381 4.356
 -0.925 -1.379 4.354
 -0.898 -1.378 4.354
 -0.871 -1.377 4.356
 -0.844 -1.375 4.355
 -0.816 -1.372 4.348
 -0.787 -1.368 4.338
 -0.76 -1.365 4.334
 -0.732 -1.362 4.326
 -0.705 -1.359 4.319
 -0.679 -1.359 4.324
 -0.654 -1.362 4.335
 -0.627 -1.36 4.332
 -0.602 -1.361 4.336
 -0.576 -1.36 4.337
 -0.55 -1.361 4.342
 -0.525 -1.362 4.35
 -0.498 -1.36 4.344
 -0.472 -1.359 4.343
 -0.445 -1.356 4.336
 -0.419 -1.357 4.34
 -0.391 -1.349 4.316
 -0.365 -1.348 4.313
 -0.34 -1.348 4.314
 -0.314 -1.348 4.316
 -0.288 -1.346 4.312
 -0.263 -1.349 4.32
 -0.237 -1.349 4.322
 -0.212 -1.347 4.317
 -0.186 -1.346 4.314
 -0.16 -1.346 4.313
 -0.135 -1.345 4.31
 -0.109 -1.344 4.308
 -0.084 -1.346 4.314
 -0.058 -1.346 4.315
 -0.033 -1.345 4.312
 -0.007 -1.345 4.312
 0.018 -1.347 4.317
 0.043 -1.342 4.3
 0.068 -1.343 4.302
 0.094 -1.344 4.307
 0.119 -1.343 4.3
 0.145 -1.342 4.299
 0.171 -1.347 4.31
 0.196 -1.348 4.314
 0.222 -1.349 4.317
 0.247 -1.348 4.311
 0.273 -1.348 4.31
 0.298 -1.346 4.302
 0.323 -1.344 4.294
 0.348 -1.345 4.294
 0.375 -1.348 4.301
 0.4 -1.348 4.298
 0.427 -1.352 4.309
 0.453 -1.353 4.311
 0.478 -1.352 4.306
 0.504 -1.354 4.309
 0.53 -1.354 4.306
 0.555 -1.353 4.3
 0.58 -1.352 4.294
 0.606 -1.352 4.29
 0.63 -1.35 4.279
 0.656 -1.35 4.277
 0.681 -1.349 4.27
 0.708 -1.353 4.278
 0.735 -1.356 4.284
 0.763 -1.36 4.293
 0.791 -1.363 4.298
 0.817 -1.365 4.298
 0.841 -1.362 4.286
 0.868 -1.364 4.288
 0.893 -1.363 4.28
 0.922 -1.368 4.29
 0.949 -1.369 4.289
 0.976 -1.371 4.288
 1.001 -1.37 4.28
 1.027 -1.37 4.275
 1.052 -1.37 4.268
 1.08 -1.372 4.268
 1.107 -1.373 4.268
 1.134 -1.375 4.267
 1.162 -1.378 4.268
 1.189 -1.379 4.267
 1.216 -1.381 4.264
 1.243 -1.382 4.26
 1.27 -1.383 4.258
 1.298 -1.385 4.256
 1.326 -1.386 4.253
 1.353 -1.388 4.252
 1.381 -1.39 4.248
 1.409 -1.392 4.247
 1.438 -1.394 4.247
 1.466 -1.396 4.244
 1.495 -1.399 4.244
 1.524 -1.402 4.244
 1.554 -1.405 4.246
 1.582 -1.407 4.241
 1.611 -1.409 4.238
 1.64 -1.411 4.235
 1.672 -1.415 4.239
 1.698 -1.415 4.23
 1.727 -1.417 4.226
 1.755 -1.419 4.219
 1.781 -1.418 4.208
 1.804 -1.415 4.189
 1.83 -1.415 4.177
 1.854 -1.413 4.16
 0 0 0
 0 0 0
 0 0 0
 0 0 0
 0 0 0
 0 0 0
 0 0 0
 0 0 0
 0 0 0
 0 0 0
 0 0 0
 0 0 0
 1.521 -0.979 2.768
 1.769 -1.125 3.173
 1.783 -1.121 3.15
 1.788 -1.11 3.11
 1.792 -1.101 3.072
 1.772 -1.076 2.992
 1.793 -1.076 2.982
 -0.144 -0.087 0.237
 -0.14 -0.085 0.233
 -0.109 -0.068 0.183
 -0.099 -0.063 0.167
 -0.089 -0.057 0.151
 -0.167 -0.107 0.3
 -0.157 -0.102 0.286
 -0.147 -0.097 0.271
 -0.136 -0.09 0.253
 -0.129 -0.087 0.243
 -0.122 -0.083 0.233
 -0.196 -0.135 0.389
 -0.354 -0.246 0.727
 -0.592 -0.416 1.245
 -0.983 -0.699 2.108
 -1.284 -0.926 2.805
 -1.578 -1.154 3.508
 -1.784 -1.323 4.036
 -1.906 -1.435 4.388
 -1.875 -1.433 4.391
 -1.843 -1.429 4.39
 -1.811 -1.426 4.39
 -1.778 -1.422 4.387
 -1.745 -1.418 4.384
 -1.713 -1.414 4.381
 -1.682 -1.412 4.383
 -1.651 -1.409 4.382
 -1.62 -1.406 4.382
 -1.59 -1.403 4.382
 -1.559 -1.401 4.382
 -1.528 -1.397 4.379
 -1.497 -1.394 4.376
 -1.468 -1.392 4.376
 -1.437 -1.388 4.373
 -1.407 -1.385 4.371
 -1.377 -1.383 4.369
 -1.348 -1.38 4.369
 -1.319 -1.378 4.368
 -1.29 -1.376 4.368
 -1.262 -1.374 4.369
 -1.234 -1.373 4.372
 -1.207 -1.373 4.376
 -1.177 -1.369 4.371
 -1.148 -1.367 4.369
 -1.119 -1.364 4.364
 -1.088 -1.359 4.353
 -1.059 -1.355 4.346
 -1.033 -1.356 4.354
 -1.007 -1.356 4.359
 -0.98 -1.355 4.36
 -0.953 -1.354 4.361
 -0.926 -1.353 4.363
 -0.898 -1.352 4.363
 -0.872 -1.351 4.365
 -0.845 -1.351 4.368
 -0.817 -1.347 4.36
 -0.787 -1.341 4.344
 -0.759 -1.338 4.336
 -0.731 -1.334 4.326
 -0.702 -1.329 4.312
 -0.676 -1.329 4.315
 -0.653 -1.334 4.336
 -0.627 -1.333 4.337
 -0.601 -1.333 4.338
 -0.575 -1.334 4.342
 -0.55 -1.336 4.352
 -0.525 -1.337 4.358
 -0.498 -1.334 4.351
 -0.471 -1.332 4.347
 -0.444 -1.328 4.334
 -0.419 -1.331 4.346
 -0.39 -1.32 4.31
 -0.364 -1.319 4.31
 -0.339 -1.321 4.315
 -0.314 -1.321 4.317
 -0.288 -1.319 4.311
 -0.262 -1.32 4.318
 -0.237 -1.32 4.316
 -0.211 -1.318 4.311
 -0.185 -1.318 4.311
 -0.16 -1.318 4.313
 -0.134 -1.318 4.312
 -0.109 -1.318 4.314
 -0.083 -1.319 4.316
 -0.058 -1.319 4.316
 -0.032 -1.318 4.312
 -0.007 -1.318 4.312
 0.018 -1.318 4.312
 0.043 -1.31 4.286
 0.068 -1.313 4.295
 0.094 -1.316 4.305
 0.119 -1.314 4.297
 0.145 -1.315 4.298
 0.171 -1.323 4.323
 0.197 -1.323 4.324
 0.223 -1.326 4.33
 0.247 -1.322 4.315
 0.273 -1.322 4.316
 0.298 -1.32 4.305
 0.323 -1.318 4.297
 0.348 -1.317 4.292
 0.375 -1.323 4.311
 0.401 -1.324 4.311
 0.428 -1.329 4.326
 0.454 -1.33 4.326
 0.479 -1.329 4.321
 0.506 -1.331 4.324
 0.531 -1.329 4.316
 0.556 -1.328 4.308
 0.58 -1.325 4.296
 0.604 -1.323 4.285
 0.628 -1.32 4.272
 0.654 -1.321 4.271
 0.678 -1.317 4.255
 0.706 -1.324 4.273
 0.735 -1.329 4.286
 0.763 -1.333 4.297
 0.791 -1.338 4.306
 0.819 -1.342 4.314
 0.842 -1.337 4.295
 0.87 -1.34 4.3
 0.895 -1.34 4.294
 0.924 -1.344 4.304
 0.949 -1.343 4.295
 0.975 -1.343 4.29
 1 -1.343 4.284
 1.026 -1.343 4.278
 1.052 -1.343 4.272
 1.079 -1.344 4.271
 1.106 -1.346 4.271
 1.133 -1.347 4.268
 1.16 -1.349 4.268
 1.187 -1.351 4.267
 1.215 -1.352 4.265
 1.242 -1.353 4.261
 1.269 -1.355 4.259
 1.296 -1.357 4.258
 1.324 -1.358 4.254
 1.351 -1.359 4.25
 1.378 -1.36 4.246
 1.406 -1.362 4.245
 1.435 -1.365 4.245
 1.463 -1.367 4.243
 1.493 -1.37 4.244
 1.522 -1.373 4.244
 1.552 -1.376 4.246
 1.58 -1.377 4.241
 1.608 -1.379 4.238
 1.637 -1.382 4.235
 1.668 -1.385 4.237
 1.695 -1.386 4.229
 1.724 -1.388 4.225
 1.752 -1.389 4.218
 1.778 -1.388 4.207
 1.803 -1.387 4.192
 1.829 -1.387 4.181
 1.853 -1.385 4.166
 0 0 0
 0 0 0
 0 0 0
 0 0 0
 0 0 0
 0 0 0
 0 0 0
 0 0 0
 0 0 0
 0 0 0
 0 0 0
 0 0 0
 1.513 -0.956 2.761
 1.765 -1.101 3.171
 1.781 -1.098 3.152
 1.786 -1.088 3.114
 1.791 -1.079 3.077
 1.788 -1.065 3.025
 1.785 -1.051 2.975
 -0.099 -0.059 0.159
 -0.122 -0.073 0.202
 -0.105 -0.064 0.175
 -0.097 -0.06 0.164
 -0.086 -0.054 0.147
 -0.163 -0.103 0.294
 -0.154 -0.098 0.281
 -0.144 -0.093 0.266
 -0.22 -0.143 0.419
 -0.211 -0.138 0.407
 -0.288 -0.192 0.572
 -0.36 -0.242 0.729
 -0.6 -0.408 1.242
 -0.836 -0.575 1.765
 -1.223 -0.853 2.632
 -1.443 -1.02 3.161
 -1.734 -1.243 3.863
 -1.86 -1.353 4.216
 -1.904 -1.405 4.391
 -1.874 -1.403 4.395
 -1.84 -1.399 4.392
 -1.81 -1.397 4.396
 -1.776 -1.393 4.392
 -1.745 -1.39 4.392
 -1.712 -1.386 4.388
 -1.681 -1.383 4.388
 -1.65 -1.38 4.386
 -1.619 -1.377 4.386
 -1.588 -1.374 4.385
 -1.558 -1.372 4.386
 -1.527 -1.369 4.382
 -1.496 -1.365 4.379
 -1.466 -1.363 4.378
 -1.434 -1.359 4.373
 -1.404 -1.356 4.37
 -1.376 -1.355 4.373
 -1.347 -1.353 4.374
 -1.318 -1.35 4.373
 -1.29 -1.349 4.375
 -1.261 -1.347 4.376
 -1.234 -1.346 4.379
 -1.205 -1.345 4.379
 -1.176 -1.342 4.376
 -1.147 -1.339 4.372
 -1.117 -1.335 4.365
 -1.083 -1.326 4.341
 -1.054 -1.323 4.335
 -1.028 -1.322 4.337
 -1.001 -1.323 4.343
 -0.976 -1.324 4.351
 -0.949 -1.323 4.352
 -0.924 -1.325 4.365
 -0.9 -1.328 4.378
 -0.872 -1.326 4.376
 -0.845 -1.325 4.375
 -0.817 -1.321 4.367
 -0.785 -1.311 4.338
 -0.756 -1.306 4.325
 0 0 0
 0 0 0
 0 0 0
 0 0 0
 0 0 0
 0 0 0
 0 0 0
 0 0 0
 0 0 0
 0 0 0
 0 0 0
 0 0 0
 0 0 0
 -0.387 -1.286 4.289
 -0.363 -1.289 4.301
 -0.339 -1.293 4.316
 -0.313 -1.293 4.315
 -0.287 -1.292 4.316
 -0.262 -1.294 4.322
 -0.237 -1.294 4.324
 -0.211 -1.291 4.315
 -0.185 -1.292 4.318
 -0.16 -1.292 4.318
 -0.134 -1.291 4.316
 -0.108 -1.291 4.313
 -0.083 -1.291 4.314
 -0.058 -1.29 4.31
 -0.032 -1.289 4.309
 -0.007 -1.289 4.306
 0.018 -1.288 4.304
 0 0 0
 0 0 0
 0 0 0
 0 0 0
 0 0 0
 0 0 0
 0 0 0
 0 0 0
 0 0 0
 0 0 0
 0 0 0
 0 0 0
 0 0 0
 0 0 0
 0 0 0
 0 0 0
 0 0 0
 0 0 0
 0 0 0
 0 0 0
 0 0 0
 0 0 0
 0 0 0
 0 0 0
 0 0 0
 0 0 0
 0 0 0
 0 0 0
 0 0 0
 0 0 0
 0 0 0
 0 0 0
 0 0 0
 0 0 0
 0 0 0
 0.948 -1.315 4.296
 0.974 -1.316 4.291
 0.999 -1.315 4.285
 1.025 -1.315 4.278
 1.05 -1.315 4.271
 1.077 -1.316 4.271
 1.104 -1.317 4.269
 1.131 -1.319 4.266
 1.158 -1.32 4.266
 1.186 -1.322 4.266
 1.213 -1.324 4.265
 1.239 -1.324 4.259
 1.266 -1.326 4.256
 1.294 -1.328 4.256
 1.32 -1.328 4.251
 1.348 -1.33 4.248
 1.375 -1.331 4.245
 1.404 -1.334 4.245
 1.432 -1.336 4.244
 1.461 -1.338 4.244
 1.49 -1.341 4.243
 1.519 -1.344 4.243
 1.549 -1.347 4.246
 1.578 -1.349 4.242
 1.606 -1.351 4.239
 1.635 -1.353 4.238
 1.666 -1.356 4.238
 1.692 -1.356 4.228
 1.72 -1.358 4.223
 1.749 -1.359 4.218
 1.775 -1.359 4.208
 1.8 -1.359 4.195
 1.828 -1.36 4.188
 1.856 -1.36 4.179
 0 0 0
 0 0 0
 0 0 0
 0 0 0
 0 0 0
 0 0 0
 0 0 0
 0 0 0
 0 0 0
 0 0 0
 0 0 0
 0 0 0
 1.735 -1.074 3.172
 1.759 -1.076 3.167
 1.774 -1.072 3.146
 1.781 -1.064 3.111
 1.791 -1.058 3.082
 1.779 -1.039 3.015
 1.795 -1.037 2.998
 -0.118 -0.069 0.193
 -0.097 -0.058 0.159
 -0.101 -0.061 0.168
 -0.095 -0.057 0.159
 -0.084 -0.052 0.142
 -0.163 -0.1 0.292
 -0.155 -0.096 0.282
 -0.145 -0.092 0.269
 -0.221 -0.141 0.422
 -0.211 -0.136 0.41
 -0.373 -0.242 0.744
 -0.528 -0.347 1.077
 -0.849 -0.565 1.767
 -1.08 -0.728 2.29
 -1.383 -0.945 2.985
 -1.523 -1.055 3.341
 -1.732 -1.217 3.867
 -1.775 -1.265 4.03
 -1.82 -1.316 4.204
 -1.873 -1.375 4.402
 -1.838 -1.37 4.396
 -1.807 -1.368 4.398
 -1.773 -1.363 4.393
 -1.742 -1.36 4.393
 -1.709 -1.356 4.387
 -1.677 -1.353 4.385
 -1.645 -1.349 4.383
 -1.616 -1.348 4.386
 -1.585 -1.345 4.385
 -1.556 -1.343 4.387
 -1.525 -1.34 4.385
 -1.493 -1.336 4.38
 -1.463 -1.333 4.378
 -1.433 -1.33 4.376
 -1.403 -1.328 4.374
 -1.375 -1.327 4.379
 -1.348 -1.327 4.384
 -1.32 -1.326 4.387
 -1.291 -1.324 4.387
 -1.264 -1.323 4.391
 -1.236 -1.322 4.395
 -1.209 -1.322 4.401
 0 0 0
 0 0 0
 0 0 0
 0 0 0
 0 0 0
 0 0 0
 0 0 0
 0 0 0
 0 0 0
 0 0 0
 0 0 0
 0 0 0
 0 0 0
 0 0 0
 0 0 0
 0 0 0
 0 0 0
 0 0 0
 0 0 0
 0 0 0
 0 0 0
 0 0 0
 0 0 0
 0 0 0
 0 0 0
 0 0 0
 0 0 0
 0 0 0
 0 0 0
 -0.386 -1.257 4.285
 -0.362 -1.261 4.299
 -0.338 -1.265 4.313
 -0.312 -1.264 4.313
 -0.287 -1.264 4.313
 -0.261 -1.266 4.321
 -0.236 -1.266 4.322
 -0.21 -1.264 4.314
 -0.185 -1.265 4.32
 -0.159 -1.265 4.32
 -0.134 -1.265 4.318
 -0.108 -1.264 4.315
 -0.083 -1.264 4.316
 -0.057 -1.262 4.31
 -0.032 -1.262 4.31
 -0.007 -1.261 4.306
 0.018 -1.262 4.308
 0 0 0
 0 0 0
 0 0 0
 0 0 0
 0 0 0
 0 0 0
 0 0 0
 0 0 0
 0 0 0
 0 0 0
 0 0 0
 0 0 0
 0 0 0
 0 0 0
 0 0 0
 0 0 0
 0 0 0
 0 0 0
 0 0 0
 0 0 0
 0 0 0
 0 0 0
 0 0 0
 0 0 0
 0 0 0
 0 0 0
 0 0 0
 0 0 0
 0 0 0
 0 0 0
 0 0 0
 0 0 0
 0 0 0
 0 0 0
 0 0 0
 0.942 -1.281 4.274
 0.968 -1.282 4.272
 0.995 -1.284 4.274
 1.021 -1.285 4.27
 1.048 -1.286 4.269
 1.076 -1.288 4.271
 1.104 -1.291 4.274
 1.13 -1.291 4.269
 1.157 -1.293 4.268
 1.184 -1.295 4.268
 1.212 -1.297 4.267
 1.238 -1.297 4.26
 1.265 -1.299 4.26
 1.293 -1.3 4.258
 1.319 -1.301 4.253
 1.346 -1.302 4.248
 1.373 -1.303 4.245
 1.402 -1.305 4.245
 1.431 -1.308 4.246
 1.46 -1.311 4.247
 1.489 -1.314 4.247
 1.518 -1.316 4.248
 1.548 -1.319 4.249
 1.576 -1.321 4.246
 1.604 -1.322 4.24
 1.632 -1.324 4.235
 1.661 -1.326 4.233
 1.687 -1.326 4.224
 1.716 -1.328 4.219
 1.744 -1.329 4.214
 1.771 -1.33 4.205
 1.797 -1.33 4.195
 1.825 -1.331 4.188
 1.85 -1.33 4.174
 0 0 0
 0 0 0
 0 0 0
 0 0 0
 0 0 0
 0 0 0
 0 0 0
 0 0 0
 0 0 0
 0 0 0
 0 0 0
 0 0 0
 1.738 -1.055 3.183
 1.759 -1.055 3.174
 1.773 -1.051 3.151
 1.78 -1.043 3.115
 1.789 -1.036 3.084
 1.783 -1.021 3.029
 1.777 -1.006 2.974
 -0.092 -0.053 0.148
 -0.124 -0.071 0.206
 -0.096 -0.056 0.16
 -0.089 -0.053 0.15
 -0.079 -0.048 0.134
 -0.158 -0.095 0.284
 -0.148 -0.091 0.271
 -0.139 -0.086 0.257
 -0.216 -0.135 0.414
 -0.293 -0.184 0.573
 -0.454 -0.289 0.91
 -0.61 -0.393 1.248
 -0.93 -0.606 1.941
 -1.159 -0.766 2.463
 -1.381 -0.924 2.984
 -1.52 -1.032 3.341
 -1.72 -1.184 3.847
 -1.758 -1.227 3.998
 -1.806 -1.28 4.18
 -1.871 -1.346 4.406
 -1.835 -1.34 4.395
 -1.804 -1.338 4.399
 -1.771 -1.334 4.394
 -1.74 -1.331 4.396
 -1.706 -1.327 4.389
 -1.675 -1.323 4.387
 -1.643 -1.32 4.384
 -1.614 -1.318 4.387
 -1.582 -1.315 4.385
 -1.553 -1.313 4.387
 -1.523 -1.311 4.386
 -1.491 -1.307 4.381
 -1.46 -1.303 4.376
 -1.429 -1.3 4.373
 -1.399 -1.298 4.37
 -1.371 -1.297 4.374
 -1.344 -1.296 4.379
 -1.318 -1.297 4.387
 0 0 0
 0 0 0
 0 0 0
 0 0 0
 0 0 0
 0 0 0
 0 0 0
 0 0 0
 0 0 0
 0 0 0
 0 0 0
 0 0 0
 0 0 0
 0 0 0
 0 0 0
 0 0 0
 0 0 0
 0 0 0
 0 0 0
 0 0 0
 0 0 0
 0 0 0
 0 0 0
 0 0 0
 0 0 0
 0 0 0
 0 0 0
 0 0 0
 0 0 0
 0 0 0
 0 0 0
 0 0 0
 0 0 0
 -0.384 -1.226 4.271
 -0.361 -1.231 4.288
 -0.336 -1.235 4.303
 -0.311 -1.236 4.307
 -0.286 -1.236 4.309
 -0.261 -1.238 4.318
 -0.235 -1.239 4.322
 -0.21 -1.238 4.318
 -0.184 -1.239 4.321
 -0.159 -1.238 4.321
 -0.133 -1.238 4.319
 -0.108 -1.236 4.314
 -0.082 -1.235 4.308
 -0.057 -1.233 4.302
 -0.032 -1.232 4.299
 -0.006 -1.231 4.294
 0.018 -1.228 4.284
 0 0 0
 0 0 0
 0 0 0
 0 0 0
 0 0 0
 0 0 0
 0 0 0
 0 0 0
 0 0 0
 0 0 0
 0 0 0
 0 0 0
 0 0 0
 0 0 0
 0 0 0
 0 0 0
 0 0 0
 0 0 0
 0 0 0
 0 0 0
 0 0 0
 0 0 0
 0 0 0
 0 0 0
 0 0 0
 0 0 0
 0 0 0
 0 0 0
 0 0 0
 0 0 0
 0 0 0
 0 0 0
 0 0 0
 0 0 0
 0 0 0
 0.942 -1.255 4.279
 0.967 -1.255 4.275
 0.994 -1.257 4.275
 1.02 -1.258 4.273
 1.047 -1.258 4.27
 1.074 -1.26 4.271
 1.102 -1.263 4.273
 1.128 -1.263 4.269
 1.154 -1.264 4.266
 1.182 -1.266 4.266
 1.209 -1.268 4.264
 1.236 -1.269 4.26
 1.263 -1.27 4.258
 1.29 -1.272 4.257
 1.317 -1.272 4.251
 1.344 -1.273 4.248
 1.371 -1.275 4.245
 1.4 -1.277 4.246
 1.429 -1.28 4.246
 1.458 -1.283 4.248
 1.487 -1.285 4.247
 1.515 -1.287 4.246
 1.545 -1.29 4.247
 1.573 -1.292 4.243
 1.601 -1.293 4.239
 1.629 -1.295 4.235
 1.658 -1.297 4.232
 1.685 -1.297 4.224
 1.714 -1.299 4.221
 1.742 -1.301 4.216
 1.77 -1.302 4.209
 1.796 -1.302 4.2
 1.825 -1.304 4.194
 1.851 -1.303 4.183
 0 0 0
 0 0 0
 0 0 0
 0 0 0
 0 0 0
 0 0 0
 0 0 0
 0 0 0
 0 0 0
 0 0 0
 0 0 0
 0 0 0
 1.747 -1.039 3.206
 1.763 -1.036 3.186
 1.777 -1.032 3.163
 1.782 -1.023 3.124
 1.79 -1.016 3.092
 1.779 -0.998 3.027
 1.8 -0.999 3.018
 -0.11 -0.062 0.18
 -0.13 -0.073 0.217
 -0.092 -0.053 0.153
 -0.084 -0.049 0.14
 -0.074 -0.044 0.125
 -0.154 -0.091 0.277
 -0.144 -0.086 0.263
 -0.134 -0.081 0.247
 -0.211 -0.129 0.405
 -0.375 -0.231 0.739
 -0.534 -0.333 1.076
 -0.775 -0.488 1.593
 -1.178 -0.751 2.466
 -1.486 -0.961 3.166
 -1.623 -1.064 3.516
 -1.758 -1.168 3.874
 -1.88 -1.267 4.213
 -1.839 -1.258 4.192
 -1.798 -1.248 4.168
 -1.867 -1.315 4.404
 -1.831 -1.309 4.394
 -1.801 -1.307 4.397
 -1.768 -1.304 4.395
 -1.738 -1.302 4.399
 -1.705 -1.298 4.392
 -1.673 -1.294 4.389
 -1.641 -1.291 4.387
 -1.611 -1.289 4.389
 -1.58 -1.286 4.385
 -1.55 -1.284 4.385
 -1.519 -1.281 4.384
 -1.487 -1.277 4.377
 -1.456 -1.273 4.371
 -1.427 -1.271 4.371
 -1.397 -1.269 4.369
 -1.37 -1.268 4.375
 -1.344 -1.269 4.384
 -1.319 -1.271 4.397
 0 0 0
 0 0 0
 0 0 0
 0 0 0
 0 0 0
 0 0 0
 0 0 0
 0 0 0
 0 0 0
 0 0 0
 0 0 0
 0 0 0
 0 0 0
 0 0 0
 0 0 0
 0 0 0
 0 0 0
 0 0 0
 0 0 0
 0 0 0
 0 0 0
 0 0 0
 0 0 0
 0 0 0
 -0.189 -0.371 1.304
 -0.181 -0.37 1.301
 -0.171 -0.366 1.285
 -0.16 -0.358 1.259
 -0.15 -0.353 1.243
 0 0 0
