 -2.172 -1.599 4.243
 -2.153 -1.596 4.239
 -2.142 -1.598 4.25
 -2.126 -1.596 4.252
 -2.108 -1.593 4.25
 -2.094 -1.593 4.256
 -2.082 -1.595 4.266
 -2.068 -1.595 4.273
 -2.056 -1.597 4.282
 -2.043 -1.597 4.29
 -2.026 -1.595 4.29
 -2.011 -1.595 4.294
 -1.989 -1.588 4.282
 -1.971 -1.585 4.278
 -1.956 -1.584 4.282
 -1.94 -1.583 4.284
 -1.925 -1.582 4.286
 -1.912 -1.583 4.294
 -1.898 -1.582 4.298
 -1.881 -1.58 4.296
 -1.866 -1.579 4.299
 -1.851 -1.578 4.302
 -1.836 -1.577 4.304
 -1.82 -1.575 4.304
 -1.802 -1.572 4.299
 -1.786 -1.57 4.298
 -1.772 -1.569 4.302
 -1.757 -1.568 4.304
 -1.742 -1.567 4.305
 -1.729 -1.568 4.313
 -1.712 -1.565 4.31
 -1.694 -1.561 4.304
 -1.681 -1.562 4.311
 -1.666 -1.56 4.31
 -1.649 -1.558 4.307
 -1.635 -1.557 4.31
 -1.621 -1.557 4.314
 -1.602 -1.551 4.303
 -1.586 -1.549 4.301
 -1.569 -1.546 4.297
 -1.556 -1.546 4.301
 -1.541 -1.545 4.301
 -1.527 -1.545 4.306
 -1.513 -1.545 4.308
 -1.5 -1.545 4.312
 -1.483 -1.542 4.308
 -1.469 -1.541 4.309
 -1.453 -1.538 4.306
 -1.438 -1.537 4.305
 -1.424 -1.536 4.308
 -1.409 -1.535 4.307
 -1.395 -1.534 4.307
 -1.38 -1.533 4.309
 -1.365 -1.53 4.306
 -1.349 -1.528 4.301
 -1.332 -1.524 4.294
 -1.317 -1.522 4.292
 -1.302 -1.52 4.29
 -1.289 -1.52 4.293
 -1.275 -1.519 4.294
 -1.26 -1.518 4.293
 -1.247 -1.518 4.295
 -1.233 -1.516 4.295
 -1.218 -1.515 4.294
 -1.204 -1.514 4.295
 -1.191 -1.514 4.299
 -1.177 -1.513 4.297
 -1.163 -1.512 4.298
 -1.15 -1.513 4.303
 -1.135 -1.51 4.299
 -1.122 -1.511 4.303
 -1.108 -1.51 4.302
 -1.095 -1.51 4.304
 -1.08 -1.507 4.299
 -1.066 -1.507 4.301
 -1.051 -1.503 4.295
 -1.037 -1.503 4.295
 -1.022 -1.499 4.288
 -1.007 -1.497 4.284
 -0.994 -1.497 4.287
 -0.98 -1.496 4.284
 -0.966 -1.494 4.283
 -0.953 -1.495 4.287
 -0.941 -1.496 4.293
 -0.926 -1.493 4.285
 -0.913 -1.494 4.291
 -0.9 -1.494 4.293
 -0.887 -1.493 4.292
 -0.872 -1.491 4.288
 -0.859 -1.49 4.289
 -0.845 -1.489 4.287
 -0.832 -1.488 4.286
 -0.818 -1.487 4.286
 -0.805 -1.486 4.286
 -0.792 -1.487 4.29
 -0.78 -1.488 4.293
 -0.766 -1.487 4.291
 -0.753 -1.487 4.295
 -0.74 -1.486 4.294
 -0.726 -1.485 4.291
 -0.712 -1.482 4.286
 -0.699 -1.482 4.286
 -0.685 -1.48 4.282
 -0.671 -1.479 4.28
 -0.659 -1.48 4.284
 -0.646 -1.48 4.286
 -0.633 -1.479 4.286
 -0.62 -1.478 4.285
 -0.607 -1.479 4.288
 -0.593 -1.477 4.282
 -0.58 -1.477 4.285
 -0.567 -1.476 4.283
 -0.554 -1.475 4.282
 -0.541 -1.474 4.279
 -0.527 -1.473 4.276
 -0.513 -1.469 4.268
 -0.5 -1.468 4.264
 -0.487 -1.467 4.264
 -0.474 -1.467 4.265
 -0.462 -1.468 4.269
 -0.449 -1.47 4.275
 -0.437 -1.471 4.279
 -0.424 -1.472 4.283
 -0.411 -1.471 4.282
 -0.398 -1.471 4.282
 -0.385 -1.468 4.273
 -0.372 -1.468 4.274
 -0.359 -1.467 4.274
 -0.346 -1.468 4.276
 -0.333 -1.467 4.273
 -0.321 -1.469 4.281
 -0.308 -1.468 4.279
 -0.295 -1.467 4.274
 -0.282 -1.466 4.273
 -0.269 -1.467 4.275
 -0.257 -1.466 4.274
 -0.244 -1.465 4.272
 -0.231 -1.467 4.278
 -0.218 -1.467 4.277
 -0.205 -1.466 4.276
 -0.193 -1.467 4.279
 -0.18 -1.468 4.281
 -0.167 -1.466 4.275
 -0.155 -1.468 4.282
 -0.142 -1.468 4.284
 -0.129 -1.467 4.281
 -0.116 -1.465 4.275
 -0.103 -1.466 4.276
 -0.09 -1.462 4.267
 -0.078 -1.461 4.261
 -0.065 -1.46 4.259
 -0.052 -1.461 4.262
 -0.039 -1.46 4.26
 -0.027 -1.461 4.263
 -0.014 -1.462 4.265
 -0.001 -1.461 4.263
 0.01 -1.462 4.266
 0.023 -1.463 4.268
 0.036 -1.462 4.263
 0.048 -1.46 4.259
 0.061 -1.46 4.257
 0.074 -1.459 4.255
 0.086 -1.459 4.255
 0.099 -1.46 4.257
 0.112 -1.461 4.26
 0.125 -1.463 4.264
 0.137 -1.463 4.264
 0.15 -1.463 4.264
 0.163 -1.462 4.261
 0.175 -1.462 4.259
 0.188 -1.461 4.257
 0.201 -1.462 4.258
 0.213 -1.461 4.254
 0.226 -1.463 4.259
 0.239 -1.463 4.258
 0.252 -1.463 4.259
 0.264 -1.463 4.257
 0.277 -1.465 4.261
 0.29 -1.466 4.265
 0.304 -1.469 4.271
 0.316 -1.468 4.267
 0.329 -1.468 4.267
 0.341 -1.467 4.263
 0.354 -1.466 4.261
 0.366 -1.464 4.253
 0.379 -1.464 4.252
 0.392 -1.465 4.252
 0.405 -1.465 4.253
 0.417 -1.465 4.25
 0.43 -1.465 4.251
 0.443 -1.466 4.252
 0.456 -1.466 4.251
 0.468 -1.466 4.248
 0.481 -1.467 4.249
 0.494 -1.468 4.251
 0.507 -1.468 4.251
 0.519 -1.467 4.246
 0.532 -1.466 4.241
 0.544 -1.465 4.236
 0.557 -1.464 4.233
 0.57 -1.465 4.235
 0.583 -1.468 4.24
 0.597 -1.471 4.248
 0.61 -1.47 4.245
 0.623 -1.471 4.244
 0.636 -1.472 4.246
 0.648 -1.472 4.243
 0.661 -1.471 4.239
 0.675 -1.474 4.245
 0.688 -1.475 4.247
 0.701 -1.474 4.243
 0.714 -1.476 4.246
 0.727 -1.475 4.242
 0.74 -1.476 4.241
 0.753 -1.477 4.242
 0.766 -1.477 4.241
 0.779 -1.478 4.242
 0.793 -1.48 4.246
 0.806 -1.481 4.245
 0.819 -1.48 4.242
 0.833 -1.482 4.244
 0.845 -1.482 4.241
 0.859 -1.484 4.245
 0.873 -1.485 4.246
 0.885 -1.485 4.242
 0.899 -1.485 4.242
 0.912 -1.487 4.243
 0.925 -1.487 4.24
 0.937 -1.486 4.235
 0.951 -1.487 4.237
 0.964 -1.487 4.234
 0.977 -1.488 4.234
 0.991 -1.49 4.237
 1.006 -1.493 4.242
 1.019 -1.493 4.24
 1.032 -1.493 4.236
 1.045 -1.493 4.235
 1.058 -1.493 4.23
 1.07 -1.492 4.226
 1.084 -1.494 4.228
 1.098 -1.495 4.228
 1.112 -1.496 4.227
 1.125 -1.497 4.226
 1.138 -1.496 4.222
 1.15 -1.496 4.218
 1.165 -1.498 4.22
 1.179 -1.5 4.222
 1.194 -1.502 4.225
 1.209 -1.505 4.23
 1.225 -1.508 4.235
 1.238 -1.509 4.234
 1.251 -1.509 4.23
 1.263 -1.508 4.224
 1.277 -1.509 4.223
 1.29 -1.509 4.22
 1.302 -1.508 4.212
 1.317 -1.509 4.214
 1.331 -1.511 4.215
 1.346 -1.513 4.216
 1.36 -1.514 4.215
 1.377 -1.519 4.225
 1.39 -1.519 4.221
 1.403 -1.519 4.217
 1.415 -1.517 4.208
 1.429 -1.519 4.208
 1.443 -1.519 4.205
 1.458 -1.521 4.206
 1.473 -1.523 4.209
 1.491 -1.528 4.217
 1.505 -1.529 4.215
 1.519 -1.529 4.213
 1.534 -1.531 4.214
 1.548 -1.532 4.211
 1.562 -1.533 4.209
 1.576 -1.534 4.208
 1.591 -1.536 4.209
 1.604 -1.536 4.203
 1.619 -1.537 4.202
 1.632 -1.537 4.197
 1.646 -1.538 4.195
 1.66 -1.539 4.192
 1.675 -1.54 4.192
 1.688 -1.54 4.187
 1.701 -1.54 4.181
 1.714 -1.54 4.175
 1.728 -1.54 4.171
 1.742 -1.541 4.167
 1.754 -1.54 4.161
 1.768 -1.54 4.157
 1.783 -1.542 4.155
 1.799 -1.544 4.156
 1.812 -1.544 4.152
 1.825 -1.544 4.144
 1.837 -1.543 4.138
 1.847 -1.54 4.124
 1.851 -1.533 4.099
 1.857 -1.527 4.076
 1.862 -1.52 4.054
 1.867 -1.513 4.03
 1.871 -1.507 4.007
 1.879 -1.502 3.989
 1.884 -1.496 3.968
 1.892 -1.493 3.952
 1.9 -1.489 3.937
 1.908 -1.485 3.92
 1.908 -1.475 3.889
 0 0 0
 0 0 0
 0 0 0
 0 0 0
 0 0 0
 0 0 0
 0 0 0
 0 0 0
 0 0 0
 0 0 0
 0 0 0
 0 0 0
 0 0 0
 0 0 0
 0 0 0
 0 0 0
 0 0 0
 0 0 0
 0 0 0
 1.842 -1.258 3.209
 1.841 -1.25 3.183
 1.846 -1.246 3.167
 1.853 -1.244 3.155
 1.859 -1.241 3.143
 1.855 -1.231 3.112
 1.855 -1.224 3.089
 1.804 -1.184 2.981
 1.852 -1.209 3.039
 -2.484 -1.623 4.228
 -2.421 -1.591 4.152
 -2.425 -1.603 4.19
 -2.415 -1.606 4.204
 -2.403 -1.608 4.216
 -2.387 -1.607 4.22
 -2.364 -1.6 4.21
 -2.345 -1.597 4.209
 -2.327 -1.595 4.209
 -2.313 -1.595 4.215
 -2.301 -1.596 4.226
 -2.283 -1.593 4.225
 -2.266 -1.592 4.228
 -2.253 -1.592 4.235
 -2.239 -1.593 4.242
 -2.222 -1.591 4.244
 -2.211 -1.593 4.255
 -2.196 -1.593 4.261
 -2.183 -1.594 4.269
 -2.164 -1.589 4.264
 -2.152 -1.592 4.276
 -2.136 -1.59 4.278
 -2.118 -1.587 4.275
 -2.103 -1.587 4.281
 -2.09 -1.587 4.289
 -2.076 -1.588 4.295
 -2.063 -1.588 4.302
 -2.049 -1.588 4.309
 -2.031 -1.586 4.307
 -2.017 -1.586 4.312
 -1.998 -1.581 4.306
 -1.983 -1.58 4.309
 -1.968 -1.58 4.312
 -1.95 -1.577 4.309
 -1.933 -1.574 4.308
 -1.918 -1.573 4.311
 -1.899 -1.57 4.306
 -1.882 -1.566 4.302
 -1.868 -1.566 4.307
 -1.852 -1.565 4.308
 -1.836 -1.563 4.308
 -1.819 -1.56 4.306
 -1.804 -1.56 4.309
 -1.788 -1.558 4.309
 -1.775 -1.559 4.315
 -1.761 -1.558 4.318
 -1.746 -1.557 4.322
 -1.73 -1.556 4.321
 -1.713 -1.552 4.316
 -1.695 -1.549 4.311
 -1.682 -1.549 4.316
 -1.665 -1.546 4.312
 -1.649 -1.544 4.311
 -1.635 -1.544 4.315
 -1.62 -1.542 4.315
 -1.601 -1.538 4.307
 -1.587 -1.537 4.309
 -1.571 -1.535 4.307
 -1.558 -1.535 4.311
 -1.544 -1.534 4.314
 -1.529 -1.534 4.316
 -1.515 -1.533 4.317
 -1.499 -1.531 4.316
 -1.484 -1.529 4.315
 -1.468 -1.527 4.312
 -1.452 -1.524 4.307
 -1.438 -1.523 4.308
 -1.424 -1.523 4.313
 -1.408 -1.52 4.308
 -1.394 -1.52 4.31
 -1.379 -1.518 4.309
 -1.363 -1.515 4.305
 -1.347 -1.512 4.298
 -1.331 -1.509 4.294
 -1.317 -1.508 4.295
 -1.302 -1.507 4.294
 -1.289 -1.507 4.297
 -1.275 -1.506 4.298
 -1.261 -1.505 4.299
 -1.247 -1.505 4.301
 -1.234 -1.504 4.303
 -1.219 -1.503 4.302
 -1.205 -1.501 4.301
 -1.192 -1.502 4.304
 -1.176 -1.499 4.3
 -1.162 -1.498 4.301
 -1.15 -1.499 4.306
 -1.135 -1.497 4.304
 -1.122 -1.497 4.306
 -1.108 -1.496 4.306
 -1.094 -1.495 4.305
 -1.079 -1.492 4.3
 -1.066 -1.493 4.303
 -1.05 -1.489 4.294
 -1.036 -1.488 4.295
 -1.022 -1.486 4.292
 -1.007 -1.485 4.29
 -0.994 -1.484 4.291
 -0.98 -1.483 4.291
 -0.966 -1.482 4.289
 -0.954 -1.482 4.293
 -0.941 -1.483 4.296
 -0.926 -1.48 4.29
 -0.913 -1.481 4.294
 -0.9 -1.48 4.294
 -0.885 -1.478 4.291
 -0.871 -1.476 4.288
 -0.858 -1.476 4.288
 -0.844 -1.474 4.286
 -0.831 -1.474 4.287
 -0.817 -1.473 4.286
 -0.804 -1.473 4.287
 -0.792 -1.473 4.291
 -0.779 -1.474 4.295
 -0.766 -1.473 4.294
 -0.753 -1.475 4.301
 -0.74 -1.473 4.297
 -0.726 -1.472 4.294
 -0.712 -1.47 4.291
 -0.699 -1.47 4.292
 -0.685 -1.468 4.289
 -0.672 -1.468 4.289
 -0.66 -1.469 4.293
 -0.646 -1.468 4.292
 -0.633 -1.467 4.29
 -0.619 -1.465 4.286
 -0.606 -1.464 4.286
 -0.592 -1.462 4.281
 -0.579 -1.462 4.282
 -0.567 -1.462 4.283
 -0.553 -1.46 4.28
 -0.54 -1.459 4.278
 -0.526 -1.457 4.273
 -0.513 -1.456 4.27
 -0.499 -1.454 4.264
 -0.486 -1.453 4.264
 -0.474 -1.454 4.266
 -0.461 -1.454 4.27
 -0.448 -1.454 4.271
 -0.436 -1.456 4.276
 -0.424 -1.458 4.283
 -0.411 -1.457 4.281
 -0.398 -1.458 4.284
 -0.385 -1.455 4.277
 -0.372 -1.456 4.279
 -0.359 -1.454 4.276
 -0.346 -1.455 4.279
 -0.333 -1.453 4.275
 -0.321 -1.455 4.28
 -0.308 -1.454 4.278
 -0.295 -1.453 4.277
 -0.282 -1.452 4.272
 -0.269 -1.452 4.275
 -0.256 -1.452 4.275
 -0.243 -1.451 4.273
 -0.231 -1.453 4.276
 -0.218 -1.454 4.28
 -0.205 -1.454 4.282
 -0.193 -1.455 4.286
 -0.18 -1.457 4.29
 -0.167 -1.454 4.283
 -0.155 -1.455 4.287
 -0.142 -1.455 4.287
 -0.129 -1.455 4.285
 -0.116 -1.452 4.278
 -0.103 -1.453 4.281
 -0.09 -1.45 4.272
 -0.077 -1.447 4.262
 -0.065 -1.445 4.257
 -0.052 -1.445 4.257
 -0.039 -1.443 4.25
 -0.027 -1.445 4.257
 -0.014 -1.447 4.261
 -0.001 -1.447 4.263
 0.01 -1.449 4.267
 0.023 -1.451 4.274
 0.036 -1.447 4.262
 0.048 -1.446 4.258
 0.061 -1.444 4.253
 0.074 -1.442 4.247
 0.086 -1.441 4.243
 0.099 -1.443 4.246
 0.112 -1.444 4.25
 0.124 -1.446 4.256
 0.137 -1.448 4.26
 0.15 -1.449 4.263
 0.163 -1.449 4.263
 0.175 -1.449 4.261
 0.188 -1.448 4.258
 0.201 -1.448 4.258
 0.213 -1.448 4.256
 0.226 -1.449 4.259
 0.239 -1.448 4.256
 0.252 -1.45 4.26
 0.264 -1.449 4.258
 0.277 -1.45 4.259
 0.29 -1.451 4.262
 0.303 -1.453 4.267
 0.316 -1.452 4.262
 0.328 -1.452 4.262
 0.341 -1.451 4.258
 0.354 -1.452 4.258
 0.366 -1.451 4.255
 0.379 -1.451 4.254
 0.392 -1.451 4.253
 0.405 -1.452 4.255
 0.417 -1.451 4.252
 0.43 -1.453 4.255
 0.443 -1.454 4.259
 0.456 -1.454 4.257
 0.468 -1.453 4.252
 0.482 -1.455 4.256
 0.495 -1.455 4.256
 0.507 -1.455 4.252
 0.519 -1.454 4.248
 0.532 -1.453 4.245
 0.544 -1.451 4.239
 0.557 -1.452 4.238
 0.57 -1.454 4.242
 0.584 -1.457 4.25
 0.598 -1.46 4.257
 0.611 -1.46 4.256
 0.624 -1.46 4.253
 0.636 -1.46 4.251
 0.648 -1.458 4.245
 0.661 -1.458 4.243
 0.674 -1.459 4.244
 0.688 -1.461 4.248
 0.701 -1.462 4.248
 0.714 -1.463 4.249
 0.727 -1.463 4.246
 0.74 -1.463 4.246
 0.753 -1.464 4.246
 0.766 -1.464 4.245
 0.78 -1.466 4.248
 0.793 -1.468 4.251
 0.806 -1.467 4.247
 0.819 -1.467 4.245
 0.832 -1.469 4.246
 0.845 -1.469 4.244
 0.859 -1.47 4.246
 0.873 -1.472 4.25
 0.885 -1.471 4.245
 0.898 -1.472 4.244
 0.912 -1.473 4.245
 0.925 -1.473 4.243
 0.937 -1.472 4.238
 0.951 -1.474 4.24
 0.964 -1.474 4.238
 0.976 -1.473 4.233
 0.99 -1.475 4.234
 1.005 -1.478 4.241
 1.018 -1.478 4.237
 1.03 -1.477 4.232
 1.044 -1.478 4.232
 1.057 -1.478 4.23
 1.069 -1.478 4.226
 1.083 -1.479 4.226
 1.097 -1.48 4.227
 1.11 -1.481 4.225
 1.123 -1.481 4.223
 1.136 -1.481 4.219
 1.149 -1.482 4.218
 1.164 -1.484 4.22
 1.179 -1.487 4.226
 1.193 -1.488 4.226
 1.208 -1.49 4.23
 1.223 -1.493 4.232
 1.237 -1.494 4.233
 1.25 -1.494 4.228
 1.263 -1.494 4.225
 1.276 -1.495 4.224
 1.29 -1.495 4.221
 1.302 -1.494 4.215
 1.316 -1.496 4.216
 1.331 -1.498 4.217
 1.345 -1.499 4.218
 1.36 -1.501 4.22
 1.377 -1.505 4.228
 1.39 -1.505 4.223
 1.404 -1.506 4.221
 1.415 -1.504 4.213
 1.43 -1.506 4.214
 1.443 -1.506 4.21
 1.458 -1.508 4.211
 1.473 -1.51 4.212
 1.49 -1.514 4.219
 1.504 -1.514 4.216
 1.517 -1.515 4.213
 1.533 -1.517 4.215
 1.546 -1.517 4.212
 1.561 -1.518 4.21
 1.575 -1.52 4.208
 1.59 -1.521 4.209
 1.604 -1.522 4.207
 1.618 -1.523 4.205
 1.631 -1.523 4.199
 1.645 -1.524 4.197
 1.659 -1.525 4.194
 1.673 -1.525 4.191
 1.687 -1.526 4.189
 1.701 -1.527 4.185
 1.714 -1.526 4.179
 1.728 -1.526 4.175
 1.741 -1.527 4.171
 1.754 -1.526 4.165
 1.767 -1.526 4.159
 1.784 -1.529 4.161
 1.8 -1.531 4.162
 1.814 -1.532 4.159
 1.826 -1.532 4.152
 1.84 -1.532 4.147
 1.85 -1.529 4.134
 1.856 -1.523 4.112
 1.861 -1.517 4.09
 1.868 -1.511 4.07
 1.871 -1.504 4.044
 1.876 -1.497 4.02
 1.881 -1.491 3.998
 1.887 -1.485 3.978
 1.893 -1.48 3.958
 1.904 -1.479 3.948
 1.911 -1.475 3.932
 0 0 0
 0 0 0
 0 0 0
 0 0 0
 0 0 0
 0 0 0
 0 0 0
 0 0 0
 0 0 0
 0 0 0
 0 0 0
 0 0 0
 0 0 0
 0 0 0
 0 0 0
 0 0 0
 0 0 0
 0 0 0
 0 0 0
 0 0 0
 1.842 -1.247 3.213
 1.837 -1.236 3.18
 1.843 -1.233 3.166
 1.849 -1.23 3.153
 1.857 -1.228 3.142
 1.852 -1.218 3.11
 1.853 -1.212 3.088
 1.821 -1.185 3.014
 1.873 -1.212 3.076
 0 0 0
 -2.468 -1.608 4.238
 -2.439 -1.598 4.219
 -2.427 -1.6 4.231
 -2.415 -1.601 4.241
 -2.404 -1.603 4.254
 -2.38 -1.597 4.243
 -2.363 -1.596 4.247
 -2.343 -1.592 4.243
 -2.332 -1.594 4.256
 -2.319 -1.595 4.264
 -2.3 -1.592 4.262
 -2.28 -1.588 4.258
 -2.266 -1.588 4.265
 -2.249 -1.586 4.266
 -2.233 -1.584 4.269
 -2.221 -1.586 4.28
 -2.208 -1.587 4.288
 -2.194 -1.587 4.295
 -2.176 -1.584 4.294
 -2.165 -1.587 4.307
 -2.147 -1.584 4.304
 -2.129 -1.581 4.304
 -2.115 -1.581 4.309
 -2.097 -1.579 4.308
 -2.081 -1.577 4.309
 -2.068 -1.578 4.317
 -2.053 -1.577 4.321
 -2.034 -1.574 4.317
 -2.021 -1.575 4.325
 -2 -1.569 4.316
 -1.985 -1.568 4.319
 -1.971 -1.568 4.324
 -1.954 -1.566 4.324
 -1.936 -1.563 4.32
 -1.921 -1.562 4.324
 -1.902 -1.558 4.316
 -1.884 -1.555 4.313
 -1.868 -1.553 4.312
 -1.852 -1.551 4.313
 -1.837 -1.55 4.315
 -1.822 -1.549 4.317
 -1.805 -1.547 4.316
 -1.791 -1.546 4.319
 -1.778 -1.547 4.326
 -1.762 -1.545 4.326
 -1.747 -1.544 4.327
 -1.732 -1.543 4.33
 -1.714 -1.54 4.325
 -1.698 -1.537 4.322
 -1.684 -1.538 4.328
 -1.666 -1.534 4.321
 -1.649 -1.531 4.316
 -1.634 -1.529 4.317
 -1.617 -1.526 4.313
 -1.6 -1.523 4.307
 -1.585 -1.521 4.307
 -1.57 -1.52 4.308
 -1.556 -1.52 4.311
 -1.541 -1.519 4.312
 -1.526 -1.517 4.312
 -1.512 -1.516 4.313
 -1.496 -1.514 4.311
 -1.481 -1.513 4.311
 -1.465 -1.51 4.307
 -1.449 -1.507 4.302
 -1.436 -1.508 4.308
 -1.423 -1.508 4.312
 -1.407 -1.505 4.308
 -1.393 -1.506 4.312
 -1.379 -1.504 4.312
 -1.362 -1.5 4.304
 -1.347 -1.499 4.304
 -1.332 -1.497 4.301
 -1.317 -1.496 4.301
 -1.303 -1.495 4.301
 -1.291 -1.496 4.308
 -1.276 -1.494 4.305
 -1.261 -1.493 4.305
 -1.248 -1.492 4.308
 -1.234 -1.491 4.308
 -1.219 -1.489 4.304
 -1.205 -1.488 4.305
 -1.19 -1.487 4.304
 -1.175 -1.485 4.301
 -1.161 -1.484 4.3
 -1.149 -1.485 4.307
 -1.135 -1.484 4.306
 -1.122 -1.485 4.312
 -1.108 -1.484 4.312
 -1.095 -1.483 4.312
 -1.079 -1.479 4.304
 -1.065 -1.479 4.306
 -1.049 -1.474 4.295
 -1.035 -1.474 4.295
 -1.02 -1.472 4.291
 -1.007 -1.471 4.291
 -0.993 -1.47 4.291
 -0.98 -1.47 4.293
 -0.966 -1.468 4.292
 -0.953 -1.469 4.296
 -0.94 -1.469 4.297
 -0.925 -1.466 4.293
 -0.913 -1.467 4.295
 -0.899 -1.465 4.293
 -0.885 -1.463 4.29
 -0.87 -1.462 4.287
 -0.857 -1.461 4.287
 -0.844 -1.461 4.29
 -0.831 -1.462 4.293
 -0.818 -1.461 4.293
 -0.805 -1.462 4.296
 -0.793 -1.463 4.301
 -0.779 -1.461 4.298
 -0.765 -1.46 4.296
 -0.753 -1.46 4.3
 -0.739 -1.458 4.296
 -0.725 -1.456 4.292
 -0.711 -1.455 4.29
 -0.698 -1.455 4.29
 -0.685 -1.454 4.288
 -0.671 -1.453 4.289
 -0.659 -1.455 4.296
 -0.646 -1.455 4.297
 -0.633 -1.453 4.293
 -0.619 -1.452 4.289
 -0.606 -1.452 4.292
 -0.592 -1.449 4.285
 -0.58 -1.45 4.288
 -0.567 -1.45 4.291
 -0.554 -1.449 4.289
 -0.54 -1.447 4.284
 -0.527 -1.447 4.283
 -0.514 -1.446 4.282
 -0.5 -1.444 4.277
 -0.487 -1.443 4.274
 -0.475 -1.443 4.278
 -0.461 -1.443 4.276
 -0.448 -1.44 4.271
 -0.435 -1.441 4.273
 -0.423 -1.443 4.28
 -0.41 -1.442 4.277
 -0.397 -1.442 4.281
 -0.384 -1.442 4.279
 -0.372 -1.443 4.282
 -0.359 -1.442 4.281
 -0.346 -1.443 4.284
 -0.333 -1.441 4.278
 -0.321 -1.442 4.283
 -0.307 -1.441 4.28
 -0.295 -1.44 4.279
 -0.281 -1.438 4.272
 -0.269 -1.439 4.276
 -0.256 -1.439 4.277
 -0.243 -1.439 4.277
 -0.231 -1.439 4.278
 -0.218 -1.44 4.282
 -0.205 -1.44 4.283
 -0.193 -1.441 4.286
 -0.18 -1.442 4.287
 -0.167 -1.439 4.28
 -0.154 -1.44 4.282
 -0.141 -1.44 4.282
 -0.129 -1.438 4.277
 -0.116 -1.436 4.272
 -0.103 -1.438 4.278
 -0.09 -1.435 4.269
 -0.077 -1.433 4.261
 -0.065 -1.432 4.259
 -0.052 -1.432 4.259
 -0.039 -1.429 4.251
 -0.027 -1.432 4.26
 -0.014 -1.435 4.267
 -0.001 -1.436 4.269
 0.01 -1.437 4.274
 0.023 -1.439 4.278
 0.036 -1.435 4.268
 0.049 -1.434 4.264
 0.061 -1.431 4.256
 0.074 -1.43 4.25
 0.086 -1.429 4.247
 0.099 -1.43 4.25
 0.112 -1.429 4.248
 0.124 -1.432 4.255
 0.137 -1.433 4.258
 0.15 -1.435 4.263
 0.163 -1.435 4.262
 0.175 -1.436 4.264
 0.188 -1.435 4.26
 0.201 -1.435 4.261
 0.213 -1.434 4.257
 0.226 -1.435 4.259
 0.239 -1.434 4.255
 0.252 -1.435 4.259
 0.264 -1.436 4.259
 0.277 -1.436 4.259
 0.29 -1.438 4.265
 0.303 -1.44 4.269
 0.316 -1.438 4.264
 0.328 -1.439 4.265
 0.341 -1.44 4.265
 0.354 -1.438 4.26
 0.366 -1.439 4.261
 0.379 -1.439 4.26
 0.392 -1.438 4.256
 0.404 -1.438 4.255
 0.417 -1.438 4.254
 0.43 -1.439 4.255
 0.443 -1.441 4.259
 0.456 -1.44 4.257
 0.468 -1.44 4.254
 0.481 -1.441 4.255
 0.494 -1.44 4.251
 0.506 -1.439 4.248
 0.519 -1.439 4.246
 0.532 -1.439 4.245
 0.544 -1.439 4.243
 0.557 -1.439 4.243
 0.571 -1.442 4.248
 0.584 -1.444 4.253
 0.598 -1.446 4.256
 0.61 -1.444 4.25
 0.622 -1.443 4.246
 0.634 -1.442 4.24
 0.647 -1.442 4.237
 0.66 -1.443 4.239
 0.674 -1.445 4.244
 0.688 -1.448 4.251
 0.701 -1.449 4.252
 0.715 -1.45 4.254
 0.727 -1.45 4.251
 0.74 -1.451 4.252
 0.753 -1.452 4.251
 0.767 -1.453 4.254
 0.78 -1.454 4.255
 0.794 -1.456 4.257
 0.806 -1.455 4.252
 0.819 -1.455 4.251
 0.832 -1.456 4.25
 0.845 -1.456 4.249
 0.858 -1.456 4.247
 0.872 -1.458 4.25
 0.885 -1.458 4.247
 0.898 -1.459 4.246
 0.911 -1.459 4.246
 0.925 -1.461 4.248
 0.937 -1.46 4.243
 0.952 -1.462 4.246
 0.964 -1.462 4.243
 0.977 -1.461 4.239
 0.99 -1.462 4.238
 1.005 -1.465 4.244
 1.017 -1.464 4.239
 1.029 -1.463 4.232
 1.043 -1.464 4.232
 1.056 -1.465 4.232
 1.069 -1.465 4.228
 1.083 -1.466 4.229
 1.097 -1.468 4.232
 1.11 -1.468 4.229
 1.123 -1.468 4.225
 1.135 -1.467 4.221
 1.149 -1.468 4.22
 1.163 -1.47 4.222
 1.179 -1.474 4.23
 1.193 -1.475 4.23
 1.209 -1.478 4.235
 1.223 -1.48 4.237
 1.236 -1.48 4.234
 1.248 -1.478 4.226
 1.261 -1.478 4.222
 1.273 -1.478 4.217
 1.288 -1.479 4.218
 1.3 -1.479 4.214
 1.315 -1.481 4.216
 1.331 -1.484 4.221
 1.346 -1.486 4.222
 1.359 -1.487 4.221
 1.375 -1.49 4.226
 1.389 -1.491 4.224
 1.403 -1.491 4.222
 1.416 -1.491 4.218
 1.431 -1.494 4.221
 1.445 -1.495 4.22
 1.46 -1.497 4.221
 1.475 -1.498 4.221
 1.49 -1.501 4.223
 1.503 -1.5 4.218
 1.517 -1.501 4.215
 1.53 -1.501 4.212
 1.543 -1.501 4.207
 1.558 -1.503 4.208
 1.573 -1.504 4.207
 1.588 -1.506 4.208
 1.604 -1.509 4.211
 1.619 -1.51 4.21
 1.631 -1.509 4.203
 1.644 -1.509 4.198
 1.657 -1.509 4.192
 1.669 -1.508 4.185
 1.684 -1.51 4.185
 1.698 -1.51 4.182
 1.712 -1.511 4.178
 1.727 -1.512 4.177
 1.742 -1.514 4.175
 1.754 -1.513 4.168
 1.768 -1.513 4.164
 1.784 -1.516 4.167
 1.8 -1.518 4.168
 1.815 -1.52 4.167
 1.828 -1.52 4.161
 1.84 -1.519 4.153
 1.85 -1.516 4.139
 1.857 -1.51 4.119
 1.861 -1.503 4.093
 1.865 -1.496 4.068
 1.868 -1.488 4.042
 1.873 -1.482 4.018
 1.877 -1.475 3.994
 1.884 -1.47 3.977
 1.894 -1.468 3.965
 1.908 -1.469 3.96
 1.918 -1.466 3.949
 0 0 0
 0 0 0
 0 0 0
 0 0 0
 0 0 0
 0 0 0
 0 0 0
 0 0 0
 0 0 0
 0 0 0
 0 0 0
 0 0 0
 0 0 0
 0 0 0
 0 0 0
 0 0 0
 0 0 0
 0 0 0
 0 0 0
 0 0 0
 0 0 0
 1.829 -1.22 3.169
 1.837 -1.219 3.16
 1.844 -1.216 3.148
 1.854 -1.216 3.142
 1.852 -1.208 3.114
 1.852 -1.201 3.091
 1.867 -1.204 3.093
 1.854 -1.189 3.049
 0 0 0
 -2.439 -1.575 4.192
 -2.455 -1.594 4.252
 -2.443 -1.596 4.263
 -2.433 -1.599 4.278
 -2.431 -1.607 4.306
 -2.4 -1.596 4.285
 -2.387 -1.597 4.294
 -2.363 -1.591 4.284
 -2.353 -1.594 4.298
 -2.332 -1.589 4.293
 -2.313 -1.586 4.29
 -2.289 -1.579 4.279
 -2.276 -1.58 4.288
 -2.255 -1.576 4.283
 -2.241 -1.576 4.29
 -2.228 -1.577 4.299
 -2.216 -1.578 4.308
 -2.202 -1.579 4.315
 -2.185 -1.577 4.317
 -2.173 -1.579 4.327
 -2.155 -1.576 4.326
 -2.137 -1.573 4.324
 -2.12 -1.571 4.325
 -2.102 -1.568 4.322
 -2.083 -1.564 4.317
 -2.068 -1.564 4.322
 -2.052 -1.562 4.323
 -2.033 -1.559 4.319
 -2.019 -1.559 4.324
 -2.001 -1.556 4.322
 -1.988 -1.557 4.331
 -1.975 -1.558 4.338
 -1.958 -1.555 4.337
 -1.941 -1.553 4.335
 -1.925 -1.551 4.336
 -1.903 -1.545 4.324
 -1.884 -1.541 4.317
 -1.868 -1.539 4.317
 -1.853 -1.538 4.319
 -1.839 -1.538 4.324
 -1.824 -1.537 4.326
 -1.807 -1.534 4.324
 -1.791 -1.533 4.325
 -1.777 -1.533 4.329
 -1.761 -1.53 4.327
 -1.746 -1.53 4.33
 -1.732 -1.53 4.335
 -1.716 -1.528 4.333
 -1.7 -1.525 4.331
 -1.685 -1.524 4.333
 -1.666 -1.52 4.325
 -1.649 -1.517 4.321
 -1.634 -1.515 4.321
 -1.618 -1.513 4.319
 -1.601 -1.51 4.315
 -1.586 -1.509 4.315
 -1.571 -1.508 4.316
 -1.556 -1.506 4.316
 -1.542 -1.506 4.317
 -1.527 -1.504 4.318
 -1.512 -1.503 4.317
 -1.495 -1.5 4.312
 -1.481 -1.499 4.314
 -1.463 -1.495 4.306
 -1.448 -1.493 4.303
 -1.435 -1.493 4.309
 -1.422 -1.494 4.314
 -1.406 -1.491 4.309
 -1.393 -1.492 4.316
 -1.378 -1.49 4.314
 -1.361 -1.486 4.307
 -1.347 -1.485 4.307
 -1.333 -1.485 4.31
 -1.319 -1.484 4.309
 -1.304 -1.482 4.308
 -1.291 -1.483 4.313
 -1.276 -1.481 4.311
 -1.26 -1.478 4.306
 -1.246 -1.477 4.307
 -1.233 -1.477 4.31
 -1.219 -1.476 4.308
 -1.204 -1.474 4.307
 -1.189 -1.473 4.305
 -1.175 -1.471 4.303
 -1.16 -1.469 4.3
 -1.147 -1.47 4.305
 -1.133 -1.469 4.305
 -1.121 -1.47 4.312
 -1.107 -1.469 4.311
 -1.094 -1.469 4.313
 -1.078 -1.465 4.304
 -1.064 -1.465 4.307
 -1.049 -1.461 4.299
 -1.035 -1.461 4.299
 -1.021 -1.46 4.299
 -1.008 -1.459 4.299
 -0.994 -1.458 4.298
 -0.981 -1.458 4.3
 -0.967 -1.456 4.299
 -0.954 -1.457 4.302
 -0.94 -1.456 4.303
 -0.926 -1.455 4.301
 -0.913 -1.454 4.301
 -0.899 -1.453 4.3
 -0.885 -1.451 4.295
 -0.87 -1.449 4.292
 -0.857 -1.448 4.29
 -0.844 -1.448 4.293
 -0.831 -1.448 4.294
 -0.818 -1.448 4.296
 -0.805 -1.448 4.3
 -0.793 -1.449 4.305
 -0.778 -1.447 4.299
 -0.765 -1.446 4.298
 -0.752 -1.446 4.301
 -0.738 -1.444 4.295
 -0.724 -1.442 4.29
 -0.71 -1.44 4.287
 -0.697 -1.439 4.286
 -0.683 -1.438 4.284
 -0.67 -1.438 4.286
 -0.659 -1.441 4.294
 -0.646 -1.441 4.298
 -0.632 -1.44 4.295
 -0.619 -1.439 4.293
 -0.606 -1.439 4.297
 -0.592 -1.435 4.285
 -0.579 -1.434 4.284
 -0.566 -1.436 4.29
 -0.553 -1.435 4.287
 -0.539 -1.432 4.281
 -0.526 -1.433 4.283
 -0.514 -1.432 4.284
 -0.5 -1.43 4.279
 -0.487 -1.43 4.278
 -0.474 -1.43 4.28
 -0.461 -1.43 4.279
 -0.448 -1.428 4.276
 -0.435 -1.428 4.277
 -0.423 -1.43 4.283
 -0.41 -1.428 4.279
 -0.397 -1.43 4.285
 -0.385 -1.43 4.284
 -0.372 -1.429 4.283
 -0.358 -1.428 4.281
 -0.346 -1.43 4.289
 -0.333 -1.428 4.282
 -0.32 -1.428 4.284
 -0.307 -1.428 4.282
 -0.295 -1.429 4.286
 -0.281 -1.426 4.279
 -0.269 -1.426 4.281
 -0.256 -1.426 4.28
 -0.243 -1.426 4.28
 -0.23 -1.425 4.277
 -0.218 -1.426 4.282
 -0.205 -1.426 4.281
 -0.192 -1.428 4.287
 -0.18 -1.428 4.287
 -0.167 -1.426 4.281
 -0.154 -1.425 4.278
 -0.141 -1.425 4.28
 -0.128 -1.423 4.273
 -0.115 -1.421 4.268
 -0.103 -1.422 4.272
 -0.09 -1.421 4.268
 -0.077 -1.418 4.26
 -0.064 -1.418 4.258
 -0.052 -1.418 4.26
 -0.039 -1.416 4.253
 -0.026 -1.419 4.261
 -0.014 -1.421 4.268
 -0.001 -1.423 4.272
 0.011 -1.424 4.275
 0.023 -1.425 4.279
 0.036 -1.423 4.271
 0.049 -1.421 4.266
 0.061 -1.418 4.257
 0.074 -1.416 4.25
 0.086 -1.415 4.249
 0.099 -1.416 4.249
 0.112 -1.416 4.249
 0.124 -1.418 4.256
 0.137 -1.42 4.261
 0.15 -1.421 4.264
 0.163 -1.421 4.262
 0.175 -1.422 4.265
 0.188 -1.421 4.262
 0.201 -1.421 4.26
 0.213 -1.422 4.263
 0.226 -1.422 4.263
 0.239 -1.421 4.259
 0.252 -1.423 4.263
 0.264 -1.423 4.262
 0.277 -1.421 4.257
 0.29 -1.425 4.267
 0.303 -1.426 4.27
 0.316 -1.425 4.266
 0.329 -1.427 4.27
 0.342 -1.429 4.274
 0.354 -1.427 4.269
 0.367 -1.427 4.269
 0.38 -1.427 4.268
 0.392 -1.426 4.262
 0.404 -1.425 4.258
 0.417 -1.424 4.254
 0.43 -1.426 4.259
 0.443 -1.427 4.26
 0.456 -1.427 4.259
 0.468 -1.426 4.256
 0.481 -1.428 4.258
 0.494 -1.426 4.253
 0.506 -1.426 4.249
 0.519 -1.425 4.247
 0.532 -1.427 4.25
 0.544 -1.427 4.249
 0.557 -1.426 4.245
 0.571 -1.43 4.254
 0.584 -1.431 4.257
 0.597 -1.431 4.255
 0.609 -1.429 4.248
 0.622 -1.43 4.248
 0.634 -1.429 4.243
 0.647 -1.429 4.241
 0.66 -1.431 4.244
 0.674 -1.433 4.251
 0.688 -1.435 4.255
 0.701 -1.436 4.254
 0.714 -1.437 4.256
 0.727 -1.437 4.253
 0.74 -1.437 4.251
 0.753 -1.437 4.251
 0.766 -1.438 4.252
 0.779 -1.439 4.253
 0.792 -1.44 4.252
 0.805 -1.439 4.248
 0.818 -1.44 4.248
 0.832 -1.442 4.252
 0.845 -1.443 4.251
 0.858 -1.442 4.247
 0.872 -1.445 4.254
 0.885 -1.445 4.25
 0.898 -1.445 4.248
 0.911 -1.446 4.249
 0.926 -1.449 4.256
 0.938 -1.448 4.25
 0.953 -1.45 4.254
 0.966 -1.45 4.252
 0.978 -1.45 4.249
 0.99 -1.449 4.242
 1.004 -1.451 4.245
 1.017 -1.45 4.239
 1.029 -1.449 4.235
 1.042 -1.45 4.233
 1.057 -1.452 4.236
 1.07 -1.453 4.236
 1.083 -1.454 4.235
 1.098 -1.455 4.237
 1.11 -1.455 4.232
 1.123 -1.455 4.229
 1.136 -1.454 4.225
 1.149 -1.455 4.225
 1.164 -1.457 4.227
 1.18 -1.462 4.236
 1.193 -1.461 4.232
 1.208 -1.464 4.237
 1.222 -1.465 4.236
 1.235 -1.466 4.234
 1.247 -1.464 4.227
 1.261 -1.466 4.227
 1.274 -1.465 4.222
 1.289 -1.467 4.225
 1.301 -1.467 4.219
 1.316 -1.468 4.221
 1.33 -1.47 4.223
 1.345 -1.472 4.224
 1.358 -1.472 4.221
 1.374 -1.476 4.227
 1.389 -1.477 4.227
 1.403 -1.479 4.228
 1.417 -1.48 4.226
 1.433 -1.482 4.23
 1.447 -1.483 4.229
 1.461 -1.484 4.226
 1.474 -1.484 4.222
 1.488 -1.486 4.222
 1.501 -1.485 4.217
 1.514 -1.484 4.21
 1.527 -1.485 4.207
 1.541 -1.485 4.204
 1.556 -1.487 4.206
 1.571 -1.489 4.207
 1.586 -1.491 4.207
 1.603 -1.494 4.211
 1.617 -1.495 4.209
 1.629 -1.494 4.201
 1.641 -1.493 4.195
 1.655 -1.493 4.19
 1.668 -1.494 4.186
 1.684 -1.496 4.188
 1.698 -1.497 4.186
 1.712 -1.498 4.183
 1.729 -1.5 4.185
 1.742 -1.501 4.181
 1.755 -1.5 4.175
 1.769 -1.501 4.17
 1.784 -1.503 4.171
 1.801 -1.506 4.174
 1.816 -1.507 4.172
 1.827 -1.505 4.162
 1.841 -1.505 4.157
 1.85 -1.502 4.143
 1.854 -1.495 4.118
 1.859 -1.488 4.093
 1.865 -1.483 4.072
 1.867 -1.474 4.043
 1.871 -1.467 4.018
 1.876 -1.461 3.995
 1.88 -1.454 3.972
 1.89 -1.452 3.959
 1.901 -1.451 3.951
 0 0 0
 0 0 0
 0 0 0
 0 0 0
 0 0 0
 0 0 0
 0 0 0
 0 0 0
 0 0 0
 0 0 0
 0 0 0
 0 0 0
 0 0 0
 0 0 0
 0 0 0
 0 0 0
 0 0 0
 0 0 0
 0 0 0
 0 0 0
 0 0 0
 0 0 0
 1.832 -1.211 3.178
 1.834 -1.206 3.157
 1.84 -1.203 3.145
 1.849 -1.202 3.136
 1.849 -1.195 3.112
 1.85 -1.189 3.091
 1.838 -1.174 3.047
 1.831 -1.164 3.014
 0 0 0
 0 0 0
 -2.474 -1.592 4.29
 -2.461 -1.593 4.299
 -2.452 -1.597 4.316
 -2.443 -1.601 4.334
 -2.418 -1.594 4.322
 -2.4 -1.592 4.323
 -2.378 -1.587 4.316
 -2.364 -1.587 4.324
 -2.344 -1.583 4.32
 -2.326 -1.581 4.321
 -2.302 -1.575 4.31
 -2.29 -1.576 4.32
 -2.268 -1.571 4.312
 -2.253 -1.57 4.318
 -2.237 -1.569 4.321
 -2.224 -1.57 4.329
 -2.208 -1.569 4.332
 -2.192 -1.568 4.336
 -2.177 -1.567 4.339
 -2.157 -1.563 4.334
 -2.139 -1.56 4.332
 -2.121 -1.558 4.331
 -2.101 -1.553 4.325
 -2.083 -1.55 4.322
 -2.069 -1.551 4.33
 -2.052 -1.549 4.33
 -2.034 -1.545 4.326
 -2.019 -1.545 4.331
 -2.003 -1.543 4.331
 -1.988 -1.543 4.336
 -1.973 -1.542 4.338
 -1.957 -1.541 4.339
 -1.941 -1.539 4.34
 -1.924 -1.536 4.338
 -1.903 -1.531 4.329
 -1.886 -1.528 4.326
 -1.869 -1.526 4.324
 -1.852 -1.524 4.323
 -1.839 -1.524 4.329
 -1.823 -1.523 4.33
 -1.808 -1.522 4.331
 -1.794 -1.521 4.335
 -1.778 -1.52 4.336
 -1.761 -1.517 4.332
 -1.746 -1.516 4.335
 -1.73 -1.514 4.334
 -1.713 -1.512 4.331
 -1.698 -1.51 4.331
 -1.683 -1.509 4.332
 -1.665 -1.505 4.326
 -1.649 -1.503 4.324
 -1.633 -1.501 4.324
 -1.617 -1.499 4.321
 -1.601 -1.497 4.319
 -1.586 -1.495 4.318
 -1.572 -1.495 4.321
 -1.556 -1.492 4.318
 -1.541 -1.492 4.321
 -1.526 -1.49 4.32
 -1.511 -1.489 4.321
 -1.494 -1.485 4.313
 -1.48 -1.485 4.317
 -1.463 -1.481 4.31
 -1.448 -1.48 4.31
 -1.434 -1.479 4.31
 -1.42 -1.478 4.312
 -1.404 -1.476 4.309
 -1.391 -1.476 4.314
 -1.376 -1.474 4.312
 -1.361 -1.473 4.311
 -1.349 -1.474 4.318
 -1.335 -1.474 4.321
 -1.32 -1.472 4.317
 -1.304 -1.469 4.312
 -1.289 -1.467 4.311
 -1.274 -1.466 4.309
 -1.258 -1.462 4.303
 -1.246 -1.463 4.309
 -1.233 -1.464 4.313
 -1.218 -1.462 4.312
 -1.203 -1.46 4.307
 -1.189 -1.459 4.307
 -1.173 -1.456 4.302
 -1.159 -1.455 4.301
 -1.146 -1.455 4.306
 -1.133 -1.455 4.306
 -1.12 -1.456 4.313
 -1.107 -1.455 4.314
 -1.093 -1.454 4.313
 -1.077 -1.451 4.306
 -1.063 -1.45 4.305
 -1.047 -1.446 4.297
 -1.033 -1.445 4.296
 -1.02 -1.444 4.296
 -1.006 -1.444 4.298
 -0.993 -1.443 4.297
 -0.98 -1.444 4.303
 -0.966 -1.443 4.3
 -0.953 -1.443 4.303
 -0.939 -1.441 4.301
 -0.926 -1.441 4.304
 -0.913 -1.441 4.303
 -0.899 -1.44 4.304
 -0.885 -1.438 4.299
 -0.871 -1.437 4.297
 -0.856 -1.433 4.29
 -0.843 -1.433 4.29
 -0.829 -1.433 4.291
 -0.816 -1.432 4.291
 -0.803 -1.432 4.294
 -0.791 -1.433 4.299
 -0.776 -1.431 4.292
 -0.763 -1.429 4.291
 -0.75 -1.429 4.292
 -0.736 -1.427 4.287
 -0.722 -1.425 4.282
 -0.709 -1.425 4.284
 -0.696 -1.424 4.283
 -0.683 -1.424 4.285
 -0.67 -1.425 4.289
 -0.658 -1.427 4.295
 -0.645 -1.426 4.295
 -0.631 -1.425 4.292
 -0.618 -1.423 4.289
 -0.605 -1.424 4.292
 -0.591 -1.42 4.282
 -0.578 -1.42 4.283
 -0.566 -1.422 4.29
 -0.552 -1.421 4.288
 -0.539 -1.418 4.282
 -0.526 -1.419 4.286
 -0.513 -1.418 4.283
 -0.5 -1.417 4.281
 -0.487 -1.417 4.281
 -0.474 -1.417 4.282
 -0.461 -1.416 4.28
 -0.448 -1.415 4.278
 -0.435 -1.413 4.275
 -0.422 -1.414 4.278
 -0.409 -1.413 4.274
 -0.396 -1.414 4.278
 -0.384 -1.415 4.283
 -0.371 -1.415 4.284
 -0.358 -1.413 4.279
 -0.346 -1.415 4.285
 -0.333 -1.414 4.282
 -0.32 -1.414 4.282
 -0.307 -1.412 4.278
 -0.294 -1.413 4.283
 -0.281 -1.412 4.278
 -0.268 -1.412 4.279
 -0.256 -1.412 4.28
 -0.243 -1.413 4.284
 -0.23 -1.414 4.285
 -0.218 -1.415 4.291
 -0.205 -1.415 4.289
 -0.192 -1.415 4.29
 -0.18 -1.414 4.288
 -0.166 -1.411 4.279
 -0.153 -1.408 4.271
 -0.141 -1.409 4.272
 -0.128 -1.408 4.271
 -0.115 -1.407 4.267
 -0.103 -1.408 4.272
 -0.09 -1.409 4.274
 -0.077 -1.407 4.268
 -0.064 -1.406 4.263
 -0.052 -1.406 4.263
 -0.039 -1.404 4.259
 -0.026 -1.406 4.266
 -0.014 -1.407 4.267
 -0.001 -1.409 4.272
 0.011 -1.41 4.277
 0.023 -1.411 4.28
 0.036 -1.409 4.272
 0.049 -1.409 4.271
 0.061 -1.407 4.264
 0.074 -1.403 4.255
 0.086 -1.403 4.253
 0.099 -1.404 4.255
 0.112 -1.404 4.256
 0.124 -1.405 4.258
 0.137 -1.407 4.263
 0.15 -1.408 4.266
 0.163 -1.407 4.261
 0.175 -1.408 4.264
 0.188 -1.407 4.262
 0.201 -1.408 4.264
 0.214 -1.409 4.266
 0.226 -1.409 4.266
 0.238 -1.406 4.255
 0.251 -1.408 4.262
 0.264 -1.407 4.258
 0.276 -1.406 4.253
 0.29 -1.41 4.265
 0.303 -1.413 4.272
 0.315 -1.411 4.266
 0.329 -1.414 4.273
 0.341 -1.414 4.273
 0.353 -1.412 4.264
 0.366 -1.412 4.265
 0.379 -1.413 4.267
 0.392 -1.412 4.261
 0.405 -1.413 4.263
 0.417 -1.413 4.261
 0.43 -1.414 4.265
 0.443 -1.415 4.265
 0.456 -1.414 4.262
 0.468 -1.413 4.257
 0.481 -1.414 4.259
 0.494 -1.414 4.256
 0.506 -1.413 4.253
 0.519 -1.412 4.25
 0.532 -1.415 4.255
 0.545 -1.415 4.254
 0.557 -1.413 4.248
 0.571 -1.416 4.256
 0.584 -1.418 4.26
 0.597 -1.417 4.255
 0.609 -1.417 4.252
 0.622 -1.418 4.253
 0.634 -1.416 4.246
 0.647 -1.416 4.245
 0.661 -1.418 4.249
 0.674 -1.421 4.255
 0.688 -1.422 4.256
 0.701 -1.422 4.255
 0.714 -1.424 4.258
 0.726 -1.422 4.252
 0.739 -1.421 4.247
 0.751 -1.422 4.246
 0.765 -1.424 4.25
 0.778 -1.424 4.249
 0.792 -1.426 4.252
 0.804 -1.425 4.247
 0.818 -1.427 4.25
 0.832 -1.43 4.257
 0.845 -1.429 4.254
 0.857 -1.428 4.248
 0.872 -1.432 4.257
 0.885 -1.432 4.254
 0.897 -1.431 4.25
 0.911 -1.432 4.249
 0.926 -1.435 4.257
 0.938 -1.434 4.25
 0.951 -1.435 4.252
 0.964 -1.435 4.248
 0.978 -1.436 4.249
 0.99 -1.436 4.246
 1.004 -1.437 4.247
 1.017 -1.437 4.243
 1.029 -1.436 4.238
 1.042 -1.436 4.234
 1.055 -1.436 4.232
 1.068 -1.437 4.231
 1.081 -1.437 4.23
 1.096 -1.44 4.234
 1.108 -1.439 4.229
 1.122 -1.44 4.228
 1.134 -1.44 4.224
 1.148 -1.441 4.225
 1.164 -1.444 4.231
 1.18 -1.448 4.239
 1.194 -1.449 4.238
 1.209 -1.452 4.245
 1.223 -1.453 4.243
 1.234 -1.451 4.235
 1.248 -1.452 4.233
 1.261 -1.452 4.231
 1.274 -1.452 4.227
 1.288 -1.453 4.227
 1.302 -1.454 4.225
 1.315 -1.455 4.223
 1.33 -1.457 4.227
 1.344 -1.458 4.226
 1.358 -1.459 4.225
 1.374 -1.462 4.228
 1.389 -1.464 4.23
 1.404 -1.466 4.233
 1.417 -1.467 4.231
 1.433 -1.469 4.235
 1.448 -1.471 4.236
 1.461 -1.471 4.231
 1.473 -1.47 4.224
 1.488 -1.471 4.224
 1.5 -1.47 4.217
 1.513 -1.47 4.212
 1.526 -1.47 4.207
 1.539 -1.471 4.204
 1.554 -1.472 4.204
 1.568 -1.473 4.203
 1.583 -1.474 4.201
 1.599 -1.477 4.205
 1.613 -1.478 4.202
 1.625 -1.477 4.195
 1.64 -1.479 4.195
 1.654 -1.479 4.192
 1.668 -1.48 4.191
 1.684 -1.482 4.191
 1.699 -1.484 4.191
 1.712 -1.484 4.186
 1.728 -1.487 4.189
 1.742 -1.487 4.184
 1.756 -1.488 4.182
 1.77 -1.489 4.179
 1.785 -1.49 4.178
 1.801 -1.492 4.178
 1.815 -1.492 4.174
 1.825 -1.49 4.162
 1.839 -1.49 4.157
 1.849 -1.488 4.146
 1.856 -1.483 4.125
 1.862 -1.477 4.104
 1.87 -1.474 4.088
 1.874 -1.467 4.063
 1.879 -1.46 4.04
 1.883 -1.453 4.015
 1.885 -1.445 3.987
 1.894 -1.442 3.972
 0 0 0
 0 0 0
 0 0 0
 0 0 0
 0 0 0
 0 0 0
 0 0 0
 0 0 0
 0 0 0
 0 0 0
 0 0 0
 0 0 0
 0 0 0
 0 0 0
 0 0 0
 0 0 0
 0 0 0
 0 0 0
 0 0 0
 0 0 0
 0 0 0
 0 0 0
 0 0 0
 1.816 -1.19 3.154
 1.825 -1.189 3.146
 1.836 -1.189 3.14
 1.847 -1.19 3.137
 1.853 -1.187 3.123
 1.855 -1.182 3.103
 1.845 -1.169 3.063
 1.838 -1.158 3.028
 0 0 0
 0 0 0
 -2.485 -1.584 4.313
 -2.473 -1.586 4.325
 -2.465 -1.591 4.345
 -2.455 -1.594 4.36
 -2.436 -1.591 4.359
 -2.416 -1.588 4.357
 -2.394 -1.583 4.35
 -2.377 -1.581 4.352
 -2.352 -1.574 4.34
 -2.33 -1.569 4.332
 -2.307 -1.563 4.323
 -2.294 -1.564 4.332
 -2.275 -1.561 4.33
 -2.259 -1.56 4.333
 -2.241 -1.557 4.332
 -2.224 -1.555 4.333
 -2.208 -1.555 4.337
 -2.189 -1.552 4.334
 -2.174 -1.551 4.339
 -2.155 -1.548 4.336
 -2.139 -1.546 4.337
 -2.119 -1.542 4.332
 -2.102 -1.54 4.331
 -2.084 -1.537 4.329
 -2.069 -1.537 4.334
 -2.051 -1.533 4.33
 -2.033 -1.531 4.328
 -2.019 -1.531 4.334
 -2.002 -1.528 4.333
 -1.986 -1.527 4.336
 -1.972 -1.527 4.34
 -1.955 -1.525 4.34
 -1.937 -1.522 4.336
 -1.921 -1.52 4.337
 -1.903 -1.517 4.332
 -1.887 -1.515 4.332
 -1.869 -1.512 4.328
 -1.853 -1.511 4.329
 -1.837 -1.509 4.33
 -1.821 -1.507 4.329
 -1.805 -1.505 4.328
 -1.792 -1.506 4.335
 -1.776 -1.504 4.336
 -1.76 -1.503 4.336
 -1.747 -1.503 4.341
 -1.731 -1.501 4.341
 -1.714 -1.499 4.338
 -1.699 -1.497 4.338
 -1.683 -1.495 4.336
 -1.665 -1.491 4.33
 -1.649 -1.489 4.328
 -1.634 -1.489 4.331
 -1.619 -1.487 4.33
 -1.605 -1.487 4.333
 -1.588 -1.484 4.329
 -1.573 -1.483 4.33
 -1.556 -1.479 4.323
 -1.541 -1.478 4.324
 -1.524 -1.475 4.319
 -1.51 -1.474 4.321
 -1.492 -1.47 4.313
 -1.48 -1.471 4.32
 -1.463 -1.468 4.315
 -1.448 -1.466 4.314
 -1.434 -1.465 4.314
 -1.419 -1.464 4.315
 -1.403 -1.462 4.31
 -1.389 -1.461 4.312
 -1.374 -1.46 4.311
 -1.36 -1.458 4.311
 -1.348 -1.46 4.319
 -1.335 -1.46 4.323
 -1.319 -1.458 4.32
 -1.304 -1.456 4.317
 -1.29 -1.455 4.317
 -1.275 -1.453 4.314
 -1.258 -1.449 4.306
 -1.245 -1.449 4.309
 -1.231 -1.449 4.311
 -1.218 -1.449 4.315
 -1.203 -1.447 4.311
 -1.188 -1.445 4.308
 -1.174 -1.443 4.307
 -1.159 -1.442 4.306
 -1.145 -1.441 4.306
 -1.132 -1.441 4.309
 -1.12 -1.443 4.316
 -1.106 -1.442 4.317
 -1.092 -1.44 4.315
 -1.076 -1.437 4.306
 -1.061 -1.434 4.301
 -1.046 -1.431 4.295
 -1.032 -1.431 4.295
 -1.019 -1.43 4.296
 -1.006 -1.43 4.3
 -0.992 -1.43 4.3
 -0.98 -1.431 4.306
 -0.966 -1.43 4.305
 -0.953 -1.43 4.308
 -0.938 -1.427 4.302
 -0.926 -1.429 4.309
 -0.912 -1.427 4.306
 -0.898 -1.426 4.304
 -0.884 -1.424 4.301
 -0.871 -1.424 4.301
 -0.856 -1.421 4.294
 -0.843 -1.42 4.295
 -0.83 -1.42 4.297
 -0.816 -1.42 4.297
 -0.804 -1.42 4.3
 -0.79 -1.419 4.3
 -0.776 -1.416 4.292
 -0.762 -1.415 4.29
 -0.749 -1.414 4.289
 -0.735 -1.412 4.286
 -0.721 -1.411 4.281
 -0.708 -1.411 4.284
 -0.695 -1.411 4.286
 -0.682 -1.41 4.285
 -0.669 -1.41 4.287
 -0.657 -1.411 4.291
 -0.643 -1.41 4.288
 -0.629 -1.406 4.279
 -0.616 -1.407 4.281
 -0.604 -1.408 4.287
 -0.59 -1.406 4.282
 -0.577 -1.406 4.283
 -0.566 -1.409 4.295
 -0.553 -1.409 4.295
 -0.539 -1.407 4.29
 -0.527 -1.408 4.293
 -0.513 -1.406 4.289
 -0.499 -1.403 4.282
 -0.486 -1.402 4.278
 -0.473 -1.401 4.277
 -0.46 -1.399 4.272
 -0.447 -1.4 4.276
 -0.434 -1.399 4.273
 -0.422 -1.4 4.277
 -0.408 -1.399 4.274
 -0.396 -1.4 4.28
 -0.384 -1.402 4.287
 -0.371 -1.403 4.29
 -0.358 -1.401 4.284
 -0.346 -1.403 4.29
 -0.333 -1.401 4.286
 -0.319 -1.399 4.281
 -0.306 -1.398 4.276
 -0.294 -1.4 4.283
 -0.281 -1.398 4.279
 -0.268 -1.398 4.28
 -0.256 -1.399 4.283
 -0.243 -1.401 4.289
 -0.23 -1.4 4.287
 -0.218 -1.401 4.29
 -0.205 -1.401 4.289
 -0.192 -1.4 4.287
 -0.179 -1.399 4.283
 -0.166 -1.396 4.276
 -0.153 -1.393 4.268
 -0.141 -1.395 4.271
 -0.128 -1.395 4.272
 -0.115 -1.395 4.272
 -0.103 -1.396 4.275
 -0.09 -1.397 4.278
 -0.077 -1.395 4.272
 -0.064 -1.392 4.265
 -0.052 -1.391 4.262
 -0.039 -1.39 4.257
 -0.026 -1.392 4.263
 -0.014 -1.392 4.263
 -0.001 -1.395 4.272
 0.011 -1.397 4.278
 0.023 -1.399 4.284
 0.036 -1.397 4.279
 0.049 -1.397 4.277
 0.061 -1.395 4.27
 0.074 -1.392 4.262
 0.086 -1.391 4.257
 0.099 -1.391 4.259
 0.112 -1.392 4.261
 0.124 -1.392 4.26
 0.137 -1.393 4.263
 0.15 -1.394 4.266
 0.163 -1.393 4.261
 0.175 -1.394 4.265
 0.188 -1.394 4.264
 0.201 -1.395 4.267
 0.214 -1.397 4.271
 0.226 -1.398 4.272
 0.239 -1.394 4.261
 0.252 -1.396 4.266
 0.264 -1.395 4.261
 0.276 -1.392 4.252
 0.289 -1.395 4.262
 0.303 -1.398 4.268
 0.315 -1.398 4.269
 0.329 -1.402 4.277
 0.342 -1.404 4.283
 0.354 -1.401 4.273
 0.367 -1.401 4.273
 0.379 -1.399 4.266
 0.391 -1.398 4.262
 0.404 -1.398 4.259
 0.417 -1.397 4.257
 0.43 -1.4 4.263
 0.443 -1.4 4.263
 0.455 -1.398 4.256
 0.467 -1.398 4.255
 0.48 -1.399 4.255
 0.493 -1.399 4.253
 0.506 -1.399 4.254
 0.519 -1.4 4.254
 0.532 -1.402 4.259
 0.545 -1.403 4.262
 0.557 -1.401 4.254
 0.571 -1.404 4.261
 0.584 -1.405 4.263
 0.596 -1.404 4.257
 0.609 -1.403 4.253
 0.622 -1.404 4.255
 0.633 -1.402 4.245
 0.646 -1.402 4.244
 0.659 -1.403 4.244
 0.673 -1.405 4.25
 0.686 -1.406 4.25
 0.699 -1.406 4.248
 0.712 -1.407 4.249
 0.725 -1.407 4.248
 0.737 -1.406 4.244
 0.75 -1.407 4.244
 0.765 -1.41 4.251
 0.778 -1.411 4.251
 0.791 -1.412 4.252
 0.804 -1.412 4.25
 0.818 -1.414 4.254
 0.832 -1.416 4.257
 0.844 -1.415 4.253
 0.857 -1.414 4.249
 0.871 -1.417 4.255
 0.884 -1.417 4.252
 0.897 -1.417 4.249
 0.91 -1.418 4.251
 0.926 -1.422 4.259
 0.938 -1.421 4.254
 0.951 -1.423 4.256
 0.964 -1.422 4.25
 0.977 -1.423 4.252
 0.99 -1.422 4.247
 1.003 -1.423 4.247
 1.016 -1.423 4.244
 1.029 -1.423 4.241
 1.041 -1.422 4.236
 1.055 -1.423 4.235
 1.068 -1.424 4.234
 1.081 -1.424 4.231
 1.095 -1.426 4.235
 1.109 -1.426 4.233
 1.122 -1.427 4.231
 1.135 -1.428 4.23
 1.149 -1.428 4.229
 1.163 -1.431 4.233
 1.178 -1.433 4.235
 1.191 -1.433 4.234
 1.206 -1.435 4.236
 1.22 -1.436 4.236
 1.231 -1.435 4.228
 1.245 -1.436 4.229
 1.259 -1.437 4.229
 1.273 -1.438 4.226
 1.287 -1.439 4.228
 1.301 -1.441 4.228
 1.315 -1.441 4.225
 1.33 -1.443 4.228
 1.344 -1.445 4.228
 1.358 -1.446 4.228
 1.373 -1.448 4.231
 1.388 -1.45 4.232
 1.403 -1.452 4.234
 1.416 -1.452 4.23
 1.431 -1.454 4.232
 1.445 -1.455 4.232
 1.458 -1.454 4.225
 1.47 -1.454 4.219
 1.485 -1.455 4.219
 1.497 -1.455 4.214
 1.511 -1.455 4.21
 1.524 -1.455 4.206
 1.537 -1.456 4.203
 1.553 -1.457 4.204
 1.567 -1.459 4.204
 1.581 -1.459 4.2
 1.597 -1.463 4.205
 1.611 -1.463 4.202
 1.624 -1.463 4.197
 1.639 -1.464 4.196
 1.653 -1.465 4.194
 1.668 -1.467 4.193
 1.685 -1.47 4.198
 1.699 -1.471 4.196
 1.712 -1.471 4.19
 1.729 -1.474 4.194
 1.744 -1.475 4.192
 1.757 -1.475 4.187
 1.771 -1.476 4.185
 1.786 -1.478 4.184
 1.801 -1.479 4.183
 1.815 -1.479 4.178
 1.826 -1.478 4.168
 1.839 -1.477 4.161
 1.85 -1.476 4.152
 1.857 -1.471 4.133
 1.864 -1.466 4.113
 1.872 -1.461 4.095
 1.878 -1.456 4.074
 1.884 -1.451 4.054
 1.887 -1.443 4.027
 0 0 0
 0 0 0
 0 0 0
 0 0 0
 0 0 0
 0 0 0
 0 0 0
 0 0 0
 0 0 0
 0 0 0
 0 0 0
 0 0 0
 0 0 0
 0 0 0
 0 0 0
 0 0 0
 0 0 0
 0 0 0
 0 0 0
 0 0 0
 0 0 0
 0 0 0
 0 0 0
 0 0 0
 0 0 0
 1.807 -1.174 3.142
 1.82 -1.175 3.14
 1.831 -1.176 3.136
 1.842 -1.176 3.131
 1.852 -1.175 3.124
 1.851 -1.168 3.099
 1.862 -1.169 3.095
 1.871 -1.168 3.087
 0 0 0
 -2.49 -1.564 4.294
 -2.5 -1.579 4.344
 -2.481 -1.577 4.344
 -2.468 -1.578 4.354
 -2.455 -1.579 4.365
 -2.436 -1.576 4.364
 -2.415 -1.572 4.36
 -2.393 -1.568 4.353
 -2.374 -1.565 4.352
 -2.351 -1.559 4.343
 -2.328 -1.553 4.334
 -2.311 -1.551 4.334
 -2.297 -1.552 4.343
 -2.28 -1.55 4.343
 -2.264 -1.549 4.347
 -2.246 -1.547 4.347
 -2.227 -1.544 4.345
 -2.212 -1.543 4.35
 -2.193 -1.54 4.346
 -2.175 -1.538 4.346
 -2.157 -1.534 4.343
 -2.14 -1.533 4.344
 -2.118 -1.527 4.334
 -2.099 -1.524 4.33
 -2.082 -1.522 4.33
 -2.066 -1.521 4.333
 -2.048 -1.517 4.329
 -2.033 -1.517 4.333
 -2.02 -1.518 4.341
 -2.003 -1.515 4.339
 -1.986 -1.513 4.339
 -1.971 -1.512 4.342
 -1.954 -1.51 4.342
 -1.935 -1.507 4.337
 -1.918 -1.504 4.335
 -1.901 -1.502 4.334
 -1.886 -1.501 4.336
 -1.867 -1.497 4.329
 -1.851 -1.495 4.329
 -1.836 -1.494 4.331
 -1.821 -1.493 4.334
 -1.804 -1.491 4.331
 -1.791 -1.492 4.339
 -1.776 -1.491 4.34
 -1.76 -1.489 4.34
 -1.746 -1.488 4.343
 -1.732 -1.488 4.347
 -1.714 -1.485 4.342
 -1.698 -1.483 4.34
 -1.682 -1.481 4.338
 -1.664 -1.477 4.333
 -1.647 -1.474 4.328
 -1.633 -1.473 4.33
 -1.618 -1.472 4.331
 -1.604 -1.472 4.336
 -1.586 -1.469 4.329
 -1.573 -1.469 4.333
 -1.555 -1.465 4.327
 -1.54 -1.464 4.326
 -1.523 -1.46 4.319
 -1.509 -1.46 4.323
 -1.492 -1.456 4.315
 -1.478 -1.456 4.32
 -1.463 -1.454 4.317
 -1.448 -1.453 4.318
 -1.433 -1.451 4.315
 -1.417 -1.449 4.313
 -1.402 -1.447 4.31
 -1.388 -1.447 4.313
 -1.374 -1.446 4.315
 -1.36 -1.445 4.315
 -1.349 -1.447 4.325
 -1.336 -1.448 4.331
 -1.32 -1.445 4.325
 -1.304 -1.442 4.32
 -1.29 -1.441 4.321
 -1.275 -1.44 4.319
 -1.258 -1.436 4.31
 -1.244 -1.435 4.31
 -1.231 -1.435 4.313
 -1.217 -1.434 4.315
 -1.201 -1.432 4.31
 -1.187 -1.43 4.308
 -1.173 -1.43 4.31
 -1.159 -1.428 4.307
 -1.145 -1.427 4.307
 -1.132 -1.427 4.311
 -1.119 -1.428 4.316
 -1.105 -1.426 4.313
 -1.091 -1.426 4.314
 -1.076 -1.423 4.308
 -1.06 -1.42 4.301
 -1.045 -1.418 4.297
 -1.032 -1.418 4.3
 -1.018 -1.416 4.297
 -1.004 -1.415 4.297
 -0.991 -1.415 4.299
 -0.979 -1.417 4.307
 -0.965 -1.416 4.306
 -0.953 -1.417 4.31
 -0.939 -1.415 4.309
 -0.926 -1.416 4.313
 -0.912 -1.413 4.307
 -0.898 -1.413 4.307
 -0.884 -1.411 4.304
 -0.87 -1.409 4.3
 -0.855 -1.406 4.294
 -0.842 -1.407 4.297
 -0.829 -1.406 4.296
 -0.815 -1.404 4.292
 -0.802 -1.405 4.296
 -0.789 -1.403 4.294
 -0.774 -1.401 4.287
 -0.76 -1.399 4.285
 -0.748 -1.4 4.288
 -0.734 -1.398 4.286
 -0.721 -1.397 4.283
 -0.707 -1.396 4.282
 -0.695 -1.397 4.285
 -0.681 -1.395 4.28
 -0.668 -1.395 4.282
 -0.656 -1.396 4.288
 -0.643 -1.395 4.287
 -0.628 -1.392 4.279
 -0.616 -1.393 4.283
 -0.604 -1.396 4.294
 -0.59 -1.394 4.288
 -0.577 -1.394 4.288
 -0.566 -1.398 4.303
 -0.553 -1.398 4.303
 -0.539 -1.395 4.294
 -0.527 -1.396 4.302
 -0.513 -1.393 4.293
 -0.499 -1.39 4.285
 -0.486 -1.389 4.282
 -0.473 -1.389 4.281
 -0.46 -1.386 4.276
 -0.447 -1.389 4.283
 -0.434 -1.387 4.279
 -0.421 -1.387 4.279
 -0.408 -1.386 4.276
 -0.396 -1.386 4.28
 -0.383 -1.388 4.285
 -0.371 -1.388 4.286
 -0.358 -1.387 4.283
 -0.345 -1.388 4.289
 -0.333 -1.389 4.29
 -0.319 -1.386 4.282
 -0.306 -1.384 4.278
 -0.294 -1.386 4.284
 -0.281 -1.385 4.282
 -0.268 -1.384 4.277
 -0.255 -1.385 4.281
 -0.243 -1.387 4.288
 -0.23 -1.386 4.287
 -0.217 -1.385 4.284
 -0.204 -1.385 4.284
 -0.192 -1.385 4.283
 -0.179 -1.382 4.276
 -0.166 -1.38 4.268
 -0.153 -1.378 4.263
 -0.14 -1.379 4.266
 -0.128 -1.379 4.267
 -0.115 -1.38 4.27
 -0.102 -1.381 4.271
 -0.09 -1.382 4.277
 -0.077 -1.381 4.273
 -0.064 -1.379 4.268
 -0.052 -1.379 4.265
 -0.039 -1.379 4.265
 -0.026 -1.379 4.267
 -0.014 -1.38 4.269
 -0.001 -1.382 4.277
 0.011 -1.385 4.283
 0.024 -1.387 4.289
 0.036 -1.387 4.289
 0.049 -1.387 4.288
 0.062 -1.385 4.282
 0.074 -1.382 4.274
 0.087 -1.381 4.271
 0.099 -1.382 4.272
 0.112 -1.382 4.273
 0.125 -1.382 4.271
 0.138 -1.382 4.272
 0.15 -1.382 4.271
 0.162 -1.38 4.262
 0.175 -1.38 4.264
 0.188 -1.379 4.261
 0.201 -1.381 4.265
 0.214 -1.383 4.271
 0.226 -1.383 4.271
 0.238 -1.38 4.261
 0.251 -1.382 4.267
 0.264 -1.381 4.26
 0.276 -1.378 4.252
 0.29 -1.383 4.265
 0.303 -1.385 4.271
 0.316 -1.387 4.276
 0.329 -1.39 4.284
 0.343 -1.393 4.293
 0.354 -1.389 4.28
 0.367 -1.389 4.279
 0.379 -1.387 4.272
 0.392 -1.386 4.267
 0.404 -1.384 4.26
 0.416 -1.384 4.259
 0.43 -1.386 4.265
 0.442 -1.386 4.261
 0.454 -1.384 4.256
 0.467 -1.385 4.258
 0.48 -1.385 4.255
 0.492 -1.384 4.252
 0.506 -1.386 4.256
 0.519 -1.387 4.257
 0.532 -1.389 4.262
 0.546 -1.392 4.269
 0.557 -1.389 4.258
 0.571 -1.392 4.265
 0.584 -1.392 4.264
 0.596 -1.39 4.256
 0.608 -1.387 4.247
 0.621 -1.39 4.252
 0.633 -1.387 4.242
 0.646 -1.388 4.244
 0.659 -1.389 4.244
 0.673 -1.392 4.253
 0.686 -1.392 4.25
 0.698 -1.391 4.246
 0.712 -1.393 4.248
 0.724 -1.392 4.245
 0.736 -1.391 4.24
 0.75 -1.393 4.243
 0.764 -1.396 4.251
 0.777 -1.396 4.249
 0.79 -1.397 4.249
 0.804 -1.398 4.25
 0.817 -1.4 4.254
 0.831 -1.402 4.258
 0.844 -1.401 4.254
 0.856 -1.4 4.249
 0.869 -1.401 4.249
 0.882 -1.402 4.248
 0.895 -1.401 4.244
 0.908 -1.402 4.243
 0.923 -1.405 4.251
 0.936 -1.406 4.251
 0.95 -1.408 4.253
 0.963 -1.408 4.252
 0.978 -1.411 4.259
 0.991 -1.411 4.257
 1.004 -1.412 4.255
 1.018 -1.412 4.254
 1.03 -1.411 4.248
 1.042 -1.411 4.244
 1.055 -1.411 4.242
 1.068 -1.411 4.238
 1.08 -1.41 4.233
 1.095 -1.412 4.235
 1.108 -1.412 4.233
 1.121 -1.413 4.233
 1.135 -1.414 4.234
 1.148 -1.415 4.232
 1.162 -1.416 4.232
 1.176 -1.417 4.232
 1.19 -1.418 4.232
 1.204 -1.42 4.233
 1.219 -1.422 4.237
 1.231 -1.421 4.23
 1.245 -1.422 4.229
 1.258 -1.423 4.228
 1.272 -1.423 4.227
 1.285 -1.424 4.224
 1.3 -1.426 4.228
 1.315 -1.428 4.229
 1.329 -1.43 4.231
 1.343 -1.431 4.23
 1.358 -1.432 4.23
 1.372 -1.434 4.232
 1.387 -1.436 4.233
 1.401 -1.437 4.233
 1.415 -1.438 4.231
 1.431 -1.44 4.234
 1.445 -1.442 4.235
 1.457 -1.441 4.228
 1.471 -1.441 4.224
 1.485 -1.442 4.223
 1.497 -1.441 4.216
 1.51 -1.441 4.213
 1.524 -1.442 4.211
 1.537 -1.442 4.206
 1.553 -1.444 4.209
 1.568 -1.446 4.209
 1.58 -1.445 4.202
 1.594 -1.446 4.201
 1.609 -1.448 4.199
 1.622 -1.448 4.195
 1.636 -1.448 4.192
 1.651 -1.45 4.193
 1.667 -1.453 4.196
 1.684 -1.456 4.199
 1.698 -1.456 4.196
 1.712 -1.457 4.194
 1.729 -1.461 4.199
 1.744 -1.462 4.198
 1.758 -1.463 4.195
 1.774 -1.464 4.194
 1.788 -1.465 4.191
 1.802 -1.466 4.189
 1.815 -1.466 4.183
 1.827 -1.465 4.174
 1.84 -1.464 4.167
 1.851 -1.462 4.157
 1.859 -1.459 4.14
 1.867 -1.455 4.124
 1.875 -1.45 4.106
 1.879 -1.443 4.08
 1.884 -1.437 4.057
 1.885 -1.428 4.026
 0 0 0
 0 0 0
 0 0 0
 0 0 0
 0 0 0
 0 0 0
 0 0 0
 0 0 0
 0 0 0
 0 0 0
 0 0 0
 0 0 0
 0 0 0
 0 0 0
 0 0 0
 0 0 0
 0 0 0
 0 0 0
 0 0 0
 0 0 0
 0 0 0
 0 0 0
 0 0 0
 0 0 0
 0 0 0
 1.806 -1.162 3.142
 1.822 -1.166 3.148
 1.834 -1.167 3.144
 1.844 -1.166 3.138
 1.853 -1.166 3.13
 1.854 -1.16 3.109
 1.852 -1.152 3.08
 1.883 -1.165 3.11
 0 0 0
 -2.48 -1.543 4.282
 -2.512 -1.573 4.371
 -2.489 -1.568 4.364
 -2.474 -1.568 4.371
 -2.461 -1.568 4.38
 -2.441 -1.565 4.377
 -2.418 -1.56 4.369
 -2.398 -1.556 4.367
 -2.375 -1.551 4.359
 -2.348 -1.543 4.342
 -2.326 -1.537 4.334
 -2.312 -1.538 4.341
 -2.297 -1.538 4.348
 -2.284 -1.538 4.356
 -2.269 -1.538 4.361
 -2.25 -1.535 4.359
 -2.229 -1.531 4.354
 -2.214 -1.53 4.357
 -2.193 -1.526 4.352
 -2.175 -1.523 4.349
 -2.157 -1.52 4.348
 -2.14 -1.519 4.349
 -2.118 -1.513 4.34
 -2.1 -1.511 4.338
 -2.084 -1.509 4.339
 -2.069 -1.508 4.343
 -2.049 -1.504 4.336
 -2.034 -1.503 4.34
 -2.019 -1.503 4.345
 -2.003 -1.501 4.344
 -1.984 -1.498 4.341
 -1.969 -1.497 4.342
 -1.951 -1.494 4.34
 -1.933 -1.491 4.337
