 -0.052 -0.41 1.675
 -0.042 -0.411 1.679
 -0.032 -0.412 1.681
 -0.022 -0.412 1.684
 -0.013 -0.413 1.688
 -0.003 -0.414 1.691
 0.006 -0.415 1.694
 0.016 -0.416 1.697
 0.026 -0.417 1.7
 0.036 -0.417 1.703
 0.046 -0.418 1.705
 0.056 -0.419 1.708
 0.066 -0.419 1.709
 0.076 -0.42 1.711
 0.086 -0.42 1.711
 0.097 -0.42 1.711
 0.107 -0.42 1.711
 0.117 -0.42 1.711
 0.127 -0.42 1.709
 0.136 -0.419 1.705
 0.146 -0.418 1.698
 0.155 -0.416 1.688
 0.164 -0.413 1.676
 0.172 -0.41 1.663
 0.18 -0.406 1.648
 0.188 -0.403 1.633
 0.196 -0.399 1.616
 0.204 -0.395 1.6
 0.211 -0.392 1.583
 0.219 -0.389 1.572
 0.226 -0.386 1.556
 0.233 -0.381 1.537
 0.242 -0.383 1.541
 0.253 -0.384 1.547
 0.263 -0.386 1.551
 0.274 -0.388 1.56
 0.286 -0.393 1.576
 0.294 -0.39 1.566
 0.302 -0.389 1.558
 0.309 -0.386 1.546
 0.317 -0.385 1.538
 0.323 -0.381 1.521
 0.328 -0.377 1.503
 0.332 -0.371 1.478
 0.335 -0.365 1.449
 0.334 -0.355 1.41
 0.336 -0.349 1.383
 0.339 -0.343 1.358
 0.341 -0.338 1.334
 0.343 -0.331 1.307
 0.333 -0.315 1.24
 0 0 0
 0 0 0
 0 0 0
 0 0 0
 0 0 0
 0 0 0
 0 0 0
 0 0 0
 0 0 0
 0 0 0
 0 0 0
 0.345 -0.258 0.993
 0.329 -0.242 0.926
 0.33 -0.239 0.912
 0.332 -0.237 0.902
 0.334 -0.234 0.888
 0.333 -0.229 0.869
 0.333 -0.226 0.855
 0.336 -0.224 0.847
 0.336 -0.221 0.832
 0.338 -0.219 0.822
 0.339 -0.216 0.809
 0.341 -0.215 0.801
 0.342 -0.212 0.789
 0.346 -0.211 0.785
 0.345 -0.208 0.77
 0.348 -0.207 0.765
 0.347 -0.204 0.75
 0.35 -0.202 0.742
 0.351 -0.2 0.733
 0.354 -0.199 0.728
 0.354 -0.197 0.715
 0.357 -0.196 0.71
 0.358 -0.194 0.702
 0.362 -0.194 0.698
 0.366 -0.194 0.695
 0.371 -0.194 0.695
 0.375 -0.193 0.69
 0.377 -0.192 0.683
 0.377 -0.19 0.674
 0.38 -0.189 0.668
 0.382 -0.188 0.662
 0.401 -0.195 0.684
 0.397 -0.191 0.668
 -0.319 -0.151 0.553
 -0.317 -0.151 0.557
 -0.318 -0.153 0.566
 -0.319 -0.156 0.578
 -0.322 -0.159 0.592
 -0.323 -0.161 0.603
 -0.321 -0.163 0.61
 -0.318 -0.163 0.612
 -0.308 -0.16 0.602
 -0.292 -0.154 0.579
 -0.276 -0.147 0.555
 -0.258 -0.14 0.528
 -0.244 -0.134 0.506
 -0.235 -0.131 0.496
 -0.232 -0.131 0.497
 -0.232 -0.133 0.505
 -0.239 -0.139 0.53
 -0.252 -0.148 0.569
 -0.256 -0.152 0.588
 0 0 0
 -0.354 -0.217 0.848
 -0.482 -0.299 1.18
 -0.525 -0.331 1.31
 -0.524 -0.336 1.332
 -0.521 -0.339 1.347
 -0.526 -0.348 1.387
 -0.528 -0.355 1.418
 -0.527 -0.36 1.441
 -0.525 -0.365 1.463
 -0.522 -0.369 1.483
 -0.515 -0.371 1.493
 -0.506 -0.371 1.496
 -0.497 -0.371 1.499
 -0.488 -0.372 1.503
 -0.48 -0.372 1.507
 -0.471 -0.373 1.51
 -0.462 -0.373 1.514
 -0.453 -0.373 1.518
 -0.444 -0.374 1.521
 -0.435 -0.374 1.524
 -0.427 -0.374 1.528
 -0.418 -0.375 1.531
 -0.409 -0.375 1.535
 -0.4 -0.376 1.539
 -0.391 -0.376 1.542
 -0.382 -0.376 1.545
 -0.373 -0.377 1.548
 -0.364 -0.377 1.552
 -0.356 -0.377 1.555
 -0.347 -0.378 1.558
 -0.338 -0.378 1.562
 -0.329 -0.379 1.565
 -0.32 -0.379 1.568
 -0.311 -0.38 1.572
 -0.302 -0.38 1.576
 -0.293 -0.381 1.579
 -0.284 -0.382 1.583
 -0.275 -0.382 1.587
 -0.266 -0.383 1.59
 -0.257 -0.383 1.594
 -0.248 -0.384 1.597
 -0.239 -0.384 1.6
 -0.23 -0.385 1.604
 -0.221 -0.386 1.608
 -0.211 -0.387 1.612
 -0.202 -0.387 1.616
 -0.193 -0.388 1.62
 -0.184 -0.389 1.624
 -0.175 -0.39 1.627
 -0.165 -0.39 1.631
 -0.156 -0.391 1.634
 -0.147 -0.392 1.637
 -0.137 -0.392 1.641
 -0.128 -0.393 1.645
 -0.119 -0.394 1.649
 -0.109 -0.395 1.652
 -0.1 -0.396 1.656
 -0.09 -0.396 1.66
 -0.081 -0.397 1.664
 -0.071 -0.398 1.667
 -0.061 -0.399 1.671
 -0.052 -0.4 1.675
 -0.042 -0.401 1.678
 -0.032 -0.401 1.681
 -0.022 -0.402 1.684
 -0.013 -0.403 1.686
 -0.003 -0.404 1.69
 0.006 -0.404 1.694
 0.016 -0.405 1.697
 0.026 -0.406 1.7
 0.036 -0.407 1.702
 0.046 -0.407 1.705
 0.056 -0.408 1.707
 0.066 -0.409 1.709
 0.076 -0.409 1.711
 0.086 -0.409 1.711
 0.097 -0.41 1.712
 0.107 -0.41 1.712
 0.117 -0.41 1.711
 0.127 -0.41 1.709
 0.136 -0.409 1.705
 0.146 -0.407 1.698
 0.155 -0.405 1.688
 0.164 -0.402 1.676
 0.172 -0.4 1.663
 0.18 -0.396 1.648
 0.188 -0.393 1.633
 0.196 -0.389 1.616
 0.203 -0.385 1.599
 0.211 -0.382 1.582
 0.219 -0.379 1.572
 0.226 -0.376 1.556
 0.233 -0.372 1.539
 0.242 -0.373 1.543
 0.253 -0.375 1.547
 0.262 -0.376 1.55
 0.273 -0.378 1.558
 0.285 -0.382 1.572
 0.293 -0.38 1.562
 0.301 -0.379 1.557
 0.309 -0.377 1.546
 0.316 -0.375 1.537
 0.323 -0.372 1.522
 0.328 -0.368 1.503
 0.332 -0.362 1.479
 0.334 -0.356 1.45
 0.334 -0.346 1.41
 0.335 -0.339 1.378
 0.338 -0.334 1.355
 0.339 -0.328 1.327
 0.337 -0.318 1.286
 0.326 -0.301 1.214
 0.321 -0.29 1.166
 0.324 -0.286 1.15
 0.33 -0.286 1.148
 0.336 -0.285 1.143
 0 0 0
 0 0 0
 0 0 0
 0 0 0
 0 0 0
 0.349 -0.264 1.045
 0.355 -0.264 1.043
 0.339 -0.247 0.975
 0.329 -0.236 0.927
 0.331 -0.234 0.917
 0.332 -0.231 0.902
 0.335 -0.229 0.892
 0.335 -0.225 0.875
 0.335 -0.222 0.861
 0.336 -0.219 0.848
 0.337 -0.216 0.834
 0.338 -0.214 0.823
 0.338 -0.211 0.809
 0.339 -0.208 0.797
 0.34 -0.206 0.785
 0.342 -0.204 0.778
 0.342 -0.201 0.764
 0.346 -0.201 0.761
 0.347 -0.199 0.75
 0.35 -0.198 0.744
 0.351 -0.196 0.735
 0.354 -0.195 0.729
 0.355 -0.192 0.718
 0.357 -0.191 0.711
 0.359 -0.19 0.705
 0.363 -0.19 0.701
 0.368 -0.19 0.699
 0.372 -0.19 0.696
 0.375 -0.189 0.692
 0.376 -0.187 0.684
 0.376 -0.185 0.674
 0.378 -0.184 0.667
 0.381 -0.183 0.662
 0.38 -0.181 0.649
 0.396 -0.186 0.668
 -0.321 -0.147 0.556
 -0.318 -0.148 0.558
 -0.317 -0.149 0.566
 -0.318 -0.151 0.576
 -0.32 -0.154 0.59
 -0.321 -0.157 0.6
 -0.319 -0.157 0.605
 -0.313 -0.156 0.603
 -0.298 -0.151 0.584
 -0.28 -0.144 0.557
 -0.265 -0.138 0.535
 -0.247 -0.13 0.505
 -0.234 -0.125 0.486
 -0.228 -0.124 0.481
 -0.223 -0.123 0.477
 -0.213 -0.119 0.463
 -0.217 -0.123 0.48
 0 0 0
 0 0 0
 0 0 0
 0 0 0
 -0.517 -0.313 1.269
 -0.525 -0.323 1.312
 -0.524 -0.327 1.333
 -0.521 -0.33 1.349
 -0.529 -0.341 1.395
 -0.529 -0.347 1.423
 -0.527 -0.352 1.445
 -0.525 -0.356 1.466
 -0.522 -0.36 1.485
 -0.514 -0.361 1.493
 -0.505 -0.362 1.496
 -0.496 -0.362 1.499
 -0.488 -0.362 1.503
 -0.479 -0.362 1.507
 -0.47 -0.363 1.511
 -0.462 -0.363 1.515
 -0.453 -0.364 1.518
 -0.444 -0.364 1.522
 -0.435 -0.364 1.525
 -0.426 -0.365 1.528
 -0.417 -0.365 1.532
 -0.408 -0.365 1.535
 -0.4 -0.366 1.539
 -0.391 -0.366 1.541
 -0.382 -0.366 1.544
 -0.373 -0.367 1.548
 -0.364 -0.367 1.551
 -0.355 -0.368 1.554
 -0.346 -0.368 1.558
 -0.337 -0.369 1.562
 -0.328 -0.369 1.565
 -0.319 -0.37 1.569
 -0.311 -0.37 1.572
 -0.302 -0.371 1.576
 -0.293 -0.371 1.58
 -0.284 -0.372 1.583
 -0.275 -0.372 1.587
 -0.266 -0.373 1.59
 -0.257 -0.373 1.593
 -0.247 -0.374 1.596
 -0.238 -0.374 1.6
 -0.229 -0.375 1.604
 -0.22 -0.376 1.608
 -0.211 -0.377 1.612
 -0.202 -0.377 1.616
 -0.193 -0.378 1.62
 -0.184 -0.379 1.623
 -0.174 -0.379 1.626
 -0.165 -0.38 1.63
 -0.156 -0.381 1.633
 -0.147 -0.381 1.637
 -0.137 -0.382 1.641
 -0.128 -0.383 1.645
 -0.118 -0.384 1.648
 -0.109 -0.385 1.653
 -0.1 -0.386 1.656
 -0.09 -0.386 1.66
 -0.08 -0.387 1.664
 -0.071 -0.388 1.667
 -0.061 -0.389 1.671
 -0.052 -0.39 1.675
 -0.042 -0.39 1.678
 -0.032 -0.391 1.681
 -0.022 -0.392 1.683
 -0.012 -0.392 1.686
 -0.003 -0.393 1.689
 0.006 -0.394 1.693
 0.016 -0.395 1.697
 0.026 -0.395 1.699
 0.036 -0.396 1.702
 0.046 -0.397 1.705
 0.056 -0.398 1.707
 0.066 -0.398 1.709
 0.076 -0.399 1.711
 0.086 -0.399 1.711
 0.096 -0.399 1.712
 0.107 -0.399 1.712
 0.116 -0.399 1.711
 0.126 -0.399 1.709
 0.136 -0.398 1.705
 0.146 -0.397 1.698
 0.155 -0.395 1.688
 0.164 -0.392 1.677
 0.172 -0.39 1.664
 0.18 -0.386 1.648
 0.188 -0.383 1.632
 0.196 -0.379 1.616
 0.203 -0.375 1.598
 0.21 -0.372 1.581
 0.218 -0.369 1.571
 0.226 -0.366 1.556
 0.232 -0.362 1.538
 0.242 -0.363 1.541
 0.252 -0.365 1.545
 0.262 -0.366 1.55
 0.273 -0.368 1.556
 0.284 -0.372 1.57
 0.293 -0.37 1.562
 0.301 -0.369 1.557
 0.308 -0.367 1.546
 0.316 -0.365 1.535
 0.322 -0.362 1.52
 0.327 -0.358 1.501
 0.331 -0.352 1.476
 0.334 -0.346 1.448
 0.334 -0.338 1.413
 0.335 -0.331 1.379
 0.337 -0.325 1.354
 0.34 -0.32 1.331
 0.337 -0.31 1.286
 0.33 -0.297 1.23
 0.326 -0.287 1.187
 0.321 -0.277 1.143
 0.328 -0.277 1.141
 0.33 -0.273 1.123
 0 0 0
 0 0 0
 0 0 0
 0 0 0
 0.325 -0.244 0.993
 0.332 -0.245 0.995
 0.334 -0.242 0.981
 0.329 -0.234 0.947
 0.326 -0.228 0.921
 0.329 -0.227 0.912
 0.329 -0.223 0.895
 0.33 -0.22 0.88
 0.333 -0.219 0.873
 0.333 -0.215 0.856
 0.333 -0.212 0.841
 0.335 -0.21 0.831
 0.339 -0.209 0.826
 0.339 -0.206 0.811
 0.34 -0.203 0.8
 0.34 -0.201 0.787
 0.342 -0.199 0.779
 0.342 -0.196 0.766
 0.345 -0.195 0.76
 0.348 -0.194 0.752
 0.35 -0.193 0.746
 0.352 -0.192 0.738
 0.355 -0.19 0.731
 0.355 -0.188 0.72
 0.356 -0.186 0.711
 0.36 -0.186 0.707
 0.362 -0.185 0.701
 0.367 -0.185 0.699
 0.371 -0.185 0.697
 0.376 -0.185 0.694
 0.377 -0.183 0.686
 0.378 -0.182 0.678
 0.38 -0.18 0.671
 0.383 -0.18 0.665
 0.374 -0.174 0.64
 0.382 -0.175 0.645
 -0.32 -0.143 0.555
 -0.318 -0.144 0.561
 -0.317 -0.145 0.566
 -0.317 -0.147 0.575
 -0.319 -0.15 0.588
 -0.319 -0.152 0.598
 -0.316 -0.152 0.6
 -0.307 -0.15 0.593
 -0.291 -0.144 0.571
 -0.273 -0.137 0.544
 -0.257 -0.13 0.518
 -0.241 -0.124 0.494
 -0.23 -0.12 0.479
 -0.225 -0.119 0.476
 -0.219 -0.118 0.47
 -0.21 -0.114 0.457
 0 0 0
 0 0 0
 0 0 0
 0 0 0
 -0.482 -0.28 1.164
 -0.517 -0.305 1.271
 -0.524 -0.314 1.31
 -0.523 -0.318 1.332
 -0.52 -0.321 1.348
 -0.53 -0.333 1.4
 -0.529 -0.338 1.425
 -0.528 -0.343 1.447
 -0.525 -0.347 1.468
 -0.522 -0.351 1.487
 -0.514 -0.352 1.494
 -0.505 -0.352 1.497
 -0.496 -0.352 1.5
 -0.487 -0.353 1.503
 -0.478 -0.353 1.507
 -0.47 -0.353 1.511
 -0.461 -0.354 1.514
 -0.452 -0.354 1.518
 -0.443 -0.354 1.521
 -0.434 -0.355 1.524
 -0.425 -0.355 1.528
 -0.417 -0.355 1.531
 -0.408 -0.356 1.534
 -0.399 -0.356 1.538
 -0.39 -0.356 1.541
 -0.381 -0.357 1.544
 -0.372 -0.357 1.548
 -0.363 -0.357 1.551
 -0.354 -0.358 1.554
 -0.346 -0.358 1.558
 -0.337 -0.359 1.561
 -0.328 -0.359 1.564
 -0.319 -0.36 1.568
 -0.31 -0.36 1.572
 -0.301 -0.361 1.575
 -0.292 -0.361 1.579
 -0.283 -0.362 1.583
 -0.274 -0.362 1.586
 -0.265 -0.363 1.589
 -0.256 -0.363 1.593
 -0.247 -0.364 1.596
 -0.238 -0.365 1.599
 -0.229 -0.365 1.603
 -0.22 -0.366 1.607
 -0.211 -0.367 1.611
 -0.202 -0.367 1.615
 -0.193 -0.368 1.619
 -0.183 -0.369 1.623
 -0.174 -0.369 1.626
 -0.165 -0.37 1.629
 -0.156 -0.371 1.633
 -0.146 -0.371 1.636
 -0.137 -0.372 1.64
 -0.128 -0.373 1.644
 -0.118 -0.374 1.648
 -0.109 -0.375 1.652
 -0.099 -0.375 1.656
 -0.09 -0.376 1.659
 -0.08 -0.377 1.663
 -0.071 -0.378 1.667
 -0.061 -0.378 1.67
 -0.051 -0.379 1.674
 -0.042 -0.38 1.678
 -0.032 -0.381 1.681
 -0.022 -0.381 1.684
 -0.012 -0.382 1.686
 -0.003 -0.383 1.689
 0.006 -0.384 1.693
 0.016 -0.384 1.696
 0.026 -0.385 1.699
 0.036 -0.386 1.702
 0.046 -0.386 1.705
 0.056 -0.387 1.707
 0.066 -0.388 1.709
 0.076 -0.388 1.71
 0.086 -0.388 1.71
 0.096 -0.389 1.711
 0.106 -0.389 1.712
 0.116 -0.389 1.71
 0.126 -0.388 1.708
 0.136 -0.388 1.705
 0.145 -0.386 1.698
 0.155 -0.384 1.687
 0.163 -0.382 1.676
 0.172 -0.379 1.663
 0.18 -0.376 1.647
 0.188 -0.373 1.631
 0.196 -0.369 1.615
 0.203 -0.365 1.598
 0.21 -0.362 1.581
 0.218 -0.36 1.57
 0.226 -0.357 1.557
 0.232 -0.353 1.54
 0.242 -0.354 1.542
 0.252 -0.355 1.546
 0.262 -0.357 1.551
 0.272 -0.358 1.556
 0.284 -0.361 1.568
 0.292 -0.36 1.561
 0.3 -0.359 1.555
 0.308 -0.357 1.543
 0.315 -0.355 1.533
 0.321 -0.352 1.518
 0.326 -0.347 1.497
 0.33 -0.343 1.476
 0.334 -0.337 1.45
 0.335 -0.33 1.415
 0.336 -0.323 1.384
 0.34 -0.32 1.367
 0.343 -0.315 1.344
 0.339 -0.304 1.296
 0.331 -0.29 1.234
 0.323 -0.278 1.179
 0.319 -0.269 1.138
 0.322 -0.265 1.119
 0.322 -0.26 1.096
 0.33 -0.261 1.099
 0.325 -0.252 1.059
 0.323 -0.246 1.03
 0.332 -0.248 1.037
 0.33 -0.242 1.01
 0.325 -0.234 0.975
 0.326 -0.231 0.959
 0.324 -0.225 0.934
 0.322 -0.22 0.912
 0.325 -0.218 0.9
 0.326 -0.215 0.887
 0.327 -0.213 0.874
 0.331 -0.211 0.867
 0.331 -0.208 0.851
 0.331 -0.205 0.838
 0.334 -0.204 0.829
 0.339 -0.204 0.826
 0.338 -0.2 0.811
 0.34 -0.199 0.803
 0.341 -0.196 0.79
 0.343 -0.195 0.782
 0.343 -0.192 0.768
 0.347 -0.191 0.764
 0.348 -0.19 0.755
 0.351 -0.189 0.749
 0.353 -0.187 0.74
 0.354 -0.185 0.731
 0.354 -0.183 0.719
 0.356 -0.181 0.711
 0.359 -0.181 0.706
 0.361 -0.18 0.7
 0.365 -0.179 0.696
 0.369 -0.179 0.692
 0.373 -0.179 0.689
 0.374 -0.177 0.681
 0.376 -0.176 0.674
 0.377 -0.175 0.667
 0.38 -0.174 0.661
 0.375 -0.17 0.643
 0.405 -0.181 0.684
 -0.319 -0.139 0.555
 -0.318 -0.141 0.561
 -0.316 -0.141 0.566
 -0.316 -0.143 0.574
 -0.317 -0.145 0.586
 -0.317 -0.147 0.595
 -0.313 -0.147 0.596
 -0.302 -0.144 0.585
 -0.288 -0.139 0.565
 -0.27 -0.132 0.538
 -0.253 -0.125 0.512
 -0.237 -0.119 0.487
 -0.228 -0.116 0.474
 -0.22 -0.114 0.466
 -0.213 -0.112 0.458
 -0.203 -0.108 0.442
 0 0 0
 0 0 0
 0 0 0
 0 0 0
 -0.49 -0.277 1.184
 -0.518 -0.298 1.275
 -0.524 -0.306 1.312
 -0.523 -0.31 1.333
 -0.519 -0.313 1.348
 -0.531 -0.325 1.405
 -0.53 -0.33 1.429
 -0.528 -0.334 1.449
 -0.525 -0.338 1.469
 -0.521 -0.342 1.488
 -0.513 -0.342 1.494
 -0.504 -0.343 1.497
 -0.495 -0.343 1.5
 -0.487 -0.343 1.504
 -0.478 -0.343 1.507
 -0.469 -0.344 1.511
 -0.46 -0.344 1.514
 -0.451 -0.344 1.518
 -0.442 -0.345 1.521
 -0.434 -0.345 1.524
 -0.425 -0.345 1.527
 -0.416 -0.345 1.53
 -0.407 -0.346 1.534
 -0.398 -0.346 1.538
 -0.389 -0.346 1.54
 -0.38 -0.347 1.543
 -0.372 -0.347 1.547
 -0.363 -0.348 1.55
 -0.354 -0.348 1.554
 -0.345 -0.348 1.557
 -0.336 -0.349 1.561
 -0.327 -0.349 1.564
 -0.318 -0.35 1.568
 -0.309 -0.35 1.571
 -0.301 -0.351 1.575
 -0.292 -0.351 1.578
 -0.283 -0.352 1.582
 -0.274 -0.352 1.585
 -0.265 -0.353 1.589
 -0.256 -0.354 1.593
 -0.247 -0.354 1.596
 -0.238 -0.355 1.599
 -0.229 -0.355 1.603
 -0.22 -0.356 1.607
 -0.21 -0.357 1.61
 -0.201 -0.357 1.614
 -0.192 -0.358 1.618
 -0.183 -0.359 1.622
 -0.174 -0.359 1.625
 -0.165 -0.36 1.629
 -0.155 -0.361 1.633
 -0.146 -0.361 1.636
 -0.137 -0.362 1.64
 -0.127 -0.363 1.644
 -0.118 -0.364 1.648
 -0.109 -0.364 1.652
 -0.099 -0.365 1.655
 -0.09 -0.366 1.659
 -0.08 -0.367 1.662
 -0.071 -0.367 1.666
 -0.061 -0.368 1.67
 -0.051 -0.369 1.673
 -0.042 -0.37 1.677
 -0.032 -0.37 1.68
 -0.022 -0.371 1.683
 -0.012 -0.372 1.686
 -0.003 -0.372 1.689
 0.006 -0.373 1.693
 0.016 -0.374 1.696
 0.026 -0.375 1.699
 0.036 -0.375 1.702
 0.046 -0.376 1.704
 0.056 -0.377 1.706
 0.066 -0.377 1.709
 0.076 -0.378 1.71
 0.086 -0.378 1.711
 0.096 -0.378 1.711
 0.106 -0.378 1.712
 0.116 -0.378 1.71
 0.126 -0.378 1.708
 0.136 -0.377 1.705
 0.145 -0.376 1.697
 0.154 -0.374 1.687
 0.163 -0.371 1.675
 0.172 -0.369 1.662
 0.18 -0.366 1.646
 0.188 -0.363 1.631
 0.195 -0.359 1.615
 0.203 -0.356 1.598
 0.21 -0.352 1.581
 0.218 -0.35 1.57
 0.226 -0.348 1.559
 0.232 -0.344 1.539
 0.241 -0.344 1.54
 0.251 -0.346 1.545
 0.262 -0.347 1.549
 0.272 -0.348 1.554
 0.284 -0.352 1.569
 0.292 -0.351 1.563
 0.3 -0.349 1.554
 0.307 -0.347 1.542
 0.315 -0.345 1.532
 0.321 -0.342 1.517
 0.326 -0.338 1.498
 0.331 -0.334 1.478
 0.334 -0.329 1.453
 0.335 -0.321 1.417
 0.334 -0.314 1.38
 0.336 -0.307 1.351
 0.336 -0.3 1.317
 0.33 -0.288 1.261
 0.324 -0.277 1.209
 0.321 -0.269 1.171
 0.323 -0.264 1.15
 0.326 -0.261 1.135
 0.331 -0.26 1.127
 0.337 -0.259 1.123
 0.325 -0.246 1.06
 0.317 -0.235 1.012
 0.32 -0.233 1.003
 0.322 -0.23 0.987
 0.318 -0.223 0.955
 0.321 -0.221 0.945
 0.323 -0.219 0.932
 0.325 -0.216 0.92
 0.326 -0.214 0.906
 0.328 -0.211 0.893
 0.329 -0.208 0.879
 0.332 -0.207 0.87
 0.332 -0.203 0.855
 0.333 -0.201 0.842
 0.334 -0.199 0.832
 0.338 -0.198 0.826
 0.336 -0.194 0.807
 0.338 -0.192 0.797
 0.338 -0.19 0.784
 0.341 -0.188 0.777
 0.342 -0.186 0.767
 0.346 -0.186 0.764
 0.349 -0.185 0.756
 0.351 -0.184 0.75
 0.354 -0.183 0.743
 0.355 -0.181 0.735
 0.355 -0.179 0.722
 0.357 -0.177 0.714
 0.361 -0.177 0.711
 0.362 -0.176 0.703
 0.365 -0.174 0.696
 0.369 -0.174 0.693
 0.372 -0.174 0.69
 0.373 -0.172 0.68
 0.375 -0.171 0.674
 0.378 -0.17 0.669
 0.38 -0.17 0.663
 0.384 -0.17 0.66
 0.378 -0.165 0.639
 -0.319 -0.135 0.554
 -0.316 -0.136 0.558
 -0.316 -0.138 0.568
 -0.315 -0.139 0.574
 -0.315 -0.14 0.583
 -0.315 -0.142 0.591
 -0.312 -0.142 0.594
 -0.301 -0.139 0.583
 -0.286 -0.134 0.562
 -0.27 -0.128 0.539
 -0.253 -0.122 0.513
 -0.237 -0.116 0.487
 -0.229 -0.113 0.477
 -0.224 -0.112 0.474
 -0.216 -0.11 0.464
 -0.21 -0.108 0.459
 0 0 0
 0 0 0
 0 0 0
 0 0 0
 -0.508 -0.28 1.23
 -0.527 -0.295 1.3
 -0.531 -0.301 1.331
 -0.528 -0.305 1.348
 -0.524 -0.307 1.362
 -0.532 -0.317 1.41
 -0.531 -0.322 1.433
 -0.528 -0.325 1.452
 -0.525 -0.329 1.471
 -0.521 -0.332 1.489
 -0.513 -0.333 1.494
 -0.504 -0.333 1.497
 -0.495 -0.333 1.501
 -0.486 -0.334 1.504
 -0.477 -0.334 1.508
 -0.468 -0.334 1.511
 -0.46 -0.334 1.514
 -0.451 -0.335 1.517
 -0.442 -0.335 1.52
 -0.433 -0.335 1.524
 -0.424 -0.336 1.527
 -0.415 -0.336 1.531
 -0.407 -0.336 1.534
 -0.398 -0.337 1.537
 -0.389 -0.337 1.54
 -0.38 -0.337 1.543
 -0.371 -0.338 1.547
 -0.362 -0.338 1.55
 -0.353 -0.338 1.554
 -0.345 -0.339 1.557
 -0.336 -0.339 1.561
 -0.327 -0.34 1.564
 -0.318 -0.34 1.567
 -0.309 -0.341 1.571
 -0.3 -0.341 1.574
 -0.291 -0.342 1.578
 -0.282 -0.342 1.582
 -0.273 -0.343 1.585
 -0.264 -0.343 1.589
 -0.255 -0.344 1.592
 -0.246 -0.344 1.596
 -0.237 -0.345 1.6
 -0.228 -0.346 1.603
 -0.219 -0.346 1.607
 -0.21 -0.347 1.61
 -0.201 -0.347 1.614
 -0.192 -0.348 1.618
 -0.183 -0.349 1.621
 -0.174 -0.349 1.625
 -0.164 -0.35 1.629
 -0.155 -0.351 1.632
 -0.146 -0.351 1.636
 -0.137 -0.352 1.64
 -0.127 -0.353 1.644
 -0.118 -0.353 1.647
 -0.108 -0.354 1.651
 -0.099 -0.355 1.655
 -0.089 -0.356 1.658
 -0.08 -0.356 1.662
 -0.07 -0.357 1.666
 -0.061 -0.358 1.67
 -0.051 -0.359 1.673
 -0.042 -0.359 1.676
 -0.032 -0.36 1.679
 -0.022 -0.361 1.683
 -0.012 -0.361 1.685
 -0.002 -0.362 1.689
 0.006 -0.363 1.693
 0.016 -0.364 1.696
 0.026 -0.364 1.698
 0.036 -0.365 1.702
 0.046 -0.366 1.704
 0.056 -0.366 1.706
 0.066 -0.367 1.708
 0.076 -0.367 1.71
 0.086 -0.367 1.71
 0.096 -0.368 1.711
 0.106 -0.368 1.711
 0.116 -0.368 1.71
 0.126 -0.368 1.708
 0.136 -0.367 1.704
 0.145 -0.366 1.697
 0.154 -0.364 1.687
 0.163 -0.361 1.675
 0.171 -0.359 1.661
 0.18 -0.356 1.646
 0.188 -0.352 1.63
 0.195 -0.349 1.614
 0.203 -0.346 1.597
 0.21 -0.342 1.58
 0.218 -0.34 1.569
 0.226 -0.338 1.559
 0.232 -0.334 1.538
 0.241 -0.334 1.537
 0.251 -0.335 1.541
 0.261 -0.336 1.545
 0.27 -0.337 1.547
 0.283 -0.341 1.565
 0.292 -0.341 1.562
 0.3 -0.34 1.555
 0.307 -0.338 1.544
 0.314 -0.336 1.532
 0.32 -0.333 1.517
 0.325 -0.329 1.497
 0.33 -0.325 1.476
 0.333 -0.319 1.45
 0.334 -0.313 1.417
 0.332 -0.303 1.371
 0.332 -0.296 1.337
 0.331 -0.288 1.299
 0.326 -0.278 1.25
 0.323 -0.269 1.207
 0.324 -0.264 1.182
 0.323 -0.258 1.155
 0.325 -0.254 1.134
 0.33 -0.252 1.125
 0.335 -0.251 1.118
 0.317 -0.234 1.036
 0.311 -0.225 0.994
 0.316 -0.224 0.989
 0.319 -0.222 0.977
 0.315 -0.216 0.948
 0.318 -0.214 0.938
 0.32 -0.211 0.925
 0.324 -0.21 0.918
 0.325 -0.207 0.903
 0.327 -0.205 0.891
 0.328 -0.202 0.879
 0.331 -0.201 0.869
 0.33 -0.197 0.851
 0.331 -0.194 0.838
 0.334 -0.193 0.831
 0.337 -0.192 0.823
 0.336 -0.189 0.807
 0.338 -0.187 0.798
 0.339 -0.185 0.787
 0.341 -0.183 0.778
 0.343 -0.182 0.77
 0.346 -0.181 0.765
 0.35 -0.181 0.761
 0.352 -0.179 0.752
 0.354 -0.178 0.744
 0.355 -0.176 0.736
 0.355 -0.174 0.724
 0.356 -0.172 0.714
 0.361 -0.172 0.712
 0.363 -0.171 0.705
 0.365 -0.17 0.699
 0.37 -0.17 0.696
 0.373 -0.17 0.692
 0.373 -0.168 0.682
 0.376 -0.167 0.676
 0.378 -0.166 0.67
 0.381 -0.165 0.665
 0.372 -0.16 0.64
 0.379 -0.161 0.642
 -0.318 -0.132 0.555
 -0.316 -0.132 0.559
 -0.317 -0.134 0.569
 -0.315 -0.135 0.574
 -0.315 -0.136 0.583
 -0.315 -0.138 0.593
 -0.315 -0.14 0.601
 -0.304 -0.137 0.591
 -0.291 -0.132 0.572
 -0.275 -0.127 0.55
 -0.256 -0.12 0.519
 -0.239 -0.113 0.491
 -0.23 -0.111 0.48
 -0.224 -0.109 0.474
 -0.213 -0.105 0.458
 0 0 0
 0 0 0
 0 0 0
 0 0 0
 0 0 0
 -0.52 -0.279 1.262
 -0.534 -0.291 1.319
 -0.535 -0.296 1.344
 -0.531 -0.298 1.358
 -0.526 -0.3 1.371
 -0.533 -0.309 1.413
 -0.531 -0.313 1.434
 -0.528 -0.316 1.453
 -0.525 -0.32 1.473
 -0.52 -0.323 1.489
 -0.512 -0.324 1.494
 -0.503 -0.324 1.498
 -0.494 -0.324 1.501
 -0.486 -0.324 1.504
 -0.477 -0.324 1.508
 -0.468 -0.324 1.51
 -0.459 -0.325 1.513
 -0.45 -0.325 1.517
 -0.441 -0.325 1.52
 -0.432 -0.326 1.524
 -0.424 -0.326 1.527
 -0.415 -0.326 1.53
 -0.406 -0.327 1.534
 -0.397 -0.327 1.537
 -0.388 -0.327 1.54
 -0.379 -0.327 1.543
 -0.371 -0.328 1.547
 -0.362 -0.328 1.55
 -0.353 -0.329 1.553
 -0.344 -0.329 1.557
 -0.335 -0.33 1.56
 -0.326 -0.33 1.564
 -0.317 -0.33 1.567
 -0.309 -0.331 1.57
 -0.3 -0.331 1.574
 -0.291 -0.332 1.578
 -0.282 -0.332 1.581
 -0.273 -0.333 1.585
 -0.264 -0.333 1.589
 -0.255 -0.334 1.592
 -0.246 -0.335 1.596
 -0.237 -0.335 1.599
 -0.228 -0.336 1.603
 -0.219 -0.336 1.606
 -0.21 -0.337 1.61
 -0.201 -0.337 1.613
 -0.192 -0.338 1.617
 -0.183 -0.339 1.621
 -0.173 -0.339 1.625
 -0.164 -0.34 1.629
 -0.155 -0.341 1.632
 -0.146 -0.341 1.636
 -0.136 -0.342 1.639
 -0.127 -0.343 1.644
 -0.118 -0.343 1.647
 -0.108 -0.344 1.651
 -0.099 -0.345 1.655
 -0.089 -0.346 1.658
 -0.08 -0.346 1.662
 -0.07 -0.347 1.666
 -0.061 -0.348 1.67
 -0.051 -0.348 1.673
 -0.041 -0.349 1.676
 -0.032 -0.35 1.679
 -0.022 -0.351 1.683
 -0.012 -0.351 1.686
 -0.002 -0.352 1.689
 0.006 -0.353 1.692
 0.016 -0.353 1.695
 0.026 -0.354 1.698
 0.036 -0.355 1.701
 0.046 -0.355 1.703
 0.056 -0.356 1.706
 0.066 -0.356 1.708
 0.076 -0.357 1.709
 0.086 -0.357 1.709
 0.096 -0.357 1.71
 0.106 -0.357 1.711
 0.116 -0.357 1.709
 0.126 -0.357 1.707
 0.136 -0.356 1.703
 0.145 -0.355 1.696
 0.154 -0.353 1.686
 0.163 -0.351 1.674
 0.171 -0.348 1.66
 0.179 -0.345 1.645
 0.187 -0.342 1.629
 0.195 -0.339 1.613
 0.202 -0.336 1.597
 0.21 -0.333 1.58
 0.217 -0.331 1.569
 0.225 -0.329 1.558
 0.231 -0.324 1.536
 0.24 -0.324 1.533
 0.25 -0.325 1.539
 0.26 -0.327 1.543
 0.27 -0.328 1.547
 0.283 -0.332 1.567
 0.292 -0.332 1.564
 0.3 -0.33 1.555
 0.307 -0.328 1.544
 0.314 -0.326 1.531
 0.32 -0.323 1.514
 0.325 -0.32 1.497
 0.329 -0.315 1.474
 0.332 -0.31 1.448
 0.334 -0.304 1.417
 0.332 -0.295 1.373
 0.332 -0.288 1.337
 0.332 -0.281 1.303
 0.327 -0.27 1.252
 0.325 -0.263 1.216
 0.325 -0.257 1.187
 0.323 -0.251 1.154
 0.318 -0.242 1.111
 0.318 -0.237 1.088
 0.323 -0.236 1.079
 0.314 -0.225 1.026
 0.311 -0.218 0.994
 0.318 -0.219 0.996
 0.319 -0.216 0.979
 0.312 -0.208 0.939
 0.314 -0.205 0.926
 0.317 -0.204 0.917
 0.321 -0.203 0.911
 0.321 -0.199 0.894
 0.325 -0.198 0.888
 0.327 -0.196 0.876
 0.328 -0.194 0.863
 0.328 -0.191 0.847
 0.329 -0.189 0.836
 0.333 -0.188 0.83
 0.335 -0.186 0.821
 0.336 -0.184 0.809
 0.338 -0.182 0.8
 0.34 -0.18 0.79
 0.341 -0.179 0.78
 0.344 -0.178 0.773
 0.346 -0.176 0.765
 0.349 -0.176 0.76
 0.352 -0.175 0.754
 0.353 -0.173 0.744
 0.355 -0.172 0.736
 0.355 -0.169 0.723
 0.356 -0.168 0.714
 0.359 -0.167 0.71
 0.362 -0.166 0.704
 0.364 -0.165 0.698
 0.369 -0.165 0.695
 0.372 -0.165 0.691
 0.373 -0.163 0.682
 0.376 -0.162 0.677
 0.379 -0.162 0.672
 0.381 -0.161 0.666
 0.387 -0.162 0.667
 0.399 -0.165 0.678
 -0.324 -0.13 0.566
 -0.317 -0.129 0.561
 -0.317 -0.13 0.57
 -0.315 -0.131 0.575
 -0.314 -0.132 0.583
 -0.315 -0.134 0.594
 -0.316 -0.137 0.605
 -0.307 -0.134 0.597
 -0.295 -0.131 0.582
 -0.279 -0.125 0.558
 -0.261 -0.119 0.529
 -0.242 -0.112 0.499
 -0.233 -0.109 0.487
 -0.223 -0.106 0.474
 -0.215 -0.104 0.464
 0 0 0
 0 0 0
 0 0 0
 0 0 0
 0 0 0
 -0.53 -0.276 1.286
 -0.541 -0.286 1.338
 -0.54 -0.29 1.358
 -0.535 -0.292 1.371
 -0.53 -0.294 1.382
 -0.534 -0.301 1.419
 -0.531 -0.304 1.438
 -0.528 -0.308 1.456
 -0.524 -0.311 1.474
 -0.52 -0.314 1.489
 -0.512 -0.314 1.494
 -0.503 -0.314 1.498
 -0.494 -0.314 1.501
 -0.485 -0.315 1.504
 -0.476 -0.315 1.508
 -0.467 -0.315 1.51
 -0.458 -0.315 1.513
 -0.45 -0.315 1.517
 -0.441 -0.316 1.52
 -0.432 -0.316 1.523
 -0.423 -0.316 1.527
 -0.414 -0.317 1.53
 -0.405 -0.317 1.533
 -0.397 -0.317 1.537
 -0.388 -0.318 1.54
 -0.379 -0.318 1.543
 -0.37 -0.318 1.546
 -0.361 -0.319 1.55
 -0.353 -0.319 1.553
 -0.344 -0.32 1.557
 -0.335 -0.32 1.56
 -0.326 -0.32 1.564
 -0.317 -0.321 1.567
 -0.308 -0.321 1.57
 -0.299 -0.322 1.573
 -0.29 -0.322 1.577
 -0.282 -0.323 1.581
 -0.273 -0.323 1.584
 -0.264 -0.324 1.588
 -0.255 -0.324 1.592
 -0.246 -0.325 1.595
 -0.237 -0.325 1.599
 -0.228 -0.326 1.603
 -0.219 -0.326 1.605
 -0.21 -0.327 1.609
 -0.2 -0.327 1.612
 -0.191 -0.328 1.616
 -0.182 -0.329 1.62
 -0.173 -0.329 1.624
 -0.164 -0.33 1.628
 -0.155 -0.331 1.632
 -0.145 -0.331 1.636
 -0.136 -0.332 1.639
 -0.127 -0.333 1.643
 -0.117 -0.333 1.647
 -0.108 -0.334 1.65
 -0.099 -0.335 1.654
 -0.089 -0.335 1.658
 -0.08 -0.336 1.662
 -0.07 -0.337 1.665
 -0.061 -0.338 1.669
 -0.051 -0.338 1.672
 -0.041 -0.339 1.675
 -0.032 -0.339 1.678
 -0.022 -0.34 1.682
 -0.012 -0.341 1.685
 -0.002 -0.342 1.688
 0.007 -0.342 1.692
 0.016 -0.343 1.695
 0.026 -0.344 1.698
 0.036 -0.344 1.701
 0.046 -0.345 1.703
 0.056 -0.345 1.705
 0.066 -0.346 1.707
 0.076 -0.346 1.708
 0.086 -0.346 1.709
 0.096 -0.347 1.709
 0.106 -0.347 1.71
 0.116 -0.347 1.71
 0.126 -0.347 1.708
 0.136 -0.346 1.703
 0.145 -0.345 1.696
 0.154 -0.343 1.686
 0.163 -0.341 1.673
 0.171 -0.338 1.659
 0.179 -0.335 1.645
 0.187 -0.332 1.629
 0.195 -0.329 1.613
 0.202 -0.326 1.597
 0.21 -0.323 1.58
 0.217 -0.321 1.569
 0.225 -0.319 1.559
 0.231 -0.315 1.534
 0.24 -0.314 1.532
 0.25 -0.316 1.537
 0.259 -0.317 1.54
 0.269 -0.318 1.544
 0.282 -0.322 1.565
 0.291 -0.322 1.562
 0.299 -0.32 1.553
 0.307 -0.319 1.543
 0.313 -0.317 1.531
 0.319 -0.314 1.515
 0.325 -0.311 1.498
 0.329 -0.307 1.477
 0.333 -0.302 1.451
 0.333 -0.294 1.414
 0.331 -0.285 1.368
 0.331 -0.279 1.334
 0.329 -0.271 1.293
 0.323 -0.26 1.241
 0.324 -0.255 1.212
 0.324 -0.25 1.186
 0.323 -0.244 1.156
 0.318 -0.235 1.11
 0.32 -0.232 1.095
 0.322 -0.228 1.076
 0.314 -0.219 1.029
 0.31 -0.212 0.993
 0.314 -0.211 0.986
 0.316 -0.208 0.973
 0.31 -0.201 0.934
 0.312 -0.198 0.921
 0.317 -0.197 0.916
 0.32 -0.196 0.908
 0.32 -0.193 0.891
 0.324 -0.192 0.887
 0.327 -0.191 0.878
 0.328 -0.189 0.865
 0.329 -0.186 0.851
 0.331 -0.184 0.84
 0.334 -0.183 0.833
 0.335 -0.181 0.821
 0.336 -0.179 0.81
 0.338 -0.177 0.8
 0.34 -0.175 0.79
 0.341 -0.174 0.78
 0.343 -0.172 0.772
 0.346 -0.171 0.765
 0.349 -0.17 0.759
 0.352 -0.17 0.754
 0.353 -0.168 0.744
 0.355 -0.167 0.737
 0.355 -0.165 0.725
 0.357 -0.163 0.716
 0.359 -0.162 0.71
 0.362 -0.161 0.704
 0.364 -0.16 0.697
 0.367 -0.16 0.693
 0.37 -0.159 0.689
 0.372 -0.158 0.681
 0.375 -0.158 0.676
 0.378 -0.157 0.672
 0.381 -0.157 0.667
 0.387 -0.157 0.668
 0.386 -0.155 0.656
 -0.325 -0.127 0.568
 -0.316 -0.125 0.56
 -0.318 -0.127 0.572
 -0.315 -0.127 0.577
 -0.315 -0.129 0.584
 -0.316 -0.131 0.595
 -0.319 -0.134 0.61
 -0.311 -0.132 0.604
 -0.298 -0.128 0.589
 -0.282 -0.123 0.565
 -0.266 -0.118 0.542
 -0.246 -0.11 0.508
 -0.235 -0.107 0.492
 -0.226 -0.104 0.481
 -0.22 -0.103 0.475
 0 0 0
 0 0 0
 0 0 0
 0 0 0
 0 0 0
 -0.541 -0.274 1.316
 -0.548 -0.281 1.357
 -0.545 -0.284 1.373
 -0.539 -0.286 1.383
 -0.533 -0.287 1.393
 -0.536 -0.293 1.425
 -0.532 -0.296 1.442
 -0.529 -0.299 1.459
 -0.525 -0.302 1.476
 -0.52 -0.304 1.49
 -0.511 -0.305 1.495
 -0.502 -0.305 1.498
 -0.493 -0.305 1.501
 -0.485 -0.305 1.504
 -0.476 -0.305 1.507
 -0.467 -0.305 1.51
 -0.458 -0.306 1.513
 -0.449 -0.306 1.517
 -0.44 -0.306 1.52
 -0.431 -0.306 1.523
 -0.423 -0.307 1.527
 -0.414 -0.307 1.53
 -0.405 -0.307 1.533
 -0.396 -0.308 1.537
 -0.387 -0.308 1.54
 -0.379 -0.308 1.543
 -0.37 -0.309 1.546
 -0.361 -0.309 1.55
 -0.352 -0.31 1.554
 -0.343 -0.31 1.557
 -0.335 -0.31 1.56
 -0.326 -0.311 1.564
 -0.317 -0.311 1.566
 -0.308 -0.312 1.57
 -0.299 -0.312 1.573
 -0.29 -0.312 1.577
 -0.281 -0.313 1.58
 -0.272 -0.313 1.584
 -0.263 -0.314 1.588
 -0.254 -0.315 1.592
 -0.245 -0.315 1.595
 -0.236 -0.316 1.599
 -0.227 -0.316 1.602
 -0.218 -0.317 1.605
 -0.209 -0.317 1.609
 -0.2 -0.318 1.612
 -0.191 -0.318 1.616
 -0.182 -0.319 1.62
 -0.173 -0.319 1.623
 -0.164 -0.32 1.627
 -0.154 -0.321 1.631
 -0.145 -0.322 1.636
 -0.136 -0.322 1.639
 -0.127 -0.323 1.643
 -0.117 -0.323 1.647
 -0.108 -0.324 1.65
 -0.098 -0.325 1.654
 -0.089 -0.325 1.657
 -0.08 -0.326 1.661
 -0.07 -0.327 1.664
 -0.06 -0.327 1.668
 -0.051 -0.328 1.671
 -0.041 -0.329 1.674
 -0.032 -0.329 1.677
 -0.022 -0.33 1.681
 -0.012 -0.331 1.684
 -0.002 -0.331 1.688
 0.007 -0.332 1.691
 0.016 -0.333 1.694
 0.026 -0.333 1.697
 0.036 -0.334 1.7
 0.046 -0.335 1.703
 0.056 -0.335 1.705
 0.066 -0.336 1.706
 0.076 -0.336 1.708
 0.086 -0.336 1.709
 0.096 -0.336 1.709
 0.106 -0.337 1.71
 0.116 -0.337 1.709
 0.126 -0.336 1.707
 0.135 -0.336 1.702
 0.145 -0.334 1.695
 0.154 -0.333 1.686
 0.163 -0.331 1.674
 0.171 -0.328 1.659
 0.179 -0.325 1.645
 0.187 -0.323 1.63
 0.195 -0.32 1.613
 0.202 -0.317 1.597
 0.209 -0.314 1.58
 0.217 -0.312 1.569
 0.225 -0.309 1.556
 0.23 -0.304 1.53
 0.239 -0.304 1.529
 0.249 -0.305 1.532
 0.258 -0.306 1.534
 0.268 -0.307 1.54
 0.281 -0.312 1.561
 0.29 -0.311 1.556
 0.298 -0.31 1.549
 0.306 -0.309 1.539
 0.312 -0.306 1.526
 0.318 -0.304 1.511
 0.325 -0.301 1.498
 0.329 -0.297 1.474
 0.331 -0.292 1.445
 0.332 -0.285 1.41
 0.329 -0.276 1.364
 0.328 -0.268 1.322
 0.326 -0.261 1.283
 0.323 -0.252 1.239
 0.324 -0.247 1.213
 0.326 -0.244 1.192
 0.326 -0.239 1.166
 0.321 -0.231 1.124
 0.319 -0.224 1.091
 0.316 -0.218 1.058
 0.309 -0.209 1.012
 0.307 -0.204 0.984
 0.31 -0.202 0.975
 0.312 -0.199 0.959
 0.311 -0.196 0.939
 0.312 -0.193 0.923
 0.316 -0.192 0.916
 0.319 -0.19 0.907
 0.32 -0.187 0.892
 0.324 -0.186 0.886
 0.328 -0.186 0.881
 0.329 -0.183 0.867
 0.33 -0.181 0.853
 0.332 -0.18 0.845
 0.335 -0.178 0.837
 0.334 -0.175 0.82
 0.336 -0.173 0.809
 0.337 -0.172 0.799
 0.338 -0.169 0.787
 0.339 -0.168 0.776
 0.342 -0.167 0.77
 0.343 -0.165 0.761
 0.347 -0.165 0.757
 0.351 -0.164 0.752
 0.352 -0.163 0.742
 0.355 -0.162 0.736
 0.357 -0.161 0.73
 0.358 -0.159 0.72
 0.36 -0.158 0.713
 0.363 -0.157 0.708
 0.365 -0.156 0.7
 0.368 -0.156 0.695
 0.371 -0.155 0.691
 0.373 -0.154 0.683
 0.375 -0.153 0.677
 0.379 -0.153 0.674
 0.381 -0.152 0.668
 0.388 -0.153 0.67
 0.379 -0.148 0.645
 -0.33 -0.125 0.577
 -0.318 -0.122 0.565
 -0.319 -0.124 0.576
 -0.316 -0.124 0.579
 -0.315 -0.125 0.586
 -0.316 -0.127 0.597
 -0.32 -0.13 0.615
 -0.314 -0.129 0.611
 -0.301 -0.126 0.596
 -0.286 -0.121 0.573
 -0.269 -0.115 0.548
 -0.249 -0.108 0.514
 -0.237 -0.105 0.497
 -0.228 -0.102 0.486
 -0.221 -0.1 0.478
 0 0 0
 0 0 0
 0 0 0
 0 0 0
 0 0 0
 -0.548 -0.269 1.334
 -0.552 -0.275 1.367
 -0.547 -0.277 1.381
 -0.541 -0.278 1.389
 -0.535 -0.279 1.399
 -0.536 -0.284 1.427
 -0.533 -0.287 1.445
 -0.529 -0.29 1.461
 -0.525 -0.293 1.478
 -0.519 -0.295 1.491
 -0.511 -0.295 1.496
 -0.502 -0.296 1.499
 -0.493 -0.296 1.501
 -0.484 -0.296 1.504
 -0.475 -0.296 1.507
 -0.466 -0.296 1.51
 -0.457 -0.296 1.513
 -0.449 -0.297 1.517
 -0.44 -0.297 1.52
 -0.431 -0.297 1.523
 -0.422 -0.298 1.528
 -0.414 -0.298 1.531
 -0.405 -0.298 1.533
 -0.396 -0.298 1.537
 -0.387 -0.299 1.54
 -0.378 -0.299 1.543
 -0.369 -0.299 1.545
 -0.36 -0.3 1.549
 -0.352 -0.3 1.553
 -0.343 -0.3 1.557
 -0.334 -0.301 1.56
 -0.325 -0.301 1.563
 -0.316 -0.301 1.566
 -0.308 -0.302 1.57
 -0.299 -0.302 1.573
 -0.29 -0.303 1.577
 -0.281 -0.303 1.58
 -0.272 -0.304 1.584
 -0.263 -0.304 1.588
 -0.254 -0.305 1.591
 -0.245 -0.305 1.595
 -0.236 -0.306 1.599
 -0.227 -0.306 1.602
 -0.218 -0.307 1.605
 -0.209 -0.307 1.609
 -0.2 -0.308 1.613
 -0.191 -0.308 1.616
 -0.182 -0.309 1.62
 -0.173 -0.31 1.623
 -0.163 -0.31 1.627
 -0.154 -0.311 1.63
 -0.145 -0.312 1.635
 -0.136 -0.312 1.638
 -0.126 -0.313 1.643
 -0.117 -0.314 1.646
 -0.108 -0.314 1.65
 -0.098 -0.315 1.653
 -0.089 -0.315 1.657
 -0.079 -0.316 1.661
 -0.07 -0.317 1.664
 -0.06 -0.317 1.667
 -0.051 -0.318 1.671
 -0.041 -0.319 1.674
 -0.031 -0.319 1.677
 -0.022 -0.32 1.681
 -0.012 -0.32 1.684
 -0.002 -0.321 1.687
 0.007 -0.322 1.69
 0.016 -0.322 1.694
 0.026 -0.323 1.697
 0.036 -0.324 1.7
 0.046 -0.324 1.702
 0.056 -0.325 1.704
 0.066 -0.325 1.705
 0.076 -0.325 1.707
 0.086 -0.326 1.708
 0.096 -0.326 1.708
 0.106 -0.326 1.709
 0.116 -0.326 1.709
 0.126 -0.326 1.707
 0.135 -0.325 1.702
 0.145 -0.324 1.696
 0.154 -0.323 1.686
 0.163 -0.32 1.673
 0.171 -0.318 1.659
 0.179 -0.316 1.645
 0.187 -0.313 1.629
 0.195 -0.31 1.613
 0.202 -0.307 1.597
 0.209 -0.304 1.58
 0.217 -0.302 1.568
 0.224 -0.3 1.555
 0.23 -0.295 1.529
 0.239 -0.295 1.527
 0.248 -0.296 1.53
 0.258 -0.296 1.532
 0.268 -0.298 1.538
 0.281 -0.302 1.557
 0.289 -0.301 1.554
 0.298 -0.301 1.549
 0.306 -0.3 1.541
 0.312 -0.297 1.526
 0.318 -0.294 1.51
 0.324 -0.291 1.494
 0.328 -0.287 1.47
 0.329 -0.281 1.438
 0.331 -0.276 1.408
 0.33 -0.269 1.368
 0.33 -0.262 1.333
 0.33 -0.256 1.299
 0.327 -0.248 1.258
 0.326 -0.242 1.225
 0.324 -0.236 1.189
 0.32 -0.228 1.147
 0.315 -0.219 1.103
 0.313 -0.214 1.073
 0.313 -0.209 1.048
 0.312 -0.205 1.023
 0.313 -0.202 1.005
 0.314 -0.199 0.987
 0.312 -0.194 0.961
 0.311 -0.19 0.939
 0.31 -0.186 0.918
 0.311 -0.183 0.902
 0.316 -0.183 0.898
 0.319 -0.181 0.889
 0.323 -0.18 0.884
 0.327 -0.18 0.88
 0.329 -0.178 0.868
 0.329 -0.175 0.853
 0.331 -0.173 0.841
 0.333 -0.172 0.833
 0.333 -0.169 0.818
 0.335 -0.168 0.809
 0.338 -0.167 0.801
 0.338 -0.165 0.789
 0.339 -0.163 0.776
 0.341 -0.162 0.77
 0.342 -0.16 0.76
 0.346 -0.159 0.755
 0.35 -0.159 0.75
 0.351 -0.157 0.741
 0.352 -0.156 0.732
 0.355 -0.155 0.727
 0.356 -0.154 0.717
 0.358 -0.153 0.71
 0.361 -0.152 0.705
 0.364 -0.151 0.699
 0.367 -0.151 0.694
 0.37 -0.15 0.69
 0.372 -0.149 0.683
 0.375 -0.149 0.678
 0.379 -0.149 0.675
 0.381 -0.148 0.668
 0.384 -0.147 0.664
 0.388 -0.147 0.661
 -0.334 -0.122 0.585
 -0.321 -0.119 0.571
 -0.321 -0.12 0.579
 -0.317 -0.121 0.582
 -0.316 -0.122 0.589
 -0.318 -0.124 0.601
 -0.324 -0.128 0.622
 -0.319 -0.127 0.623
 -0.308 -0.124 0.61
 -0.292 -0.12 0.586
 -0.277 -0.115 0.565
 -0.257 -0.109 0.533
 -0.243 -0.104 0.511
 -0.233 -0.101 0.498
 0 0 0
 0 0 0
 0 0 0
 0 0 0
 0 0 0
 0 0 0
 -0.552 -0.262 1.345
 -0.553 -0.267 1.373
 -0.549 -0.269 1.386
 -0.542 -0.27 1.394
 -0.536 -0.271 1.404
 -0.536 -0.276 1.43
 -0.533 -0.279 1.447
 -0.529 -0.281 1.463
 -0.524 -0.284 1.479
 -0.519 -0.286 1.491
 -0.51 -0.286 1.496
 -0.501 -0.286 1.498
 -0.492 -0.286 1.501
 -0.483 -0.286 1.504
 -0.475 -0.287 1.507
 -0.466 -0.287 1.51
 -0.457 -0.287 1.514
 -0.448 -0.287 1.517
 -0.439 -0.287 1.52
 -0.43 -0.288 1.523
 -0.422 -0.288 1.527
 -0.413 -0.288 1.53
 -0.404 -0.288 1.533
 -0.395 -0.289 1.536
 -0.387 -0.289 1.54
 -0.378 -0.289 1.542
 -0.369 -0.29 1.546
 -0.36 -0.29 1.549
 -0.351 -0.29 1.553
 -0.343 -0.291 1.556
 -0.334 -0.291 1.56
 -0.325 -0.292 1.563
 -0.316 -0.292 1.566
 -0.307 -0.293 1.571
 -0.298 -0.293 1.573
 -0.289 -0.293 1.577
 -0.281 -0.294 1.58
 -0.272 -0.294 1.584
 -0.263 -0.295 1.587
 -0.254 -0.295 1.592
 -0.245 -0.296 1.595
 -0.236 -0.296 1.598
 -0.227 -0.297 1.601
 -0.218 -0.297 1.605
 -0.209 -0.298 1.608
 -0.2 -0.298 1.611
 -0.191 -0.299 1.615
 -0.182 -0.299 1.619
 -0.172 -0.3 1.623
 -0.163 -0.301 1.627
 -0.154 -0.301 1.631
 -0.145 -0.302 1.635
 -0.136 -0.302 1.639
 -0.126 -0.303 1.643
 -0.117 -0.304 1.646
 -0.108 -0.304 1.65
 -0.098 -0.305 1.653
 -0.089 -0.305 1.657
 -0.079 -0.306 1.66
 -0.07 -0.307 1.664
 -0.06 -0.307 1.667
 -0.051 -0.308 1.67
 -0.041 -0.308 1.673
 -0.031 -0.309 1.677
 -0.022 -0.31 1.68
 -0.012 -0.31 1.683
 -0.002 -0.311 1.687
 0.007 -0.312 1.69
 0.016 -0.312 1.693
 0.026 -0.313 1.697
 0.036 -0.314 1.699
 0.046 -0.314 1.702
 0.056 -0.314 1.703
 0.066 -0.315 1.705
 0.076 -0.315 1.706
 0.086 -0.316 1.708
 0.096 -0.316 1.708
 0.106 -0.316 1.709
 0.116 -0.316 1.708
 0.126 -0.316 1.706
 0.135 -0.315 1.701
 0.145 -0.314 1.695
 0.154 -0.313 1.686
 0.162 -0.311 1.674
 0.171 -0.308 1.66
 0.179 -0.306 1.646
 0.187 -0.303 1.63
 0.194 -0.3 1.613
 0.202 -0.297 1.597
 0.209 -0.295 1.581
 0.217 -0.293 1.568
 0.224 -0.29 1.554
 0.229 -0.286 1.528
 0.238 -0.285 1.526
 0.248 -0.286 1.53
 0.257 -0.287 1.532
 0.268 -0.288 1.538
 0.28 -0.292 1.556
 0.289 -0.292 1.554
 0.297 -0.291 1.546
 0.305 -0.289 1.538
 0.312 -0.288 1.526
 0.318 -0.285 1.511
 0.323 -0.282 1.493
 0.327 -0.278 1.471
 0.33 -0.273 1.441
 0.331 -0.267 1.407
 0.331 -0.261 1.373
 0.331 -0.255 1.338
 0.331 -0.249 1.303
 0.327 -0.24 1.258
 0.327 -0.235 1.228
 0.323 -0.228 1.186
 0.32 -0.22 1.146
 0.316 -0.213 1.107
 0.314 -0.208 1.076
 0.314 -0.204 1.054
 0.316 -0.201 1.037
 0.317 -0.198 1.017
 0.317 -0.194 0.999
 0.315 -0.189 0.971
 0.313 -0.185 0.944
 0.312 -0.181 0.925
 0.313 -0.179 0.909
 0.318 -0.178 0.906
 0.32 -0.177 0.894
 0.324 -0.176 0.889
 0.327 -0.175 0.881
 0.328 -0.172 0.868
 0.329 -0.17 0.853
 0.331 -0.169 0.844
 0.333 -0.167 0.832
 0.334 -0.165 0.82
 0.336 -0.164 0.813
 0.338 -0.162 0.803
 0.338 -0.16 0.789
 0.34 -0.158 0.78
 0.341 -0.157 0.771
 0.343 -0.155 0.762
 0.346 -0.155 0.755
 0.349 -0.154 0.75
 0.351 -0.153 0.742
 0.352 -0.151 0.733
 0.355 -0.151 0.727
 0.356 -0.149 0.718
 0.359 -0.148 0.713
 0.361 -0.148 0.706
 0.364 -0.147 0.7
 0.366 -0.146 0.694
 0.37 -0.146 0.69
 0.372 -0.145 0.684
 0.375 -0.144 0.679
 0.379 -0.144 0.676
 0.38 -0.143 0.668
 0.377 -0.14 0.653
 0.381 -0.14 0.65
 -0.337 -0.119 0.591
 -0.329 -0.118 0.586
 -0.322 -0.117 0.583
 -0.319 -0.117 0.586
 -0.318 -0.118 0.593
 -0.321 -0.121 0.608
 -0.329 -0.126 0.634
 -0.329 -0.127 0.643
 -0.317 -0.124 0.63
 -0.3 -0.119 0.604
 -0.286 -0.115 0.584
 -0.263 -0.107 0.545
 -0.245 -0.101 0.515
 -0.235 -0.099 0.501
 -0.238 -0.101 0.516
 0 0 0
 0 0 0
 0 0 0
 0 0 0
 0 0 0
 -0.533 -0.245 1.301
 -0.543 -0.254 1.347
 -0.542 -0.257 1.369
 -0.537 -0.259 1.382
 -0.538 -0.263 1.409
 -0.537 -0.267 1.433
 -0.533 -0.27 1.449
 -0.529 -0.272 1.464
 -0.524 -0.275 1.48
 -0.518 -0.276 1.492
 -0.51 -0.277 1.496
 -0.501 -0.277 1.498
 -0.492 -0.277 1.502
 -0.483 -0.277 1.505
 -0.474 -0.277 1.507
 -0.465 -0.277 1.51
 -0.456 -0.277 1.513
 -0.447 -0.278 1.516
 -0.439 -0.278 1.519
 -0.43 -0.278 1.523
 -0.421 -0.279 1.527
 -0.413 -0.279 1.53
 -0.404 -0.279 1.533
 -0.395 -0.279 1.536
 -0.386 -0.28 1.54
 -0.377 -0.28 1.543
 -0.368 -0.28 1.545
 -0.36 -0.281 1.549
 -0.351 -0.281 1.553
 -0.342 -0.281 1.556
 -0.333 -0.282 1.56
 -0.325 -0.282 1.563
 -0.316 -0.283 1.567
 -0.307 -0.283 1.571
 -0.298 -0.283 1.573
 -0.289 -0.284 1.577
 -0.28 -0.284 1.581
 -0.271 -0.285 1.584
 -0.262 -0.285 1.587
 -0.254 -0.286 1.591
 -0.245 -0.286 1.594
 -0.236 -0.286 1.597
 -0.226 -0.287 1.6
 -0.218 -0.287 1.604
 -0.208 -0.288 1.608
 -0.2 -0.288 1.612
 -0.191 -0.289 1.617
 -0.182 -0.29 1.622
 -0.173 -0.291 1.627
 -0.164 -0.292 1.632
 -0.154 -0.292 1.636
 -0.145 -0.293 1.639
 -0.136 -0.293 1.642
 -0.126 -0.293 1.644
 -0.117 -0.294 1.646
 -0.107 -0.294 1.65
 -0.098 -0.295 1.653
 -0.089 -0.295 1.656
 -0.079 -0.296 1.659
 -0.07 -0.297 1.663
 -0.06 -0.297 1.666
 -0.051 -0.298 1.67
 -0.041 -0.298 1.673
 -0.031 -0.299 1.677
 -0.022 -0.3 1.68
 -0.012 -0.3 1.683
 -0.002 -0.301 1.686
 0.007 -0.302 1.69
 0.017 -0.302 1.693
 0.026 -0.303 1.696
 0.036 -0.303 1.699
 0.046 -0.304 1.701
 0.056 -0.304 1.703
 0.066 -0.305 1.705
 0.076 -0.305 1.706
 0.086 -0.305 1.707
 0.096 -0.305 1.708
 0.106 -0.306 1.709
 0.116 -0.306 1.708
 0.126 -0.306 1.706
 0.135 -0.305 1.701
 0.145 -0.304 1.695
 0.154 -0.302 1.686
 0.162 -0.301 1.674
 0.171 -0.298 1.66
 0.179 -0.296 1.646
 0.187 -0.293 1.63
 0.194 -0.29 1.613
 0.202 -0.288 1.596
 0.209 -0.285 1.58
 0.217 -0.283 1.567
 0.224 -0.281 1.553
 0.229 -0.276 1.527
 0.238 -0.276 1.525
 0.247 -0.277 1.528
 0.257 -0.278 1.531
 0.267 -0.279 1.536
 0.279 -0.282 1.552
 0.288 -0.282 1.551
 0.297 -0.281 1.546
 0.305 -0.28 1.538
 0.312 -0.279 1.527
 0.318 -0.277 1.514
 0.323 -0.273 1.495
 0.328 -0.27 1.472
 0.329 -0.264 1.441
 0.331 -0.259 1.408
 0.331 -0.253 1.374
 0.331 -0.247 1.338
 0.33 -0.24 1.302
 0.328 -0.234 1.262
 0.327 -0.228 1.23
 0.325 -0.222 1.193
 0.322 -0.215 1.155
 0.32 -0.21 1.124
 0.32 -0.205 1.096
 0.319 -0.201 1.071
 0.319 -0.196 1.047
 0.32 -0.193 1.027
 0.317 -0.188 0.998
 0.315 -0.184 0.972
 0.313 -0.179 0.947
 0.314 -0.177 0.93
 0.314 -0.174 0.912
 0.319 -0.173 0.909
 0.321 -0.171 0.897
 0.324 -0.17 0.889
 0.327 -0.169 0.879
 0.329 -0.167 0.869
 0.329 -0.165 0.854
 0.332 -0.164 0.846
 0.333 -0.162 0.835
 0.335 -0.16 0.825
 0.337 -0.159 0.814
 0.338 -0.157 0.804
 0.338 -0.155 0.791
 0.34 -0.153 0.781
 0.34 -0.152 0.769
 0.341 -0.15 0.759
 0.344 -0.149 0.752
 0.347 -0.148 0.746
 0.349 -0.147 0.74
 0.351 -0.146 0.731
 0.354 -0.146 0.727
 0.355 -0.144 0.717
 0.358 -0.143 0.711
 0.359 -0.142 0.703
 0.362 -0.141 0.697
 0.365 -0.141 0.692
 0.369 -0.141 0.689
 0.372 -0.14 0.684
 0.375 -0.14 0.679
 0.379 -0.14 0.677
 0.38 -0.138 0.668
 0.378 -0.136 0.656
 0.385 -0.137 0.656
 -0.337 -0.116 0.593
 -0.337 -0.117 0.602
 -0.324 -0.114 0.587
 -0.321 -0.114 0.59
 -0.32 -0.115 0.597
 -0.325 -0.119 0.617
 -0.336 -0.124 0.647
 -0.339 -0.127 0.663
 -0.327 -0.124 0.65
 -0.31 -0.119 0.626
 -0.294 -0.115 0.603
 -0.271 -0.107 0.562
 -0.248 -0.1 0.524
 -0.24 -0.098 0.514
 -0.237 -0.098 0.517
 0 0 0
 0 0 0
 0 0 0
 0 0 0
 0 0 0
 -0.527 -0.235 1.288
 -0.537 -0.243 1.336
 -0.538 -0.247 1.361
 -0.534 -0.249 1.375
 -0.538 -0.255 1.412
 -0.537 -0.259 1.434
 -0.533 -0.261 1.451
 -0.528 -0.263 1.465
 -0.524 -0.265 1.48
 -0.518 -0.267 1.492
 -0.509 -0.267 1.495
 -0.5 -0.267 1.498
 -0.491 -0.268 1.501
 -0.482 -0.268 1.504
 -0.473 -0.268 1.506
 -0.464 -0.268 1.509
 -0.456 -0.268 1.512
 -0.447 -0.268 1.515
 -0.438 -0.268 1.519
 -0.429 -0.269 1.522
 -0.421 -0.269 1.526
 -0.412 -0.269 1.53
 -0.403 -0.27 1.533
 -0.394 -0.27 1.536
 -0.386 -0.27 1.54
 -0.377 -0.271 1.543
 -0.368 -0.271 1.546
 -0.359 -0.271 1.549
 -0.351 -0.271 1.553
 -0.342 -0.272 1.556
 -0.333 -0.272 1.559
 -0.324 -0.273 1.563
 -0.315 -0.273 1.566
 -0.307 -0.273 1.57
 -0.298 -0.274 1.573
 -0.289 -0.274 1.576
 -0.28 -0.274 1.58
 -0.271 -0.275 1.584
 -0.262 -0.275 1.586
 -0.253 -0.276 1.59
 -0.244 -0.276 1.594
 -0.235 -0.277 1.598
 -0.226 -0.277 1.602
 -0.218 -0.278 1.607
 -0.209 -0.279 1.612
 -0.2 -0.28 1.617
 -0.191 -0.28 1.622
 -0.182 -0.281 1.629
 -0.173 -0.282 1.632
 -0.164 -0.282 1.633
 -0.154 -0.282 1.635
 -0.145 -0.283 1.637
 -0.135 -0.283 1.637
 -0.126 -0.283 1.64
 -0.117 -0.284 1.645
 -0.107 -0.284 1.649
 -0.098 -0.285 1.653
 -0.088 -0.285 1.656
 -0.079 -0.286 1.658
 -0.069 -0.287 1.662
 -0.06 -0.287 1.666
 -0.05 -0.288 1.67
 -0.041 -0.288 1.673
 -0.031 -0.289 1.677
 -0.022 -0.29 1.68
 -0.012 -0.29 1.683
 -0.002 -0.291 1.686
 0.007 -0.291 1.69
 0.017 -0.292 1.692
 0.026 -0.293 1.695
 0.036 -0.293 1.698
 0.046 -0.294 1.7
 0.056 -0.294 1.702
 0.066 -0.294 1.704
 0.076 -0.295 1.706
 0.086 -0.295 1.707
 0.096 -0.295 1.708
 0.106 -0.295 1.708
 0.116 -0.296 1.708
 0.126 -0.295 1.705
 0.135 -0.295 1.701
 0.145 -0.294 1.695
 0.154 -0.292 1.685
 0.162 -0.29 1.673
 0.171 -0.288 1.66
 0.179 -0.286 1.646
 0.187 -0.283 1.63
 0.194 -0.281 1.613
 0.202 -0.278 1.596
 0.209 -0.275 1.58
 0.216 -0.273 1.566
 0.224 -0.271 1.552
 0.229 -0.267 1.526
 0.237 -0.266 1.522
 0.247 -0.267 1.526
 0.257 -0.268 1.53
 0.267 -0.269 1.535
 0.279 -0.273 1.552
 0.288 -0.273 1.551
 0.297 -0.272 1.546
 0.304 -0.271 1.537
 0.311 -0.269 1.526
 0.318 -0.267 1.512
 0.323 -0.264 1.492
 0.326 -0.26 1.468
 0.328 -0.255 1.437
 0.33 -0.25 1.407
 0.331 -0.244 1.373
 0.33 -0.238 1.335
 0.33 -0.232 1.302
 0.329 -0.227 1.268
 0.327 -0.221 1.231
 0.323 -0.213 1.188
 0.322 -0.208 1.155
 0.319 -0.202 1.121
 0.319 -0.198 1.094
 0.319 -0.194 1.071
 0.319 -0.19 1.047
 0.319 -0.187 1.027
 0.318 -0.183 1.002
 0.316 -0.178 0.976
 0.315 -0.174 0.952
 0.314 -0.171 0.932
 0.314 -0.168 0.912
 0.318 -0.167 0.906
 0.32 -0.165 0.894
 0.323 -0.164 0.886
 0.325 -0.163 0.877
 0.328 -0.161 0.868
 0.328 -0.159 0.851
 0.33 -0.158 0.843
 0.331 -0.156 0.831
 0.333 -0.154 0.82
 0.334 -0.152 0.809
 0.337 -0.151 0.801
 0.338 -0.15 0.79
 0.34 -0.149 0.782
 0.341 -0.147 0.772
 0.343 -0.146 0.763
 0.345 -0.145 0.756
 0.347 -0.144 0.747
 0.349 -0.142 0.739
 0.351 -0.141 0.731
 0.352 -0.14 0.723
 0.354 -0.139 0.716
 0.357 -0.138 0.709
 0.359 -0.138 0.703
 0.361 -0.137 0.696
 0.364 -0.136 0.692
 0.368 -0.136 0.688
 0.371 -0.135 0.683
 0.374 -0.135 0.678
 0.377 -0.135 0.674
 0.379 -0.134 0.668
 0.383 -0.134 0.665
 0.376 -0.13 0.643
 -0.337 -0.112 0.593
 -0.335 -0.113 0.599
 -0.326 -0.111 0.59
 -0.323 -0.111 0.595
 -0.323 -0.112 0.604
 -0.33 -0.116 0.628
 -0.343 -0.122 0.661
 -0.348 -0.126 0.684
 -0.337 -0.123 0.671
 -0.32 -0.119 0.647
 -0.3 -0.113 0.616
 -0.277 -0.105 0.576
 -0.252 -0.098 0.532
 -0.244 -0.096 0.524
 -0.24 -0.095 0.522
 0 0 0
 0 0 0
 0 0 0
 0 0 0
 0 0 0
 -0.522 -0.225 1.276
 -0.533 -0.233 1.326
 -0.534 -0.237 1.352
 -0.531 -0.239 1.369
 -0.539 -0.247 1.415
 -0.537 -0.25 1.436
 -0.533 -0.252 1.452
 -0.528 -0.254 1.466
 -0.524 -0.256 1.481
 -0.517 -0.258 1.492
 -0.509 -0.258 1.495
 -0.5 -0.258 1.498
 -0.491 -0.258 1.501
 -0.482 -0.258 1.504
 -0.473 -0.258 1.506
 -0.464 -0.258 1.509
 -0.455 -0.259 1.512
 -0.446 -0.259 1.516
 -0.438 -0.259 1.519
 -0.429 -0.259 1.523
 -0.421 -0.26 1.527
 -0.412 -0.26 1.53
 -0.403 -0.26 1.533
 -0.394 -0.261 1.536
 -0.385 -0.261 1.54
 -0.377 -0.261 1.542
 -0.368 -0.261 1.545
 -0.359 -0.262 1.549
 -0.35 -0.262 1.552
 -0.341 -0.262 1.556
 -0.333 -0.263 1.559
 -0.324 -0.263 1.563
 -0.315 -0.263 1.566
 -0.306 -0.264 1.57
 -0.297 -0.264 1.573
 -0.288 -0.265 1.576
 -0.28 -0.265 1.579
 -0.271 -0.266 1.584
 -0.262 -0.266 1.587
 -0.253 -0.267 1.592
 -0.245 -0.267 1.597
 -0.236 -0.268 1.602
 -0.227 -0.269 1.607
 -0.218 -0.269 1.609
 -0.209 -0.27 1.614
 -0.2 -0.27 1.618
 -0.191 -0.271 1.623
 -0.182 -0.272 1.629
 -0.173 -0.273 1.636
 -0.163 -0.272 1.629
 -0.153 -0.272 1.63
 -0.144 -0.272 1.631
 -0.134 -0.272 1.631
 -0.125 -0.272 1.633
 -0.116 -0.274 1.644
 -0.107 -0.274 1.648
 -0.098 -0.275 1.651
 -0.088 -0.275 1.655
 -0.079 -0.276 1.658
 -0.069 -0.277 1.661
 -0.06 -0.277 1.666
 -0.05 -0.278 1.669
 -0.041 -0.279 1.673
 -0.031 -0.279 1.677
 -0.021 -0.28 1.68
 -0.012 -0.28 1.683
 -0.002 -0.281 1.686
 0.007 -0.281 1.69
 0.017 -0.282 1.692
 0.026 -0.282 1.695
 0.036 -0.283 1.698
 0.046 -0.283 1.699
 0.056 -0.284 1.701
 0.066 -0.284 1.703
 0.076 -0.285 1.705
 0.086 -0.285 1.707
 0.096 -0.285 1.707
 0.106 -0.285 1.708
 0.116 -0.285 1.708
 0.126 -0.285 1.705
 0.135 -0.285 1.701
 0.145 -0.284 1.695
 0.154 -0.282 1.685
 0.162 -0.28 1.673
 0.171 -0.278 1.659
 0.179 -0.276 1.645
 0.186 -0.274 1.629
 0.194 -0.271 1.612
 0.201 -0.268 1.595
 0.209 -0.266 1.578
 0.216 -0.264 1.565
 0.224 -0.262 1.554
 0.229 -0.258 1.526
 0.237 -0.257 1.522
 0.247 -0.258 1.525
 0.257 -0.259 1.53
 0.266 -0.26 1.534
 0.279 -0.263 1.553
 0.288 -0.263 1.552
 0.297 -0.263 1.547
 0.304 -0.261 1.536
 0.311 -0.26 1.526
 0.317 -0.258 1.512
 0.322 -0.255 1.491
 0.326 -0.251 1.466
 0.327 -0.246 1.434
 0.329 -0.24 1.402
 0.329 -0.235 1.368
 0.329 -0.23 1.335
 0.33 -0.225 1.306
 0.328 -0.219 1.266
 0.326 -0.212 1.226
 0.321 -0.205 1.181
 0.318 -0.198 1.141
 0.317 -0.194 1.115
 0.319 -0.191 1.095
 0.319 -0.188 1.073
 0.318 -0.183 1.045
 0.319 -0.181 1.028
 0.317 -0.176 0.999
 0.314 -0.171 0.971
 0.313 -0.167 0.946
 0.314 -0.165 0.931
 0.313 -0.162 0.912
 0.319 -0.162 0.91
 0.321 -0.16 0.898
 0.323 -0.159 0.888
 0.325 -0.157 0.877
 0.328 -0.156 0.867
 0.327 -0.153 0.85
 0.329 -0.152 0.84
 0.329 -0.15 0.826
 0.332 -0.149 0.819
 0.334 -0.147 0.809
 0.335 -0.146 0.798
 0.337 -0.144 0.789
 0.34 -0.144 0.784
 0.341 -0.142 0.773
 0.343 -0.141 0.764
 0.345 -0.14 0.756
 0.347 -0.139 0.748
 0.348 -0.137 0.739
 0.35 -0.136 0.729
 0.35 -0.135 0.72
 0.354 -0.134 0.715
 0.357 -0.134 0.71
 0.358 -0.133 0.702
 0.361 -0.132 0.697
 0.364 -0.132 0.692
 0.367 -0.131 0.687
 0.37 -0.13 0.681
 0.373 -0.13 0.677
 0.377 -0.13 0.674
 0.379 -0.129 0.667
 0.397 -0.134 0.69
 0.377 -0.126 0.644
 -0.336 -0.107 0.592
 -0.336 -0.109 0.601
 -0.327 -0.107 0.593
 -0.326 -0.108 0.6
 -0.328 -0.11 0.613
 -0.337 -0.115 0.641
 -0.35 -0.121 0.678
 -0.359 -0.125 0.706
 -0.348 -0.123 0.693
 -0.331 -0.118 0.67
 -0.31 -0.112 0.636
 -0.286 -0.105 0.595
 -0.258 -0.096 0.545
 -0.251 -0.095 0.539
 -0.242 -0.093 0.529
 0 0 0
 0 0 0
 0 0 0
 0 0 0
 -0.475 -0.194 1.141
 -0.521 -0.216 1.276
 -0.531 -0.224 1.324
 -0.532 -0.228 1.35
 -0.529 -0.23 1.366
 -0.54 -0.238 1.419
 -0.537 -0.241 1.438
 -0.533 -0.243 1.453
 -0.528 -0.245 1.467
 -0.523 -0.247 1.481
 -0.517 -0.248 1.491
 -0.508 -0.248 1.494
 -0.499 -0.249 1.497
 -0.49 -0.249 1.5
 -0.481 -0.249 1.503
 -0.472 -0.249 1.505
 -0.463 -0.249 1.508
 -0.454 -0.249 1.511
 -0.446 -0.249 1.515
 -0.437 -0.25 1.518
 -0.428 -0.25 1.522
 -0.42 -0.25 1.526
 -0.411 -0.251 1.529
 -0.402 -0.251 1.533
 -0.394 -0.251 1.536
 -0.385 -0.251 1.539
 -0.376 -0.252 1.543
 -0.367 -0.252 1.546
 -0.359 -0.252 1.549
 -0.35 -0.253 1.553
 -0.341 -0.253 1.556
 -0.332 -0.253 1.559
 -0.323 -0.254 1.562
