 0.848 -1.617 3.971
 0.878 -1.627 3.993
 0.913 -1.646 4.033
 0.93 -1.633 3.996
 0.962 -1.646 4.023
 0.984 -1.64 4.003
 1.01 -1.642 4.001
 1.028 -1.632 3.972
 1.062 -1.647 4.001
 1.075 -1.629 3.952
 1.098 -1.626 3.939
 1.135 -1.644 3.976
 1.156 -1.639 3.956
 1.178 -1.635 3.94
 1.208 -1.642 3.951
 1.236 -1.646 3.954
 1.249 -1.631 3.911
 1.281 -1.641 3.927
 1.298 -1.63 3.893
 1.334 -1.645 3.922
 1.358 -1.644 3.91
 1.377 -1.637 3.887
 1.413 -1.65 3.909
 1.437 -1.649 3.898
 1.452 -1.638 3.863
 1.466 -1.626 3.826
 1.491 -1.627 3.82
 1.523 -1.635 3.829
 1.547 -1.634 3.818
 1.577 -1.64 3.823
 1.609 -1.648 3.832
 1.627 -1.641 3.807
 1.644 -1.633 3.778
 1.676 -1.64 3.785
 1.706 -1.646 3.788
 1.724 -1.639 3.762
 1.741 -1.632 3.737
 1.765 -1.632 3.724
 1.791 -1.633 3.717
 1.836 -1.651 3.748
 1.835 -1.628 3.684
 1.87 -1.638 3.694
 1.876 -1.621 3.646
 1.866 -1.593 3.57
 1.849 -1.558 3.481
 1.88 -1.564 3.483
 1.86 -1.529 3.392
 1.895 -1.538 3.402
 1.868 -1.499 3.303
 1.852 -1.468 3.224
 1.834 -1.437 3.144
 1.86 -1.44 3.139
 1.862 -1.425 3.096
 1.823 -1.38 2.985
 1.805 -1.351 2.911
 -2.202 -1.641 3.687
 -2.153 -1.624 3.661
 -2.137 -1.63 3.688
 -2.112 -1.631 3.702
 -2.086 -1.631 3.714
 -2.061 -1.631 3.726
 -2.036 -1.631 3.738
 -2.012 -1.633 3.753
 -1.987 -1.633 3.765
 -1.962 -1.633 3.778
 -1.938 -1.635 3.792
 -1.913 -1.635 3.803
 -1.888 -1.636 3.817
 -1.865 -1.637 3.831
 -1.839 -1.638 3.842
 -1.812 -1.636 3.849
 -1.787 -1.636 3.859
 -1.76 -1.636 3.868
 -1.731 -1.632 3.869
 -1.705 -1.632 3.878
 -1.679 -1.631 3.886
 -1.652 -1.63 3.892
 -1.626 -1.628 3.898
 -1.602 -1.63 3.91
 -1.576 -1.629 3.918
 -1.55 -1.629 3.924
 -1.525 -1.629 3.934
 -1.5 -1.63 3.943
 -1.473 -1.628 3.947
 -1.448 -1.628 3.956
 -1.422 -1.628 3.964
 -1.397 -1.628 3.972
 -1.371 -1.627 3.975
 -1.346 -1.628 3.985
 -1.321 -1.628 3.993
 -1.295 -1.627 3.998
 -1.269 -1.627 4.002
 -1.245 -1.628 4.013
 -1.22 -1.629 4.022
 -1.193 -1.626 4.021
 -1.167 -1.626 4.027
 -1.142 -1.626 4.032
 -1.115 -1.624 4.032
 -1.089 -1.622 4.034
 -1.065 -1.624 4.044
 -1.04 -1.625 4.052
 -1.014 -1.624 4.055
 -0.989 -1.624 4.06
 -0.963 -1.623 4.062
 -0.938 -1.622 4.064
 -0.911 -1.62 4.064
 -0.886 -1.62 4.068
 -0.861 -1.621 4.074
 -0.836 -1.621 4.079
 -0.811 -1.621 4.083
 -0.786 -1.621 4.088
 -0.761 -1.62 4.089
 -0.735 -1.618 4.089
 -0.709 -1.618 4.091
 -0.684 -1.618 4.093
 -0.659 -1.618 4.098
 -0.634 -1.619 4.102
 -0.61 -1.62 4.109
 -0.585 -1.622 4.116
 -0.56 -1.622 4.12
 -0.535 -1.622 4.121
 -0.51 -1.623 4.126
 -0.485 -1.621 4.125
 -0.46 -1.62 4.124
 -0.434 -1.619 4.122
 -0.41 -1.621 4.13
 -0.384 -1.619 4.126
 -0.359 -1.619 4.127
 -0.334 -1.619 4.129
 -0.309 -1.62 4.132
 -0.284 -1.619 4.131
 -0.259 -1.619 4.133
 -0.234 -1.619 4.134
 -0.209 -1.619 4.134
 -0.184 -1.62 4.139
 -0.159 -1.62 4.137
 -0.134 -1.619 4.136
 -0.109 -1.621 4.143
 -0.084 -1.622 4.144
 -0.059 -1.621 4.141
 -0.034 -1.62 4.141
 -0.009 -1.622 4.144
 0.015 -1.62 4.14
 0.04 -1.623 4.145
 0.065 -1.623 4.146
 0.09 -1.624 4.147
 0.116 -1.624 4.147
 0.14 -1.622 4.141
 0.165 -1.619 4.132
 0.19 -1.617 4.126
 0.215 -1.616 4.122
 0.239 -1.615 4.119
 0.265 -1.617 4.12
 0.29 -1.617 4.12
 0.314 -1.617 4.118
 0.339 -1.618 4.118
 0.364 -1.617 4.114
 0.389 -1.618 4.113
 0.414 -1.617 4.109
 0.439 -1.618 4.109
 0.464 -1.618 4.106
 0.489 -1.62 4.108
 0.515 -1.622 4.11
 0.54 -1.622 4.109
 0.565 -1.623 4.106
 0.589 -1.621 4.098
 0.615 -1.621 4.096
 0.639 -1.62 4.089
 0.665 -1.622 4.091
 0.69 -1.623 4.09
 0.716 -1.626 4.094
 0.742 -1.627 4.091
 0.768 -1.629 4.092
 0.792 -1.628 4.084
 0.817 -1.627 4.078
 0.842 -1.628 4.076
 0.867 -1.627 4.069
 0.892 -1.628 4.064
 0.917 -1.629 4.062
 0.942 -1.629 4.056
 0.967 -1.629 4.052
 0.993 -1.63 4.048
 1.018 -1.63 4.042
 1.043 -1.631 4.038
 1.07 -1.632 4.037
 1.095 -1.633 4.033
 1.121 -1.634 4.029
 1.146 -1.634 4.022
 1.172 -1.635 4.018
 1.198 -1.636 4.015
 1.223 -1.636 4.008
 1.248 -1.637 4.003
 1.273 -1.637 3.995
 1.299 -1.638 3.99
 1.324 -1.638 3.981
 1.349 -1.638 3.973
 1.374 -1.638 3.965
 1.399 -1.638 3.958
 1.423 -1.637 3.947
 1.448 -1.637 3.939
 1.474 -1.637 3.931
 1.499 -1.637 3.922
 1.524 -1.638 3.914
 1.549 -1.638 3.905
 1.575 -1.638 3.897
 1.601 -1.639 3.89
 1.624 -1.638 3.878
 1.649 -1.638 3.868
 1.674 -1.638 3.858
 1.698 -1.637 3.845
 1.721 -1.635 3.83
 1.747 -1.635 3.821
 1.77 -1.634 3.808
 1.794 -1.633 3.794
 1.816 -1.63 3.777
 1.835 -1.625 3.755
 1.85 -1.617 3.724
 1.863 -1.606 3.689
 1.867 -1.589 3.637
 1.871 -1.572 3.587
 1.874 -1.555 3.536
 1.877 -1.538 3.486
 1.877 -1.519 3.432
 1.875 -1.499 3.376
 1.862 -1.471 3.3
 1.851 -1.445 3.231
 1.842 -1.421 3.165
 1.838 -1.402 3.111
 1.837 -1.385 3.063
 1.829 -1.363 3.002
 1.815 -1.338 2.936
 -2.17 -1.592 3.644
 -2.21 -1.64 3.767
 -2.169 -1.629 3.754
 -2.145 -1.63 3.769
 -2.119 -1.631 3.783
 -2.093 -1.63 3.794
 -2.068 -1.631 3.807
 -2.043 -1.632 3.821
 -2.016 -1.631 3.831
 -1.991 -1.632 3.844
 -1.965 -1.632 3.856
 -1.937 -1.63 3.863
 -1.912 -1.631 3.874
 -1.888 -1.632 3.889
 -1.862 -1.632 3.899
 -1.835 -1.631 3.908
 -1.811 -1.633 3.922
 -1.784 -1.632 3.929
 -1.754 -1.628 3.93
 -1.727 -1.626 3.936
 -1.7 -1.626 3.944
 -1.672 -1.624 3.948
 -1.646 -1.623 3.955
 -1.621 -1.624 3.968
 -1.596 -1.625 3.979
 -1.57 -1.624 3.986
 -1.544 -1.624 3.994
 -1.518 -1.624 4.002
 -1.491 -1.623 4.007
 -1.466 -1.623 4.015
 -1.44 -1.623 4.022
 -1.414 -1.623 4.03
 -1.388 -1.622 4.036
 -1.363 -1.623 4.045
 -1.337 -1.623 4.051
 -1.311 -1.622 4.057
 -1.284 -1.62 4.059
 -1.259 -1.621 4.069
 -1.233 -1.621 4.075
 -1.206 -1.619 4.076
 -1.18 -1.619 4.081
 -1.156 -1.62 4.09
 -1.129 -1.618 4.091
 -1.102 -1.617 4.094
 -1.078 -1.618 4.102
 -1.053 -1.619 4.11
 -1.027 -1.618 4.113
 -1.001 -1.618 4.119
 -0.975 -1.617 4.12
 -0.949 -1.616 4.122
 -0.922 -1.614 4.123
 -0.897 -1.615 4.13
 -0.872 -1.615 4.134
 -0.847 -1.616 4.141
 -0.821 -1.616 4.144
 -0.796 -1.615 4.146
 -0.769 -1.613 4.144
 -0.743 -1.611 4.143
 -0.717 -1.61 4.144
 -0.692 -1.61 4.148
 -0.667 -1.611 4.153
 -0.641 -1.611 4.156
 -0.616 -1.612 4.163
 -0.591 -1.613 4.168
 -0.566 -1.613 4.17
 -0.54 -1.613 4.171
 -0.515 -1.613 4.175
 -0.49 -1.613 4.177
 -0.464 -1.612 4.176
 -0.438 -1.611 4.174
 -0.413 -1.612 4.18
 -0.388 -1.611 4.179
 -0.362 -1.61 4.179
 -0.337 -1.611 4.182
 -0.312 -1.611 4.184
 -0.287 -1.611 4.184
 -0.261 -1.611 4.185
 -0.236 -1.61 4.184
 -0.211 -1.609 4.183
 -0.185 -1.61 4.186
 -0.16 -1.609 4.183
 -0.135 -1.608 4.181
 -0.11 -1.61 4.186
 -0.084 -1.61 4.186
 -0.059 -1.609 4.185
 -0.034 -1.609 4.185
 -0.009 -1.611 4.189
 0.016 -1.61 4.187
 0.041 -1.612 4.19
 0.066 -1.612 4.191
 0.091 -1.612 4.19
 0.117 -1.613 4.19
 0.142 -1.611 4.185
 0.167 -1.609 4.179
 0.192 -1.607 4.173
 0.217 -1.607 4.172
 0.242 -1.606 4.168
 0.267 -1.607 4.168
 0.292 -1.607 4.168
 0.318 -1.607 4.166
 0.343 -1.608 4.165
 0.368 -1.608 4.163
 0.393 -1.609 4.164
 0.419 -1.609 4.162
 0.444 -1.61 4.162
 0.469 -1.61 4.157
 0.495 -1.612 4.16
 0.52 -1.612 4.159
 0.545 -1.613 4.157
 0.571 -1.614 4.156
 0.596 -1.613 4.151
 0.621 -1.613 4.148
 0.646 -1.613 4.145
 0.673 -1.616 4.147
 0.698 -1.616 4.144
 0.724 -1.619 4.147
 0.75 -1.619 4.145
 0.776 -1.621 4.143
 0.8 -1.619 4.135
 0.826 -1.62 4.132
 0.852 -1.621 4.129
 0.877 -1.621 4.124
 0.903 -1.622 4.123
 0.929 -1.624 4.122
 0.954 -1.623 4.115
 0.98 -1.624 4.112
 1.005 -1.623 4.104
 1.03 -1.624 4.1
 1.056 -1.624 4.095
 1.082 -1.626 4.093
 1.108 -1.627 4.09
 1.135 -1.629 4.089
 1.16 -1.629 4.081
 1.187 -1.63 4.078
 1.212 -1.631 4.073
 1.238 -1.631 4.065
 1.263 -1.631 4.058
 1.289 -1.631 4.052
 1.315 -1.632 4.046
 1.34 -1.632 4.039
 1.366 -1.633 4.033
 1.391 -1.633 4.025
 1.418 -1.634 4.019
 1.442 -1.633 4.008
 1.468 -1.634 4.002
 1.494 -1.634 3.994
 1.52 -1.635 3.988
 1.545 -1.634 3.976
 1.571 -1.634 3.968
 1.595 -1.634 3.957
 1.621 -1.635 3.95
 1.646 -1.634 3.939
 1.672 -1.634 3.929
 1.697 -1.635 3.92
 1.722 -1.633 3.907
 1.745 -1.632 3.893
 1.77 -1.631 3.881
 1.793 -1.629 3.865
 1.815 -1.626 3.847
 1.835 -1.622 3.827
 1.851 -1.614 3.796
 1.862 -1.602 3.757
 1.872 -1.59 3.716
 1.874 -1.571 3.661
 1.878 -1.554 3.61
 1.882 -1.537 3.56
 1.886 -1.521 3.511
 1.886 -1.503 3.457
 1.881 -1.481 3.396
 1.857 -1.444 3.3
 1.847 -1.419 3.231
 1.838 -1.396 3.167
 1.838 -1.38 3.119
 1.841 -1.366 3.076
 1.856 -1.362 3.056
 1.81 -1.313 2.935
 -2.262 -1.633 3.808
 -2.241 -1.637 3.831
 -2.199 -1.626 3.817
 -2.176 -1.628 3.835
 -2.149 -1.628 3.846
 -2.122 -1.627 3.857
 -2.099 -1.629 3.875
 -2.073 -1.63 3.888
 -2.046 -1.629 3.897
 -2.021 -1.63 3.912
 -1.994 -1.629 3.922
 -1.964 -1.627 3.926
 -1.937 -1.626 3.935
 -1.911 -1.626 3.947
 -1.884 -1.625 3.955
 -1.858 -1.626 3.967
 -1.833 -1.626 3.979
 -1.806 -1.626 3.987
 -1.777 -1.623 3.991
 -1.748 -1.621 3.996
 -1.722 -1.621 4.004
 -1.695 -1.62 4.012
 -1.668 -1.619 4.019
 -1.642 -1.619 4.029
 -1.617 -1.62 4.041
 -1.591 -1.62 4.048
 -1.565 -1.62 4.057
 -1.538 -1.62 4.065
 -1.512 -1.619 4.071
 -1.485 -1.618 4.076
 -1.457 -1.616 4.08
 -1.43 -1.615 4.084
 -1.403 -1.614 4.09
 -1.378 -1.616 4.1
 -1.353 -1.616 4.109
 -1.327 -1.617 4.117
 -1.3 -1.615 4.12
 -1.275 -1.616 4.129
 -1.248 -1.614 4.132
 -1.22 -1.612 4.131
 -1.193 -1.61 4.133
 -1.168 -1.611 4.143
 -1.14 -1.608 4.141
 -1.114 -1.609 4.147
 -1.089 -1.61 4.157
 -1.065 -1.612 4.167
 -1.038 -1.61 4.168
 -1.012 -1.611 4.174
 -0.985 -1.608 4.172
 -0.958 -1.606 4.173
 -0.931 -1.604 4.172
 -0.906 -1.605 4.178
 -0.88 -1.604 4.181
 -0.855 -1.605 4.188
 -0.829 -1.605 4.191
 -0.803 -1.604 4.193
 -0.776 -1.602 4.19
 -0.749 -1.6 4.188
 -0.723 -1.598 4.188
 -0.697 -1.598 4.191
 -0.672 -1.598 4.195
 -0.647 -1.599 4.2
 -0.621 -1.6 4.205
 -0.596 -1.6 4.209
 -0.57 -1.6 4.21
 -0.544 -1.599 4.21
 -0.519 -1.599 4.213
 -0.493 -1.6 4.217
 -0.468 -1.599 4.217
 -0.442 -1.598 4.216
 -0.416 -1.598 4.218
 -0.39 -1.597 4.216
 -0.365 -1.596 4.216
 -0.339 -1.596 4.217
 -0.314 -1.596 4.219
 -0.288 -1.595 4.219
 -0.263 -1.596 4.221
 -0.237 -1.595 4.22
 -0.212 -1.595 4.22
 -0.187 -1.597 4.225
 -0.161 -1.595 4.222
 -0.135 -1.594 4.219
 -0.11 -1.594 4.221
 -0.085 -1.594 4.219
 -0.059 -1.593 4.217
 -0.034 -1.593 4.217
 -0.009 -1.594 4.219
 0.016 -1.594 4.219
 0.041 -1.596 4.223
 0.067 -1.595 4.222
 0.092 -1.596 4.224
 0.118 -1.597 4.224
 0.143 -1.596 4.221
 0.168 -1.594 4.215
 0.193 -1.594 4.212
 0.219 -1.594 4.212
 0.244 -1.593 4.207
 0.269 -1.592 4.204
 0.295 -1.593 4.204
 0.32 -1.594 4.204
 0.345 -1.594 4.203
 0.371 -1.595 4.203
 0.397 -1.597 4.206
 0.422 -1.596 4.203
 0.448 -1.597 4.202
 0.473 -1.597 4.198
 0.499 -1.599 4.202
 0.524 -1.6 4.2
 0.55 -1.601 4.2
 0.576 -1.601 4.199
 0.601 -1.6 4.193
 0.626 -1.601 4.19
 0.652 -1.601 4.187
 0.678 -1.602 4.187
 0.703 -1.603 4.183
 0.73 -1.605 4.185
 0.755 -1.605 4.182
 0.781 -1.606 4.18
 0.806 -1.606 4.174
 0.833 -1.607 4.174
 0.859 -1.609 4.173
 0.884 -1.608 4.167
 0.911 -1.61 4.166
 0.937 -1.611 4.164
 0.962 -1.61 4.156
 0.988 -1.611 4.153
 1.014 -1.612 4.149
 1.04 -1.613 4.146
 1.066 -1.614 4.142
 1.093 -1.617 4.144
 1.12 -1.618 4.141
 1.147 -1.62 4.139
 1.172 -1.619 4.13
 1.199 -1.621 4.128
 1.224 -1.621 4.121
 1.25 -1.621 4.115
 1.276 -1.622 4.109
 1.303 -1.624 4.107
 1.33 -1.625 4.103
 1.357 -1.626 4.097
 1.383 -1.627 4.092
 1.409 -1.628 4.085
 1.436 -1.628 4.079
 1.46 -1.627 4.068
 1.488 -1.629 4.063
 1.514 -1.629 4.056
 1.541 -1.631 4.05
 1.566 -1.63 4.039
 1.592 -1.631 4.032
 1.616 -1.629 4.018
 1.642 -1.629 4.009
 1.667 -1.629 3.998
 1.693 -1.629 3.989
 1.72 -1.63 3.98
 1.744 -1.629 3.968
 1.768 -1.627 3.954
 1.791 -1.625 3.938
 1.813 -1.622 3.918
 1.832 -1.615 3.892
 1.85 -1.609 3.866
 1.861 -1.597 3.826
 1.869 -1.583 3.78
 1.877 -1.568 3.734
 1.88 -1.551 3.682
 1.884 -1.534 3.63
 1.89 -1.52 3.585
 1.894 -1.504 3.536
 1.892 -1.484 3.477
 1.887 -1.462 3.414
 1.846 -1.413 3.289
 1.833 -1.386 3.214
 1.828 -1.367 3.158
 1.834 -1.355 3.119
 1.84 -1.344 3.084
 1.84 -1.329 3.036
 1.836 -1.311 2.985
 -2.269 -1.612 3.83
 -2.239 -1.61 3.838
 -2.23 -1.622 3.881
 -2.207 -1.625 3.9
 -2.179 -1.624 3.911
 -2.152 -1.624 3.922
 -2.128 -1.625 3.939
 -2.101 -1.625 3.951
 -2.073 -1.624 3.959
 -2.048 -1.625 3.974
 -2.02 -1.625 3.984
 -1.99 -1.622 3.988
 -1.962 -1.621 3.997
 -1.937 -1.621 4.01
 -1.909 -1.621 4.019
 -1.883 -1.621 4.031
 -1.859 -1.623 4.046
 -1.832 -1.623 4.055
 -1.803 -1.621 4.06
 -1.774 -1.619 4.065
 -1.747 -1.618 4.072
 -1.718 -1.616 4.077
 -1.691 -1.615 4.085
 -1.664 -1.615 4.093
 -1.639 -1.616 4.104
 -1.611 -1.615 4.111
 -1.585 -1.615 4.12
 -1.559 -1.615 4.129
 -1.531 -1.614 4.134
 -1.504 -1.613 4.139
 -1.475 -1.611 4.141
 -1.448 -1.609 4.145
 -1.421 -1.609 4.151
 -1.396 -1.61 4.162
 -1.37 -1.61 4.169
 -1.344 -1.611 4.178
 -1.316 -1.609 4.181
 -1.29 -1.609 4.187
 -1.261 -1.606 4.186
 -1.233 -1.603 4.185
 -1.205 -1.601 4.186
 -1.179 -1.601 4.192
 -1.151 -1.598 4.19
 -1.125 -1.598 4.197
 -1.099 -1.599 4.204
 -1.074 -1.6 4.212
 -1.047 -1.599 4.214
 -1.021 -1.598 4.219
 -0.993 -1.596 4.218
 -0.967 -1.595 4.219
 -0.939 -1.593 4.218
 -0.913 -1.593 4.222
 -0.887 -1.592 4.224
 -0.861 -1.591 4.228
 -0.834 -1.59 4.229
 -0.808 -1.59 4.232
 -0.781 -1.587 4.227
 -0.754 -1.585 4.225
 -0.728 -1.583 4.225
 -0.702 -1.582 4.226
 -0.676 -1.582 4.229
 -0.651 -1.584 4.235
 -0.625 -1.584 4.24
 -0.599 -1.584 4.241
 -0.573 -1.583 4.242
 -0.547 -1.581 4.24
 -0.521 -1.581 4.241
 -0.495 -1.581 4.244
 -0.47 -1.581 4.245
 -0.444 -1.58 4.246
 -0.418 -1.581 4.248
 -0.392 -1.579 4.247
 -0.366 -1.578 4.244
 -0.341 -1.577 4.245
 -0.315 -1.577 4.246
 -0.289 -1.577 4.245
 -0.264 -1.576 4.246
 -0.238 -1.576 4.246
 -0.213 -1.576 4.247
 -0.187 -1.577 4.25
 -0.162 -1.576 4.247
 -0.136 -1.575 4.245
 -0.11 -1.574 4.243
 -0.085 -1.573 4.24
 -0.059 -1.571 4.236
 -0.034 -1.571 4.236
 -0.008 -1.572 4.238
 0.016 -1.574 4.241
 0.042 -1.575 4.244
 0.067 -1.576 4.246
 0.093 -1.576 4.247
 0.118 -1.576 4.246
 0.144 -1.576 4.245
 0.169 -1.575 4.24
 0.194 -1.574 4.237
 0.22 -1.575 4.238
 0.245 -1.574 4.234
 0.271 -1.574 4.231
 0.296 -1.574 4.231
 0.322 -1.575 4.231
 0.347 -1.576 4.23
 0.373 -1.576 4.229
 0.398 -1.577 4.231
 0.424 -1.578 4.23
 0.45 -1.579 4.229
 0.475 -1.578 4.226
 0.501 -1.58 4.228
 0.527 -1.581 4.227
 0.553 -1.582 4.226
 0.578 -1.582 4.224
 0.604 -1.582 4.219
 0.63 -1.583 4.219
 0.655 -1.584 4.217
 0.681 -1.585 4.216
 0.707 -1.585 4.214
 0.734 -1.587 4.214
 0.759 -1.587 4.21
 0.785 -1.587 4.206
 0.811 -1.588 4.204
 0.837 -1.59 4.205
 0.864 -1.591 4.204
 0.89 -1.592 4.201
 0.917 -1.594 4.201
 0.943 -1.595 4.199
 0.968 -1.595 4.192
 0.994 -1.596 4.188
 1.02 -1.596 4.185
 1.047 -1.598 4.184
 1.074 -1.6 4.182
 1.102 -1.603 4.184
 1.129 -1.605 4.183
 1.156 -1.607 4.181
 1.181 -1.606 4.173
 1.208 -1.607 4.17
 1.234 -1.608 4.164
 1.261 -1.608 4.158
 1.287 -1.609 4.152
 1.315 -1.611 4.15
 1.341 -1.612 4.145
 1.368 -1.613 4.141
 1.396 -1.616 4.138
 1.423 -1.617 4.133
 1.449 -1.617 4.126
 1.475 -1.617 4.118
 1.503 -1.62 4.115
 1.53 -1.62 4.107
 1.557 -1.622 4.102
 1.584 -1.623 4.096
 1.611 -1.624 4.089
 1.636 -1.622 4.076
 1.663 -1.623 4.068
 1.689 -1.623 4.058
 1.713 -1.622 4.046
 1.74 -1.622 4.036
 1.764 -1.621 4.022
 1.787 -1.619 4.006
 1.81 -1.616 3.987
 1.83 -1.61 3.963
 1.846 -1.602 3.932
 1.861 -1.593 3.898
 1.869 -1.578 3.851
 1.875 -1.562 3.802
 1.882 -1.548 3.755
 1.885 -1.53 3.7
 1.888 -1.513 3.647
 1.895 -1.5 3.603
 1.903 -1.487 3.561
 1.905 -1.47 3.509
 1.919 -1.463 3.48
 1.839 -1.386 3.284
 1.822 -1.356 3.204
 1.825 -1.343 3.16
 1.836 -1.335 3.131
 1.844 -1.325 3.097
 1.85 -1.315 3.061
 1.852 -1.302 3.019
 -2.311 -1.615 3.912
 -2.286 -1.616 3.928
 -2.264 -1.62 3.949
 -2.238 -1.62 3.964
 -2.21 -1.62 3.977
 -2.183 -1.62 3.988
 -2.157 -1.621 4.003
 -2.13 -1.621 4.015
 -2.102 -1.62 4.025
 -2.076 -1.621 4.038
 -2.048 -1.62 4.049
 -2.018 -1.618 4.054
 -1.99 -1.617 4.064
 -1.963 -1.617 4.074
 -1.935 -1.616 4.082
 -1.908 -1.616 4.093
 -1.881 -1.616 4.105
 -1.854 -1.616 4.115
 -1.826 -1.615 4.123
 -1.797 -1.612 4.126
 -1.77 -1.612 4.135
 -1.742 -1.612 4.144
 -1.714 -1.61 4.149
 -1.686 -1.609 4.156
 -1.659 -1.609 4.165
 -1.631 -1.608 4.17
 -1.602 -1.606 4.173
 -1.575 -1.606 4.182
 -1.547 -1.603 4.184
 -1.519 -1.603 4.19
 -1.49 -1.6 4.192
 -1.462 -1.599 4.196
 -1.435 -1.598 4.201
 -1.409 -1.598 4.21
 -1.381 -1.597 4.215
 -1.355 -1.597 4.222
 -1.328 -1.597 4.226
 -1.3 -1.596 4.231
 -1.272 -1.593 4.232
 -1.244 -1.591 4.232
 -1.216 -1.589 4.232
 -1.189 -1.588 4.235
 -1.16 -1.584 4.232
 -1.133 -1.584 4.237
 -1.107 -1.584 4.243
 -1.081 -1.584 4.249
 -1.054 -1.582 4.249
 -1.027 -1.582 4.253
 -0.999 -1.579 4.251
 -0.972 -1.577 4.251
 -0.944 -1.575 4.25
 -0.919 -1.576 4.255
 -0.892 -1.575 4.258
 -0.866 -1.575 4.261
 -0.839 -1.573 4.26
 -0.812 -1.572 4.262
 -0.785 -1.569 4.258
 -0.758 -1.567 4.255
 -0.731 -1.566 4.256
 -0.705 -1.565 4.256
 -0.679 -1.564 4.256
 -0.653 -1.564 4.261
 -0.627 -1.564 4.262
 -0.601 -1.563 4.263
 -0.575 -1.562 4.263
 -0.548 -1.561 4.262
 -0.522 -1.56 4.261
 -0.497 -1.56 4.265
 -0.471 -1.559 4.264
 -0.445 -1.559 4.267
 -0.419 -1.559 4.268
 -0.393 -1.558 4.266
 -0.367 -1.556 4.263
 -0.341 -1.556 4.265
 -0.316 -1.556 4.265
 -0.29 -1.555 4.264
 -0.264 -1.555 4.266
 -0.239 -1.555 4.266
 -0.213 -1.554 4.265
 -0.187 -1.554 4.265
 -0.162 -1.553 4.262
 -0.136 -1.552 4.26
 -0.11 -1.551 4.259
 -0.085 -1.551 4.256
 -0.059 -1.55 4.254
 -0.034 -1.551 4.256
 -0.008 -1.551 4.258
 0.016 -1.552 4.26
 0.042 -1.553 4.263
 0.067 -1.553 4.262
 0.093 -1.553 4.26
 0.118 -1.552 4.258
 0.144 -1.552 4.257
 0.169 -1.551 4.251
 0.195 -1.55 4.249
 0.22 -1.551 4.25
 0.246 -1.551 4.249
 0.271 -1.551 4.247
 0.297 -1.552 4.247
 0.323 -1.553 4.248
 0.348 -1.553 4.247
 0.374 -1.554 4.246
 0.399 -1.555 4.246
 0.425 -1.556 4.246
 0.451 -1.556 4.245
 0.477 -1.557 4.245
 0.503 -1.559 4.247
 0.529 -1.56 4.247
 0.554 -1.56 4.245
 0.58 -1.561 4.244
 0.606 -1.561 4.24
 0.632 -1.562 4.24
 0.658 -1.563 4.238
 0.684 -1.564 4.238
 0.71 -1.565 4.235
 0.736 -1.566 4.234
 0.762 -1.566 4.231
 0.787 -1.566 4.228
 0.814 -1.568 4.227
 0.84 -1.569 4.227
 0.867 -1.571 4.226
 0.893 -1.571 4.223
 0.92 -1.574 4.223
 0.946 -1.575 4.221
 0.972 -1.575 4.218
 0.999 -1.577 4.216
 1.026 -1.579 4.215
 1.053 -1.58 4.213
 1.08 -1.582 4.212
 1.107 -1.585 4.213
 1.135 -1.587 4.214
 1.163 -1.589 4.212
 1.189 -1.589 4.206
 1.216 -1.591 4.203
 1.242 -1.592 4.198
 1.268 -1.592 4.191
 1.294 -1.592 4.184
 1.322 -1.594 4.182
 1.349 -1.595 4.178
 1.377 -1.597 4.174
 1.405 -1.599 4.173
 1.433 -1.601 4.17
 1.46 -1.603 4.166
 1.486 -1.603 4.157
 1.514 -1.605 4.153
 1.541 -1.606 4.147
 1.569 -1.608 4.143
 1.597 -1.609 4.137
 1.625 -1.611 4.133
 1.651 -1.611 4.122
 1.678 -1.612 4.115
 1.704 -1.612 4.105
 1.73 -1.611 4.094
 1.756 -1.611 4.083
 1.781 -1.61 4.07
 1.804 -1.607 4.053
 1.826 -1.604 4.032
 1.843 -1.596 4.002
 1.858 -1.587 3.968
 1.871 -1.575 3.928
 1.88 -1.561 3.882
 1.886 -1.546 3.832
 1.892 -1.53 3.782
 1.895 -1.513 3.727
 1.895 -1.494 3.67
 1.904 -1.482 3.628
 1.916 -1.473 3.594
 0 0 0
 0 0 0
 0 0 0
 1.807 -1.323 3.184
 1.823 -1.32 3.165
 1.833 -1.312 3.134
 1.843 -1.303 3.103
 1.846 -1.29 3.061
 1.834 -1.268 2.997
 -2.358 -1.621 4.002
 -2.324 -1.616 4.004
 -2.294 -1.614 4.012
 -2.267 -1.615 4.027
 -2.239 -1.614 4.038
 -2.21 -1.613 4.048
 -2.185 -1.614 4.064
 -2.157 -1.614 4.076
 -2.128 -1.613 4.086
 -2.102 -1.614 4.099
 -2.073 -1.613 4.108
 -2.041 -1.609 4.111
 -2.013 -1.608 4.12
 -1.984 -1.607 4.128
 -1.957 -1.607 4.139
 -1.93 -1.607 4.151
 -1.903 -1.607 4.162
 -1.876 -1.608 4.173
 -1.849 -1.608 4.183
 -1.818 -1.605 4.185
 -1.79 -1.604 4.193
 -1.763 -1.604 4.202
 -1.733 -1.601 4.205
 -1.704 -1.6 4.21
 -1.677 -1.599 4.219
 -1.647 -1.597 4.222
 -1.617 -1.594 4.223
 -1.59 -1.594 4.231
 -1.561 -1.592 4.234
 -1.533 -1.591 4.239
 -1.504 -1.589 4.241
 -1.475 -1.586 4.242
 -1.447 -1.584 4.245
 -1.419 -1.584 4.251
 -1.39 -1.581 4.252
 -1.363 -1.58 4.256
 -1.336 -1.58 4.262
 -1.308 -1.578 4.264
 -1.279 -1.575 4.263
 -1.251 -1.573 4.264
 -1.222 -1.57 4.262
 -1.194 -1.568 4.262
 -1.165 -1.566 4.262
 -1.139 -1.566 4.267
 -1.112 -1.564 4.269
 -1.085 -1.564 4.274
 -1.058 -1.563 4.275
 -1.031 -1.562 4.278
 -1.002 -1.559 4.274
 -0.975 -1.557 4.275
 -0.948 -1.556 4.277
 -0.922 -1.557 4.282
 -0.895 -1.554 4.281
 -0.868 -1.553 4.282
 -0.841 -1.551 4.28
 -0.814 -1.549 4.279
 -0.786 -1.546 4.272
 -0.759 -1.544 4.272
 -0.733 -1.543 4.274
 -0.707 -1.543 4.275
 -0.68 -1.541 4.272
 -0.654 -1.541 4.276
 -0.628 -1.54 4.276
 -0.601 -1.538 4.275
 -0.575 -1.537 4.273
 -0.549 -1.536 4.274
 -0.523 -1.535 4.272
 -0.497 -1.535 4.275
 -0.471 -1.534 4.274
 -0.445 -1.534 4.277
 -0.419 -1.534 4.277
 -0.393 -1.532 4.275
 -0.367 -1.531 4.272
 -0.341 -1.531 4.274
 -0.316 -1.53 4.274
 -0.29 -1.53 4.274
 -0.264 -1.53 4.275
 -0.239 -1.529 4.273
 -0.213 -1.528 4.272
 -0.187 -1.527 4.27
 -0.161 -1.526 4.268
 -0.136 -1.526 4.266
 -0.11 -1.526 4.266
 -0.085 -1.525 4.264
 -0.059 -1.525 4.263
 -0.034 -1.525 4.264
 -0.008 -1.525 4.263
 0.016 -1.526 4.265
 0.042 -1.526 4.267
 0.067 -1.526 4.267
 0.093 -1.526 4.266
 0.119 -1.526 4.265
 0.144 -1.527 4.264
 0.169 -1.526 4.261
 0.195 -1.525 4.257
 0.22 -1.525 4.257
 0.246 -1.526 4.256
 0.271 -1.525 4.254
 0.297 -1.526 4.255
 0.323 -1.528 4.257
 0.348 -1.528 4.257
 0.374 -1.529 4.257
 0.4 -1.531 4.258
 0.426 -1.531 4.258
 0.451 -1.531 4.255
 0.477 -1.532 4.255
 0.503 -1.533 4.256
 0.529 -1.534 4.255
 0.555 -1.535 4.254
 0.581 -1.536 4.254
 0.606 -1.536 4.251
 0.632 -1.537 4.25
 0.658 -1.538 4.249
 0.684 -1.539 4.247
 0.71 -1.54 4.246
 0.736 -1.54 4.244
 0.762 -1.541 4.242
 0.788 -1.541 4.238
 0.814 -1.543 4.238
 0.841 -1.545 4.239
 0.867 -1.546 4.237
 0.894 -1.547 4.235
 0.921 -1.55 4.237
 0.948 -1.551 4.235
 0.974 -1.551 4.231
 1.001 -1.554 4.232
 1.028 -1.555 4.231
 1.055 -1.557 4.23
 1.082 -1.559 4.229
 1.11 -1.561 4.229
 1.137 -1.564 4.229
 1.165 -1.566 4.229
 1.191 -1.566 4.223
 1.219 -1.569 4.222
 1.246 -1.57 4.219
 1.273 -1.571 4.214
 1.299 -1.571 4.206
 1.327 -1.573 4.205
 1.354 -1.574 4.201
 1.382 -1.577 4.2
 1.411 -1.58 4.2
 1.44 -1.582 4.199
 1.468 -1.585 4.196
 1.494 -1.585 4.188
 1.522 -1.587 4.185
 1.55 -1.588 4.179
 1.579 -1.59 4.176
 1.607 -1.592 4.171
 1.636 -1.595 4.169
 1.663 -1.595 4.161
 1.689 -1.596 4.152
 1.717 -1.596 4.144
 1.743 -1.597 4.134
 1.769 -1.596 4.122
 1.794 -1.595 4.108
 1.817 -1.591 4.089
 1.837 -1.586 4.064
 1.852 -1.577 4.029
 1.865 -1.566 3.99
 1.875 -1.553 3.947
 1.885 -1.54 3.902
 1.893 -1.526 3.855
 1.9 -1.511 3.806
 1.905 -1.496 3.756
 1.905 -1.477 3.696
 1.912 -1.464 3.653
 0 0 0
 0 0 0
 0 0 0
 0 0 0
 1.805 -1.3 3.189
 1.823 -1.298 3.172
 1.835 -1.291 3.144
 1.843 -1.282 3.112
 1.853 -1.275 3.082
 1.836 -1.248 3.006
 -2.395 -1.618 4.073
 -2.366 -1.617 4.086
 -2.325 -1.608 4.077
 -2.296 -1.608 4.088
 -2.267 -1.606 4.098
 -2.24 -1.607 4.112
 -2.213 -1.608 4.127
 -2.186 -1.608 4.141
 -2.157 -1.608 4.152
 -2.128 -1.606 4.16
 -2.099 -1.605 4.17
 -2.067 -1.602 4.172
 -2.037 -1.6 4.179
 -2.009 -1.6 4.189
 -1.981 -1.6 4.201
 -1.952 -1.598 4.207
 -1.923 -1.597 4.216
 -1.895 -1.597 4.225
 -1.866 -1.595 4.231
 -1.835 -1.593 4.235
 -1.807 -1.592 4.242
 -1.779 -1.591 4.251
 -1.749 -1.589 4.254
 -1.72 -1.587 4.259
 -1.69 -1.585 4.263
 -1.66 -1.582 4.263
 -1.629 -1.579 4.264
 -1.602 -1.579 4.271
 -1.572 -1.576 4.271
 -1.543 -1.574 4.276
 -1.514 -1.573 4.279
 -1.484 -1.57 4.279
 -1.454 -1.566 4.277
 -1.426 -1.565 4.281
 -1.396 -1.562 4.279
 -1.368 -1.559 4.281
 -1.34 -1.559 4.285
 -1.312 -1.557 4.287
 -1.283 -1.554 4.287
 -1.255 -1.552 4.287
 -1.226 -1.55 4.287
 -1.198 -1.547 4.286
 -1.169 -1.545 4.285
 -1.142 -1.544 4.288
 -1.114 -1.542 4.289
 -1.087 -1.541 4.292
 -1.06 -1.539 4.292
 -1.032 -1.538 4.293
 -1.004 -1.535 4.29
 -0.977 -1.533 4.289
 -0.949 -1.532 4.29
 -0.923 -1.531 4.292
 -0.895 -1.529 4.29
 -0.868 -1.527 4.29
 -0.841 -1.525 4.289
 -0.814 -1.524 4.289
 -0.786 -1.521 4.284
 -0.76 -1.52 4.284
 -0.734 -1.519 4.286
 -0.707 -1.518 4.285
 -0.68 -1.515 4.281
 -0.654 -1.515 4.285
 -0.628 -1.514 4.285
 -0.601 -1.512 4.282
 -0.575 -1.511 4.281
 -0.549 -1.511 4.283
 -0.523 -1.51 4.282
 -0.497 -1.509 4.283
 -0.471 -1.509 4.284
 -0.445 -1.509 4.286
 -0.419 -1.508 4.284
 -0.393 -1.506 4.281
 -0.367 -1.505 4.278
 -0.341 -1.504 4.278
 -0.315 -1.504 4.279
 -0.29 -1.503 4.279
 -0.264 -1.503 4.28
 -0.238 -1.502 4.278
 -0.213 -1.502 4.277
 -0.187 -1.501 4.275
 -0.161 -1.501 4.275
 -0.136 -1.501 4.275
 -0.11 -1.5 4.275
 -0.085 -1.499 4.272
 -0.059 -1.499 4.271
 -0.033 -1.499 4.27
 -0.008 -1.498 4.268
 0.017 -1.499 4.269
 0.042 -1.499 4.27
 0.068 -1.5 4.271
 0.093 -1.5 4.272
 0.119 -1.501 4.272
 0.144 -1.501 4.272
 0.17 -1.5 4.268
 0.195 -1.5 4.266
 0.22 -1.499 4.263
 0.246 -1.499 4.261
 0.271 -1.499 4.259
 0.297 -1.5 4.26
 0.323 -1.501 4.26
 0.348 -1.501 4.259
 0.374 -1.502 4.26
 0.4 -1.503 4.261
 0.425 -1.504 4.262
 0.451 -1.505 4.261
 0.477 -1.506 4.263
 0.503 -1.508 4.264
 0.529 -1.508 4.262
 0.554 -1.508 4.259
 0.58 -1.508 4.255
 0.606 -1.508 4.253
 0.631 -1.509 4.251
 0.657 -1.509 4.248
 0.683 -1.51 4.248
 0.71 -1.513 4.251
 0.736 -1.513 4.248
 0.762 -1.514 4.247
 0.788 -1.516 4.247
 0.815 -1.517 4.247
 0.841 -1.519 4.245
 0.868 -1.52 4.245
 0.894 -1.521 4.243
 0.921 -1.523 4.242
 0.947 -1.524 4.239
 0.974 -1.525 4.239
 1.001 -1.527 4.239
 1.028 -1.53 4.241
 1.055 -1.531 4.239
 1.082 -1.533 4.238
 1.11 -1.535 4.237
 1.138 -1.538 4.238
 1.165 -1.54 4.237
 1.192 -1.541 4.233
 1.22 -1.543 4.233
 1.247 -1.545 4.23
 1.274 -1.546 4.226
 1.301 -1.546 4.221
 1.329 -1.549 4.221
 1.357 -1.551 4.219
 1.386 -1.554 4.218
 1.415 -1.557 4.219
 1.444 -1.56 4.219
 1.472 -1.563 4.217
 1.499 -1.563 4.21
 1.527 -1.565 4.207
 1.555 -1.566 4.201
 1.583 -1.568 4.196
 1.612 -1.57 4.192
 1.641 -1.573 4.191
 1.669 -1.575 4.186
 1.697 -1.576 4.179
 1.725 -1.577 4.172
 1.752 -1.578 4.164
 1.778 -1.577 4.151
 1.802 -1.575 4.136
 1.825 -1.572 4.116
 1.844 -1.565 4.089
 1.859 -1.556 4.054
 1.872 -1.545 4.014
 1.883 -1.533 3.971
 1.893 -1.521 3.927
 1.905 -1.51 3.887
 1.911 -1.495 3.838
 1.919 -1.481 3.791
 1.916 -1.46 3.726
 0 0 0
 0 0 0
 0 0 0
 0 0 0
 0 0 0
 1.802 -1.276 3.19
 1.82 -1.274 3.174
 1.833 -1.268 3.148
 1.84 -1.259 3.114
 1.842 -1.245 3.07
 1.85 -1.237 3.038
 -2.399 -1.593 4.09
 -2.401 -1.613 4.157
 -2.357 -1.603 4.143
 -2.328 -1.602 4.156
 -2.299 -1.601 4.166
 -2.273 -1.603 4.183
 -2.242 -1.601 4.191
 -2.213 -1.6 4.202
 -2.181 -1.598 4.208
 -2.15 -1.595 4.213
 -2.119 -1.593 4.22
 -2.087 -1.59 4.222
 -2.057 -1.588 4.23
 -2.029 -1.588 4.241
 -2 -1.587 4.25
 -1.969 -1.584 4.253
 -1.939 -1.583 4.261
 -1.91 -1.582 4.268
 -1.879 -1.579 4.271
 -1.848 -1.577 4.275
 -1.819 -1.575 4.28
 -1.79 -1.574 4.286
 -1.758 -1.57 4.286
 -1.729 -1.568 4.29
 -1.698 -1.566 4.292
 -1.667 -1.562 4.291
 -1.636 -1.558 4.29
 -1.608 -1.557 4.296
 -1.577 -1.554 4.295
 -1.548 -1.552 4.298
 -1.519 -1.55 4.301
 -1.489 -1.547 4.301
 -1.459 -1.544 4.3
 -1.43 -1.542 4.301
 -1.4 -1.539 4.299
 -1.37 -1.535 4.297
 -1.342 -1.534 4.3
 -1.313 -1.532 4.299
 -1.284 -1.529 4.299
 -1.256 -1.527 4.3
 -1.228 -1.525 4.301
 -1.199 -1.522 4.298
 -1.171 -1.52 4.298
 -1.143 -1.518 4.299
 -1.114 -1.516 4.297
 -1.087 -1.515 4.299
 -1.059 -1.513 4.3
 -1.032 -1.511 4.299
 -1.004 -1.508 4.297
 -0.976 -1.507 4.297
 -0.949 -1.505 4.297
 -0.922 -1.505 4.3
 -0.895 -1.503 4.299
 -0.868 -1.501 4.299
 -0.841 -1.499 4.297
 -0.814 -1.498 4.297
 -0.786 -1.495 4.293
 -0.76 -1.494 4.292
 -0.733 -1.492 4.292
 -0.707 -1.491 4.291
 -0.679 -1.489 4.287
 -0.653 -1.488 4.289
 -0.627 -1.487 4.29
 -0.601 -1.486 4.288
 -0.575 -1.485 4.288
 -0.549 -1.485 4.289
 -0.522 -1.483 4.288
 -0.496 -1.483 4.288
 -0.47 -1.482 4.289
 -0.445 -1.482 4.29
 -0.419 -1.481 4.288
 -0.393 -1.48 4.287
 -0.367 -1.478 4.284
 -0.341 -1.477 4.283
 -0.315 -1.477 4.284
 -0.289 -1.477 4.284
 -0.264 -1.476 4.282
 -0.238 -1.475 4.281
 -0.212 -1.475 4.281
 -0.186 -1.474 4.278
 -0.161 -1.473 4.277
 -0.135 -1.474 4.278
 -0.11 -1.474 4.279
 -0.084 -1.473 4.278
 -0.059 -1.473 4.277
 -0.033 -1.473 4.278
 -0.008 -1.473 4.276
 0.017 -1.472 4.274
 0.042 -1.472 4.272
 0.068 -1.472 4.272
 0.093 -1.472 4.271
 0.119 -1.472 4.27
 0.144 -1.472 4.271
 0.17 -1.472 4.269
 0.195 -1.472 4.267
 0.22 -1.472 4.266
 0.246 -1.473 4.267
 0.271 -1.473 4.265
 0.297 -1.474 4.266
 0.323 -1.474 4.266
 0.348 -1.474 4.263
 0.373 -1.474 4.261
 0.399 -1.475 4.262
 0.425 -1.476 4.262
 0.451 -1.477 4.262
 0.477 -1.478 4.264
 0.502 -1.479 4.263
 0.528 -1.48 4.262
 0.554 -1.48 4.26
 0.579 -1.48 4.256
 0.605 -1.481 4.256
 0.631 -1.482 4.256
 0.657 -1.483 4.255
 0.683 -1.484 4.253
 0.71 -1.486 4.256
 0.735 -1.486 4.253
 0.761 -1.487 4.25
 0.787 -1.488 4.248
 0.814 -1.49 4.249
 0.84 -1.491 4.248
 0.867 -1.493 4.249
 0.894 -1.495 4.249
 0.921 -1.497 4.251
 0.948 -1.498 4.249
 0.974 -1.499 4.247
 1.001 -1.501 4.246
 1.028 -1.503 4.245
 1.055 -1.504 4.243
 1.082 -1.506 4.242
 1.109 -1.508 4.242
 1.137 -1.51 4.242
 1.165 -1.513 4.245
 1.192 -1.515 4.242
 1.22 -1.517 4.242
 1.248 -1.519 4.24
 1.275 -1.52 4.236
 1.301 -1.52 4.229
 1.329 -1.523 4.228
 1.357 -1.525 4.226
 1.385 -1.527 4.224
 1.415 -1.53 4.227
 1.443 -1.533 4.225
 1.471 -1.535 4.222
 1.499 -1.536 4.218
 1.528 -1.539 4.216
 1.556 -1.54 4.211
 1.585 -1.543 4.209
 1.614 -1.546 4.208
 1.644 -1.549 4.207
 1.673 -1.551 4.203
 1.702 -1.553 4.199
 1.729 -1.554 4.191
 1.757 -1.555 4.184
 1.783 -1.554 4.171
 1.807 -1.553 4.156
 1.829 -1.549 4.135
 1.849 -1.543 4.108
 1.865 -1.534 4.075
 1.879 -1.525 4.037
 1.89 -1.512 3.994
 1.902 -1.502 3.955
 1.917 -1.493 3.921
 1.931 -1.485 3.887
 1.944 -1.475 3.849
 0 0 0
 0 0 0
 0 0 0
 0 0 0
 0 0 0
 0 0 0
 1.806 -1.257 3.205
 1.822 -1.253 3.185
 1.835 -1.248 3.159
 1.844 -1.24 3.127
 1.878 -1.248 3.138
 1.841 -1.21 3.03
 -2.455 -1.602 4.197
 -2.42 -1.598 4.2
 -2.389 -1.596 4.209
 -2.358 -1.594 4.219
 -2.325 -1.592 4.224
 -2.298 -1.592 4.24
 -2.264 -1.589 4.243
 -2.233 -1.587 4.25
 -2.201 -1.584 4.255
 -2.169 -1.581 4.26
 -2.136 -1.578 4.263
 -2.104 -1.575 4.267
 -2.073 -1.573 4.274
 -2.043 -1.572 4.281
 -2.013 -1.569 4.287
 -1.98 -1.566 4.288
 -1.95 -1.564 4.293
 -1.919 -1.561 4.297
 -1.887 -1.558 4.299
 -1.855 -1.555 4.3
 -1.826 -1.554 4.306
 -1.795 -1.551 4.308
 -1.763 -1.547 4.308
 -1.733 -1.545 4.31
 -1.703 -1.542 4.313
 -1.671 -1.539 4.311
 -1.64 -1.535 4.309
 -1.61 -1.533 4.313
 -1.58 -1.53 4.312
 -1.55 -1.527 4.314
 -1.52 -1.525 4.314
 -1.491 -1.523 4.316
 -1.46 -1.519 4.312
 -1.431 -1.516 4.312
 -1.401 -1.513 4.31
 -1.37 -1.509 4.306
 -1.342 -1.507 4.307
 -1.312 -1.504 4.306
 -1.283 -1.501 4.304
 -1.255 -1.499 4.304
 -1.226 -1.497 4.304
 -1.197 -1.494 4.301
 -1.169 -1.492 4.301
 -1.141 -1.49 4.302
 -1.113 -1.487 4.3
 -1.085 -1.486 4.301
 -1.058 -1.484 4.302
 -1.03 -1.483 4.302
 -1.002 -1.48 4.3
 -0.976 -1.48 4.302
 -0.949 -1.478 4.303
 -0.921 -1.477 4.303
 -0.894 -1.475 4.302
 -0.867 -1.474 4.302
 -0.84 -1.471 4.299
 -0.813 -1.47 4.299
 -0.785 -1.467 4.295
 -0.759 -1.466 4.295
 -0.732 -1.465 4.294
 -0.706 -1.464 4.295
 -0.679 -1.462 4.291
 -0.653 -1.461 4.294
 -0.626 -1.46 4.293
 -0.6 -1.459 4.291
 -0.574 -1.457 4.29
 -0.548 -1.457 4.292
 -0.522 -1.456 4.291
 -0.496 -1.456 4.292
 -0.47 -1.455 4.293
 -0.444 -1.455 4.293
 -0.418 -1.453 4.291
 -0.392 -1.453 4.29
 -0.366 -1.451 4.288
 -0.34 -1.451 4.289
 -0.315 -1.451 4.289
 -0.289 -1.45 4.288
 -0.263 -1.449 4.286
 -0.237 -1.448 4.284
 -0.212 -1.447 4.282
 -0.186 -1.446 4.279
 -0.161 -1.446 4.278
 -0.135 -1.446 4.28
 -0.11 -1.447 4.281
 -0.084 -1.446 4.28
 -0.059 -1.446 4.279
 -0.033 -1.446 4.28
 -0.008 -1.445 4.277
 0.017 -1.444 4.275
 0.042 -1.444 4.274
 0.068 -1.445 4.274
 0.093 -1.445 4.274
 0.119 -1.445 4.274
 0.144 -1.446 4.274
 0.169 -1.445 4.272
 0.195 -1.445 4.271
 0.22 -1.445 4.27
 0.246 -1.445 4.269
 0.271 -1.446 4.267
 0.297 -1.447 4.269
 0.322 -1.447 4.267
 0.348 -1.447 4.265
 0.373 -1.447 4.264
 0.399 -1.448 4.264
 0.425 -1.449 4.264
 0.45 -1.45 4.265
 0.476 -1.452 4.268
 0.502 -1.452 4.266
 0.528 -1.453 4.265
 0.554 -1.454 4.265
 0.579 -1.454 4.263
 0.605 -1.454 4.26
 0.631 -1.456 4.261
 0.657 -1.457 4.261
 0.683 -1.458 4.26
 0.709 -1.459 4.26
 0.735 -1.459 4.257
 0.761 -1.46 4.254
 0.787 -1.461 4.252
 0.813 -1.463 4.253
 0.84 -1.464 4.253
 0.867 -1.466 4.255
 0.893 -1.468 4.254
 0.92 -1.469 4.253
 0.946 -1.47 4.251
 0.973 -1.472 4.25
 1 -1.473 4.248
 1.027 -1.476 4.25
 1.054 -1.477 4.249
 1.081 -1.478 4.246
 1.108 -1.48 4.244
 1.136 -1.482 4.245
 1.164 -1.485 4.247
 1.191 -1.487 4.246
 1.219 -1.489 4.246
 1.247 -1.492 4.245
 1.274 -1.493 4.242
 1.301 -1.494 4.237
 1.328 -1.495 4.234
 1.357 -1.498 4.234
 1.385 -1.5 4.232
 1.414 -1.503 4.232
 1.442 -1.505 4.231
 1.472 -1.508 4.231
 1.499 -1.51 4.226
 1.528 -1.512 4.224
 1.556 -1.514 4.22
 1.584 -1.516 4.216
 1.613 -1.518 4.213
 1.643 -1.521 4.211
 1.671 -1.523 4.208
 1.701 -1.525 4.205
 1.729 -1.527 4.199
 1.758 -1.529 4.194
 1.785 -1.529 4.184
 1.81 -1.528 4.171
 1.832 -1.524 4.15
 1.852 -1.519 4.124
 1.869 -1.511 4.092
 1.884 -1.502 4.057
 1.897 -1.492 4.017
 1.912 -1.484 3.984
 1.925 -1.474 3.946
 1.942 -1.467 3.916
 0 0 0
 0 0 0
 0 0 0
 0 0 0
 0 0 0
 0 0 0
 0 0 0
 1.807 -1.236 3.215
 1.821 -1.231 3.19
 1.835 -1.226 3.167
 1.845 -1.219 3.135
 1.864 -1.218 3.121
 1.828 -1.181 3.015
 -2.461 -1.577 4.217
 -2.445 -1.585 4.253
 -2.412 -1.583 4.26
 -2.38 -1.581 4.268
 -2.346 -1.577 4.272
 -2.319 -1.578 4.288
 -2.284 -1.574 4.289
 -2.252 -1.571 4.295
 -2.217 -1.567 4.297
 -2.184 -1.564 4.3
 -2.15 -1.56 4.3
 -2.117 -1.556 4.302
 -2.084 -1.553 4.305
 -2.052 -1.55 4.31
 -2.021 -1.548 4.313
 -1.987 -1.544 4.313
 -1.956 -1.541 4.316
 -1.924 -1.538 4.317
 -1.891 -1.534 4.317
 -1.859 -1.531 4.318
 -1.828 -1.528 4.32
 -1.796 -1.524 4.319
 -1.764 -1.521 4.319
 -1.733 -1.518 4.32
 -1.702 -1.514 4.32
 -1.671 -1.511 4.32
 -1.64 -1.508 4.319
 -1.611 -1.506 4.322
 -1.58 -1.503 4.322
 -1.55 -1.501 4.323
 -1.521 -1.498 4.323
 -1.491 -1.496 4.324
 -1.46 -1.491 4.32
 -1.43 -1.489 4.319
 -1.401 -1.486 4.319
 -1.37 -1.482 4.314
 -1.341 -1.479 4.313
 -1.311 -1.476 4.31
 -1.282 -1.473 4.308
 -1.252 -1.47 4.305
 -1.224 -1.468 4.304
 -1.195 -1.465 4.302
 -1.167 -1.464 4.304
 -1.14 -1.463 4.307
 -1.112 -1.46 4.305
 -1.085 -1.459 4.306
 -1.057 -1.457 4.307
 -1.03 -1.456 4.308
 -1.001 -1.453 4.304
 -0.975 -1.452 4.306
 -0.947 -1.45 4.305
 -0.92 -1.448 4.303
 -0.892 -1.446 4.301
 -0.866 -1.445 4.303
 -0.838 -1.443 4.301
 -0.812 -1.442 4.301
 -0.785 -1.441 4.3
 -0.759 -1.44 4.302
 -0.732 -1.439 4.301
 -0.706 -1.438 4.302
 -0.679 -1.435 4.298
 -0.653 -1.436 4.301
 -0.626 -1.434 4.299
 -0.599 -1.432 4.296
 -0.573 -1.431 4.295
 -0.547 -1.43 4.296
 -0.521 -1.429 4.294
 -0.495 -1.427 4.292
 -0.469 -1.427 4.294
 -0.443 -1.427 4.294
 -0.417 -1.426 4.293
 -0.391 -1.425 4.292
 -0.366 -1.425 4.293
 -0.34 -1.424 4.292
 -0.314 -1.424 4.292
 -0.289 -1.423 4.29
 -0.263 -1.422 4.287
 -0.237 -1.421 4.285
 -0.211 -1.42 4.283
 -0.186 -1.419 4.28
 -0.16 -1.418 4.28
 -0.135 -1.419 4.282
 -0.109 -1.419 4.281
 -0.084 -1.418 4.281
 -0.058 -1.418 4.28
 -0.033 -1.418 4.279
 -0.007 -1.417 4.277
 0.017 -1.417 4.277
 0.042 -1.417 4.276
 0.068 -1.418 4.279
 0.093 -1.419 4.28
 0.119 -1.42 4.282
 0.144 -1.42 4.281
 0.17 -1.42 4.279
 0.195 -1.418 4.271
 0.22 -1.417 4.268
 0.245 -1.416 4.265
 0.271 -1.417 4.265
 0.296 -1.418 4.267
 0.322 -1.42 4.271
 0.348 -1.42 4.269
 0.373 -1.422 4.272
 0.399 -1.422 4.27
 0.425 -1.422 4.269
 0.45 -1.423 4.268
 0.476 -1.424 4.268
 0.501 -1.423 4.264
 0.527 -1.424 4.264
 0.553 -1.425 4.263
 0.578 -1.426 4.262
 0.604 -1.427 4.263
 0.63 -1.428 4.263
 0.657 -1.43 4.264
 0.682 -1.43 4.261
 0.708 -1.431 4.261
 0.734 -1.431 4.257
 0.76 -1.433 4.256
 0.786 -1.433 4.254
 0.813 -1.435 4.255
 0.839 -1.437 4.256
 0.866 -1.439 4.258
 0.893 -1.44 4.257
 0.919 -1.442 4.256
 0.946 -1.443 4.255
 0.972 -1.444 4.254
 0.999 -1.446 4.251
 1.026 -1.448 4.254
 1.054 -1.45 4.253
 1.08 -1.451 4.251
 1.107 -1.452 4.248
 1.135 -1.455 4.249
 1.162 -1.456 4.247
 1.189 -1.458 4.247
 1.217 -1.461 4.247
 1.245 -1.463 4.246
 1.273 -1.465 4.245
 1.3 -1.467 4.243
 1.328 -1.469 4.241
 1.357 -1.471 4.24
 1.385 -1.473 4.239
 1.414 -1.476 4.239
 1.442 -1.479 4.238
 1.471 -1.481 4.237
 1.499 -1.482 4.232
 1.528 -1.485 4.231
 1.555 -1.486 4.226
 1.583 -1.488 4.222
 1.613 -1.491 4.22
 1.642 -1.493 4.218
 1.671 -1.496 4.215
 1.701 -1.498 4.213
 1.729 -1.5 4.207
 1.758 -1.501 4.201
 1.785 -1.502 4.193
 1.81 -1.501 4.179
 1.834 -1.499 4.162
 1.855 -1.494 4.139
 1.874 -1.488 4.112
 1.889 -1.48 4.076
 1.905 -1.472 4.043
 1.916 -1.461 4.001
 1.93 -1.451 3.964
 0 0 0
 0 0 0
 0 0 0
 0 0 0
 0 0 0
 0 0 0
 0 0 0
 0 0 0
 1.791 -1.203 3.192
 1.815 -1.206 3.187
 1.834 -1.204 3.171
 1.844 -1.197 3.141
 1.866 -1.197 3.131
 1.887 -1.197 3.12
 -2.525 -1.589 4.336
 -2.5 -1.592 4.359
 -2.433 -1.568 4.307
 -2.399 -1.565 4.312
 -2.364 -1.56 4.314
 -2.336 -1.561 4.329
 -2.298 -1.555 4.325
 -2.264 -1.552 4.329
 -2.23 -1.548 4.33
 -2.196 -1.544 4.333
 -2.16 -1.539 4.33
 -2.127 -1.535 4.332
 -2.093 -1.531 4.332
 -2.059 -1.527 4.333
 -2.025 -1.523 4.332
 -1.991 -1.518 4.329
 -1.958 -1.515 4.331
 -1.925 -1.511 4.329
 -1.892 -1.507 4.328
 -1.86 -1.504 4.33
 -1.828 -1.5 4.329
 -1.795 -1.496 4.327
 -1.763 -1.492 4.325
 -1.732 -1.489 4.325
 -1.7 -1.485 4.323
 -1.669 -1.482 4.324
 -1.638 -1.479 4.322
 -1.608 -1.476 4.323
 -1.578 -1.474 4.324
 -1.548 -1.472 4.326
 -1.518 -1.469 4.326
 -1.489 -1.466 4.326
 -1.458 -1.463 4.324
 -1.428 -1.46 4.322
 -1.399 -1.458 4.323
 -1.369 -1.454 4.319
 -1.34 -1.451 4.318
 -1.31 -1.449 4.316
 -1.281 -1.446 4.313
 -1.251 -1.442 4.308
 -1.223 -1.44 4.309
 -1.195 -1.438 4.31
 -1.166 -1.436 4.308
 -1.139 -1.435 4.311
 -1.111 -1.433 4.31
 -1.084 -1.432 4.312
 -1.055 -1.428 4.307
 -1.028 -1.428 4.31
 -1 -1.425 4.306
 -0.974 -1.425 4.31
 -0.946 -1.422 4.306
 -0.919 -1.42 4.306
 -0.891 -1.419 4.305
 -0.865 -1.418 4.308
 -0.838 -1.416 4.306
 -0.811 -1.415 4.306
 -0.785 -1.414 4.307
 -0.758 -1.414 4.309
 -0.732 -1.412 4.307
 -0.705 -1.411 4.307
 -0.678 -1.409 4.305
 -0.653 -1.41 4.309
 -0.626 -1.408 4.307
 -0.599 -1.406 4.304
 -0.573 -1.405 4.303
 -0.547 -1.405 4.303
 -0.521 -1.403 4.302
 -0.495 -1.401 4.298
 -0.469 -1.401 4.299
 -0.443 -1.4 4.299
 -0.417 -1.4 4.299
 -0.391 -1.399 4.296
 -0.365 -1.397 4.294
 -0.339 -1.397 4.293
 -0.314 -1.396 4.292
 -0.288 -1.394 4.289
 -0.262 -1.393 4.286
 -0.237 -1.393 4.287
 -0.211 -1.392 4.284
 -0.185 -1.392 4.283
 -0.16 -1.392 4.283
 -0.134 -1.392 4.285
 -0.109 -1.391 4.283
 -0.084 -1.391 4.283
 -0.058 -1.39 4.28
 -0.033 -1.39 4.28
 -0.007 -1.39 4.278
 0.017 -1.39 4.279
 0.042 -1.391 4.279
 0.068 -1.392 4.283
 0.093 -1.392 4.283
 0.119 -1.393 4.283
 0.144 -1.392 4.281
 0.169 -1.392 4.278
 0.195 -1.39 4.271
 0.22 -1.39 4.269
 0.245 -1.389 4.266
 0.271 -1.39 4.267
 0.296 -1.391 4.27
 0.322 -1.393 4.274
 0.348 -1.394 4.273
 0.373 -1.395 4.275
 0.399 -1.395 4.273
 0.424 -1.396 4.273
 0.45 -1.397 4.273
 0.476 -1.397 4.273
 0.501 -1.397 4.269
 0.527 -1.398 4.27
 0.553 -1.399 4.269
 0.578 -1.4 4.267
 0.604 -1.401 4.268
 0.63 -1.402 4.269
 0.656 -1.403 4.269
 0.682 -1.404 4.267
 0.708 -1.405 4.268
 0.734 -1.405 4.263
 0.76 -1.406 4.262
 0.786 -1.406 4.258
 0.812 -1.409 4.261
 0.839 -1.41 4.26
 0.866 -1.413 4.263
 0.892 -1.414 4.261
 0.919 -1.415 4.261
 0.945 -1.416 4.259
 0.972 -1.418 4.259
 0.998 -1.419 4.256
 1.026 -1.421 4.258
 1.053 -1.423 4.257
 1.079 -1.424 4.254
 1.106 -1.425 4.251
 1.134 -1.427 4.253
 1.161 -1.429 4.252
 1.189 -1.431 4.251
 1.217 -1.434 4.252
 1.244 -1.436 4.251
 1.272 -1.437 4.248
 1.299 -1.439 4.246
 1.327 -1.441 4.244
 1.355 -1.443 4.243
 1.383 -1.445 4.24
 1.412 -1.447 4.24
 1.439 -1.449 4.237
 1.468 -1.452 4.236
 1.496 -1.453 4.232
 1.525 -1.456 4.232
 1.553 -1.457 4.227
 1.581 -1.459 4.224
 1.61 -1.462 4.222
 1.64 -1.465 4.22
 1.668 -1.466 4.216
 1.698 -1.469 4.215
 1.727 -1.471 4.21
 1.755 -1.472 4.204
 1.783 -1.474 4.197
 1.811 -1.474 4.188
 1.835 -1.473 4.174
 1.858 -1.47 4.153
 1.88 -1.466 4.132
 1.898 -1.46 4.104
 1.916 -1.454 4.075
 1.928 -1.443 4.033
 0 0 0
 0 0 0
 0 0 0
 0 0 0
 0 0 0
 0 0 0
 0 0 0
 0 0 0
 0 0 0
 0 0 0
 1.815 -1.184 3.194
 1.832 -1.181 3.175
 1.843 -1.174 3.146
 1.876 -1.182 3.155
 1.858 -1.157 3.077
 -2.538 -1.568 4.37
 -2.469 -1.543 4.314
 -2.445 -1.546 4.338
 -2.409 -1.542 4.34
 -2.373 -1.537 4.34
 -2.342 -1.536 4.35
 -2.304 -1.53 4.346
 -2.268 -1.525 4.345
 -2.233 -1.521 4.345
 -2.2 -1.519 4.35
 -2.164 -1.513 4.347
 -2.13 -1.509 4.348
 -2.097 -1.506 4.35
 -2.061 -1.501 4.346
 -2.025 -1.495 4.34
 -1.991 -1.49 4.338
 -1.958 -1.487 4.339
 -1.923 -1.482 4.335
 -1.892 -1.479 4.336
 -1.859 -1.475 4.336
 -1.826 -1.471 4.333
 -1.793 -1.467 4.33
 -1.761 -1.463 4.329
 -1.728 -1.459 4.326
 -1.697 -1.456 4.325
 -1.667 -1.453 4.326
 -1.636 -1.45 4.325
 -1.605 -1.447 4.325
 -1.576 -1.445 4.328
 -1.546 -1.442 4.328
 -1.516 -1.44 4.327
 -1.487 -1.438 4.328
 -1.457 -1.435 4.328
 -1.427 -1.432 4.326
 -1.398 -1.43 4.328
 -1.369 -1.427 4.326
 -1.34 -1.425 4.326
 -1.31 -1.422 4.323
 -1.281 -1.419 4.321
 -1.25 -1.414 4.313
 -1.222 -1.413 4.314
 -1.194 -1.411 4.314
 -1.165 -1.408 4.311
 -1.139 -1.408 4.316
 -1.111 -1.406 4.316
 -1.083 -1.405 4.317
 -1.054 -1.401 4.312
 -1.028 -1.401 4.316
 -0.999 -1.398 4.31
 -0.973 -1.398 4.315
 -0.945 -1.396 4.313
 -0.918 -1.394 4.313
 -0.891 -1.393 4.313
 -0.865 -1.392 4.316
 -0.837 -1.39 4.312
 -0.811 -1.389 4.312
 -0.785 -1.389 4.315
 -0.758 -1.388 4.316
 -0.731 -1.386 4.313
 -0.705 -1.385 4.315
 -0.678 -1.383 4.312
 -0.652 -1.384 4.315
 -0.626 -1.382 4.312
 -0.599 -1.38 4.309
 -0.573 -1.378 4.307
 -0.547 -1.377 4.306
 -0.52 -1.376 4.304
 -0.494 -1.375 4.301
 -0.468 -1.375 4.303
 -0.442 -1.374 4.303
 -0.417 -1.374 4.304
 -0.391 -1.372 4.301
 -0.364 -1.37 4.295
 -0.339 -1.369 4.293
 -0.313 -1.368 4.291
 -0.287 -1.366 4.287
 -0.261 -1.365 4.285
 -0.236 -1.365 4.286
 -0.21 -1.364 4.282
 -0.185 -1.364 4.282
 -0.16 -1.364 4.284
 -0.134 -1.365 4.285
 -0.109 -1.364 4.284
 -0.083 -1.364 4.284
 -0.058 -1.363 4.281
 -0.032 -1.363 4.28
 -0.007 -1.362 4.278
 0.017 -1.364 4.282
 0.043 -1.364 4.283
 0.068 -1.366 4.289
 0.093 -1.366 4.288
 0.119 -1.366 4.288
 0.144 -1.365 4.283
 0.169 -1.365 4.281
 0.194 -1.362 4.27
 0.22 -1.363 4.272
 0.245 -1.362 4.269
 0.271 -1.364 4.271
 0.296 -1.365 4.273
 0.322 -1.368 4.281
 0.348 -1.368 4.28
 0.374 -1.37 4.284
 0.399 -1.37 4.281
 0.425 -1.371 4.281
 0.45 -1.371 4.279
 0.476 -1.371 4.277
 0.501 -1.37 4.27
 0.527 -1.371 4.273
 0.552 -1.372 4.272
 0.578 -1.374 4.274
 0.605 -1.376 4.276
 0.631 -1.377 4.279
 0.657 -1.379 4.279
 0.683 -1.379 4.275
 0.708 -1.379 4.274
 0.734 -1.379 4.269
 0.76 -1.38 4.267
 0.785 -1.379 4.261
 0.812 -1.382 4.263
 0.838 -1.383 4.264
 0.865 -1.386 4.268
 0.892 -1.387 4.266
 0.919 -1.389 4.267
 0.945 -1.39 4.265
 0.971 -1.391 4.262
 0.997 -1.391 4.258
 1.025 -1.393 4.259
 1.052 -1.395 4.259
 1.078 -1.396 4.254
 1.105 -1.397 4.253
 1.132 -1.399 4.253
 1.159 -1.401 4.252
 1.187 -1.403 4.252
 1.215 -1.405 4.253
 1.243 -1.408 4.254
 1.271 -1.41 4.252
 1.298 -1.411 4.25
 1.325 -1.413 4.246
 1.353 -1.415 4.245
 1.381 -1.416 4.241
 1.409 -1.418 4.241
 1.438 -1.421 4.239
 1.465 -1.422 4.236
 1.493 -1.424 4.232
 1.523 -1.427 4.233
 1.551 -1.429 4.229
 1.58 -1.431 4.226
 1.609 -1.434 4.226
 1.639 -1.437 4.225
 1.667 -1.438 4.22
 1.696 -1.441 4.217
 1.725 -1.443 4.213
 1.754 -1.444 4.208
 1.782 -1.446 4.202
 1.809 -1.446 4.193
 1.836 -1.446 4.182
 1.86 -1.444 4.166
 1.885 -1.443 4.151
 1.906 -1.439 4.128
 1.928 -1.436 4.107
 0 0 0
 0 0 0
 0 0 0
 0 0 0
 0 0 0
 0 0 0
 0 0 0
 0 0 0
 0 0 0
 0 0 0
 0 0 0
 1.811 -1.16 3.193
 1.83 -1.158 3.177
 1.842 -1.152 3.151
 1.873 -1.158 3.156
 1.857 -1.136 3.082
 -2.525 -1.53 4.355
 -2.507 -1.537 4.39
 -2.452 -1.522 4.359
 -2.413 -1.515 4.355
 -2.375 -1.51 4.352
 -2.341 -1.507 4.357
 -2.303 -1.501 4.353
 -2.265 -1.495 4.35
 -2.232 -1.492 4.353
 -2.199 -1.489 4.357
 -2.162 -1.484 4.353
 -2.128 -1.48 4.354
 -2.095 -1.476 4.355
 -2.058 -1.471 4.349
 -2.023 -1.465 4.344
 -1.99 -1.462 4.345
 -1.957 -1.458 4.345
 -1.922 -1.453 4.341
 -1.89 -1.45 4.342
 -1.858 -1.447 4.341
 -1.824 -1.442 4.337
 -1.791 -1.438 4.334
 -1.759 -1.434 4.333
 -1.727 -1.43 4.329
 -1.696 -1.427 4.33
 -1.665 -1.425 4.33
 -1.635 -1.422 4.331
 -1.605 -1.42 4.333
 -1.576 -1.418 4.336
 -1.546 -1.416 4.336
 -1.516 -1.413 4.335
 -1.485 -1.41 4.333
 -1.454 -1.406 4.329
 -1.424 -1.402 4.325
 -1.395 -1.4 4.327
 -1.366 -1.398 4.327
 -1.337 -1.396 4.327
 -1.309 -1.394 4.328
 -1.28 -1.392 4.327
 -1.249 -1.387 4.318
 -1.221 -1.386 4.32
 -1.193 -1.384 4.32
 -1.164 -1.381 4.315
 -1.138 -1.381 4.322
 -1.11 -1.379 4.32
 -1.082 -1.377 4.32
 -1.053 -1.374 4.314
 -1.027 -1.373 4.319
 -0.998 -1.37 4.313
 -0.973 -1.371 4.321
 -0.945 -1.369 4.319
 -0.918 -1.368 4.318
 -0.891 -1.367 4.319
 -0.865 -1.366 4.322
 -0.837 -1.363 4.317
 -0.81 -1.362 4.315
 -0.784 -1.361 4.318
 -0.758 -1.361 4.321
 -0.731 -1.36 4.321
 -0.705 -1.36 4.324
 -0.678 -1.358 4.321
 -0.653 -1.36 4.328
 -0.626 -1.357 4.323
 -0.599 -1.354 4.317
 -0.572 -1.352 4.312
 -0.546 -1.351 4.31
 -0.52 -1.349 4.307
 -0.493 -1.346 4.3
 -0.467 -1.346 4.302
 -0.441 -1.345 4.301
 -0.416 -1.346 4.304
 -0.39 -1.344 4.299
 -0.363 -1.34 4.287
 -0.337 -1.339 4.287
 -0.312 -1.339 4.287
 -0.286 -1.338 4.284
 -0.261 -1.337 4.283
 -0.235 -1.338 4.286
 -0.21 -1.337 4.283
 -0.184 -1.336 4.283
 -0.159 -1.337 4.285
 -0.134 -1.337 4.286
 -0.108 -1.336 4.282
 -0.083 -1.336 4.283
 -0.058 -1.335 4.279
 -0.032 -1.334 4.277
 -0.007 -1.334 4.274
 0.017 -1.336 4.281
 0.043 -1.337 4.284
 0.068 -1.342 4.3
 0.094 -1.343 4.303
 0.119 -1.345 4.309
 0.145 -1.342 4.297
 0.17 -1.342 4.295
 0.194 -1.335 4.272
 0.22 -1.335 4.27
 0.244 -1.333 4.263
 0.27 -1.336 4.27
 0.296 -1.336 4.27
 0.322 -1.34 4.28
 0.348 -1.341 4.283
 0.374 -1.345 4.292
 0.399 -1.344 4.286
 0.425 -1.346 4.289
 0.45 -1.346 4.287
 0.476 -1.346 4.284
 0.501 -1.344 4.277
 0.527 -1.346 4.281
 0.552 -1.347 4.279
 0.579 -1.349 4.283
 0.605 -1.35 4.283
 0.631 -1.351 4.284
 0.657 -1.352 4.284
 0.682 -1.352 4.279
 0.708 -1.352 4.276
 0.734 -1.353 4.273
 0.76 -1.354 4.273
 0.785 -1.354 4.268
 0.812 -1.356 4.272
 0.839 -1.358 4.272
 0.866 -1.36 4.276
 0.892 -1.361 4.271
 0.918 -1.362 4.27
 0.944 -1.362 4.267
 0.971 -1.364 4.266
 0.996 -1.363 4.26
 1.024 -1.366 4.262
 1.05 -1.367 4.26
 1.077 -1.368 4.256
 1.103 -1.369 4.253
 1.131 -1.371 4.255
 1.157 -1.372 4.251
 1.185 -1.375 4.253
 1.213 -1.377 4.252
 1.241 -1.379 4.254
 1.269 -1.381 4.252
 1.297 -1.383 4.252
 1.323 -1.384 4.247
 1.351 -1.386 4.245
 1.379 -1.388 4.243
 1.407 -1.39 4.242
 1.435 -1.392 4.24
 1.463 -1.394 4.237
 1.491 -1.395 4.234
 1.52 -1.398 4.233
 1.549 -1.4 4.231
 1.577 -1.402 4.228
 1.607 -1.405 4.228
 1.636 -1.408 4.226
 1.665 -1.409 4.222
 1.694 -1.411 4.218
 1.723 -1.414 4.215
 1.751 -1.415 4.209
 1.78 -1.417 4.205
 1.807 -1.418 4.196
 1.835 -1.419 4.188
 1.861 -1.418 4.176
 1.887 -1.418 4.165
 1.91 -1.415 4.145
 0 0 0
 0 0 0
 0 0 0
 0 0 0
 0 0 0
 0 0 0
 0 0 0
 0 0 0
 0 0 0
 0 0 0
 0 0 0
 0 0 0
 1.805 -1.134 3.188
 1.828 -1.136 3.181
 1.839 -1.129 3.152
 1.857 -1.127 3.135
 1.856 -1.114 3.088
 -2.536 -1.508 4.385
 -2.472 -1.487 4.339
 -2.452 -1.493 4.369
 -2.413 -1.487 4.365
 -2.378 -1.483 4.367
 -2.342 -1.479 4.369
 -2.304 -1.473 4.364
 -2.267 -1.467 4.361
 -2.231 -1.463 4.361
 -2.197 -1.459 4.361
 -2.161 -1.454 4.359
 -2.126 -1.45 4.358
 -2.091 -1.446 4.356
 -2.055 -1.44 4.351
 -2.02 -1.435 4.346
 -1.986 -1.432 4.347
 -1.953 -1.428 4.346
 -1.92 -1.424 4.345
 -1.888 -1.421 4.346
 -1.856 -1.418 4.346
 -1.822 -1.413 4.34
 -1.789 -1.409 4.338
 -1.757 -1.405 4.335
 -1.724 -1.401 4.331
 -1.693 -1.397 4.33
 -1.662 -1.395 4.33
 -1.632 -1.392 4.332
 -1.602 -1.39 4.332
 -1.572 -1.388 4.334
 -1.543 -1.386 4.336
 -1.513 -1.383 4.334
 -1.482 -1.379 4.33
 -1.451 -1.376 4.327
 -1.421 -1.372 4.323
 -1.392 -1.371 4.325
 -1.365 -1.37 4.329
 -1.336 -1.368 4.331
 -1.309 -1.368 4.335
 -1.281 -1.366 4.337
 -1.25 -1.361 4.328
 -1.222 -1.36 4.33
 -1.194 -1.359 4.331
 -1.165 -1.355 4.325
 -1.139 -1.356 4.334
 -1.11 -1.353 4.33
 -1.083 -1.352 4.331
 -1.053 -1.347 4.321
 -1.027 -1.347 4.326
 -0.997 -1.343 4.317
 -0.971 -1.343 4.322
 -0.942 -1.339 4.314
 -0.916 -1.339 4.318
 -0.89 -1.338 4.319
 -0.864 -1.339 4.326
 -0.837 -1.338 4.324
 -0.811 -1.337 4.326
 -0.784 -1.336 4.328
 -0.759 -1.338 4.335
 -0.733 -1.337 4.338
 -0.707 -1.338 4.342
 -0.679 -1.334 4.334
 -0.655 -1.337 4.345
 -0.627 -1.333 4.335
 -0.599 -1.33 4.327
 -0.573 -1.327 4.321
 -0.546 -1.326 4.32
 -0.519 -1.323 4.313
 -0.492 -1.318 4.297
 -0.465 -1.316 4.292
 0 0 0
 0 0 0
 0 0 0
 -0.361 -1.306 4.266
 -0.336 -1.309 4.277
 -0.311 -1.31 4.283
 -0.286 -1.31 4.282
 -0.26 -1.31 4.283
 -0.235 -1.311 4.288
 -0.21 -1.31 4.287
 -0.184 -1.31 4.285
 -0.159 -1.31 4.287
 -0.134 -1.31 4.288
