 0 0 0
 -2.189 -1.626 3.715
 -2.18 -1.629 3.728
 -2.17 -1.631 3.739
 -2.151 -1.627 3.735
 -2.143 -1.63 3.749
 -2.132 -1.632 3.759
 -2.117 -1.631 3.762
 -2.101 -1.628 3.763
 -2.092 -1.631 3.776
 -2.079 -1.631 3.78
 -2.064 -1.629 3.783
 -2.052 -1.63 3.79
 -2.041 -1.632 3.8
 -2.027 -1.631 3.804
 -2.013 -1.63 3.807
 -2.001 -1.631 3.816
 -1.991 -1.633 3.826
 -1.975 -1.63 3.826
 -1.96 -1.629 3.827
 -1.947 -1.628 3.832
 -1.937 -1.631 3.843
 -1.92 -1.627 3.84
 -1.914 -1.633 3.859
 -1.9 -1.633 3.864
 -1.886 -1.631 3.867
 -1.874 -1.632 3.873
 -1.866 -1.637 3.89
 -1.854 -1.637 3.896
 -1.841 -1.637 3.901
 -1.832 -1.64 3.914
 -1.817 -1.638 3.915
 -1.801 -1.636 3.914
 -1.785 -1.634 3.914
 -1.772 -1.633 3.918
 -1.757 -1.631 3.917
 -1.743 -1.63 3.92
 -1.732 -1.632 3.929
 -1.714 -1.628 3.923
 -1.701 -1.627 3.927
 -1.688 -1.627 3.931
 -1.675 -1.626 3.934
 -1.655 -1.62 3.923
 -1.646 -1.624 3.937
 -1.635 -1.625 3.945
 -1.623 -1.626 3.952
 -1.611 -1.627 3.958
 -1.602 -1.631 3.973
 -1.591 -1.633 3.982
 -1.577 -1.631 3.982
 -1.565 -1.632 3.988
 -1.552 -1.632 3.994
 -1.537 -1.63 3.991
 -1.519 -1.624 3.981
 -1.507 -1.626 3.989
 -1.494 -1.626 3.993
 -1.48 -1.624 3.993
 -1.469 -1.626 4.002
 -1.457 -1.627 4.007
 -1.443 -1.626 4.009
 -1.427 -1.622 4.004
 -1.414 -1.622 4.007
 -1.402 -1.622 4.011
 -1.392 -1.626 4.025
 -1.38 -1.627 4.031
 -1.368 -1.628 4.037
 -1.355 -1.627 4.039
 -1.34 -1.625 4.038
 -1.324 -1.62 4.029
 -1.311 -1.62 4.032
 -1.297 -1.619 4.033
 -1.287 -1.623 4.045
 -1.275 -1.623 4.05
 -1.264 -1.625 4.058
 -1.249 -1.623 4.057
 -1.237 -1.624 4.063
 -1.223 -1.622 4.06
 -1.21 -1.621 4.061
 -1.197 -1.621 4.064
 -1.185 -1.623 4.071
 -1.173 -1.623 4.075
 -1.159 -1.621 4.074
 -1.144 -1.619 4.07
 -1.13 -1.617 4.069
 -1.118 -1.618 4.075
 -1.105 -1.618 4.078
 -1.094 -1.62 4.084
 -1.081 -1.619 4.086
 -1.068 -1.62 4.089
 -1.054 -1.618 4.087
 -1.04 -1.615 4.084
 -1.027 -1.615 4.086
 -1.015 -1.616 4.09
 -1 -1.613 4.085
 -0.987 -1.612 4.087
 -0.975 -1.612 4.089
 -0.962 -1.612 4.091
 -0.95 -1.614 4.098
 -0.939 -1.616 4.104
 -0.926 -1.616 4.109
 -0.915 -1.618 4.115
 -0.901 -1.617 4.115
 -0.888 -1.616 4.114
 -0.876 -1.618 4.121
 -0.863 -1.616 4.118
 -0.85 -1.616 4.121
 -0.838 -1.617 4.125
 -0.825 -1.617 4.128
 -0.812 -1.616 4.126
 -0.8 -1.618 4.133
 -0.786 -1.615 4.127
 -0.772 -1.612 4.123
 -0.76 -1.613 4.127
 -0.749 -1.617 4.138
 -0.735 -1.614 4.133
 -0.723 -1.616 4.141
 -0.711 -1.617 4.145
 -0.697 -1.614 4.138
 -0.682 -1.608 4.124
 -0.669 -1.608 4.125
 -0.656 -1.607 4.125
 -0.642 -1.604 4.118
 -0.631 -1.606 4.126
 -0.619 -1.608 4.133
 -0.608 -1.614 4.149
 -0.595 -1.613 4.149
 -0.584 -1.616 4.157
 -0.572 -1.618 4.163
 -0.559 -1.619 4.166
 -0.545 -1.613 4.153
 -0.532 -1.613 4.155
 -0.52 -1.614 4.157
 -0.507 -1.613 4.157
 -0.494 -1.613 4.157
 -0.482 -1.614 4.161
 -0.469 -1.614 4.162
 -0.457 -1.615 4.166
 -0.445 -1.616 4.171
 -0.431 -1.611 4.157
 -0.418 -1.61 4.155
 -0.405 -1.611 4.158
 -0.393 -1.613 4.165
 -0.38 -1.612 4.163
 -0.368 -1.613 4.168
 -0.356 -1.615 4.173
 -0.343 -1.612 4.166
 -0.329 -1.609 4.158
 -0.317 -1.61 4.161
 -0.305 -1.615 4.176
 -0.293 -1.617 4.181
 -0.281 -1.619 4.186
 -0.268 -1.617 4.182
 -0.255 -1.616 4.182
 -0.242 -1.615 4.179
 -0.229 -1.611 4.168
 -0.216 -1.61 4.167
 -0.204 -1.613 4.174
 -0.191 -1.611 4.17
 -0.178 -1.608 4.163
 -0.166 -1.612 4.173
 -0.154 -1.613 4.176
 -0.141 -1.613 4.177
 -0.128 -1.614 4.179
 -0.116 -1.618 4.189
 -0.103 -1.615 4.181
 -0.09 -1.61 4.169
 -0.078 -1.608 4.164
 -0.065 -1.607 4.16
 -0.053 -1.607 4.16
 -0.04 -1.609 4.165
 -0.028 -1.614 4.18
 -0.015 -1.617 4.186
 -0.002 -1.616 4.183
 0.009 -1.614 4.177
 0.022 -1.614 4.178
 0.034 -1.614 4.177
 0.047 -1.61 4.168
 0.06 -1.615 4.179
 0.072 -1.616 4.181
 0.085 -1.617 4.183
 0.097 -1.615 4.179
 0.11 -1.616 4.181
 0.122 -1.612 4.169
 0.135 -1.611 4.168
 0.147 -1.609 4.161
 0.16 -1.608 4.157
 0.172 -1.607 4.156
 0.185 -1.607 4.154
 0.197 -1.605 4.148
 0.21 -1.607 4.152
 0.223 -1.61 4.16
 0.235 -1.609 4.157
 0.248 -1.609 4.157
 0.26 -1.609 4.156
 0.272 -1.607 4.151
 0.285 -1.606 4.146
 0.298 -1.609 4.152
 0.31 -1.609 4.152
 0.323 -1.61 4.154
 0.335 -1.609 4.15
 0.347 -1.606 4.141
 0.359 -1.605 4.137
 0.372 -1.606 4.139
 0.385 -1.605 4.135
 0.397 -1.606 4.137
 0.41 -1.608 4.14
 0.422 -1.606 4.135
 0.435 -1.607 4.135
 0.447 -1.606 4.131
 0.46 -1.608 4.136
 0.474 -1.611 4.142
 0.487 -1.613 4.145
 0.499 -1.612 4.142
 0.513 -1.615 4.148
 0.525 -1.613 4.142
 0.537 -1.613 4.139
 0.55 -1.614 4.141
 0.563 -1.615 4.141
 0.575 -1.612 4.133
 0.587 -1.613 4.134
 0.6 -1.612 4.13
 0.612 -1.612 4.127
 0.625 -1.613 4.127
 0.639 -1.617 4.137
 0.652 -1.617 4.134
 0.664 -1.616 4.13
 0.676 -1.614 4.123
 0.689 -1.616 4.126
 0.702 -1.617 4.128
 0.715 -1.618 4.126
 0.728 -1.62 4.13
 0.742 -1.622 4.133
 0.754 -1.621 4.128
 0.764 -1.616 4.114
 0.777 -1.616 4.112
 0.79 -1.616 4.111
 0.802 -1.617 4.11
 0.815 -1.617 4.108
 0.828 -1.618 4.108
 0.841 -1.619 4.108
 0.853 -1.617 4.1
 0.866 -1.619 4.103
 0.878 -1.618 4.097
 0.892 -1.62 4.101
 0.904 -1.619 4.096
 0.918 -1.622 4.101
 0.928 -1.617 4.085
 0.941 -1.619 4.087
 0.953 -1.618 4.082
 0.968 -1.622 4.089
 0.979 -1.619 4.08
 0.994 -1.623 4.086
 1.006 -1.622 4.081
 1.02 -1.624 4.084
 1.032 -1.623 4.079
 1.046 -1.625 4.08
 1.058 -1.625 4.077
 1.073 -1.628 4.083
 1.085 -1.627 4.077
 1.097 -1.626 4.071
 1.11 -1.627 4.07
 1.123 -1.627 4.067
 1.134 -1.625 4.06
 1.146 -1.624 4.053
 1.16 -1.626 4.055
 1.172 -1.625 4.049
 1.186 -1.628 4.052
 1.199 -1.627 4.047
 1.211 -1.626 4.042
 1.223 -1.627 4.039
 1.237 -1.628 4.038
 1.249 -1.627 4.034
 1.263 -1.629 4.034
 1.278 -1.632 4.038
 1.29 -1.631 4.031
 1.304 -1.632 4.031
 1.317 -1.634 4.031
 1.332 -1.636 4.032
 1.345 -1.636 4.03
 1.359 -1.638 4.031
 1.371 -1.638 4.026
 1.384 -1.638 4.021
 1.394 -1.635 4.011
 1.406 -1.634 4.004
 1.419 -1.635 4.001
 1.431 -1.633 3.994
 1.443 -1.632 3.988
 1.456 -1.633 3.985
 1.466 -1.63 3.974
 1.475 -1.627 3.961
 1.489 -1.628 3.959
 1.5 -1.626 3.951
 1.513 -1.627 3.949
 1.527 -1.629 3.948
 1.541 -1.63 3.946
 1.555 -1.631 3.944
 1.569 -1.632 3.943
 1.581 -1.632 3.939
 1.594 -1.632 3.934
 1.606 -1.632 3.928
 1.618 -1.631 3.922
 1.626 -1.627 3.907
 1.637 -1.625 3.896
 1.649 -1.625 3.891
 1.664 -1.626 3.891
 1.674 -1.624 3.881
 1.688 -1.626 3.879
 1.702 -1.627 3.877
 1.716 -1.628 3.875
 1.726 -1.626 3.864
 1.738 -1.626 3.859
 1.749 -1.624 3.85
 1.76 -1.623 3.842
 1.775 -1.625 3.841
 1.787 -1.624 3.834
 1.799 -1.624 3.828
 1.813 -1.625 3.825
 1.824 -1.624 3.818
 1.833 -1.621 3.803
 1.844 -1.619 3.794
 1.852 -1.616 3.78
 1.862 -1.614 3.771
 1.865 -1.606 3.746
 1.868 -1.598 3.721
 1.866 -1.585 3.687
 1.867 -1.576 3.659
 1.864 -1.564 3.625
 1.865 -1.554 3.598
 1.863 -1.543 3.565
 1.864 -1.533 3.538
 1.868 -1.527 3.518
 1.869 -1.519 3.493
 1.871 -1.511 3.469
 1.874 -1.503 3.446
 1.875 -1.495 3.421
 1.873 -1.484 3.391
 1.865 -1.47 3.351
 0 0 0
 0 0 0
 1.815 -1.404 3.186
 1.831 -1.408 3.189
 1.837 -1.404 3.174
 1.844 -1.402 3.164
 1.849 -1.397 3.147
 1.845 -1.387 3.117
 1.84 -1.375 3.084
 1.837 -1.365 3.057
 1.831 -1.352 3.023
 1.822 -1.339 2.987
 1.842 -1.346 2.997
 1.827 -1.327 2.95
 -2.258 -1.645 3.78
 -2.243 -1.644 3.783
 -2.209 -1.629 3.755
 -2.197 -1.629 3.761
 -2.185 -1.629 3.769
 -2.167 -1.626 3.768
 -2.16 -1.631 3.785
 -2.148 -1.632 3.793
 -2.133 -1.63 3.795
 -2.117 -1.627 3.796
 -2.107 -1.63 3.808
 -2.092 -1.628 3.81
 -2.077 -1.627 3.812
 -2.066 -1.629 3.822
 -2.055 -1.63 3.831
 -2.04 -1.628 3.833
 -2.026 -1.627 3.837
 -2.014 -1.628 3.845
 -2.003 -1.63 3.854
 -1.986 -1.626 3.852
 -1.972 -1.625 3.855
 -1.958 -1.625 3.859
 -1.948 -1.627 3.871
 -1.933 -1.625 3.872
 -1.927 -1.631 3.891
 -1.913 -1.631 3.896
 -1.898 -1.629 3.897
 -1.885 -1.629 3.902
 -1.876 -1.632 3.915
 -1.865 -1.634 3.924
 -1.851 -1.633 3.928
 -1.843 -1.637 3.943
 -1.827 -1.635 3.942
 -1.812 -1.633 3.943
 -1.798 -1.632 3.946
 -1.786 -1.633 3.952
 -1.769 -1.629 3.949
 -1.756 -1.63 3.955
 -1.744 -1.631 3.962
 -1.726 -1.625 3.954
 -1.712 -1.625 3.957
 -1.7 -1.625 3.963
 -1.686 -1.624 3.965
 -1.668 -1.62 3.958
 -1.66 -1.625 3.976
 -1.647 -1.624 3.978
 -1.634 -1.624 3.983
 -1.622 -1.625 3.989
 -1.613 -1.629 4.005
 -1.6 -1.629 4.008
 -1.587 -1.629 4.014
 -1.575 -1.63 4.02
 -1.563 -1.631 4.027
 -1.547 -1.628 4.022
 -1.531 -1.625 4.02
 -1.517 -1.624 4.021
 -1.506 -1.626 4.029
 -1.491 -1.623 4.026
 -1.479 -1.624 4.034
 -1.466 -1.624 4.038
 -1.455 -1.626 4.047
 -1.438 -1.622 4.04
 -1.426 -1.623 4.046
 -1.414 -1.624 4.052
 -1.404 -1.626 4.063
 -1.389 -1.624 4.061
 -1.378 -1.626 4.07
 -1.364 -1.626 4.072
 -1.349 -1.623 4.068
 -1.331 -1.617 4.058
 -1.319 -1.618 4.064
 -1.304 -1.615 4.06
 -1.293 -1.618 4.07
 -1.281 -1.619 4.076
 -1.27 -1.62 4.083
 -1.254 -1.617 4.077
 -1.242 -1.618 4.084
 -1.228 -1.616 4.081
 -1.215 -1.615 4.083
 -1.202 -1.616 4.088
 -1.192 -1.62 4.101
 -1.179 -1.619 4.102
 -1.166 -1.619 4.105
 -1.152 -1.618 4.105
 -1.138 -1.616 4.102
 -1.126 -1.617 4.108
 -1.114 -1.617 4.112
 -1.101 -1.618 4.117
 -1.088 -1.617 4.116
 -1.075 -1.617 4.121
 -1.061 -1.616 4.119
 -1.047 -1.614 4.116
 -1.034 -1.613 4.117
 -1.021 -1.613 4.12
 -1.008 -1.612 4.121
 -0.995 -1.612 4.122
 -0.982 -1.612 4.126
 -0.969 -1.611 4.125
 -0.956 -1.611 4.128
 -0.943 -1.611 4.13
 -0.931 -1.611 4.133
 -0.919 -1.612 4.138
 -0.905 -1.611 4.137
 -0.893 -1.612 4.14
 -0.881 -1.613 4.147
 -0.867 -1.611 4.142
 -0.854 -1.612 4.147
 -0.843 -1.614 4.156
 -0.831 -1.615 4.161
 -0.818 -1.615 4.161
 -0.806 -1.618 4.17
 -0.792 -1.614 4.163
 -0.777 -1.611 4.156
 -0.764 -1.61 4.155
 -0.752 -1.611 4.16
 -0.738 -1.608 4.155
 -0.726 -1.61 4.161
 -0.714 -1.612 4.168
 -0.701 -1.61 4.164
 -0.686 -1.606 4.156
 -0.674 -1.607 4.159
 -0.661 -1.605 4.157
 -0.647 -1.604 4.156
 -0.635 -1.606 4.162
 -0.623 -1.607 4.166
 -0.612 -1.611 4.179
 -0.599 -1.612 4.181
 -0.587 -1.612 4.185
 -0.575 -1.614 4.189
 -0.562 -1.615 4.193
 -0.548 -1.61 4.181
 -0.535 -1.609 4.181
 -0.523 -1.611 4.187
 -0.51 -1.612 4.19
 -0.498 -1.611 4.191
 -0.485 -1.612 4.194
 -0.472 -1.611 4.193
 -0.459 -1.61 4.191
 -0.446 -1.61 4.192
 -0.433 -1.606 4.182
 -0.42 -1.605 4.18
 -0.408 -1.607 4.187
 -0.395 -1.61 4.194
 -0.382 -1.608 4.191
 -0.37 -1.609 4.193
 -0.357 -1.609 4.195
 -0.344 -1.606 4.188
 -0.33 -1.603 4.179
 -0.318 -1.602 4.178
 -0.306 -1.607 4.191
 -0.294 -1.608 4.196
 -0.281 -1.611 4.203
 -0.268 -1.609 4.2
 -0.256 -1.611 4.205
 -0.243 -1.61 4.204
 -0.23 -1.607 4.194
 -0.217 -1.605 4.191
 -0.205 -1.608 4.198
 -0.192 -1.607 4.196
 -0.179 -1.603 4.185
 -0.167 -1.606 4.194
 -0.154 -1.605 4.193
 -0.141 -1.606 4.194
 -0.129 -1.606 4.196
 -0.116 -1.61 4.207
 -0.104 -1.609 4.203
 -0.091 -1.606 4.195
 -0.078 -1.604 4.191
 -0.065 -1.603 4.188
 -0.053 -1.604 4.189
 -0.04 -1.605 4.191
 -0.028 -1.609 4.204
 -0.015 -1.611 4.208
 -0.002 -1.61 4.204
 0.009 -1.609 4.203
 0.022 -1.611 4.207
 0.035 -1.612 4.209
 0.047 -1.608 4.2
 0.06 -1.611 4.208
 0.073 -1.611 4.206
 0.085 -1.608 4.198
 0.098 -1.607 4.194
 0.111 -1.609 4.2
 0.123 -1.605 4.189
 0.136 -1.605 4.189
 0.148 -1.605 4.189
 0.161 -1.604 4.184
 0.173 -1.602 4.178
 0.186 -1.604 4.183
 0.198 -1.6 4.174
 0.211 -1.603 4.18
 0.224 -1.605 4.185
 0.236 -1.605 4.184
 0.249 -1.603 4.178
 0.262 -1.605 4.181
 0.274 -1.603 4.175
 0.286 -1.603 4.174
 0.3 -1.606 4.181
 0.312 -1.606 4.181
 0.325 -1.606 4.181
 0.337 -1.605 4.177
 0.349 -1.602 4.167
 0.362 -1.602 4.165
 0.374 -1.602 4.166
 0.387 -1.602 4.165
 0.4 -1.604 4.169
 0.413 -1.607 4.174
 0.426 -1.605 4.169
 0.439 -1.607 4.172
 0.451 -1.606 4.167
 0.464 -1.607 4.169
 0.477 -1.61 4.175
 0.49 -1.61 4.176
 0.502 -1.609 4.172
 0.515 -1.611 4.173
 0.528 -1.611 4.172
 0.54 -1.609 4.167
 0.553 -1.61 4.168
 0.566 -1.611 4.169
 0.579 -1.611 4.166
 0.591 -1.61 4.162
 0.603 -1.609 4.157
 0.615 -1.608 4.152
 0.628 -1.609 4.154
 0.642 -1.613 4.162
 0.655 -1.613 4.16
 0.668 -1.612 4.158
 0.68 -1.611 4.152
 0.693 -1.613 4.154
 0.706 -1.614 4.157
 0.719 -1.614 4.155
 0.732 -1.614 4.153
 0.746 -1.618 4.161
 0.758 -1.616 4.152
 0.768 -1.611 4.139
 0.781 -1.612 4.138
 0.795 -1.614 4.142
 0.807 -1.614 4.14
 0.82 -1.615 4.139
 0.833 -1.615 4.138
 0.846 -1.615 4.136
 0.858 -1.614 4.13
 0.871 -1.616 4.132
 0.883 -1.613 4.123
 0.897 -1.617 4.129
 0.91 -1.617 4.126
 0.925 -1.62 4.133
 0.935 -1.616 4.12
 0.949 -1.618 4.123
 0.961 -1.617 4.117
 0.975 -1.619 4.119
 0.984 -1.614 4.103
 0.998 -1.616 4.105
 1.01 -1.615 4.099
 1.023 -1.616 4.099
 1.034 -1.614 4.091
 1.049 -1.617 4.096
 1.061 -1.617 4.093
 1.076 -1.62 4.098
 1.09 -1.622 4.101
 1.104 -1.623 4.099
 1.117 -1.623 4.097
 1.13 -1.625 4.097
 1.143 -1.625 4.095
 1.155 -1.624 4.088
 1.17 -1.627 4.093
 1.182 -1.626 4.087
 1.195 -1.627 4.086
 1.208 -1.627 4.083
 1.219 -1.625 4.074
 1.232 -1.625 4.07
 1.245 -1.626 4.07
 1.258 -1.626 4.066
 1.27 -1.625 4.061
 1.286 -1.629 4.066
 1.298 -1.628 4.061
 1.311 -1.629 4.059
 1.325 -1.631 4.059
 1.34 -1.633 4.062
 1.353 -1.633 4.058
 1.367 -1.634 4.057
 1.379 -1.634 4.052
 1.391 -1.634 4.047
 1.402 -1.631 4.036
 1.414 -1.63 4.031
 1.426 -1.629 4.025
 1.438 -1.628 4.018
 1.45 -1.627 4.011
 1.462 -1.627 4.005
 1.473 -1.625 3.997
 1.483 -1.622 3.985
 1.496 -1.623 3.982
 1.509 -1.623 3.979
 1.525 -1.627 3.983
 1.538 -1.628 3.981
 1.553 -1.63 3.982
 1.567 -1.631 3.98
 1.58 -1.631 3.975
 1.591 -1.629 3.967
 1.602 -1.628 3.958
 1.614 -1.627 3.952
 1.627 -1.628 3.949
 1.637 -1.624 3.935
 1.647 -1.623 3.926
 1.661 -1.624 3.924
 1.675 -1.625 3.922
 1.685 -1.623 3.911
 1.699 -1.623 3.908
 1.713 -1.625 3.907
 1.726 -1.625 3.902
 1.738 -1.624 3.896
 1.752 -1.626 3.895
 1.764 -1.625 3.887
 1.774 -1.623 3.876
 1.789 -1.625 3.876
 1.799 -1.623 3.866
 1.809 -1.621 3.854
 1.821 -1.62 3.848
 1.832 -1.618 3.839
 1.84 -1.615 3.824
 1.85 -1.612 3.812
 1.857 -1.608 3.796
 1.865 -1.604 3.781
 1.868 -1.596 3.756
 1.869 -1.586 3.728
 1.868 -1.575 3.696
 1.869 -1.565 3.668
 1.868 -1.554 3.636
 1.87 -1.546 3.611
 1.869 -1.535 3.58
 1.868 -1.525 3.551
 1.871 -1.518 3.528
 1.872 -1.509 3.502
 1.873 -1.5 3.476
 1.877 -1.494 3.456
 1.889 -1.495 3.451
 1.891 -1.487 3.428
 0 0 0
 0 0 0
 0 0 0
 0 0 0
 1.827 -1.394 3.186
 1.829 -1.388 3.165
 1.84 -1.388 3.16
 1.847 -1.385 3.147
 1.844 -1.375 3.12
 1.843 -1.366 3.094
 1.844 -1.359 3.072
 1.835 -1.345 3.033
 1.826 -1.331 2.996
 1.799 -1.303 2.929
 1.813 -1.307 2.931
 -2.242 -1.62 3.758
 -2.217 -1.611 3.743
 -2.23 -1.631 3.795
 -2.214 -1.629 3.797
 -2.199 -1.627 3.799
 -2.181 -1.624 3.797
 -2.171 -1.626 3.809
 -2.158 -1.626 3.814
 -2.142 -1.624 3.817
 -2.128 -1.623 3.821
 -2.119 -1.626 3.834
 -2.106 -1.626 3.839
 -2.091 -1.625 3.843
 -2.082 -1.628 3.857
 -2.069 -1.628 3.862
 -2.052 -1.625 3.861
 -2.035 -1.622 3.86
 -2.023 -1.623 3.867
 -2.01 -1.623 3.873
 -1.994 -1.62 3.872
 -1.982 -1.621 3.88
 -1.968 -1.621 3.885
 -1.959 -1.623 3.897
 -1.942 -1.62 3.894
 -1.935 -1.625 3.912
 -1.921 -1.624 3.916
 -1.909 -1.625 3.924
 -1.895 -1.625 3.928
 -1.886 -1.628 3.941
 -1.877 -1.631 3.955
 -1.863 -1.631 3.958
 -1.851 -1.632 3.967
 -1.836 -1.63 3.967
 -1.822 -1.629 3.971
 -1.807 -1.627 3.97
 -1.795 -1.628 3.978
 -1.781 -1.628 3.981
 -1.769 -1.629 3.989
 -1.757 -1.629 3.995
 -1.739 -1.625 3.988
 -1.725 -1.624 3.992
 -1.711 -1.623 3.995
 -1.695 -1.621 3.993
 -1.68 -1.618 3.991
 -1.671 -1.622 4.006
 -1.657 -1.621 4.008
 -1.644 -1.622 4.014
 -1.632 -1.622 4.02
 -1.621 -1.625 4.03
 -1.608 -1.624 4.034
 -1.597 -1.626 4.043
 -1.584 -1.626 4.048
 -1.571 -1.627 4.053
 -1.556 -1.625 4.052
 -1.543 -1.624 4.055
 -1.529 -1.623 4.056
 -1.517 -1.625 4.064
 -1.503 -1.623 4.065
 -1.491 -1.624 4.071
 -1.478 -1.624 4.075
 -1.464 -1.623 4.076
 -1.448 -1.62 4.073
 -1.436 -1.621 4.078
 -1.423 -1.621 4.082
 -1.41 -1.62 4.085
 -1.395 -1.619 4.085
 -1.385 -1.622 4.096
 -1.373 -1.623 4.102
 -1.359 -1.622 4.104
 -1.343 -1.619 4.099
 -1.33 -1.618 4.102
 -1.314 -1.615 4.097
 -1.302 -1.616 4.103
 -1.289 -1.616 4.106
 -1.276 -1.616 4.108
 -1.262 -1.615 4.109
 -1.251 -1.617 4.117
 -1.237 -1.615 4.117
 -1.224 -1.614 4.118
 -1.212 -1.616 4.125
 -1.201 -1.619 4.135
 -1.185 -1.615 4.129
 -1.17 -1.612 4.124
 -1.158 -1.612 4.128
 -1.144 -1.611 4.129
 -1.132 -1.613 4.136
 -1.119 -1.613 4.139
 -1.109 -1.616 4.15
 -1.093 -1.612 4.141
 -1.081 -1.614 4.149
 -1.067 -1.611 4.145
 -1.054 -1.611 4.147
 -1.04 -1.61 4.147
 -1.028 -1.612 4.154
 -1.014 -1.61 4.151
 -1.001 -1.609 4.151
 -0.988 -1.609 4.154
 -0.975 -1.609 4.158
 -0.963 -1.61 4.161
 -0.951 -1.611 4.166
 -0.939 -1.613 4.174
 -0.926 -1.614 4.178
 -0.912 -1.611 4.173
 -0.899 -1.611 4.177
 -0.887 -1.612 4.18
 -0.872 -1.608 4.172
 -0.859 -1.608 4.176
 -0.847 -1.61 4.182
 -0.834 -1.609 4.181
 -0.821 -1.608 4.182
 -0.809 -1.61 4.187
 -0.794 -1.607 4.182
 -0.781 -1.605 4.18
 -0.768 -1.605 4.182
 -0.756 -1.606 4.185
 -0.742 -1.605 4.185
 -0.729 -1.605 4.185
 -0.717 -1.606 4.191
 -0.704 -1.604 4.187
 -0.69 -1.601 4.182
 -0.677 -1.602 4.186
 -0.665 -1.602 4.187
 -0.651 -1.599 4.181
 -0.639 -1.602 4.188
 -0.626 -1.601 4.188
 -0.614 -1.604 4.197
 -0.601 -1.604 4.199
 -0.589 -1.605 4.203
 -0.576 -1.605 4.205
 -0.564 -1.607 4.21
 -0.55 -1.603 4.202
 -0.537 -1.602 4.2
 -0.525 -1.605 4.209
 -0.512 -1.605 4.211
 -0.499 -1.605 4.211
 -0.487 -1.608 4.219
 -0.475 -1.608 4.221
 -0.462 -1.606 4.218
 -0.449 -1.606 4.217
 -0.435 -1.604 4.214
 -0.422 -1.6 4.204
 -0.409 -1.602 4.212
 -0.397 -1.604 4.215
 -0.384 -1.604 4.217
 -0.371 -1.602 4.214
 -0.359 -1.603 4.218
 -0.345 -1.6 4.208
 -0.332 -1.598 4.205
 -0.319 -1.597 4.202
 -0.307 -1.599 4.209
 -0.294 -1.6 4.213
 -0.282 -1.603 4.22
 -0.269 -1.599 4.21
 -0.256 -1.6 4.214
 -0.244 -1.601 4.217
 -0.23 -1.598 4.208
 -0.218 -1.596 4.204
 -0.205 -1.6 4.216
 -0.193 -1.6 4.215
 -0.18 -1.597 4.208
 -0.167 -1.6 4.216
 -0.155 -1.6 4.217
 -0.142 -1.6 4.216
 -0.129 -1.602 4.221
 -0.117 -1.603 4.226
 -0.104 -1.601 4.22
 -0.091 -1.6 4.216
 -0.078 -1.598 4.212
 -0.066 -1.596 4.208
 -0.053 -1.598 4.211
 -0.04 -1.6 4.217
 -0.028 -1.602 4.221
 -0.015 -1.602 4.223
 -0.002 -1.601 4.22
 0.009 -1.601 4.218
 0.022 -1.6 4.216
 0.035 -1.602 4.222
 0.048 -1.602 4.22
 0.06 -1.604 4.226
 0.073 -1.603 4.224
 0.086 -1.6 4.215
 0.098 -1.599 4.211
 0.111 -1.599 4.212
 0.123 -1.596 4.202
 0.136 -1.595 4.201
 0.149 -1.598 4.206
 0.161 -1.596 4.2
 0.174 -1.593 4.194
 0.187 -1.596 4.2
 0.199 -1.593 4.191
 0.212 -1.595 4.195
 0.224 -1.596 4.198
 0.237 -1.597 4.201
 0.25 -1.595 4.194
 0.263 -1.597 4.198
 0.275 -1.596 4.194
 0.288 -1.597 4.196
 0.301 -1.599 4.202
 0.314 -1.601 4.204
 0.327 -1.601 4.204
 0.339 -1.6 4.202
 0.351 -1.598 4.195
 0.364 -1.598 4.192
 0.376 -1.596 4.188
 0.389 -1.597 4.187
 0.402 -1.598 4.19
 0.414 -1.598 4.188
 0.427 -1.598 4.189
 0.44 -1.601 4.193
 0.453 -1.599 4.186
 0.465 -1.599 4.187
 0.479 -1.602 4.192
 0.491 -1.601 4.189
 0.504 -1.602 4.191
 0.518 -1.604 4.194
 0.53 -1.604 4.191
 0.543 -1.603 4.189
 0.555 -1.604 4.188
 0.568 -1.603 4.184
 0.58 -1.603 4.183
 0.593 -1.604 4.183
 0.606 -1.604 4.181
 0.619 -1.603 4.179
 0.632 -1.605 4.182
 0.646 -1.608 4.188
 0.658 -1.607 4.182
 0.671 -1.607 4.182
 0.683 -1.605 4.175
 0.696 -1.606 4.174
 0.709 -1.607 4.176
 0.722 -1.607 4.174
 0.734 -1.606 4.17
 0.748 -1.61 4.178
 0.76 -1.608 4.169
 0.771 -1.604 4.157
 0.784 -1.606 4.159
 0.798 -1.608 4.162
 0.811 -1.608 4.16
 0.824 -1.609 4.162
 0.837 -1.61 4.161
 0.85 -1.611 4.161
 0.862 -1.609 4.153
 0.875 -1.61 4.153
 0.886 -1.607 4.144
 0.901 -1.61 4.149
 0.913 -1.609 4.145
 0.928 -1.614 4.153
 0.939 -1.611 4.143
 0.954 -1.614 4.149
 0.966 -1.613 4.144
 0.98 -1.615 4.146
 0.99 -1.611 4.132
 1.003 -1.612 4.132
 1.015 -1.611 4.127
 1.028 -1.611 4.125
 1.04 -1.61 4.118
 1.056 -1.614 4.126
 1.069 -1.615 4.125
 1.083 -1.617 4.128
 1.097 -1.619 4.129
 1.11 -1.619 4.126
 1.122 -1.618 4.12
 1.136 -1.62 4.122
 1.149 -1.62 4.121
 1.163 -1.622 4.12
 1.178 -1.626 4.127
 1.191 -1.625 4.122
 1.203 -1.624 4.116
 1.214 -1.622 4.108
 1.226 -1.621 4.102
 1.238 -1.62 4.095
 1.253 -1.622 4.098
 1.267 -1.624 4.098
 1.28 -1.625 4.097
 1.295 -1.627 4.099
 1.307 -1.627 4.095
 1.319 -1.626 4.088
 1.333 -1.627 4.086
 1.347 -1.629 4.089
 1.36 -1.629 4.085
 1.373 -1.629 4.082
 1.387 -1.631 4.081
 1.4 -1.631 4.077
 1.411 -1.629 4.069
 1.424 -1.629 4.064
 1.436 -1.628 4.058
 1.448 -1.627 4.051
 1.459 -1.625 4.042
 1.47 -1.623 4.031
 1.48 -1.62 4.021
 1.491 -1.618 4.012
 1.503 -1.618 4.006
 1.517 -1.619 4.005
 1.533 -1.622 4.008
 1.548 -1.624 4.009
 1.562 -1.626 4.009
 1.576 -1.628 4.008
 1.589 -1.627 4.003
 1.602 -1.627 3.998
 1.612 -1.624 3.986
 1.624 -1.624 3.981
 1.637 -1.625 3.977
 1.647 -1.621 3.964
 1.658 -1.62 3.956
 1.672 -1.621 3.954
 1.687 -1.623 3.954
 1.697 -1.621 3.944
 1.711 -1.622 3.941
 1.726 -1.625 3.942
 1.739 -1.624 3.936
 1.751 -1.623 3.929
 1.765 -1.625 3.927
 1.777 -1.625 3.921
 1.789 -1.623 3.913
 1.803 -1.624 3.91
 1.814 -1.623 3.901
 1.822 -1.619 3.886
 1.833 -1.618 3.878
 1.84 -1.613 3.86
 1.848 -1.609 3.845
 1.855 -1.603 3.826
 1.861 -1.598 3.808
 1.866 -1.592 3.787
 1.868 -1.583 3.761
 1.869 -1.573 3.731
 1.869 -1.563 3.702
 1.871 -1.554 3.675
 1.872 -1.545 3.648
 1.875 -1.538 3.625
 1.877 -1.529 3.599
 1.877 -1.52 3.571
 1.88 -1.513 3.549
 1.88 -1.503 3.521
 1.882 -1.496 3.497
 1.88 -1.485 3.466
 1.894 -1.487 3.465
 0 0 0
 0 0 0
 0 0 0
 0 0 0
 0 0 0
 1.823 -1.38 3.183
 1.824 -1.373 3.161
 1.836 -1.374 3.157
 1.845 -1.373 3.149
 1.843 -1.363 3.122
 1.847 -1.358 3.105
 1.848 -1.351 3.082
 1.839 -1.337 3.044
 1.831 -1.324 3.008
 1.806 -1.299 2.945
 1.808 -1.293 2.927
 -2.256 -1.617 3.786
 -2.256 -1.627 3.815
 -2.243 -1.627 3.822
 -2.229 -1.626 3.827
 -2.212 -1.623 3.826
 -2.193 -1.619 3.823
 -2.182 -1.621 3.834
 -2.169 -1.621 3.84
 -2.155 -1.621 3.844
 -2.145 -1.623 3.855
 -2.132 -1.623 3.863
 -2.119 -1.624 3.87
 -2.107 -1.624 3.877
 -2.096 -1.626 3.887
 -2.081 -1.625 3.89
 -2.068 -1.624 3.896
 -2.052 -1.622 3.896
 -2.038 -1.621 3.9
 -2.025 -1.622 3.907
 -2.009 -1.619 3.907
 -1.997 -1.62 3.914
 -1.983 -1.62 3.919
 -1.973 -1.622 3.931
 -1.956 -1.619 3.928
 -1.947 -1.622 3.942
 -1.934 -1.622 3.948
 -1.922 -1.623 3.955
 -1.907 -1.622 3.957
 -1.896 -1.624 3.968
 -1.887 -1.628 3.982
 -1.873 -1.626 3.984
 -1.86 -1.627 3.991
 -1.846 -1.626 3.993
 -1.834 -1.627 4.002
 -1.818 -1.625 4.001
 -1.806 -1.625 4.008
 -1.791 -1.624 4.008
 -1.777 -1.623 4.011
 -1.763 -1.622 4.013
 -1.747 -1.62 4.013
 -1.735 -1.62 4.02
 -1.722 -1.621 4.026
 -1.709 -1.62 4.029
 -1.696 -1.62 4.034
 -1.685 -1.623 4.045
 -1.671 -1.621 4.046
 -1.656 -1.62 4.048
 -1.645 -1.622 4.057
 -1.633 -1.623 4.064
 -1.619 -1.623 4.067
 -1.607 -1.623 4.073
 -1.595 -1.625 4.082
 -1.583 -1.626 4.087
 -1.567 -1.623 4.085
 -1.555 -1.624 4.091
 -1.54 -1.622 4.091
 -1.527 -1.622 4.095
 -1.512 -1.62 4.094
 -1.5 -1.621 4.101
 -1.485 -1.619 4.1
 -1.472 -1.619 4.103
 -1.457 -1.617 4.103
 -1.444 -1.617 4.106
 -1.431 -1.617 4.11
 -1.417 -1.616 4.112
 -1.405 -1.617 4.118
 -1.393 -1.619 4.125
 -1.382 -1.621 4.134
 -1.369 -1.62 4.137
 -1.353 -1.617 4.133
 -1.34 -1.617 4.137
 -1.325 -1.615 4.134
 -1.312 -1.615 4.137
 -1.299 -1.615 4.14
 -1.286 -1.616 4.146
 -1.272 -1.614 4.146
 -1.26 -1.615 4.152
 -1.245 -1.613 4.148
 -1.232 -1.613 4.153
 -1.218 -1.612 4.152
 -1.206 -1.612 4.157
 -1.191 -1.61 4.153
 -1.177 -1.608 4.152
 -1.162 -1.606 4.149
 -1.15 -1.606 4.154
 -1.137 -1.607 4.159
 -1.123 -1.606 4.158
 -1.113 -1.609 4.169
 -1.099 -1.608 4.17
 -1.087 -1.61 4.176
 -1.074 -1.609 4.178
 -1.061 -1.609 4.18
 -1.048 -1.609 4.182
 -1.035 -1.609 4.185
 -1.021 -1.608 4.186
 -1.007 -1.607 4.184
 -0.996 -1.609 4.191
 -0.982 -1.608 4.193
 -0.97 -1.608 4.195
 -0.957 -1.608 4.198
 -0.944 -1.609 4.203
 -0.931 -1.609 4.205
 -0.917 -1.606 4.199
 -0.904 -1.607 4.204
 -0.892 -1.608 4.208
 -0.877 -1.605 4.202
 -0.864 -1.605 4.205
 -0.852 -1.607 4.212
 -0.838 -1.604 4.206
 -0.825 -1.603 4.206
 -0.812 -1.604 4.211
 -0.798 -1.601 4.205
 -0.784 -1.599 4.202
 -0.772 -1.6 4.205
 -0.759 -1.601 4.209
 -0.746 -1.599 4.207
 -0.733 -1.6 4.211
 -0.721 -1.601 4.216
 -0.708 -1.601 4.216
 -0.694 -1.6 4.215
 -0.682 -1.602 4.222
 -0.669 -1.6 4.218
 -0.654 -1.596 4.211
 -0.642 -1.596 4.212
 -0.628 -1.595 4.21
 -0.616 -1.597 4.216
 -0.604 -1.599 4.223
 -0.591 -1.599 4.225
 -0.579 -1.599 4.227
 -0.566 -1.599 4.227
 -0.552 -1.596 4.22
 -0.539 -1.595 4.219
 -0.527 -1.597 4.227
 -0.514 -1.598 4.23
 -0.501 -1.598 4.231
 -0.489 -1.599 4.235
 -0.475 -1.598 4.232
 -0.463 -1.597 4.232
 -0.45 -1.597 4.232
 -0.436 -1.596 4.23
 -0.423 -1.593 4.225
 -0.411 -1.596 4.232
 -0.398 -1.597 4.235
 -0.385 -1.596 4.234
 -0.372 -1.595 4.231
 -0.36 -1.595 4.234
 -0.346 -1.591 4.224
 -0.333 -1.589 4.22
 -0.32 -1.588 4.217
 -0.307 -1.589 4.219
 -0.294 -1.588 4.218
 -0.282 -1.592 4.228
 -0.269 -1.589 4.221
 -0.257 -1.591 4.226
 -0.244 -1.592 4.229
 -0.231 -1.589 4.223
 -0.218 -1.587 4.219
 -0.206 -1.591 4.23
 -0.193 -1.59 4.227
 -0.18 -1.588 4.222
 -0.168 -1.591 4.229
 -0.155 -1.591 4.229
 -0.142 -1.589 4.225
 -0.129 -1.592 4.233
 -0.117 -1.593 4.236
 -0.104 -1.591 4.231
 -0.091 -1.589 4.227
 -0.078 -1.589 4.227
 -0.066 -1.587 4.22
 -0.053 -1.589 4.225
 -0.04 -1.591 4.231
 -0.028 -1.592 4.234
 -0.015 -1.593 4.236
 -0.002 -1.593 4.237
 0.01 -1.593 4.235
 0.022 -1.593 4.236
 0.035 -1.596 4.243
 0.048 -1.596 4.243
 0.061 -1.596 4.244
 0.073 -1.595 4.241
 0.086 -1.592 4.23
 0.099 -1.59 4.226
 0.111 -1.59 4.224
 0.124 -1.588 4.218
 0.136 -1.587 4.217
 0.149 -1.589 4.221
 0.162 -1.587 4.216
 0.174 -1.585 4.21
 0.187 -1.586 4.212
 0.199 -1.584 4.206
 0.212 -1.587 4.212
 0.225 -1.588 4.215
 0.238 -1.589 4.218
 0.25 -1.587 4.21
 0.263 -1.587 4.21
 0.275 -1.586 4.205
 0.288 -1.587 4.207
 0.301 -1.589 4.213
 0.315 -1.592 4.219
 0.328 -1.593 4.222
 0.34 -1.593 4.221
 0.353 -1.593 4.22
 0.366 -1.593 4.216
 0.378 -1.59 4.209
 0.39 -1.589 4.205
 0.403 -1.59 4.207
 0.416 -1.589 4.204
 0.429 -1.591 4.206
 0.442 -1.594 4.213
 0.455 -1.594 4.212
 0.468 -1.594 4.212
 0.481 -1.596 4.216
 0.493 -1.595 4.21
 0.506 -1.596 4.212
 0.52 -1.598 4.214
 0.533 -1.598 4.214
 0.545 -1.596 4.208
 0.558 -1.598 4.212
 0.57 -1.596 4.204
 0.583 -1.597 4.204
 0.596 -1.597 4.202
 0.608 -1.597 4.202
 0.621 -1.596 4.196
 0.634 -1.598 4.2
 0.648 -1.6 4.204
 0.66 -1.599 4.201
 0.674 -1.601 4.203
 0.686 -1.6 4.198
 0.699 -1.6 4.197
 0.711 -1.6 4.195
 0.724 -1.599 4.189
 0.736 -1.598 4.186
 0.75 -1.601 4.192
 0.762 -1.6 4.185
 0.774 -1.598 4.179
 0.789 -1.602 4.187
 0.802 -1.602 4.185
 0.815 -1.603 4.185
 0.829 -1.606 4.191
 0.842 -1.606 4.187
 0.854 -1.605 4.183
 0.867 -1.605 4.182
 0.88 -1.605 4.179
 0.891 -1.602 4.168
 0.905 -1.604 4.171
 0.917 -1.603 4.166
 0.931 -1.606 4.172
 0.943 -1.605 4.166
 0.958 -1.608 4.17
 0.971 -1.608 4.169
 0.985 -1.611 4.174
 0.995 -1.607 4.159
 1.009 -1.607 4.158
 1.021 -1.608 4.155
 1.034 -1.607 4.151
 1.044 -1.603 4.138
 1.06 -1.607 4.146
 1.073 -1.608 4.145
 1.086 -1.609 4.145
 1.101 -1.612 4.149
 1.115 -1.614 4.152
 1.128 -1.614 4.149
 1.144 -1.618 4.154
 1.156 -1.618 4.151
 1.17 -1.619 4.151
 1.186 -1.623 4.158
 1.198 -1.622 4.153
 1.209 -1.62 4.142
 1.221 -1.618 4.136
 1.234 -1.618 4.131
 1.246 -1.617 4.126
 1.26 -1.619 4.127
 1.275 -1.622 4.131
 1.289 -1.624 4.131
 1.303 -1.625 4.131
 1.316 -1.625 4.126
 1.327 -1.623 4.118
 1.339 -1.622 4.111
 1.354 -1.624 4.113
 1.366 -1.623 4.105
 1.377 -1.621 4.098
 1.392 -1.624 4.1
 1.406 -1.625 4.099
 1.418 -1.624 4.093
 1.432 -1.625 4.092
 1.444 -1.624 4.085
 1.456 -1.623 4.078
 1.468 -1.622 4.07
 1.479 -1.62 4.062
 1.491 -1.619 4.054
 1.504 -1.619 4.051
 1.516 -1.618 4.043
 1.53 -1.619 4.042
 1.543 -1.62 4.039
 1.556 -1.62 4.035
 1.57 -1.622 4.035
 1.584 -1.623 4.033
 1.598 -1.623 4.03
 1.611 -1.624 4.027
 1.623 -1.623 4.019
 1.636 -1.623 4.015
 1.649 -1.623 4.011
 1.658 -1.619 3.995
 1.669 -1.618 3.987
 1.682 -1.618 3.982
 1.696 -1.619 3.979
 1.708 -1.618 3.973
 1.723 -1.62 3.973
 1.738 -1.622 3.973
 1.752 -1.624 3.972
 1.764 -1.623 3.963
 1.777 -1.623 3.958
 1.789 -1.622 3.951
 1.803 -1.623 3.948
 1.814 -1.621 3.938
 1.825 -1.62 3.929
 1.833 -1.616 3.914
 1.841 -1.612 3.899
 1.846 -1.605 3.876
 1.852 -1.599 3.857
 1.857 -1.593 3.836
 1.863 -1.587 3.817
 1.866 -1.579 3.793
 1.868 -1.57 3.766
 1.87 -1.562 3.738
 1.872 -1.553 3.712
 1.872 -1.543 3.683
 1.879 -1.538 3.666
 1.881 -1.53 3.64
 1.884 -1.523 3.617
 1.883 -1.513 3.588
 1.887 -1.506 3.566
 1.887 -1.497 3.539
 1.888 -1.488 3.512
 1.883 -1.475 3.476
 0 0 0
 0 0 0
 0 0 0
 0 0 0
 0 0 0
 0 0 0
 1.815 -1.363 3.173
 1.82 -1.359 3.157
 1.833 -1.361 3.155
 1.842 -1.36 3.148
 1.841 -1.351 3.123
 1.845 -1.346 3.106
 1.844 -1.338 3.08
 1.835 -1.324 3.042
 1.826 -1.31 3.004
 1.798 -1.283 2.936
 1.834 -1.301 2.973
 -2.265 -1.611 3.806
 -2.279 -1.63 3.859
 -2.259 -1.626 3.855
 -2.245 -1.625 3.86
 -2.227 -1.621 3.857
 -2.207 -1.617 3.853
 -2.192 -1.615 3.856
 -2.176 -1.613 3.857
 -2.163 -1.614 3.864
 -2.157 -1.619 3.883
 -2.147 -1.621 3.894
 -2.137 -1.623 3.906
 -2.123 -1.624 3.913
 -2.113 -1.626 3.924
 -2.098 -1.625 3.927
 -2.085 -1.625 3.933
 -2.069 -1.622 3.934
 -2.054 -1.621 3.937
 -2.04 -1.62 3.94
 -2.024 -1.618 3.94
 -2.011 -1.619 3.948
 -1.997 -1.618 3.951
 -1.988 -1.621 3.965
 -1.972 -1.619 3.966
 -1.961 -1.621 3.976
 -1.946 -1.62 3.978
 -1.936 -1.622 3.989
 -1.921 -1.621 3.991
 -1.91 -1.622 4.001
 -1.898 -1.624 4.009
 -1.884 -1.623 4.013
 -1.868 -1.621 4.013
 -1.854 -1.62 4.017
 -1.842 -1.621 4.024
 -1.829 -1.621 4.03
 -1.816 -1.621 4.036
 -1.804 -1.622 4.042
 -1.79 -1.622 4.046
 -1.775 -1.62 4.048
 -1.761 -1.619 4.049
 -1.748 -1.62 4.056
 -1.735 -1.619 4.06
 -1.72 -1.618 4.061
 -1.708 -1.619 4.068
 -1.696 -1.62 4.076
 -1.682 -1.62 4.079
 -1.667 -1.617 4.078
 -1.655 -1.619 4.086
 -1.644 -1.621 4.095
 -1.63 -1.62 4.098
 -1.617 -1.621 4.104
 -1.607 -1.624 4.116
 -1.593 -1.623 4.119
 -1.577 -1.62 4.115
 -1.565 -1.621 4.122
 -1.55 -1.619 4.122
 -1.537 -1.619 4.126
 -1.522 -1.618 4.126
 -1.51 -1.619 4.133
 -1.495 -1.617 4.132
 -1.482 -1.617 4.136
 -1.467 -1.615 4.135
 -1.452 -1.613 4.135
 -1.437 -1.611 4.133
 -1.423 -1.61 4.135
 -1.41 -1.61 4.137
 -1.398 -1.612 4.145
 -1.386 -1.612 4.151
 -1.375 -1.615 4.161
 -1.359 -1.611 4.155
 -1.347 -1.613 4.162
 -1.331 -1.609 4.157
 -1.319 -1.611 4.165
 -1.304 -1.609 4.163
 -1.292 -1.609 4.168
 -1.278 -1.609 4.169
 -1.267 -1.611 4.178
 -1.252 -1.609 4.176
 -1.24 -1.611 4.184
 -1.228 -1.612 4.191
 -1.214 -1.611 4.191
 -1.198 -1.607 4.183
 -1.184 -1.606 4.184
 -1.169 -1.603 4.18
 -1.156 -1.603 4.182
 -1.144 -1.603 4.187
 -1.131 -1.604 4.191
 -1.119 -1.606 4.199
 -1.106 -1.605 4.201
 -1.093 -1.606 4.204
 -1.08 -1.606 4.206
 -1.067 -1.605 4.207
 -1.052 -1.603 4.206
 -1.04 -1.604 4.209
 -1.026 -1.603 4.211
 -1.013 -1.603 4.212
 -1.001 -1.604 4.218
 -0.989 -1.606 4.224
 -0.976 -1.606 4.228
 -0.963 -1.606 4.23
 -0.949 -1.604 4.228
 -0.936 -1.605 4.231
 -0.921 -1.601 4.223
 -0.907 -1.6 4.223
 -0.894 -1.599 4.224
 -0.88 -1.597 4.221
 -0.868 -1.599 4.227
 -0.855 -1.6 4.232
 -0.841 -1.597 4.227
 -0.828 -1.597 4.229
 -0.816 -1.598 4.233
 -0.801 -1.595 4.227
 -0.787 -1.593 4.223
 -0.774 -1.593 4.224
 -0.761 -1.592 4.225
 -0.748 -1.591 4.223
 -0.735 -1.591 4.226
 -0.722 -1.592 4.229
 -0.709 -1.592 4.232
 -0.697 -1.592 4.233
 -0.684 -1.593 4.237
 -0.67 -1.59 4.231
 -0.657 -1.589 4.229
 -0.643 -1.588 4.227
 -0.629 -1.585 4.222
 -0.618 -1.588 4.232
 -0.606 -1.591 4.241
 -0.593 -1.591 4.241
 -0.58 -1.59 4.24
 -0.567 -1.59 4.243
 -0.553 -1.587 4.234
 -0.54 -1.585 4.232
 -0.527 -1.587 4.237
 -0.515 -1.588 4.242
 -0.502 -1.588 4.242
 -0.489 -1.588 4.245
 -0.476 -1.587 4.243
 -0.463 -1.587 4.244
 -0.45 -1.586 4.242
 -0.437 -1.586 4.244
 -0.424 -1.585 4.241
 -0.412 -1.586 4.244
 -0.399 -1.585 4.244
 -0.386 -1.585 4.242
 -0.372 -1.583 4.237
 -0.36 -1.584 4.242
 -0.346 -1.58 4.232
 -0.334 -1.58 4.233
 -0.321 -1.579 4.231
 -0.308 -1.578 4.229
 -0.295 -1.577 4.228
 -0.283 -1.581 4.239
 -0.27 -1.579 4.232
 -0.257 -1.581 4.238
 -0.245 -1.582 4.243
 -0.231 -1.579 4.235
 -0.218 -1.576 4.228
 -0.206 -1.579 4.235
 -0.193 -1.58 4.237
 -0.18 -1.578 4.233
 -0.168 -1.58 4.24
 -0.155 -1.582 4.244
 -0.142 -1.581 4.242
 -0.129 -1.58 4.239
 -0.117 -1.58 4.239
 -0.104 -1.578 4.235
 -0.091 -1.578 4.234
 -0.078 -1.578 4.235
 -0.066 -1.577 4.233
 -0.053 -1.581 4.242
 -0.04 -1.583 4.247
 -0.028 -1.582 4.246
 -0.015 -1.581 4.242
 -0.002 -1.582 4.244
 0.01 -1.581 4.241
 0.022 -1.58 4.239
 0.035 -1.582 4.245
 0.048 -1.583 4.246
 0.061 -1.584 4.248
 0.073 -1.584 4.248
 0.086 -1.582 4.243
 0.099 -1.581 4.24
 0.112 -1.582 4.241
 0.124 -1.58 4.235
 0.137 -1.578 4.231
 0.15 -1.58 4.235
 0.162 -1.578 4.23
 0.175 -1.575 4.222
 0.187 -1.576 4.223
 0.2 -1.575 4.219
 0.213 -1.576 4.222
 0.226 -1.577 4.223
 0.238 -1.578 4.225
 0.251 -1.576 4.219
 0.264 -1.578 4.223
 0.276 -1.577 4.219
 0.289 -1.579 4.225
 0.303 -1.582 4.231
 0.316 -1.583 4.234
 0.328 -1.583 4.232
 0.341 -1.584 4.233
 0.354 -1.583 4.231
 0.366 -1.583 4.23
 0.379 -1.582 4.225
 0.391 -1.581 4.223
 0.404 -1.581 4.221
 0.417 -1.58 4.217
 0.43 -1.581 4.218
 0.443 -1.584 4.225
 0.456 -1.586 4.229
 0.469 -1.586 4.228
 0.483 -1.588 4.233
 0.495 -1.587 4.226
 0.508 -1.588 4.229
 0.521 -1.588 4.226
 0.534 -1.589 4.229
 0.546 -1.586 4.22
 0.559 -1.588 4.223
 0.571 -1.587 4.217
 0.585 -1.588 4.22
 0.597 -1.588 4.217
 0.61 -1.589 4.218
 0.623 -1.588 4.214
 0.636 -1.59 4.217
 0.649 -1.59 4.217
 0.662 -1.59 4.213
 0.675 -1.592 4.218
 0.688 -1.592 4.215
 0.7 -1.591 4.21
 0.713 -1.589 4.204
 0.725 -1.589 4.201
 0.737 -1.588 4.197
 0.752 -1.591 4.203
 0.764 -1.59 4.197
 0.776 -1.59 4.195
 0.791 -1.594 4.205
 0.804 -1.593 4.2
 0.817 -1.594 4.198
 0.831 -1.597 4.204
 0.844 -1.597 4.202
 0.857 -1.597 4.199
 0.871 -1.599 4.203
 0.882 -1.597 4.195
 0.894 -1.595 4.187
 0.908 -1.597 4.19
 0.919 -1.594 4.181
 0.933 -1.596 4.184
 0.947 -1.598 4.185
 0.961 -1.6 4.188
 0.974 -1.601 4.187
 0.988 -1.603 4.19
 0.999 -1.599 4.176
 1.012 -1.6 4.178
 1.025 -1.6 4.174
 1.037 -1.599 4.169
 1.048 -1.596 4.158
 1.064 -1.6 4.166
 1.076 -1.6 4.163
 1.091 -1.602 4.165
 1.106 -1.606 4.17
 1.121 -1.609 4.175
 1.134 -1.61 4.175
 1.149 -1.612 4.177
 1.161 -1.611 4.171
 1.175 -1.612 4.172
 1.189 -1.614 4.173
 1.201 -1.613 4.166
 1.213 -1.611 4.159
 1.225 -1.611 4.153
 1.238 -1.611 4.151
 1.252 -1.612 4.15
 1.266 -1.613 4.149
 1.28 -1.615 4.149
 1.295 -1.617 4.152
 1.308 -1.618 4.15
 1.321 -1.618 4.147
 1.334 -1.617 4.141
 1.346 -1.617 4.136
 1.361 -1.619 4.139
 1.373 -1.619 4.133
 1.385 -1.616 4.123
 1.399 -1.618 4.124
 1.412 -1.618 4.119
 1.424 -1.617 4.113
 1.438 -1.619 4.113
 1.451 -1.618 4.108
 1.464 -1.619 4.104
 1.476 -1.618 4.099
 1.489 -1.617 4.092
 1.502 -1.618 4.09
 1.516 -1.619 4.088
 1.527 -1.617 4.079
 1.543 -1.621 4.083
 1.556 -1.62 4.078
 1.568 -1.62 4.071
 1.584 -1.623 4.074
 1.598 -1.623 4.071
 1.611 -1.623 4.066
 1.625 -1.624 4.064
 1.636 -1.622 4.054
 1.647 -1.621 4.047
 1.661 -1.622 4.044
 1.67 -1.618 4.029
 1.682 -1.617 4.021
 1.694 -1.616 4.015
 1.707 -1.617 4.011
 1.72 -1.617 4.007
 1.735 -1.619 4.006
 1.749 -1.62 4.003
 1.762 -1.62 3.998
 1.773 -1.618 3.989
 1.784 -1.617 3.979
 1.798 -1.617 3.975
 1.812 -1.618 3.973
 1.825 -1.618 3.967
 1.837 -1.618 3.961
 1.847 -1.615 3.949
 1.855 -1.611 3.933
 1.859 -1.603 3.909
 1.864 -1.596 3.886
 1.867 -1.589 3.861
 1.871 -1.581 3.838
 1.871 -1.57 3.806
 1.872 -1.561 3.777
 1.874 -1.552 3.75
 1.875 -1.543 3.722
 1.876 -1.534 3.695
 1.881 -1.528 3.674
 1.884 -1.521 3.651
 1.887 -1.513 3.628
 1.889 -1.506 3.604
 1.894 -1.499 3.583
 1.901 -1.496 3.57
 1.902 -1.488 3.544
 0 0 0
 0 0 0
 0 0 0
 0 0 0
 0 0 0
 0 0 0
 0 0 0
 1.811 -1.349 3.169
 1.813 -1.343 3.149
 1.828 -1.346 3.151
 1.838 -1.346 3.145
 1.842 -1.341 3.127
 1.845 -1.336 3.11
 1.847 -1.329 3.088
 1.84 -1.317 3.054
 1.834 -1.305 3.021
 1.831 -1.296 2.994
 1.826 -1.285 2.964
 -2.308 -1.628 3.884
 -2.274 -1.614 3.856
 -2.272 -1.621 3.881
 -2.257 -1.62 3.885
 -2.239 -1.617 3.883
 -2.219 -1.612 3.878
 -2.204 -1.611 3.882
 -2.187 -1.609 3.882
 -2.178 -1.611 3.895
 -2.17 -1.615 3.911
 -2.161 -1.619 3.925
 -2.151 -1.621 3.937
 -2.138 -1.621 3.945
 -2.127 -1.623 3.956
 -2.115 -1.624 3.964
 -2.101 -1.623 3.968
 -2.086 -1.623 3.972
 -2.073 -1.622 3.977
 -2.058 -1.621 3.98
 -2.04 -1.618 3.977
 -2.027 -1.618 3.984
 -2.011 -1.616 3.985
 -2.001 -1.619 3.997
 -1.985 -1.617 3.997
 -1.974 -1.618 4.007
 -1.96 -1.618 4.012
 -1.949 -1.619 4.02
 -1.934 -1.618 4.023
 -1.924 -1.621 4.037
 -1.912 -1.622 4.044
 -1.899 -1.623 4.051
 -1.884 -1.621 4.051
 -1.87 -1.62 4.056
 -1.855 -1.619 4.058
 -1.842 -1.619 4.063
 -1.826 -1.617 4.062
 -1.812 -1.617 4.066
 -1.798 -1.616 4.069
 -1.786 -1.617 4.077
 -1.772 -1.616 4.079
 -1.76 -1.617 4.087
 -1.747 -1.617 4.092
 -1.732 -1.616 4.093
 -1.719 -1.616 4.099
 -1.706 -1.617 4.106
 -1.691 -1.615 4.105
 -1.676 -1.614 4.107
 -1.665 -1.616 4.116
 -1.652 -1.615 4.12
 -1.638 -1.615 4.123
 -1.626 -1.617 4.132
 -1.615 -1.619 4.142
 -1.601 -1.618 4.144
 -1.585 -1.615 4.14
 -1.574 -1.617 4.151
 -1.558 -1.615 4.149
 -1.545 -1.615 4.153
 -1.53 -1.613 4.152
 -1.518 -1.614 4.159
 -1.502 -1.611 4.156
 -1.489 -1.612 4.162
 -1.475 -1.61 4.161
 -1.462 -1.611 4.166
 -1.446 -1.608 4.163
 -1.433 -1.608 4.167
 -1.419 -1.607 4.168
 -1.408 -1.61 4.179
 -1.394 -1.609 4.18
 -1.383 -1.611 4.191
 -1.368 -1.609 4.187
 -1.356 -1.61 4.195
 -1.339 -1.606 4.188
 -1.327 -1.608 4.196
 -1.313 -1.606 4.195
 -1.298 -1.605 4.194
 -1.285 -1.605 4.197
 -1.273 -1.606 4.204
 -1.259 -1.605 4.204
 -1.247 -1.607 4.213
 -1.236 -1.608 4.221
 -1.22 -1.606 4.217
 -1.204 -1.602 4.209
 -1.191 -1.602 4.212
 -1.176 -1.6 4.209
 -1.163 -1.599 4.212
 -1.15 -1.599 4.214
 -1.137 -1.599 4.218
 -1.124 -1.6 4.223
 -1.111 -1.6 4.224
 -1.098 -1.599 4.226
 -1.086 -1.601 4.233
 -1.072 -1.6 4.234
 -1.058 -1.599 4.233
 -1.045 -1.599 4.235
 -1.032 -1.599 4.238
 -1.018 -1.598 4.239
 -1.007 -1.601 4.248
 -0.995 -1.603 4.256
 -0.981 -1.602 4.256
 -0.967 -1.6 4.253
 -0.953 -1.598 4.25
 -0.939 -1.596 4.248
 -0.923 -1.591 4.236
 -0.91 -1.591 4.239
 -0.897 -1.592 4.243
 -0.883 -1.59 4.239
 -0.87 -1.59 4.241
 -0.859 -1.593 4.252
 -0.844 -1.59 4.246
 -0.831 -1.59 4.247
 -0.818 -1.59 4.252
 -0.804 -1.589 4.248
 -0.79 -1.586 4.244
 -0.778 -1.587 4.248
 -0.764 -1.585 4.245
 -0.75 -1.583 4.242
 -0.738 -1.584 4.246
 -0.725 -1.585 4.249
 -0.712 -1.584 4.25
 -0.699 -1.585 4.253
 -0.687 -1.586 4.258
 -0.672 -1.583 4.25
 -0.658 -1.581 4.246
 -0.645 -1.579 4.244
 -0.631 -1.577 4.24
 -0.619 -1.579 4.245
 -0.607 -1.58 4.251
 -0.594 -1.58 4.252
 -0.581 -1.579 4.251
 -0.568 -1.58 4.254
 -0.554 -1.578 4.249
 -0.541 -1.577 4.248
 -0.528 -1.578 4.251
 -0.516 -1.577 4.252
 -0.502 -1.577 4.25
 -0.49 -1.577 4.253
 -0.477 -1.576 4.251
 -0.464 -1.576 4.252
 -0.451 -1.576 4.252
 -0.438 -1.576 4.254
 -0.425 -1.575 4.251
 -0.412 -1.576 4.255
 -0.399 -1.574 4.251
 -0.386 -1.574 4.251
 -0.373 -1.572 4.247
 -0.36 -1.574 4.253
 -0.347 -1.571 4.246
 -0.334 -1.571 4.247
 -0.321 -1.57 4.244
 -0.308 -1.569 4.242
 -0.295 -1.567 4.238
 -0.283 -1.568 4.243
 -0.27 -1.568 4.242
 -0.257 -1.57 4.247
 -0.245 -1.571 4.25
 -0.232 -1.569 4.246
 -0.219 -1.567 4.241
 -0.206 -1.568 4.244
 -0.193 -1.569 4.247
 -0.18 -1.568 4.244
 -0.168 -1.569 4.248
 -0.155 -1.57 4.251
 -0.142 -1.569 4.248
 -0.129 -1.568 4.245
 -0.117 -1.567 4.244
 -0.104 -1.567 4.242
 -0.091 -1.567 4.242
 -0.078 -1.568 4.247
 -0.066 -1.567 4.242
 -0.053 -1.569 4.249
 -0.04 -1.57 4.25
 -0.027 -1.568 4.247
 -0.015 -1.566 4.241
 -0.002 -1.569 4.247
 0.01 -1.568 4.245
 0.022 -1.568 4.244
 0.035 -1.57 4.252
 0.048 -1.572 4.256
 0.061 -1.571 4.251
 0.074 -1.57 4.25
 0.086 -1.569 4.246
 0.099 -1.568 4.243
 0.112 -1.567 4.241
 0.124 -1.566 4.238
 0.137 -1.565 4.233
 0.15 -1.565 4.234
 0.162 -1.566 4.235
 0.175 -1.563 4.226
 0.188 -1.564 4.23
 0.2 -1.565 4.23
 0.213 -1.567 4.236
 0.226 -1.566 4.233
 0.239 -1.568 4.235
 0.251 -1.567 4.232
 0.264 -1.567 4.233
 0.277 -1.567 4.232
 0.29 -1.57 4.239
 0.303 -1.573 4.245
 0.316 -1.574 4.247
 0.329 -1.574 4.247
 0.342 -1.574 4.245
 0.354 -1.572 4.239
 0.367 -1.572 4.237
 0.379 -1.57 4.233
 0.392 -1.57 4.231
 0.404 -1.569 4.228
 0.417 -1.569 4.225
 0.43 -1.57 4.226
 0.443 -1.571 4.227
 0.456 -1.573 4.232
 0.469 -1.574 4.232
 0.482 -1.575 4.235
 0.495 -1.573 4.228
 0.508 -1.575 4.232
 0.52 -1.574 4.228
 0.534 -1.576 4.231
 0.546 -1.574 4.225
 0.56 -1.577 4.232
 0.573 -1.577 4.23
 0.586 -1.579 4.233
 0.599 -1.579 4.231
 0.612 -1.581 4.236
 0.624 -1.579 4.227
 0.637 -1.58 4.228
 0.65 -1.579 4.224
 0.662 -1.578 4.221
 0.675 -1.579 4.22
 0.689 -1.58 4.223
 0.701 -1.579 4.218
 0.713 -1.578 4.213
 0.726 -1.577 4.208
 0.738 -1.577 4.206
 0.751 -1.577 4.204
 0.764 -1.577 4.201
 0.777 -1.578 4.203
 0.793 -1.584 4.215
 0.805 -1.582 4.209
 0.818 -1.583 4.21
 0.833 -1.586 4.216
 0.846 -1.587 4.215
 0.858 -1.586 4.21
 0.873 -1.589 4.216
 0.885 -1.588 4.21
 0.896 -1.586 4.201
 0.909 -1.586 4.201
 0.921 -1.585 4.194
 0.934 -1.585 4.193
 0.949 -1.588 4.196
 0.963 -1.59 4.2
 0.976 -1.59 4.197
 0.989 -1.591 4.198
 1 -1.588 4.186
 1.014 -1.589 4.187
 1.027 -1.591 4.187
 1.04 -1.591 4.186
 1.052 -1.589 4.177
 1.068 -1.594 4.186
 1.081 -1.593 4.183
 1.093 -1.593 4.179
 1.108 -1.596 4.183
 1.123 -1.6 4.19
 1.137 -1.6 4.187
 1.151 -1.602 4.189
 1.162 -1.6 4.181
 1.177 -1.602 4.183
 1.191 -1.604 4.184
 1.203 -1.602 4.177
 1.215 -1.601 4.171
 1.229 -1.602 4.17
 1.242 -1.603 4.168
 1.255 -1.603 4.164
 1.27 -1.605 4.167
 1.284 -1.606 4.166
 1.3 -1.61 4.173
 1.314 -1.611 4.172
 1.327 -1.612 4.17
 1.338 -1.61 4.161
 1.352 -1.611 4.158
 1.366 -1.612 4.157
 1.379 -1.612 4.154
 1.391 -1.61 4.146
 1.405 -1.611 4.145
 1.417 -1.611 4.14
 1.43 -1.611 4.136
 1.444 -1.612 4.133
 1.457 -1.612 4.13
 1.471 -1.614 4.13
 1.485 -1.614 4.127
 1.496 -1.612 4.116
 1.508 -1.611 4.111
 1.522 -1.612 4.109
 1.535 -1.612 4.103
 1.55 -1.614 4.104
 1.565 -1.616 4.105
 1.578 -1.617 4.102
 1.593 -1.618 4.102
 1.607 -1.62 4.1
 1.621 -1.62 4.096
 1.635 -1.621 4.094
 1.647 -1.62 4.087
 1.658 -1.619 4.078
 1.67 -1.618 4.071
 1.681 -1.616 4.061
 1.694 -1.616 4.055
 1.706 -1.615 4.049
 1.721 -1.617 4.048
 1.736 -1.619 4.048
 1.75 -1.619 4.044
 1.763 -1.619 4.039
 1.776 -1.619 4.034
 1.786 -1.616 4.021
 1.797 -1.614 4.011
 1.811 -1.616 4.01
 1.825 -1.617 4.007
 1.835 -1.614 3.993
 1.846 -1.613 3.985
 1.855 -1.609 3.97
 1.858 -1.601 3.945
 1.86 -1.591 3.915
 1.867 -1.586 3.897
 1.87 -1.578 3.871
 1.871 -1.568 3.842
 1.87 -1.557 3.809
 1.872 -1.548 3.782
 1.872 -1.538 3.75
 1.873 -1.529 3.724
 1.878 -1.523 3.703
 1.884 -1.518 3.685
 1.887 -1.511 3.661
 1.892 -1.505 3.641
 1.896 -1.499 3.62
 1.895 -1.488 3.59
 1.905 -1.487 3.581
 0 0 0
 0 0 0
 0 0 0
 0 0 0
 0 0 0
 0 0 0
 0 0 0
 0 0 0
 1.801 -1.332 3.157
 1.8 -1.323 3.13
 1.818 -1.328 3.137
 1.832 -1.331 3.138
 1.837 -1.326 3.123
 1.842 -1.322 3.107
 1.847 -1.319 3.093
 1.842 -1.308 3.062
 1.836 -1.296 3.029
 1.845 -1.295 3.02
 1.791 -1.25 2.91
 -2.293 -1.604 3.863
 -2.296 -1.616 3.899
 -2.291 -1.622 3.919
 -2.275 -1.62 3.921
 -2.258 -1.617 3.921
 -2.239 -1.614 3.919
 -2.224 -1.612 3.922
 -2.207 -1.61 3.922
 -2.198 -1.613 3.936
 -2.191 -1.618 3.955
 -2.181 -1.62 3.967
 -2.167 -1.62 3.972
 -2.153 -1.62 3.978
 -2.142 -1.621 3.987
 -2.13 -1.622 3.996
 -2.116 -1.622 4.002
 -2.102 -1.622 4.008
 -2.087 -1.62 4.009
 -2.07 -1.618 4.009
 -2.054 -1.616 4.01
 -2.04 -1.615 4.015
 -2.025 -1.614 4.016
 -2.016 -1.618 4.032
 -2.002 -1.617 4.037
 -1.989 -1.617 4.042
 -1.976 -1.618 4.049
 -1.965 -1.62 4.059
 -1.95 -1.618 4.062
 -1.939 -1.62 4.072
 -1.925 -1.62 4.076
 -1.912 -1.62 4.083
 -1.898 -1.62 4.086
 -1.884 -1.619 4.091
 -1.868 -1.617 4.091
 -1.854 -1.617 4.095
 -1.839 -1.615 4.095
 -1.824 -1.614 4.097
 -1.809 -1.612 4.099
 -1.797 -1.613 4.106
 -1.783 -1.613 4.11
 -1.77 -1.614 4.117
 -1.756 -1.613 4.12
 -1.742 -1.612 4.123
 -1.731 -1.614 4.132
 -1.718 -1.614 4.137
 -1.702 -1.612 4.137
 -1.688 -1.612 4.14
 -1.676 -1.613 4.149
 -1.661 -1.612 4.149
 -1.649 -1.613 4.156
 -1.636 -1.613 4.163
 -1.625 -1.615 4.172
 -1.611 -1.615 4.175
 -1.596 -1.612 4.173
 -1.583 -1.614 4.181
 -1.568 -1.612 4.181
 -1.554 -1.611 4.182
 -1.538 -1.608 4.18
 -1.525 -1.609 4.185
 -1.509 -1.606 4.181
 -1.496 -1.606 4.185
 -1.483 -1.606 4.19
 -1.47 -1.606 4.194
 -1.453 -1.603 4.189
 -1.44 -1.602 4.191
 -1.425 -1.601 4.192
 -1.412 -1.601 4.196
 -1.399 -1.601 4.199
 -1.387 -1.603 4.209
 -1.374 -1.603 4.212
 -1.362 -1.605 4.22
 -1.348 -1.603 4.219
 -1.335 -1.604 4.224
 -1.32 -1.602 4.223
 -1.305 -1.6 4.22
 -1.291 -1.599 4.222
 -1.278 -1.6 4.227
 -1.264 -1.598 4.227
 -1.253 -1.601 4.237
 -1.242 -1.603 4.246
 -1.227 -1.601 4.243
 -1.211 -1.598 4.239
 -1.197 -1.597 4.239
 -1.183 -1.595 4.237
 -1.169 -1.595 4.238
 -1.155 -1.593 4.237
 -1.141 -1.592 4.237
 -1.128 -1.592 4.241
 -1.114 -1.591 4.241
 -1.101 -1.591 4.242
 -1.088 -1.592 4.249
 -1.075 -1.591 4.25
 -1.062 -1.591 4.252
 -1.049 -1.592 4.257
 -1.036 -1.592 4.258
 -1.022 -1.591 4.259
 -1.01 -1.592 4.264
 -0.997 -1.594 4.271
 -0.983 -1.591 4.267
 -0.968 -1.588 4.262
 -0.955 -1.588 4.264
 -0.941 -1.586 4.261
 -0.925 -1.582 4.251
 -0.912 -1.582 4.255
 -0.9 -1.584 4.262
 -0.886 -1.583 4.261
 -0.872 -1.581 4.258
 -0.86 -1.582 4.263
 -0.845 -1.578 4.253
 -0.83 -1.575 4.248
 -0.817 -1.575 4.25
 -0.804 -1.576 4.253
 -0.791 -1.575 4.252
 -0.779 -1.577 4.261
 -0.766 -1.576 4.259
 -0.752 -1.574 4.256
 -0.739 -1.574 4.257
 -0.726 -1.575 4.262
 -0.713 -1.574 4.262
 -0.701 -1.576 4.269
 -0.687 -1.575 4.267
 -0.674 -1.573 4.264
 -0.659 -1.57 4.257
 -0.646 -1.569 4.254
 -0.632 -1.565 4.246
 -0.62 -1.569 4.257
 -0.607 -1.569 4.259
 -0.594 -1.569 4.26
 -0.581 -1.567 4.258
 -0.569 -1.569 4.264
 -0.555 -1.566 4.257
 -0.542 -1.566 4.258
 -0.529 -1.565 4.256
 -0.515 -1.564 4.254
 -0.502 -1.562 4.25
 -0.489 -1.563 4.254
 -0.476 -1.562 4.251
 -0.464 -1.563 4.257
 -0.451 -1.563 4.258
 -0.438 -1.564 4.26
 -0.425 -1.562 4.255
 -0.412 -1.561 4.255
 -0.398 -1.559 4.248
 -0.386 -1.559 4.25
 -0.373 -1.558 4.249
 -0.36 -1.56 4.255
 -0.347 -1.559 4.252
 -0.334 -1.56 4.255
 -0.322 -1.559 4.253
 -0.308 -1.557 4.249
 -0.295 -1.555 4.244
 -0.283 -1.556 4.247
 -0.27 -1.554 4.244
 -0.257 -1.555 4.245
 -0.244 -1.555 4.247
 -0.231 -1.555 4.247
 -0.219 -1.555 4.246
 -0.206 -1.557 4.252
 -0.193 -1.558 4.255
 -0.181 -1.558 4.257
 -0.168 -1.558 4.256
 -0.155 -1.559 4.26
 -0.142 -1.557 4.255
 -0.129 -1.555 4.249
 -0.117 -1.554 4.247
 -0.104 -1.554 4.245
 -0.091 -1.552 4.242
 -0.078 -1.553 4.243
 -0.066 -1.552 4.242
 -0.053 -1.554 4.245
 -0.04 -1.553 4.245
 -0.027 -1.553 4.243
 -0.015 -1.552 4.242
 -0.002 -1.556 4.25
 0.01 -1.555 4.249
 0.023 -1.554 4.246
 0.035 -1.556 4.251
 0.048 -1.558 4.256
 0.061 -1.556 4.25
 0.074 -1.556 4.25
 0.086 -1.557 4.252
 0.099 -1.555 4.247
 0.112 -1.554 4.243
 0.124 -1.553 4.239
 0.137 -1.551 4.235
 0.149 -1.55 4.232
 0.162 -1.553 4.238
 0.175 -1.551 4.232
 0.188 -1.552 4.236
 0.201 -1.554 4.24
 0.214 -1.557 4.248
 0.226 -1.556 4.243
 0.239 -1.556 4.243
 0.252 -1.556 4.241
 0.264 -1.555 4.237
 0.277 -1.554 4.234
 0.29 -1.556 4.239
 0.303 -1.559 4.247
 0.316 -1.56 4.248
 0.329 -1.56 4.247
 0.342 -1.56 4.245
 0.354 -1.558 4.241
 0.366 -1.556 4.233
 0.379 -1.556 4.232
 0.392 -1.555 4.23
 0.404 -1.555 4.228
 0.417 -1.555 4.226
 0.43 -1.556 4.227
 0.442 -1.556 4.226
 0.456 -1.558 4.232
 0.469 -1.559 4.231
 0.482 -1.559 4.231
 0.494 -1.559 4.229
 0.508 -1.562 4.235
 0.52 -1.56 4.23
 0.534 -1.562 4.233
 0.546 -1.561 4.229
 0.559 -1.563 4.231
 0.572 -1.562 4.228
 0.585 -1.564 4.232
 0.598 -1.563 4.229
 0.612 -1.566 4.234
 0.624 -1.564 4.227
 0.637 -1.565 4.228
 0.649 -1.564 4.223
 0.662 -1.564 4.221
 0.675 -1.564 4.22
 0.689 -1.567 4.226
 0.701 -1.566 4.222
 0.714 -1.566 4.219
 0.727 -1.566 4.217
 0.74 -1.569 4.222
 0.753 -1.567 4.217
 0.765 -1.567 4.214
 0.779 -1.569 4.217
 0.794 -1.573 4.224
 0.805 -1.57 4.214
 0.819 -1.572 4.219
 0.834 -1.576 4.225
 0.847 -1.576 4.223
 0.859 -1.575 4.22
 0.873 -1.577 4.223
 0.885 -1.575 4.214
 0.896 -1.573 4.207
 0.91 -1.574 4.207
 0.922 -1.573 4.202
 0.935 -1.574 4.201
 0.95 -1.577 4.205
 0.964 -1.578 4.207
 0.977 -1.579 4.207
 0.991 -1.581 4.21
 1.004 -1.581 4.207
 1.018 -1.582 4.207
 1.031 -1.583 4.207
 1.044 -1.583 4.204
 1.056 -1.582 4.198
 1.07 -1.584 4.2
 1.083 -1.584 4.196
 1.095 -1.583 4.191
 1.109 -1.584 4.191
 1.123 -1.586 4.194
 1.138 -1.588 4.195
 1.153 -1.592 4.201
 1.165 -1.59 4.193
 1.18 -1.593 4.197
 1.193 -1.594 4.197
 1.205 -1.592 4.188
 1.217 -1.59 4.18
 1.231 -1.591 4.18
 1.244 -1.593 4.179
 1.258 -1.593 4.178
 1.273 -1.596 4.182
 1.286 -1.597 4.179
 1.303 -1.602 4.189
 1.317 -1.602 4.187
 1.331 -1.603 4.185
 1.343 -1.602 4.179
 1.357 -1.603 4.177
 1.371 -1.604 4.177
 1.385 -1.605 4.175
 1.396 -1.603 4.166
 1.41 -1.604 4.165
 1.424 -1.605 4.162
 1.436 -1.604 4.156
 1.449 -1.604 4.153
 1.463 -1.606 4.151
