 -1.192 -1.625 4.018
 -1.16 -1.615 4
 -1.147 -1.633 4.049
 -1.11 -1.616 4.014
 -1.096 -1.632 4.06
 -1.065 -1.623 4.043
 -1.034 -1.615 4.027
 -1.002 -1.603 4.003
 -0.986 -1.618 4.045
 -0.957 -1.612 4.035
 -0.933 -1.614 4.045
 -0.914 -1.624 4.074
 -0.878 -1.604 4.029
 -0.865 -1.627 4.09
 -0.836 -1.62 4.077
 -0.809 -1.616 4.071
 -0.781 -1.611 4.062
 -0.756 -1.609 4.062
 -0.727 -1.601 4.044
 -0.715 -1.631 4.125
 -0.678 -1.603 4.057
 -0.656 -1.609 4.075
 -0.632 -1.612 4.085
 -0.606 -1.61 4.083
 -0.585 -1.62 4.11
 -0.559 -1.617 4.107
 -0.543 -1.645 4.18
 -0.509 -1.619 4.117
 -0.484 -1.62 4.12
 -0.46 -1.622 4.129
 -0.432 -1.612 4.104
 -0.409 -1.62 4.127
 -0.38 -1.604 4.087
 -0.356 -1.605 4.092
 -0.333 -1.617 4.124
 -0.311 -1.632 4.163
 -0.285 -1.627 4.153
 -0.259 -1.623 4.142
 -0.235 -1.627 4.153
 -0.21 -1.629 4.161
 -0.183 -1.616 4.128
 -0.159 -1.622 4.143
 -0.134 -1.627 4.156
 -0.11 -1.633 4.172
 -0.083 -1.615 4.126
 -0.058 -1.607 4.106
 -0.034 -1.622 4.145
 -0.009 -1.632 4.17
 0.015 -1.621 4.141
 0.04 -1.616 4.129
 0.065 -1.603 4.095
 0.09 -1.614 4.121
 0.116 -1.627 4.155
 0.14 -1.614 4.119
 0.164 -1.612 4.113
 0.189 -1.608 4.102
 0.215 -1.617 4.123
 0.241 -1.629 4.154
 0.263 -1.61 4.104
 0.291 -1.627 4.145
 0.313 -1.612 4.103
 0.34 -1.623 4.129
 0.362 -1.607 4.087
 0.384 -1.598 4.062
 0.414 -1.617 4.11
 0.442 -1.628 4.134
 0.465 -1.621 4.115
 0.49 -1.623 4.117
 0.515 -1.621 4.107
 0.538 -1.615 4.089
 0.566 -1.626 4.115
 0.595 -1.637 4.14
 0.615 -1.623 4.1
 0.639 -1.619 4.087
 0.667 -1.627 4.103
 0.686 -1.615 4.068
 0.713 -1.618 4.072
 0.744 -1.632 4.102
 0.761 -1.615 4.056
 0.795 -1.633 4.098
 0.82 -1.635 4.097
 0.836 -1.616 4.044
 0.872 -1.637 4.092
 0.898 -1.639 4.093
 0.921 -1.635 4.078
 0.942 -1.627 4.053
 0.974 -1.64 4.079
 0.993 -1.63 4.049
 1.014 -1.623 4.025
 1.043 -1.63 4.037
 1.074 -1.639 4.053
 1.09 -1.625 4.012
 1.12 -1.633 4.025
 1.152 -1.642 4.042
 1.166 -1.627 3.999
 1.196 -1.634 4.009
 1.211 -1.621 3.969
 1.259 -1.651 4.037
 1.267 -1.629 3.975
 1.296 -1.635 3.981
 1.313 -1.625 3.95
 1.346 -1.634 3.965
 1.378 -1.643 3.978
 1.402 -1.641 3.966
 1.411 -1.623 3.913
 1.437 -1.624 3.908
 1.473 -1.637 3.93
 1.496 -1.635 3.916
 1.518 -1.631 3.898
 1.541 -1.629 3.885
 1.575 -1.639 3.898
 1.599 -1.637 3.886
 1.614 -1.628 3.854
 1.636 -1.624 3.836
 1.667 -1.631 3.842
 1.685 -1.624 3.815
 1.728 -1.641 3.845
 1.748 -1.637 3.824
 1.766 -1.63 3.798
 1.803 -1.641 3.814
 1.812 -1.627 3.77
 1.843 -1.632 3.771
 1.846 -1.613 3.715
 1.879 -1.62 3.721
 1.86 -1.583 3.624
 1.884 -1.583 3.612
 1.873 -1.554 3.535
 1.894 -1.552 3.517
 1.915 -1.549 3.501
 1.881 -1.504 3.387
 1.86 -1.47 3.297
 1.852 -1.446 3.232
 1.851 -1.428 3.181
 1.855 -1.414 3.14
 1.862 -1.404 3.105
 1.86 -1.386 3.055
 1.824 -1.344 2.949
 -2.209 -1.62 3.708
 -2.218 -1.646 3.781
 -2.152 -1.617 3.725
 -2.166 -1.647 3.807
 -2.131 -1.639 3.803
 -2.072 -1.614 3.756
 -2.071 -1.633 3.813
 -2.027 -1.619 3.792
 -2.018 -1.633 3.835
 -1.98 -1.623 3.823
 -1.952 -1.621 3.83
 -1.94 -1.633 3.868
 -1.878 -1.602 3.805
 -1.889 -1.633 3.891
 -1.857 -1.628 3.889
 -1.823 -1.621 3.883
 -1.806 -1.628 3.911
 -1.789 -1.636 3.94
 -1.737 -1.613 3.893
 -1.734 -1.633 3.953
 -1.708 -1.634 3.963
 -1.684 -1.635 3.977
 -1.651 -1.628 3.969
 -1.632 -1.635 3.995
 -1.61 -1.639 4.013
 -1.558 -1.612 3.954
 -1.554 -1.635 4.02
 -1.515 -1.62 3.993
 -1.502 -1.634 4.035
 -1.459 -1.616 3.997
 -1.437 -1.619 4.013
 -1.413 -1.622 4.027
 -1.398 -1.634 4.066
 -1.363 -1.623 4.045
 -1.33 -1.614 4.031
 -1.309 -1.619 4.05
 -1.285 -1.622 4.063
 -1.261 -1.623 4.074
 -1.226 -1.611 4.05
 -1.205 -1.618 4.072
 -1.178 -1.615 4.072
 -1.157 -1.621 4.094
 -1.133 -1.624 4.106
 -1.098 -1.61 4.078
 -1.08 -1.621 4.11
 -1.058 -1.626 4.129
 -1.028 -1.621 4.12
 -0.998 -1.614 4.107
 -0.966 -1.602 4.082
 -0.95 -1.618 4.127
 -0.918 -1.607 4.104
 -0.898 -1.616 4.131
 -0.865 -1.603 4.102
 -0.841 -1.605 4.112
 -0.824 -1.622 4.159
 -0.789 -1.603 4.114
 -0.769 -1.612 4.142
 -0.739 -1.602 4.12
 -0.713 -1.6 4.119
 -0.69 -1.605 4.135
 -0.671 -1.621 4.179
 -0.642 -1.613 4.162
 -0.615 -1.609 4.154
 -0.593 -1.616 4.176
 -0.571 -1.626 4.204
 -0.542 -1.617 4.183
 -0.518 -1.62 4.193
 -0.494 -1.626 4.209
 -0.463 -1.609 4.168
 -0.44 -1.617 4.192
 -0.413 -1.612 4.179
 -0.39 -1.619 4.2
 -0.363 -1.611 4.181
 -0.338 -1.613 4.186
 -0.314 -1.62 4.208
 -0.285 -1.602 4.16
 -0.262 -1.615 4.196
 -0.239 -1.631 4.238
 -0.213 -1.625 4.223
 -0.185 -1.603 4.168
 -0.16 -1.609 4.183
 -0.135 -1.608 4.18
 -0.11 -1.614 4.198
 -0.084 -1.608 4.183
 -0.059 -1.611 4.19
 -0.034 -1.603 4.168
 -0.009 -1.612 4.193
 0.016 -1.614 4.198
 0.041 -1.613 4.195
 0.066 -1.602 4.165
 0.091 -1.612 4.191
 0.117 -1.611 4.185
 0.143 -1.63 4.235
 0.166 -1.603 4.163
 0.192 -1.608 4.176
 0.218 -1.614 4.189
 0.241 -1.601 4.153
 0.269 -1.616 4.193
 0.294 -1.617 4.192
 0.321 -1.626 4.214
 0.346 -1.622 4.201
 0.369 -1.613 4.176
 0.395 -1.615 4.18
 0.419 -1.612 4.168
 0.442 -1.605 4.147
 0.468 -1.607 4.151
 0.489 -1.592 4.109
 0.52 -1.613 4.161
 0.544 -1.609 4.147
 0.57 -1.611 4.15
 0.594 -1.609 4.139
 0.622 -1.615 4.152
 0.645 -1.609 4.133
 0.67 -1.609 4.13
 0.698 -1.615 4.141
 0.728 -1.627 4.168
 0.752 -1.623 4.154
 0.774 -1.618 4.136
 0.801 -1.62 4.137
 0.823 -1.613 4.116
 0.842 -1.602 4.082
 0.891 -1.646 4.189
 0.896 -1.609 4.09
 0.926 -1.618 4.107
 0.955 -1.624 4.117
 0.986 -1.634 4.136
 1.002 -1.619 4.094
 1.026 -1.616 4.081
 1.062 -1.634 4.121
 1.082 -1.626 4.093
 1.095 -1.608 4.041
 1.132 -1.624 4.076
 1.161 -1.63 4.084
 1.181 -1.622 4.058
 1.214 -1.633 4.078
 1.235 -1.627 4.057
 1.27 -1.639 4.08
 1.289 -1.632 4.054
 1.314 -1.631 4.043
 1.34 -1.632 4.039
 1.377 -1.646 4.066
 1.39 -1.631 4.021
 1.42 -1.637 4.026
 1.443 -1.633 4.01
 1.467 -1.633 3.999
 1.492 -1.632 3.99
 1.518 -1.632 3.981
 1.557 -1.647 4.008
 1.568 -1.632 3.962
 1.594 -1.633 3.954
 1.628 -1.641 3.965
 1.646 -1.634 3.938
 1.667 -1.63 3.918
 1.704 -1.641 3.935
 1.724 -1.636 3.913
 1.739 -1.626 3.879
 1.765 -1.626 3.869
 1.801 -1.636 3.883
 1.809 -1.621 3.835
 1.85 -1.635 3.857
 1.876 -1.636 3.849
 1.871 -1.609 3.775
 1.894 -1.608 3.759
 1.889 -1.583 3.691
 1.857 -1.537 3.57
 1.875 -1.532 3.547
 1.879 -1.516 3.5
 1.858 -1.481 3.406
 1.911 -1.504 3.449
 0 0 0
 0 0 0
 1.851 -1.406 3.19
 1.856 -1.394 3.15
 1.845 -1.369 3.083
 1.826 -1.34 3.006
 1.835 -1.331 2.975
 -2.273 -1.641 3.828
 -2.233 -1.632 3.818
 -2.221 -1.642 3.855
 -2.17 -1.624 3.825
 -2.132 -1.615 3.816
 -2.112 -1.62 3.84
 -2.078 -1.613 3.837
 -2.066 -1.624 3.874
 -2.023 -1.611 3.854
 -2.011 -1.622 3.893
 -2 -1.634 3.933
 -1.972 -1.633 3.942
 -1.94 -1.628 3.941
 -1.924 -1.637 3.973
 -1.885 -1.627 3.959
 -1.857 -1.625 3.964
 -1.831 -1.625 3.976
 -1.803 -1.624 3.983
 -1.773 -1.62 3.983
 -1.738 -1.611 3.972
 -1.72 -1.619 4.001
 -1.697 -1.622 4.016
 -1.663 -1.614 4.006
 -1.635 -1.613 4.012
 -1.615 -1.619 4.036
 -1.601 -1.631 4.076
 -1.575 -1.631 4.084
 -1.538 -1.619 4.064
 -1.502 -1.609 4.045
 -1.483 -1.616 4.071
 -1.458 -1.617 4.083
 -1.437 -1.623 4.106
 -1.411 -1.624 4.114
 -1.373 -1.609 4.084
 -1.351 -1.614 4.104
 -1.326 -1.615 4.114
 -1.305 -1.621 4.136
 -1.271 -1.611 4.116
 -1.245 -1.611 4.123
 -1.228 -1.622 4.158
 -1.2 -1.619 4.158
 -1.176 -1.623 4.173
 -1.153 -1.627 4.189
 -1.116 -1.611 4.153
 -1.086 -1.604 4.142
 -1.062 -1.608 4.157
 -1.033 -1.603 4.149
 -1.012 -1.611 4.175
 -0.989 -1.614 4.188
 -0.968 -1.623 4.216
 -0.934 -1.609 4.185
 -0.904 -1.602 4.171
 -0.883 -1.611 4.197
 -0.854 -1.605 4.187
 -0.831 -1.609 4.2
 -0.805 -1.608 4.204
 -0.78 -1.61 4.211
 -0.75 -1.602 4.194
 -0.719 -1.588 4.162
 -0.698 -1.6 4.196
 -0.68 -1.618 4.245
 -0.654 -1.618 4.25
 -0.623 -1.604 4.216
 -0.598 -1.605 4.222
 -0.572 -1.606 4.226
 -0.545 -1.601 4.215
 -0.521 -1.606 4.231
 -0.494 -1.602 4.224
 -0.471 -1.611 4.249
 -0.44 -1.593 4.203
 -0.418 -1.605 4.237
 -0.39 -1.594 4.209
 -0.365 -1.598 4.223
 -0.343 -1.613 4.264
 -0.315 -1.604 4.24
 -0.29 -1.605 4.243
 -0.262 -1.588 4.201
 -0.237 -1.592 4.21
 -0.211 -1.588 4.202
 -0.188 -1.605 4.249
 -0.161 -1.597 4.227
 -0.135 -1.587 4.201
 -0.111 -1.6 4.235
 -0.085 -1.601 4.237
 -0.059 -1.593 4.218
 -0.034 -1.605 4.249
 -0.009 -1.599 4.233
 0.016 -1.586 4.197
 0.041 -1.597 4.226
 0.067 -1.597 4.227
 0.092 -1.592 4.212
 0.118 -1.597 4.225
 0.144 -1.61 4.258
 0.169 -1.6 4.23
 0.194 -1.601 4.231
 0.22 -1.6 4.228
 0.244 -1.591 4.203
 0.271 -1.602 4.231
 0.296 -1.602 4.23
 0.322 -1.604 4.23
 0.344 -1.589 4.189
 0.374 -1.608 4.238
 0.398 -1.6 4.215
 0.421 -1.592 4.191
 0.448 -1.598 4.204
 0.471 -1.591 4.184
 0.501 -1.607 4.222
 0.524 -1.599 4.198
 0.552 -1.606 4.214
 0.577 -1.606 4.21
 0.607 -1.616 4.235
 0.632 -1.616 4.229
 0.655 -1.608 4.205
 0.684 -1.616 4.223
 0.704 -1.604 4.187
 0.731 -1.607 4.192
 0.755 -1.605 4.18
 0.777 -1.598 4.159
 0.807 -1.606 4.174
 0.836 -1.614 4.192
 0.862 -1.614 4.188
 0.884 -1.607 4.164
 0.918 -1.623 4.2
 0.939 -1.614 4.172
 0.967 -1.619 4.178
 0.987 -1.61 4.151
 1.01 -1.605 4.132
 1.038 -1.61 4.14
 1.068 -1.616 4.15
 1.09 -1.611 4.131
 1.123 -1.622 4.152
 1.141 -1.612 4.118
 1.18 -1.63 4.159
 1.191 -1.61 4.102
 1.222 -1.617 4.113
 1.249 -1.619 4.11
 1.287 -1.635 4.143
 1.302 -1.622 4.102
 1.336 -1.632 4.12
 1.352 -1.621 4.084
 1.386 -1.63 4.1
 1.408 -1.626 4.083
 1.421 -1.612 4.037
 1.461 -1.628 4.069
 1.487 -1.628 4.06
 1.52 -1.636 4.073
 1.54 -1.63 4.048
 1.564 -1.628 4.035
 1.59 -1.629 4.027
 1.614 -1.627 4.013
 1.657 -1.644 4.046
 1.656 -1.618 3.971
 1.685 -1.622 3.971
 1.719 -1.63 3.98
 1.736 -1.621 3.949
 1.764 -1.624 3.945
 1.779 -1.614 3.91
 1.805 -1.615 3.902
 1.843 -1.626 3.917
 1.867 -1.624 3.902
 1.86 -1.596 3.823
 1.871 -1.584 3.784
 1.857 -1.552 3.696
 1.888 -1.557 3.697
 1.89 -1.539 3.642
 1.901 -1.529 3.606
 1.873 -1.488 3.497
 1.893 -1.484 3.478
 0 0 0
 0 0 0
 0 0 0
 0 0 0
 1.842 -1.361 3.134
 1.839 -1.344 3.082
 1.86 -1.343 3.069
 1.826 -1.304 2.969
 -2.301 -1.635 3.884
 -2.243 -1.612 3.844
 -2.228 -1.621 3.877
 -2.174 -1.6 3.841
 -2.175 -1.621 3.903
 -2.158 -1.628 3.932
 -2.121 -1.62 3.926
 -2.11 -1.632 3.967
 -2.069 -1.621 3.953
 -2.05 -1.627 3.978
 -2.015 -1.62 3.973
 -1.968 -1.604 3.943
 -1.963 -1.622 3.999
 -1.927 -1.613 3.99
 -1.899 -1.612 3.997
 -1.874 -1.613 4.011
 -1.859 -1.624 4.047
 -1.817 -1.609 4.021
 -1.81 -1.627 4.076
 -1.776 -1.62 4.068
 -1.759 -1.629 4.1
 -1.721 -1.619 4.084
 -1.711 -1.634 4.133
 -1.66 -1.611 4.083
 -1.639 -1.616 4.104
 -1.615 -1.618 4.12
 -1.584 -1.613 4.116
 -1.549 -1.605 4.102
 -1.533 -1.616 4.139
 -1.495 -1.603 4.113
 -1.484 -1.62 4.165
 -1.447 -1.608 4.143
 -1.418 -1.606 4.144
 -1.4 -1.615 4.175
 -1.37 -1.61 4.169
 -1.337 -1.602 4.156
 -1.314 -1.606 4.174
 -1.286 -1.604 4.176
 -1.268 -1.614 4.208
 -1.241 -1.613 4.212
 -1.214 -1.612 4.215
 -1.186 -1.61 4.216
 -1.161 -1.612 4.228
 -1.135 -1.613 4.235
 -1.106 -1.608 4.229
 -1.078 -1.606 4.229
 -1.052 -1.607 4.235
 -1.024 -1.603 4.23
 -1.002 -1.61 4.255
 -0.974 -1.607 4.251
 -0.935 -1.585 4.197
 -0.912 -1.59 4.216
 -0.889 -1.596 4.236
 -0.863 -1.595 4.238
 -0.834 -1.589 4.224
 -0.813 -1.6 4.258
 -0.783 -1.59 4.237
 -0.758 -1.592 4.246
 -0.732 -1.593 4.25
 -0.702 -1.583 4.228
 -0.679 -1.589 4.248
 -0.651 -1.586 4.241
 -0.622 -1.575 4.215
 -0.599 -1.583 4.24
 -0.577 -1.593 4.268
 -0.551 -1.592 4.269
 -0.523 -1.585 4.253
 -0.498 -1.59 4.268
 -0.472 -1.588 4.265
 -0.444 -1.58 4.246
 -0.421 -1.591 4.277
 -0.393 -1.582 4.253
 -0.367 -1.579 4.248
 -0.341 -1.577 4.244
 -0.314 -1.574 4.236
 -0.29 -1.578 4.25
 -0.265 -1.583 4.263
 -0.238 -1.577 4.248
 -0.214 -1.583 4.266
 -0.188 -1.582 4.263
 -0.162 -1.576 4.248
 -0.136 -1.576 4.248
 -0.109 -1.56 4.205
 -0.085 -1.569 4.228
 -0.06 -1.58 4.259
 -0.034 -1.585 4.272
 -0.008 -1.577 4.25
 0.016 -1.579 4.255
 0.042 -1.588 4.279
 0.067 -1.574 4.241
 0.092 -1.57 4.23
 0.118 -1.575 4.241
 0.143 -1.572 4.233
 0.17 -1.587 4.274
 0.195 -1.578 4.248
 0.22 -1.573 4.231
 0.247 -1.584 4.259
 0.271 -1.579 4.244
 0.296 -1.574 4.231
 0.323 -1.582 4.249
 0.345 -1.567 4.208
 0.374 -1.582 4.246
 0.396 -1.567 4.203
 0.422 -1.571 4.212
 0.449 -1.577 4.223
 0.477 -1.584 4.241
 0.503 -1.587 4.245
 0.531 -1.592 4.257
 0.556 -1.59 4.248
 0.577 -1.579 4.215
 0.606 -1.589 4.238
 0.632 -1.588 4.233
 0.659 -1.592 4.239
 0.682 -1.586 4.219
 0.705 -1.579 4.198
 0.742 -1.605 4.263
 0.763 -1.594 4.229
 0.791 -1.599 4.239
 0.816 -1.599 4.232
 0.842 -1.6 4.23
 0.87 -1.604 4.236
 0.892 -1.596 4.211
 0.921 -1.602 4.222
 0.94 -1.59 4.185
 0.978 -1.612 4.236
 1.003 -1.61 4.226
 1.026 -1.606 4.209
 1.053 -1.606 4.205
 1.08 -1.609 4.206
 1.108 -1.612 4.208
 1.126 -1.601 4.172
 1.152 -1.601 4.165
 1.187 -1.613 4.192
 1.212 -1.612 4.182
 1.235 -1.608 4.165
 1.266 -1.615 4.175
 1.287 -1.609 4.151
 1.315 -1.611 4.151
 1.339 -1.61 4.14
 1.371 -1.616 4.148
 1.4 -1.621 4.151
 1.419 -1.612 4.122
 1.448 -1.616 4.123
 1.476 -1.619 4.121
 1.5 -1.617 4.107
 1.533 -1.624 4.117
 1.556 -1.62 4.098
 1.593 -1.632 4.119
 1.601 -1.614 4.064
 1.638 -1.625 4.081
 1.668 -1.628 4.081
 1.689 -1.624 4.06
 1.725 -1.633 4.073
 1.728 -1.612 4.01
 1.758 -1.616 4.009
 1.778 -1.61 3.984
 1.819 -1.623 4.007
 1.831 -1.611 3.966
 1.859 -1.613 3.959
 1.881 -1.61 3.94
 1.883 -1.59 3.88
 1.873 -1.56 3.797
 1.894 -1.557 3.777
 1.884 -1.529 3.697
 1.902 -1.524 3.673
 1.859 -1.471 3.534
 0 0 0
 0 0 0
 0 0 0
 0 0 0
 0 0 0
 0 0 0
 1.856 -1.349 3.165
 1.854 -1.333 3.114
 1.872 -1.33 3.098
 1.842 -1.294 3.002
 -2.324 -1.624 3.933
 -2.291 -1.62 3.936
 -2.259 -1.616 3.94
 -2.248 -1.628 3.982
 -2.21 -1.62 3.976
 -2.174 -1.613 3.972
 -2.16 -1.623 4.008
 -2.107 -1.603 3.971
 -2.103 -1.621 4.027
 -2.077 -1.622 4.041
 -2.051 -1.622 4.054
 -2.001 -1.604 4.02
 -1.997 -1.623 4.079
 -1.946 -1.603 4.038
 -1.933 -1.615 4.08
 -1.906 -1.614 4.089
 -1.885 -1.619 4.112
 -1.837 -1.601 4.076
 -1.823 -1.612 4.114
 -1.815 -1.629 4.167
 -1.779 -1.621 4.157
 -1.744 -1.614 4.148
 -1.71 -1.607 4.14
 -1.688 -1.611 4.161
 -1.658 -1.608 4.162
 -1.626 -1.603 4.158
 -1.605 -1.609 4.181
 -1.563 -1.593 4.148
 -1.567 -1.624 4.239
 -1.51 -1.593 4.166
 -1.491 -1.601 4.194
 -1.481 -1.62 4.251
 -1.443 -1.607 4.225
 -1.396 -1.584 4.171
 -1.382 -1.599 4.218
 -1.347 -1.589 4.199
 -1.325 -1.594 4.219
 -1.299 -1.594 4.226
 -1.273 -1.594 4.233
 -1.243 -1.59 4.229
 -1.216 -1.589 4.233
 -1.186 -1.585 4.227
 -1.176 -1.606 4.29
 -1.138 -1.591 4.256
 -1.115 -1.595 4.273
 -1.082 -1.585 4.251
 -1.059 -1.591 4.273
 -1.035 -1.594 4.286
 -1.001 -1.582 4.259
 -0.979 -1.589 4.283
 -0.949 -1.583 4.27
 -0.914 -1.568 4.234
 -0.89 -1.572 4.248
 -0.865 -1.573 4.256
 -0.843 -1.581 4.282
 -0.816 -1.58 4.283
 -0.784 -1.568 4.254
 -0.757 -1.566 4.252
 -0.731 -1.565 4.254
 -0.708 -1.571 4.273
 -0.682 -1.571 4.277
 -0.655 -1.568 4.271
 -0.631 -1.574 4.29
 -0.601 -1.563 4.263
 -0.576 -1.565 4.271
 -0.549 -1.562 4.266
 -0.523 -1.561 4.266
 -0.497 -1.562 4.271
 -0.47 -1.558 4.261
 -0.446 -1.563 4.276
 -0.417 -1.55 4.243
 -0.393 -1.557 4.264
 -0.369 -1.563 4.283
 -0.342 -1.559 4.271
 -0.316 -1.556 4.267
 -0.291 -1.558 4.272
 -0.264 -1.555 4.266
 -0.239 -1.555 4.266
 -0.213 -1.555 4.266
 -0.187 -1.549 4.251
 -0.163 -1.565 4.295
 -0.137 -1.561 4.284
 -0.111 -1.556 4.272
 -0.085 -1.545 4.241
 -0.059 -1.544 4.239
 -0.034 -1.55 4.254
 -0.008 -1.558 4.276
 0.016 -1.551 4.256
 0.042 -1.551 4.256
 0.067 -1.555 4.266
 0.092 -1.543 4.234
 0.119 -1.563 4.287
 0.145 -1.559 4.277
 0.169 -1.55 4.25
 0.195 -1.55 4.249
 0.221 -1.555 4.26
 0.246 -1.551 4.247
 0.271 -1.552 4.249
 0.296 -1.55 4.243
 0.323 -1.557 4.258
 0.346 -1.543 4.22
 0.372 -1.545 4.222
 0.398 -1.551 4.237
 0.422 -1.546 4.22
 0.451 -1.556 4.244
 0.476 -1.555 4.239
 0.503 -1.558 4.246
 0.53 -1.563 4.255
 0.552 -1.553 4.226
 0.579 -1.558 4.235
 0.605 -1.559 4.234
 0.632 -1.561 4.238
 0.657 -1.562 4.236
 0.681 -1.558 4.22
 0.709 -1.564 4.234
 0.736 -1.566 4.237
 0.76 -1.563 4.223
 0.784 -1.559 4.208
 0.813 -1.566 4.222
 0.839 -1.567 4.219
 0.868 -1.574 4.233
 0.898 -1.58 4.245
 0.921 -1.575 4.228
 0.946 -1.575 4.222
 0.977 -1.583 4.237
 0.997 -1.574 4.207
 1.03 -1.585 4.233
 1.055 -1.583 4.222
 1.076 -1.577 4.198
 1.105 -1.58 4.202
 1.139 -1.592 4.226
 1.161 -1.587 4.206
 1.186 -1.586 4.197
 1.214 -1.589 4.198
 1.248 -1.599 4.219
 1.275 -1.6 4.215
 1.307 -1.608 4.226
 1.329 -1.602 4.203
 1.364 -1.613 4.225
 1.394 -1.617 4.226
 1.403 -1.598 4.169
 1.437 -1.606 4.181
 1.468 -1.611 4.188
 1.487 -1.604 4.16
 1.516 -1.606 4.157
 1.555 -1.62 4.183
 1.575 -1.613 4.158
 1.6 -1.613 4.146
 1.63 -1.616 4.145
 1.653 -1.612 4.127
 1.672 -1.606 4.1
 1.704 -1.611 4.103
 1.744 -1.624 4.126
 1.753 -1.609 4.077
 1.784 -1.613 4.077
 1.815 -1.617 4.076
 1.843 -1.618 4.069
 1.869 -1.618 4.058
 1.871 -1.597 3.994
 1.883 -1.585 3.953
 1.878 -1.56 3.88
 1.89 -1.549 3.841
 1.907 -1.542 3.812
 1.905 -1.521 3.747
 1.906 -1.502 3.69
 0 0 0
 0 0 0
 0 0 0
 0 0 0
 0 0 0
 0 0 0
 0 0 0
 1.834 -1.312 3.136
 1.837 -1.299 3.094
 1.85 -1.293 3.069
 1.834 -1.268 2.997
 -2.348 -1.614 3.985
 -2.323 -1.615 4.001
 -2.273 -1.599 3.975
 -2.271 -1.617 4.033
 -2.238 -1.614 4.037
 -2.21 -1.613 4.048
 -2.175 -1.607 4.046
 -2.161 -1.617 4.084
 -2.127 -1.612 4.082
 -2.087 -1.603 4.071
 -2.063 -1.605 4.089
 -2.045 -1.612 4.118
 -2.022 -1.616 4.139
 -1.979 -1.603 4.117
 -1.952 -1.603 4.128
 -1.951 -1.625 4.196
 -1.895 -1.601 4.145
 -1.864 -1.598 4.147
 -1.853 -1.612 4.193
 -1.813 -1.6 4.173
 -1.786 -1.601 4.185
 -1.768 -1.609 4.216
 -1.735 -1.603 4.21
 -1.711 -1.606 4.227
 -1.681 -1.603 4.229
 -1.648 -1.598 4.224
 -1.622 -1.599 4.235
 -1.596 -1.6 4.247
 -1.572 -1.603 4.262
 -1.538 -1.595 4.251
 -1.496 -1.58 4.218
 -1.493 -1.605 4.293
 -1.464 -1.603 4.296
 -1.43 -1.596 4.284
 -1.406 -1.599 4.301
 -1.375 -1.595 4.296
 -1.353 -1.6 4.317
 -1.308 -1.578 4.264
 -1.284 -1.582 4.28
 -1.252 -1.575 4.267
 -1.22 -1.568 4.255
 -1.188 -1.561 4.244
 -1.163 -1.563 4.253
 -1.144 -1.573 4.286
 -1.121 -1.578 4.306
 -1.088 -1.568 4.285
 -1.065 -1.573 4.303
 -1.033 -1.564 4.285
 -1.007 -1.565 4.292
 -0.983 -1.57 4.31
 -0.954 -1.566 4.304
 -0.922 -1.555 4.279
 -0.897 -1.557 4.289
 -0.87 -1.557 4.293
 -0.845 -1.559 4.301
 -0.815 -1.552 4.287
 -0.788 -1.55 4.284
 -0.763 -1.551 4.292
 -0.733 -1.544 4.276
 -0.706 -1.54 4.268
 -0.678 -1.536 4.258
 -0.651 -1.533 4.255
 -0.628 -1.541 4.28
 -0.598 -1.529 4.248
 -0.573 -1.531 4.256
 -0.549 -1.536 4.274
 -0.524 -1.539 4.284
 -0.499 -1.54 4.29
 -0.471 -1.535 4.278
 -0.446 -1.539 4.289
 -0.418 -1.53 4.267
 -0.394 -1.535 4.281
 -0.369 -1.537 4.29
 -0.342 -1.534 4.282
 -0.317 -1.536 4.29
 -0.29 -1.528 4.268
 -0.264 -1.527 4.265
 -0.238 -1.524 4.259
 -0.213 -1.528 4.27
 -0.187 -1.526 4.265
 -0.161 -1.526 4.266
 -0.136 -1.523 4.259
 -0.11 -1.528 4.272
 -0.085 -1.531 4.281
 -0.059 -1.523 4.26
 -0.034 -1.528 4.273
 -0.008 -1.531 4.282
 0.016 -1.525 4.265
 0.042 -1.523 4.258
 0.067 -1.514 4.231
 0.093 -1.524 4.26
 0.118 -1.526 4.264
 0.144 -1.522 4.252
 0.17 -1.527 4.263
 0.195 -1.528 4.266
 0.22 -1.526 4.259
 0.247 -1.532 4.275
 0.272 -1.53 4.268
 0.298 -1.532 4.271
 0.325 -1.54 4.292
 0.347 -1.524 4.245
 0.376 -1.537 4.278
 0.399 -1.526 4.245
 0.426 -1.532 4.26
 0.452 -1.535 4.267
 0.474 -1.522 4.226
 0.505 -1.54 4.276
 0.53 -1.539 4.268
 0.554 -1.533 4.248
 0.582 -1.54 4.264
 0.607 -1.537 4.253
 0.631 -1.535 4.243
 0.654 -1.528 4.22
 0.686 -1.543 4.258
 0.71 -1.54 4.247
 0.737 -1.543 4.251
 0.76 -1.537 4.23
 0.79 -1.545 4.247
 0.814 -1.543 4.238
 0.839 -1.541 4.228
 0.866 -1.543 4.228
 0.894 -1.548 4.236
 0.923 -1.553 4.246
 0.949 -1.553 4.242
 0.969 -1.544 4.21
 0.994 -1.543 4.203
 1.028 -1.555 4.23
 1.06 -1.565 4.25
 1.089 -1.57 4.258
 1.112 -1.565 4.239
 1.134 -1.559 4.217
 1.164 -1.565 4.226
 1.189 -1.563 4.214
 1.211 -1.559 4.196
 1.246 -1.569 4.217
 1.277 -1.576 4.228
 1.303 -1.576 4.221
 1.333 -1.58 4.224
 1.353 -1.574 4.199
 1.382 -1.576 4.199
 1.411 -1.58 4.2
 1.441 -1.584 4.203
 1.475 -1.592 4.215
 1.488 -1.578 4.169
 1.53 -1.595 4.206
 1.549 -1.587 4.177
 1.577 -1.589 4.173
 1.607 -1.592 4.172
 1.64 -1.599 4.18
 1.668 -1.601 4.174
 1.699 -1.605 4.176
 1.719 -1.598 4.148
 1.748 -1.601 4.144
 1.76 -1.588 4.102
 1.803 -1.603 4.129
 1.819 -1.594 4.095
 1.845 -1.593 4.082
 1.848 -1.573 4.02
 1.871 -1.571 4.003
 1.894 -1.568 3.986
 1.905 -1.557 3.944
 1.919 -1.547 3.909
 1.915 -1.523 3.837
 1.917 -1.505 3.78
 0 0 0
 0 0 0
 0 0 0
 0 0 0
 0 0 0
 0 0 0
 0 0 0
 0 0 0
 1.84 -1.295 3.154
 1.865 -1.297 3.147
 1.869 -1.285 3.107
 1.86 -1.264 3.046
 -2.389 -1.614 4.063
 0 0 0
 -2.32 -1.605 4.069
 -2.29 -1.603 4.076
 -2.29 -1.623 4.141
 -2.25 -1.615 4.132
 -2.214 -1.609 4.129
 -2.176 -1.601 4.123
 -2.158 -1.608 4.153
 -2.128 -1.607 4.161
 -2.089 -1.598 4.15
 -2.076 -1.609 4.19
 -2.06 -1.618 4.226
 -2.011 -1.601 4.193
 -1.982 -1.601 4.203
 -1.944 -1.592 4.19
 -1.921 -1.596 4.211
 -1.894 -1.596 4.222
 -1.871 -1.6 4.244
 -1.844 -1.601 4.256
 -1.813 -1.597 4.257
 -1.769 -1.582 4.227
 -1.745 -1.585 4.244
 -1.721 -1.588 4.262
 -1.692 -1.587 4.266
 -1.675 -1.596 4.301
 -1.624 -1.574 4.25
 -1.613 -1.589 4.3
 -1.575 -1.58 4.282
 -1.559 -1.59 4.319
 -1.515 -1.574 4.282
 -1.493 -1.578 4.302
 -1.46 -1.572 4.294
 -1.428 -1.566 4.285
 -1.397 -1.562 4.281
 -1.377 -1.57 4.309
 -1.342 -1.56 4.289
 -1.302 -1.545 4.255
 -1.279 -1.549 4.271
 -1.253 -1.55 4.281
 -1.227 -1.55 4.289
 -1.206 -1.558 4.315
 -1.171 -1.547 4.29
 -1.139 -1.54 4.278
 -1.118 -1.547 4.303
 -1.094 -1.551 4.32
 -1.062 -1.542 4.301
 -1.031 -1.536 4.287
 -1.008 -1.541 4.306
 -0.974 -1.529 4.277
 -0.954 -1.539 4.311
 -0.922 -1.529 4.287
 -0.893 -1.526 4.282
 -0.869 -1.529 4.297
 -0.843 -1.528 4.298
 -0.819 -1.532 4.312
 -0.785 -1.518 4.275
 -0.761 -1.521 4.288
 -0.734 -1.52 4.289
 -0.708 -1.52 4.293
 -0.682 -1.52 4.295
 -0.655 -1.517 4.29
 -0.625 -1.508 4.266
 -0.602 -1.515 4.289
 -0.575 -1.512 4.284
 -0.546 -1.503 4.261
 -0.519 -1.499 4.251
 -0.497 -1.51 4.284
 -0.471 -1.511 4.289
 -0.445 -1.509 4.286
 -0.42 -1.51 4.29
 -0.391 -1.5 4.264
 -0.368 -1.51 4.294
 -0.34 -1.501 4.268
 -0.314 -1.497 4.26
 -0.291 -1.508 4.293
 -0.264 -1.501 4.274
 -0.238 -1.5 4.27
 -0.213 -1.506 4.288
 -0.186 -1.495 4.259
 -0.162 -1.509 4.3
 -0.136 -1.504 4.286
 -0.11 -1.499 4.27
 -0.085 -1.502 4.278
 -0.059 -1.491 4.248
 -0.033 -1.5 4.272
 -0.008 -1.499 4.269
 0.017 -1.504 4.284
 0.042 -1.496 4.26
 0.068 -1.5 4.272
 0.092 -1.489 4.239
 0.118 -1.496 4.259
 0.143 -1.492 4.246
 0.17 -1.499 4.266
 0.195 -1.5 4.268
 0.22 -1.495 4.251
 0.245 -1.494 4.247
 0.272 -1.502 4.268
 0.298 -1.507 4.281
 0.322 -1.499 4.255
 0.349 -1.505 4.271
 0.374 -1.503 4.264
 0.399 -1.501 4.256
 0.426 -1.506 4.267
 0.45 -1.503 4.255
 0.478 -1.508 4.268
 0.502 -1.506 4.258
 0.524 -1.496 4.226
 0.555 -1.508 4.26
 0.581 -1.511 4.263
 0.605 -1.507 4.249
 0.63 -1.507 4.245
 0.659 -1.513 4.26
 0.684 -1.512 4.254
 0.706 -1.505 4.229
 0.733 -1.509 4.235
 0.761 -1.513 4.243
 0.789 -1.517 4.251
 0.814 -1.515 4.24
 0.836 -1.51 4.22
 0.867 -1.519 4.242
 0.895 -1.524 4.25
 0.921 -1.523 4.244
 0.949 -1.527 4.249
 0.98 -1.535 4.267
 0.999 -1.524 4.231
 1.03 -1.532 4.247
 1.054 -1.53 4.234
 1.079 -1.529 4.226
 1.112 -1.538 4.245
 1.13 -1.528 4.211
 1.159 -1.532 4.216
 1.195 -1.544 4.243
 1.215 -1.537 4.216
 1.25 -1.548 4.241
 1.268 -1.538 4.205
 1.303 -1.549 4.227
 1.333 -1.553 4.232
 1.36 -1.555 4.229
 1.384 -1.552 4.213
 1.418 -1.561 4.228
 1.446 -1.562 4.225
 1.475 -1.565 4.224
 1.493 -1.557 4.194
 1.524 -1.562 4.198
 1.55 -1.561 4.187
 1.589 -1.574 4.211
 1.612 -1.57 4.193
 1.646 -1.577 4.202
 1.669 -1.574 4.184
 1.697 -1.576 4.18
 1.729 -1.581 4.182
 1.751 -1.577 4.161
 1.788 -1.586 4.174
 1.813 -1.585 4.161
 1.838 -1.583 4.146
 1.869 -1.586 4.144
 1.864 -1.56 4.064
 1.876 -1.548 4.022
 1.868 -1.521 3.94
 1.912 -1.536 3.966
 1.89 -1.498 3.857
 1.917 -1.5 3.85
 1.933 -1.493 3.821
 0 0 0
 0 0 0
 0 0 0
 0 0 0
 0 0 0
 0 0 0
 0 0 0
 0 0 0
 0 0 0
 1.865 -1.275 3.155
 1.865 -1.261 3.109
 1.864 -1.246 3.061
 -2.427 -1.612 4.139
 -2.394 -1.609 4.145
 -2.372 -1.613 4.17
 -2.349 -1.616 4.193
 -2.287 -1.593 4.144
 -2.272 -1.602 4.181
 -2.252 -1.608 4.21
 -2.215 -1.601 4.205
 -2.172 -1.591 4.189
 -2.152 -1.597 4.218
 -2.147 -1.614 4.275
 -2.103 -1.602 4.256
 -2.076 -1.603 4.269
 -2.042 -1.599 4.27
 -2.001 -1.588 4.253
 -1.977 -1.591 4.273
 -1.946 -1.588 4.275
 -1.908 -1.58 4.263
 -1.895 -1.592 4.307
 -1.865 -1.59 4.312
 -1.829 -1.584 4.305
 -1.799 -1.582 4.309
 -1.764 -1.576 4.301
 -1.736 -1.574 4.307
 -1.706 -1.572 4.311
 -1.678 -1.572 4.32
 -1.641 -1.564 4.304
 -1.62 -1.569 4.328
 -1.576 -1.554 4.294
 -1.546 -1.55 4.292
 -1.515 -1.547 4.291
 -1.495 -1.553 4.318
 -1.468 -1.554 4.326
 -1.433 -1.545 4.309
 -1.391 -1.529 4.272
 -1.371 -1.536 4.299
 -1.347 -1.539 4.315
 -1.314 -1.533 4.302
 -1.283 -1.528 4.296
 -1.255 -1.525 4.295
 -1.227 -1.524 4.298
 -1.196 -1.518 4.287
 -1.173 -1.523 4.307
 -1.144 -1.52 4.303
 -1.118 -1.521 4.311
 -1.087 -1.514 4.298
 -1.057 -1.509 4.289
 -1.029 -1.507 4.288
 -1.005 -1.511 4.305
 -0.981 -1.514 4.317
 -0.948 -1.503 4.291
 -0.924 -1.507 4.306
 -0.898 -1.507 4.311
 -0.873 -1.509 4.321
 -0.839 -1.496 4.287
 -0.811 -1.493 4.282
 -0.787 -1.497 4.297
 -0.765 -1.503 4.319
 -0.736 -1.498 4.309
 -0.705 -1.489 4.285
 -0.683 -1.496 4.308
 -0.653 -1.487 4.287
 -0.626 -1.485 4.284
 -0.602 -1.489 4.296
 -0.573 -1.481 4.276
 -0.544 -1.472 4.252
 -0.522 -1.481 4.282
 -0.495 -1.48 4.28
 -0.468 -1.474 4.266
 -0.443 -1.477 4.275
 -0.418 -1.478 4.28
 -0.392 -1.479 4.285
 -0.367 -1.48 4.289
 -0.34 -1.473 4.269
 -0.315 -1.478 4.285
 -0.289 -1.476 4.28
 -0.263 -1.475 4.28
 -0.237 -1.469 4.262
 -0.212 -1.471 4.268
 -0.186 -1.468 4.262
 -0.16 -1.468 4.263
 -0.135 -1.467 4.26
 -0.11 -1.48 4.297
 -0.084 -1.476 4.286
 -0.059 -1.471 4.272
 -0.033 -1.473 4.276
 -0.008 -1.459 4.235
 0.017 -1.479 4.293
 0.042 -1.464 4.25
 0.067 -1.461 4.239
 0.094 -1.486 4.311
 0.119 -1.475 4.281
 0.144 -1.467 4.256
 0.169 -1.47 4.264
 0.195 -1.469 4.259
 0.221 -1.476 4.278
 0.245 -1.465 4.245
 0.269 -1.462 4.235
 0.296 -1.47 4.254
 0.323 -1.475 4.266
 0.347 -1.469 4.248
 0.374 -1.477 4.27
 0.4 -1.477 4.268
 0.42 -1.46 4.216
 0.447 -1.466 4.23
 0.476 -1.477 4.259
 0.503 -1.481 4.27
 0.53 -1.485 4.278
 0.552 -1.477 4.25
 0.58 -1.481 4.261
 0.607 -1.486 4.27
 0.629 -1.478 4.244
 0.655 -1.479 4.243
 0.681 -1.48 4.243
 0.708 -1.483 4.248
 0.732 -1.48 4.234
 0.765 -1.494 4.271
 0.789 -1.491 4.256
 0.815 -1.491 4.253
 0.839 -1.488 4.241
 0.864 -1.488 4.235
 0.887 -1.483 4.217
 0.917 -1.491 4.232
 0.944 -1.492 4.232
 0.975 -1.501 4.251
 1.001 -1.501 4.246
 1.032 -1.508 4.261
 1.059 -1.511 4.263
 1.074 -1.495 4.21
 1.113 -1.514 4.259
 1.137 -1.51 4.243
 1.167 -1.516 4.252
 1.184 -1.504 4.212
 1.215 -1.511 4.224
 1.246 -1.517 4.236
 1.275 -1.521 4.239
 1.296 -1.514 4.212
 1.333 -1.527 4.241
 1.351 -1.518 4.209
 1.389 -1.531 4.236
 1.421 -1.537 4.245
 1.439 -1.529 4.214
 1.468 -1.532 4.213
 1.495 -1.532 4.206
 1.531 -1.542 4.226
 1.546 -1.531 4.186
 1.581 -1.539 4.199
 1.618 -1.55 4.219
 1.645 -1.55 4.209
 1.686 -1.563 4.236
 1.704 -1.555 4.205
 1.734 -1.558 4.203
 1.762 -1.56 4.196
 1.776 -1.548 4.155
 1.822 -1.565 4.191
 1.855 -1.571 4.193
 1.864 -1.556 4.143
 1.866 -1.536 4.078
 1.882 -1.527 4.045
 1.894 -1.516 4.003
 1.89 -1.492 3.93
 1.921 -1.497 3.929
 0 0 0
 0 0 0
 0 0 0
 0 0 0
 0 0 0
 0 0 0
 0 0 0
 0 0 0
 0 0 0
 0 0 0
 0 0 0
 1.875 -1.26 3.18
 1.891 -1.257 3.158
 1.85 -1.216 3.044
 -2.472 -1.613 4.226
 -2.411 -1.591 4.183
 -2.37 -1.583 4.176
 -2.341 -1.583 4.187
 -2.321 -1.589 4.217
 -2.315 -1.604 4.271
 -2.288 -1.605 4.286
 -2.242 -1.593 4.267
 -2.226 -1.602 4.304
 -2.174 -1.585 4.269
 -2.163 -1.598 4.317
 -2.111 -1.58 4.282
 -2.096 -1.59 4.32
 -2.053 -1.579 4.302
 -2.035 -1.587 4.335
 -1.981 -1.567 4.291
 -1.967 -1.577 4.331
 -1.936 -1.575 4.336
 -1.906 -1.574 4.341
 -1.863 -1.561 4.317
 -1.832 -1.559 4.32
 -1.802 -1.557 4.325
 -1.759 -1.543 4.296
 -1.733 -1.545 4.31
 -1.688 -1.529 4.275
 -1.672 -1.539 4.313
 -1.647 -1.542 4.329
 -1.619 -1.541 4.335
 -1.575 -1.525 4.299
 -1.541 -1.518 4.288
 -1.514 -1.519 4.296
 -1.491 -1.523 4.316
 -1.471 -1.53 4.345
 -1.431 -1.517 4.315
 -1.394 -1.506 4.29
 -1.371 -1.509 4.307
 -1.343 -1.509 4.313
 -1.307 -1.498 4.287
 -1.28 -1.497 4.293
 -1.255 -1.5 4.306
 -1.224 -1.494 4.295
 -1.192 -1.488 4.283
 -1.167 -1.49 4.295
 -1.145 -1.495 4.317
 -1.116 -1.492 4.313
 -1.087 -1.488 4.306
 -1.056 -1.481 4.292
 -1.029 -1.481 4.298
 -1.001 -1.478 4.292
 -0.974 -1.476 4.293
 -0.945 -1.472 4.285
 -0.92 -1.475 4.299
 -0.887 -1.463 4.267
 -0.87 -1.479 4.317
 -0.836 -1.465 4.281
 -0.812 -1.468 4.294
 -0.787 -1.47 4.303
 -0.756 -1.461 4.281
 -0.737 -1.474 4.322
 -0.705 -1.461 4.288
 -0.674 -1.451 4.262
 -0.653 -1.461 4.292
 -0.623 -1.451 4.267
 -0.603 -1.465 4.311
 -0.573 -1.455 4.284
 -0.546 -1.454 4.281
 -0.523 -1.459 4.299
 -0.495 -1.454 4.286
 -0.47 -1.454 4.29
 -0.441 -1.446 4.266
 -0.419 -1.458 4.305
 -0.39 -1.443 4.262
 -0.366 -1.453 4.292
 -0.341 -1.455 4.3
 -0.315 -1.451 4.289
 -0.288 -1.447 4.28
 -0.264 -1.451 4.293
 -0.237 -1.448 4.282
 -0.212 -1.45 4.289
 -0.187 -1.454 4.304
 -0.16 -1.437 4.254
 -0.135 -1.441 4.264
 -0.11 -1.447 4.284
 -0.084 -1.441 4.265
 -0.058 -1.443 4.271
 -0.033 -1.435 4.247
 -0.008 -1.442 4.269
 0.017 -1.427 4.223
 0.042 -1.445 4.275
 0.068 -1.451 4.293
 0.093 -1.447 4.281
 0.119 -1.446 4.276
 0.144 -1.444 4.27
 0.17 -1.449 4.283
 0.195 -1.446 4.275
 0.221 -1.452 4.29
 0.246 -1.445 4.267
 0.272 -1.449 4.278
 0.295 -1.438 4.244
 0.323 -1.448 4.272
 0.347 -1.445 4.26
 0.373 -1.445 4.258
 0.4 -1.452 4.276
 0.424 -1.448 4.261
 0.45 -1.449 4.262
 0.475 -1.446 4.252
 0.502 -1.452 4.266
 0.524 -1.442 4.235
 0.552 -1.449 4.25
 0.574 -1.442 4.227
 0.605 -1.454 4.258
 0.627 -1.445 4.231
 0.662 -1.467 4.29
 0.677 -1.444 4.22
 0.709 -1.458 4.257
 0.739 -1.467 4.278
 0.76 -1.459 4.251
 0.785 -1.458 4.245
 0.811 -1.459 4.243
 0.84 -1.464 4.254
 0.869 -1.47 4.266
 0.894 -1.469 4.258
 0.922 -1.472 4.263
 0.943 -1.465 4.236
 0.975 -1.475 4.259
 0.998 -1.471 4.242
 1.028 -1.477 4.254
 1.055 -1.478 4.252
 1.082 -1.479 4.249
 1.102 -1.473 4.224
 1.136 -1.483 4.246
 1.167 -1.489 4.258
 1.194 -1.49 4.255
 1.217 -1.487 4.24
 1.245 -1.49 4.239
 1.278 -1.498 4.256
 1.301 -1.494 4.236
 1.328 -1.495 4.232
 1.353 -1.494 4.222
 1.383 -1.498 4.225
 1.415 -1.504 4.236
 1.444 -1.507 4.235
 1.473 -1.51 4.235
 1.497 -1.508 4.221
 1.528 -1.512 4.224
 1.556 -1.514 4.22
 1.586 -1.517 4.22
 1.622 -1.526 4.237
 1.64 -1.518 4.205
 1.675 -1.526 4.217
 1.701 -1.525 4.205
 1.731 -1.529 4.205
 1.75 -1.522 4.174
 1.788 -1.532 4.191
 1.815 -1.532 4.183
 1.841 -1.531 4.169
 1.866 -1.53 4.155
 1.882 -1.521 4.12
 1.894 -1.51 4.078
 1.893 -1.489 4.009
 1.916 -1.486 3.991
 0 0 0
 0 0 0
 0 0 0
 0 0 0
 0 0 0
 0 0 0
 0 0 0
 0 0 0
 0 0 0
 0 0 0
 0 0 0
 0 0 0
 1.859 -1.228 3.16
 1.853 -1.21 3.102
 1.85 -1.195 3.051
 -2.497 -1.6 4.279
 -2.459 -1.594 4.277
 -2.413 -1.584 4.262
 -2.413 -1.602 4.327
 -2.393 -1.609 4.357
 -2.343 -1.595 4.333
 -2.273 -1.566 4.269
 -2.26 -1.577 4.311
 -2.236 -1.58 4.332
 -2.184 -1.564 4.299
 -2.157 -1.565 4.315
 -2.111 -1.552 4.291
 -2.099 -1.564 4.336
 -2.069 -1.563 4.345
 -2.018 -1.546 4.308
 -1.992 -1.548 4.324
 -1.958 -1.543 4.32
 -1.922 -1.536 4.314
 -1.885 -1.529 4.302
 -1.85 -1.523 4.296
 -1.841 -1.538 4.35
 -1.798 -1.526 4.324
 -1.752 -1.51 4.289
 -1.728 -1.513 4.306
 -1.696 -1.509 4.304
 -1.682 -1.521 4.347
 -1.633 -1.501 4.3
 -1.601 -1.497 4.297
 -1.578 -1.501 4.316
 -1.541 -1.491 4.296
 -1.521 -1.498 4.325
 -1.489 -1.494 4.319
 -1.461 -1.492 4.322
 -1.436 -1.495 4.338
 -1.402 -1.487 4.322
 -1.374 -1.486 4.325
 -1.342 -1.48 4.316
 -1.312 -1.477 4.313
 -1.283 -1.474 4.312
 -1.255 -1.473 4.314
 -1.227 -1.471 4.315
 -1.202 -1.473 4.327
 -1.173 -1.471 4.326
 -1.142 -1.465 4.314
 -1.117 -1.467 4.326
 -1.078 -1.45 4.28
 -1.058 -1.458 4.31
 -1.033 -1.46 4.32
 -1 -1.451 4.297
 -0.969 -1.444 4.282
 -0.946 -1.449 4.301
 -0.917 -1.444 4.291
 -0.889 -1.441 4.287
 -0.867 -1.448 4.31
 -0.835 -1.437 4.281
 -0.815 -1.448 4.318
 -0.783 -1.437 4.29
 -0.755 -1.433 4.282
 -0.731 -1.436 4.294
 -0.701 -1.428 4.271
 -0.676 -1.43 4.282
 -0.648 -1.424 4.267
 -0.625 -1.43 4.289
 -0.596 -1.423 4.269
 -0.572 -1.428 4.287
 -0.544 -1.422 4.271
 -0.519 -1.423 4.277
 -0.497 -1.432 4.307
 -0.469 -1.428 4.294
 -0.445 -1.431 4.307
 -0.413 -1.41 4.245
 -0.391 -1.422 4.284
 -0.367 -1.429 4.306
 -0.338 -1.418 4.272
 -0.314 -1.422 4.288
 -0.288 -1.42 4.283
 -0.262 -1.42 4.283
 -0.237 -1.421 4.287
 -0.211 -1.416 4.273
 -0.185 -1.413 4.264
 -0.16 -1.415 4.27
 -0.135 -1.421 4.287
 -0.109 -1.414 4.266
 -0.084 -1.42 4.287
 -0.058 -1.419 4.283
 -0.033 -1.413 4.265
 -0.007 -1.42 4.286
 0.017 -1.409 4.251
 0.042 -1.414 4.266
 0.068 -1.417 4.275
 0.094 -1.424 4.296
 0.119 -1.419 4.28
 0.145 -1.423 4.292
 0.17 -1.425 4.295
 0.195 -1.422 4.285
 0.22 -1.415 4.263
 0.245 -1.417 4.266
 0.271 -1.419 4.271
 0.295 -1.414 4.253
 0.322 -1.42 4.27
 0.347 -1.418 4.263
 0.375 -1.426 4.285
 0.402 -1.432 4.301
 0.427 -1.43 4.292
 0.451 -1.427 4.281
 0.472 -1.414 4.238
 0.503 -1.428 4.277
 0.527 -1.424 4.262
 0.553 -1.426 4.267
 0.579 -1.428 4.269
 0.604 -1.427 4.263
 0.628 -1.424 4.25
 0.654 -1.425 4.249
 0.683 -1.432 4.266
 0.71 -1.434 4.27
 0.736 -1.436 4.271
 0.758 -1.428 4.243
 0.782 -1.426 4.232
 0.811 -1.432 4.246
 0.839 -1.437 4.256
 0.866 -1.439 4.258
 0.892 -1.439 4.253
 0.914 -1.434 4.234
 0.943 -1.439 4.242
 0.968 -1.438 4.233
 1.004 -1.453 4.274
 1.025 -1.446 4.246
 1.056 -1.453 4.261
 1.081 -1.453 4.255
 1.11 -1.456 4.259
 1.136 -1.457 4.255
 1.158 -1.452 4.233
 1.188 -1.457 4.243
 1.215 -1.458 4.237
 1.232 -1.447 4.2
 1.273 -1.465 4.245
 1.301 -1.468 4.245
 1.324 -1.464 4.228
 1.358 -1.472 4.243
 1.377 -1.465 4.215
 1.405 -1.467 4.212
 1.433 -1.469 4.21
 1.463 -1.473 4.214
 1.495 -1.478 4.221
 1.527 -1.485 4.23
 1.548 -1.48 4.207
 1.586 -1.491 4.229
 1.602 -1.481 4.192
 1.642 -1.494 4.219
 1.671 -1.495 4.214
 1.695 -1.494 4.199
 1.736 -1.506 4.224
 1.758 -1.501 4.201
 1.783 -1.501 4.189
 1.82 -1.509 4.202
 1.831 -1.496 4.154
 1.853 -1.493 4.135
 1.886 -1.498 4.139
 1.882 -1.474 4.061
 1.882 -1.454 3.994
 0 0 0
 0 0 0
 0 0 0
 0 0 0
 0 0 0
 0 0 0
 0 0 0
 0 0 0
 0 0 0
 0 0 0
 0 0 0
 0 0 0
 1.839 -1.207 3.181
 1.884 -1.223 3.209
 1.882 -1.207 3.157
 1.852 -1.175 3.061
 0 0 0
 -2.478 -1.578 4.32
 0 0 0
 -2.381 -1.552 4.278
 -2.354 -1.554 4.296
 -2.372 -1.585 4.395
 -2.302 -1.558 4.333
 -2.24 -1.535 4.282
 -2.23 -1.548 4.331
 -2.209 -1.553 4.358
 -2.165 -1.542 4.34
 -2.131 -1.538 4.341
 -2.094 -1.532 4.334
 -2.047 -1.519 4.308
 -2.011 -1.512 4.301
 -1.995 -1.522 4.34
 -1.964 -1.52 4.344
 -1.916 -1.504 4.308
 -1.894 -1.509 4.333
 -1.849 -1.495 4.303
 -1.83 -1.502 4.335
 -1.805 -1.504 4.35
 -1.766 -1.495 4.333
 -1.732 -1.489 4.325
 -1.706 -1.491 4.339
 -1.666 -1.48 4.316
 -1.643 -1.483 4.335
 -1.611 -1.479 4.33
 -1.569 -1.465 4.299
 -1.55 -1.473 4.331
 -1.51 -1.461 4.303
 -1.491 -1.469 4.334
 -1.453 -1.458 4.307
 -1.431 -1.463 4.331
 -1.399 -1.458 4.323
 -1.366 -1.451 4.309
 -1.33 -1.441 4.287
 -1.306 -1.444 4.301
 -1.275 -1.439 4.294
 -1.259 -1.451 4.335
 -1.219 -1.436 4.297
 -1.191 -1.434 4.297
 -1.168 -1.438 4.316
 -1.133 -1.427 4.286
 -1.112 -1.433 4.311
 -1.082 -1.429 4.304
 -1.056 -1.43 4.312
 -1.027 -1.426 4.304
 -0.999 -1.423 4.301
 -0.972 -1.422 4.301
 -0.946 -1.422 4.307
 -0.915 -1.415 4.288
 -0.896 -1.425 4.325
 -0.861 -1.413 4.29
 -0.84 -1.42 4.318
 -0.808 -1.41 4.29
 -0.777 -1.401 4.267
 -0.758 -1.413 4.307
 -0.728 -1.406 4.288
 -0.708 -1.416 4.322
 -0.68 -1.413 4.315
 -0.648 -1.4 4.278
 -0.623 -1.401 4.284
 -0.599 -1.404 4.298
 -0.572 -1.401 4.291
 -0.543 -1.394 4.27
 -0.516 -1.39 4.262
 -0.493 -1.397 4.285
 -0.467 -1.397 4.285
 -0.443 -1.401 4.302
 -0.417 -1.399 4.295
 -0.39 -1.396 4.288
 -0.366 -1.402 4.307
 -0.34 -1.398 4.297
 -0.312 -1.391 4.275
 -0.287 -1.389 4.272
 -0.261 -1.386 4.263
 -0.236 -1.388 4.27
 -0.212 -1.397 4.298
 -0.184 -1.385 4.261
 -0.159 -1.386 4.265
 -0.135 -1.397 4.3
 -0.109 -1.393 4.287
 -0.083 -1.386 4.267
 -0.058 -1.393 4.289
 -0.033 -1.388 4.273
 -0.007 -1.377 4.239
 0.017 -1.384 4.259
 0.043 -1.396 4.295
 0.068 -1.396 4.295
 0.093 -1.389 4.273
 0.118 -1.383 4.255
 0.144 -1.393 4.283
 0.169 -1.39 4.274
 0.195 -1.393 4.281
 0.219 -1.384 4.253
 0.247 -1.399 4.296
 0.269 -1.382 4.243
 0.296 -1.389 4.262
 0.321 -1.389 4.26
 0.347 -1.391 4.264
 0.369 -1.378 4.222
 0.398 -1.394 4.269
 0.424 -1.393 4.265
 0.448 -1.39 4.253
 0.472 -1.386 4.237
 0.499 -1.391 4.25
 0.527 -1.398 4.269
 0.554 -1.403 4.28
 0.577 -1.396 4.258
 0.602 -1.397 4.255
 0.626 -1.393 4.239
 0.657 -1.404 4.271
 0.678 -1.396 4.242
 0.705 -1.399 4.248
 0.733 -1.403 4.257
 0.759 -1.404 4.254
 0.778 -1.393 4.217
 0.806 -1.398 4.228
 0.836 -1.405 4.246
 0.871 -1.421 4.289
 0.889 -1.408 4.245
 0.924 -1.424 4.287
 0.944 -1.415 4.255
 0.976 -1.423 4.275
 0.992 -1.41 4.229
 1.026 -1.421 4.257
 1.052 -1.422 4.255
 1.081 -1.425 4.259
 1.101 -1.418 4.232
 1.135 -1.429 4.258
 1.161 -1.429 4.25
 1.191 -1.434 4.26
 1.211 -1.427 4.233
 1.251 -1.443 4.274
 1.272 -1.438 4.25
 1.301 -1.441 4.251
 1.324 -1.438 4.235
 1.36 -1.449 4.26
 1.382 -1.444 4.238
 1.404 -1.439 4.216
 1.432 -1.442 4.215
 1.47 -1.453 4.24
 1.499 -1.456 4.242
 1.516 -1.448 4.208
 1.548 -1.453 4.215
 1.581 -1.459 4.222
 1.611 -1.462 4.222
 1.645 -1.469 4.234
 1.671 -1.468 4.221
 1.699 -1.47 4.216
 1.727 -1.471 4.209
 1.759 -1.476 4.213
 1.769 -1.462 4.164
 1.805 -1.47 4.175
 1.853 -1.487 4.213
 1.866 -1.476 4.171
 1.886 -1.471 4.145
 1.894 -1.456 4.094
 0 0 0
 0 0 0
 0 0 0
 0 0 0
 0 0 0
 0 0 0
 0 0 0
 0 0 0
 0 0 0
 0 0 0
 0 0 0
 0 0 0
 0 0 0
 0 0 0
 1.842 -1.174 3.145
 1.879 -1.184 3.16
 1.87 -1.165 3.099
 -2.524 -1.559 4.344
 -2.501 -1.563 4.37
 -2.45 -1.55 4.347
 -2.421 -1.55 4.361
 -2.377 -1.54 4.348
 -2.345 -1.538 4.356
 -2.296 -1.525 4.332
 -2.268 -1.526 4.346
 -2.227 -1.517 4.333
 -2.194 -1.514 4.338
 -2.155 -1.507 4.33
 -2.126 -1.506 4.339
 -2.104 -1.511 4.365
 -2.076 -1.512 4.378
 -2.031 -1.5 4.354
 -1.995 -1.494 4.347
 -1.958 -1.487 4.338
 -1.924 -1.482 4.335
 -1.891 -1.479 4.336
 -1.861 -1.477 4.341
 -1.826 -1.471 4.333
 -1.793 -1.467 4.33
 -1.754 -1.458 4.312
 -1.734 -1.464 4.34
 -1.699 -1.458 4.33
 -1.674 -1.459 4.344
 -1.64 -1.453 4.335
 -1.604 -1.446 4.321
 -1.571 -1.44 4.313
 -1.546 -1.443 4.328
 -1.512 -1.436 4.315
 -1.486 -1.437 4.326
 -1.449 -1.427 4.303
 -1.431 -1.436 4.338
 -1.398 -1.43 4.327
 -1.369 -1.427 4.327
 -1.339 -1.424 4.324
 -1.303 -1.414 4.299
 -1.277 -1.414 4.307
 -1.251 -1.416 4.317
 -1.22 -1.41 4.306
 -1.189 -1.406 4.298
 -1.166 -1.409 4.314
 -1.137 -1.406 4.312
 -1.107 -1.401 4.302
 -1.077 -1.396 4.292
 -1.048 -1.393 4.285
 -1.033 -1.408 4.339
 -1.002 -1.402 4.324
 -0.977 -1.403 4.331
 -0.941 -1.388 4.291
 -0.924 -1.402 4.338
 -0.895 -1.399 4.332
 -0.864 -1.391 4.312
 -0.833 -1.382 4.288
 -0.805 -1.379 4.28
 -0.783 -1.386 4.308
 -0.759 -1.389 4.32
 -0.728 -1.379 4.292
 -0.708 -1.391 4.331
 -0.674 -1.374 4.282
 -0.65 -1.378 4.297
 -0.619 -1.367 4.264
 -0.602 -1.387 4.332
 -0.575 -1.384 4.323
 -0.549 -1.384 4.328
 -0.517 -1.367 4.276
 -0.49 -1.364 4.267
 -0.469 -1.378 4.312
 -0.432 -1.34 4.198
 0 0 0
 0 0 0
 0 0 0
 0 0 0
 -0.311 -1.361 4.269
 -0.289 -1.376 4.317
 -0.26 -1.358 4.262
 -0.236 -1.366 4.29
 -0.21 -1.359 4.266
 -0.184 -1.359 4.267
 -0.16 -1.367 4.292
 -0.134 -1.366 4.291
 -0.109 -1.372 4.31
 -0.083 -1.361 4.273
 -0.058 -1.358 4.265
 -0.033 -1.371 4.305
 -0.007 -1.355 4.255
 0.017 -1.381 4.338
 0 0 0
 0.069 -1.379 4.33
 0 0 0
 0.119 -1.373 4.307
 0.143 -1.35 4.236
 0.171 -1.374 4.309
 0 0 0
 0.215 -1.336 4.188
 0.246 -1.366 4.28
 0.269 -1.356 4.248
 0.294 -1.353 4.235
 0.316 -1.342 4.2
 0.347 -1.367 4.275
 0.371 -1.361 4.254
 0.402 -1.379 4.309
 0.423 -1.366 4.268
 0.448 -1.366 4.263
 0.466 -1.344 4.193
 0.501 -1.372 4.278
 0.524 -1.366 4.254
 0.55 -1.368 4.258
 0.579 -1.375 4.277
 0.602 -1.369 4.255
 0.628 -1.372 4.26
 0.65 -1.364 4.233
 0.678 -1.369 4.245
 0.709 -1.381 4.279
 0.731 -1.374 4.253
 0.757 -1.375 4.253
 0.785 -1.38 4.262
 0.817 -1.39 4.29
 0.843 -1.391 4.288
 0.858 -1.374 4.23
 0.89 -1.384 4.256
 0.917 -1.386 4.259
 0.944 -1.388 4.258
 0.969 -1.387 4.25
 0.992 -1.383 4.235
 1.019 -1.385 4.235
 1.046 -1.388 4.236
 1.083 -1.403 4.277
 1.107 -1.4 4.261
 1.133 -1.4 4.257
 1.163 -1.406 4.267
 1.182 -1.397 4.234
 1.218 -1.409 4.263
 1.24 -1.404 4.242
 1.268 -1.407 4.242
 1.287 -1.399 4.212
 1.323 -1.41 4.237
 1.349 -1.41 4.232
 1.39 -1.426 4.27
 1.411 -1.42 4.246
 1.426 -1.409 4.203
 1.465 -1.422 4.233
 1.492 -1.423 4.228
 1.523 -1.427 4.234
 1.547 -1.425 4.217
 1.586 -1.436 4.242
 1.614 -1.438 4.238
 1.637 -1.435 4.22
 1.663 -1.435 4.21
 1.69 -1.435 4.202
 1.728 -1.445 4.22
 1.765 -1.454 4.236
 1.783 -1.447 4.205
 1.813 -1.449 4.202
 1.84 -1.45 4.192
 1.867 -1.45 4.181
 1.902 -1.456 4.189
 0 0 0
 0 0 0
 0 0 0
 0 0 0
 0 0 0
 0 0 0
 0 0 0
 0 0 0
 0 0 0
 0 0 0
 0 0 0
 0 0 0
 0 0 0
 0 0 0
 0 0 0
 1.851 -1.158 3.167
 1.883 -1.165 3.173
 1.86 -1.138 3.088
 -2.511 -1.522 4.331
 -2.481 -1.522 4.345
 -2.466 -1.53 4.384
 -2.441 -1.533 4.406
 -2.38 -1.513 4.362
 -2.349 -1.512 4.372
 -2.296 -1.496 4.34
 -2.273 -1.5 4.363
 -2.245 -1.501 4.378
 -2.19 -1.483 4.338
 -2.145 -1.472 4.317
 -2.13 -1.481 4.358
 -2.084 -1.469 4.332
 -2.051 -1.465 4.333
 -2.03 -1.471 4.361
 -1.979 -1.454 4.321
 -1.96 -1.46 4.351
 -1.922 -1.453 4.341
 -1.899 -1.457 4.361
 -1.846 -1.437 4.312
 -1.827 -1.444 4.344
 -1.779 -1.428 4.303
 -1.759 -1.434 4.332
 -1.733 -1.435 4.345
 -1.704 -1.434 4.351
 -1.663 -1.423 4.326
 -1.626 -1.414 4.308
 -1.604 -1.419 4.33
 -1.584 -1.425 4.357
 -1.553 -1.422 4.356
 -1.516 -1.413 4.336
 -1.476 -1.4 4.305
 -1.456 -1.407 4.334
 -1.426 -1.405 4.333
 -1.394 -1.399 4.323
 -1.365 -1.397 4.323
 -1.341 -1.4 4.34
 -1.303 -1.388 4.309
 -1.278 -1.39 4.321
 -1.233 -1.369 4.26
 -1.226 -1.391 4.337
 -1.196 -1.387 4.33
 -1.156 -1.371 4.287
 -1.135 -1.378 4.312
 -1.108 -1.377 4.314
 -1.075 -1.369 4.294
 -1.048 -1.367 4.293
 -1.049 -1.403 4.413
 -1.009 -1.386 4.362
 -0.964 -1.36 4.284
 -0.961 -1.393 4.394
 0 0 0
 0 0 0
 0 0 0
 0 0 0
 0 0 0
 0 0 0
 0 0 0
 0 0 0
 0 0 0
 0 0 0
 0 0 0
 0 0 0
 0 0 0
 0 0 0
 0 0 0
 0 0 0
 0 0 0
 0 0 0
 0 0 0
 0 0 0
 0 0 0
 0 0 0
 0 0 0
 0 0 0
 -0.284 -1.328 4.252
 -0.262 -1.342 4.3
 -0.235 -1.337 4.285
 -0.211 -1.344 4.306
 -0.185 -1.342 4.299
 -0.159 -1.337 4.284
 -0.134 -1.338 4.29
 -0.109 -1.341 4.298
 -0.083 -1.332 4.269
 -0.058 -1.34 4.297
 -0.032 -1.344 4.308
 -0.007 -1.327 4.254
 0 0 0
 0 0 0
 0 0 0
 0 0 0
 0 0 0
 0 0 0
 0 0 0
 0 0 0
 0 0 0
 0 0 0
 0 0 0
 0 0 0
 0 0 0
 0 0 0
 0 0 0
 0 0 0
 0 0 0
 0 0 0
 0 0 0
 0 0 0
 0 0 0
 0 0 0
 0 0 0
 0 0 0
 0 0 0
 0 0 0
 0 0 0
 0 0 0
 0 0 0
 0 0 0
 0 0 0
 0 0 0
 0 0 0
 0 0 0
 0 0 0
 0 0 0
 0 0 0
 0 0 0
 0 0 0
 1.026 -1.369 4.273
 1.051 -1.368 4.264
 1.073 -1.363 4.243
 1.098 -1.362 4.232
 1.125 -1.364 4.233
 1.157 -1.372 4.251
 1.19 -1.381 4.271
 1.216 -1.38 4.262
 1.242 -1.381 4.257
 1.269 -1.381 4.253
 1.295 -1.382 4.246
 1.326 -1.387 4.254
 1.355 -1.39 4.257
 1.377 -1.386 4.236
 1.403 -1.385 4.228
 1.432 -1.389 4.23
 1.468 -1.398 4.25
 1.483 -1.388 4.211
 1.518 -1.396 4.228
 1.55 -1.401 4.233
 1.587 -1.411 4.255
 1.614 -1.411 4.245
 1.637 -1.408 4.226
 1.658 -1.404 4.206
 1.703 -1.419 4.241
 1.72 -1.411 4.208
 1.751 -1.415 4.21
 1.775 -1.413 4.193
 1.814 -1.423 4.211
 1.828 -1.413 4.171
 1.866 -1.422 4.188
 0 0 0
 0 0 0
 0 0 0
 0 0 0
 0 0 0
 0 0 0
 0 0 0
 0 0 0
 0 0 0
 0 0 0
 0 0 0
 0 0 0
 0 0 0
 0 0 0
 0 0 0
 0 0 0
 1.858 -1.141 3.185
 1.882 -1.142 3.178
 1.892 -1.135 3.147
 -2.512 -1.493 4.343
 -2.506 -1.507 4.397
 -2.457 -1.495 4.377
 -2.396 -1.476 4.334
 -2.361 -1.473 4.337
 -2.343 -1.479 4.369
 -2.298 -1.469 4.354
 -2.264 -1.466 4.355
 -2.234 -1.465 4.366
 -2.188 -1.454 4.344
 -2.161 -1.454 4.359
 -2.112 -1.44 4.329
 -2.082 -1.44 4.337
 -2.06 -1.444 4.362
 -2.023 -1.437 4.353
 -1.982 -1.428 4.336
 -1.949 -1.425 4.336
 -1.929 -1.431 4.365
 -1.879 -1.414 4.326
 -1.854 -1.416 4.34
 -1.826 -1.416 4.351
 -1.786 -1.406 4.33
 -1.755 -1.404 4.331
 -1.715 -1.393 4.308
 -1.703 -1.406 4.358
 -1.653 -1.387 4.307
 -1.632 -1.392 4.331
 -1.614 -1.4 4.365
 -1.563 -1.379 4.307
 -1.542 -1.385 4.334
 -1.513 -1.383 4.335
 -1.48 -1.378 4.326
 -1.45 -1.374 4.322
 -1.417 -1.368 4.311
 -1.39 -1.369 4.318
 -1.356 -1.361 4.302
 -1.326 -1.358 4.298
 -1.304 -1.362 4.319
 0 0 0
 0 0 0
 0 0 0
 0 0 0
 0 0 0
 0 0 0
 0 0 0
 0 0 0
 0 0 0
 0 0 0
 0 0 0
 0 0 0
 0 0 0
 0 0 0
 0 0 0
 0 0 0
 0 0 0
 0 0 0
 0 0 0
 0 0 0
 0 0 0
 0 0 0
 0 0 0
 0 0 0
 0 0 0
 0 0 0
 0 0 0
 0 0 0
 0 0 0
 0 0 0
 0 0 0
 0 0 0
 0 0 0
 0 0 0
 0 0 0
 0 0 0
 0 0 0
 -0.283 -1.299 4.248
 -0.259 -1.305 4.268
 -0.235 -1.308 4.278
 -0.21 -1.311 4.288
 -0.184 -1.308 4.278
 -0.158 -1.303 4.263
 -0.133 -1.308 4.279
 -0.108 -1.307 4.278
 -0.083 -1.309 4.285
 -0.058 -1.318 4.314
 -0.032 -1.312 4.295
 -0.007 -1.31 4.285
 0 0 0
 0 0 0
 0 0 0
 0 0 0
 0 0 0
 0 0 0
 0 0 0
 0 0 0
 0 0 0
 0 0 0
 0 0 0
 0 0 0
 0 0 0
 0 0 0
 0 0 0
 0 0 0
 0 0 0
 0 0 0
 0 0 0
 0 0 0
 0 0 0
 0 0 0
 0 0 0
 0 0 0
 0 0 0
 0 0 0
 0 0 0
 0 0 0
 0 0 0
 0 0 0
 0 0 0
 0 0 0
 0 0 0
 0 0 0
 0 0 0
 0 0 0
 0 0 0
 0 0 0
 0 0 0
 1.023 -1.339 4.267
 1.046 -1.336 4.25
 1.07 -1.333 4.235
 1.094 -1.331 4.223
 1.131 -1.346 4.263
 1.15 -1.338 4.232
 1.18 -1.343 4.242
 1.214 -1.352 4.264
 1.23 -1.341 4.223
 1.257 -1.343 4.221
 1.291 -1.351 4.24
 1.325 -1.359 4.258
 1.349 -1.357 4.244
 1.371 -1.354 4.226
 1.411 -1.367 4.259
 1.425 -1.355 4.215
 1.451 -1.355 4.206
 1.495 -1.373 4.252
 1.524 -1.375 4.251
 1.556 -1.38 4.259
 1.574 -1.372 4.226
 1.602 -1.374 4.222
 1.637 -1.382 4.236
 1.664 -1.382 4.227
 1.691 -1.383 4.219
 1.72 -1.384 4.215
 1.748 -1.386 4.209
 1.767 -1.38 4.182
 1.798 -1.383 4.181
 1.817 -1.378 4.154
 1.825 -1.365 4.103
 0 0 0
 0 0 0
 0 0 0
 0 0 0
 0 0 0
 0 0 0
 0 0 0
 0 0 0
 0 0 0
 0 0 0
 0 0 0
 0 0 0
 0 0 0
 0 0 0
 0 0 0
 0 0 0
 1.851 -1.115 3.179
 1.876 -1.117 3.174
 1.871 -1.102 3.12
 -2.513 -1.464 4.353
 -2.478 -1.461 4.357
 -2.459 -1.467 4.39
 -2.41 -1.456 4.368
 -2.37 -1.449 4.361
 -2.32 -1.436 4.337
 -2.301 -1.442 4.367
 -2.247 -1.427 4.332
 -2.212 -1.422 4.332
 -2.192 -1.428 4.36
 -2.162 -1.427 4.371
 -2.113 -1.413 4.339
 -2.081 -1.411 4.343
 -2.059 -1.415 4.367
 -2.017 -1.405 4.35
 -1.984 -1.402 4.35
 -1.946 -1.395 4.339
 -1.92 -1.396 4.352
 -1.883 -1.389 4.341
 -1.841 -1.379 4.318
 -1.817 -1.381 4.336
 -1.782 -1.376 4.328
 -1.75 -1.372 4.326
 -1.73 -1.378 4.354
 -1.703 -1.379 4.365
 -1.67 -1.375 4.36
 -1.629 -1.363 4.333
 -1.597 -1.358 4.326
 -1.569 -1.358 4.332
 -1.535 -1.352 4.321
 -1.512 -1.355 4.339
 -1.481 -1.352 4.337
 -1.444 -1.343 4.314
 -1.428 -1.352 4.352
 -1.393 -1.345 4.337
 -1.35 -1.329 4.291
 0 0 0
 0 0 0
 0 0 0
 0 0 0
 0 0 0
 0 0 0
 0 0 0
 0 0 0
 0 0 0
 0 0 0
 0 0 0
 0 0 0
 0 0 0
 0 0 0
 0 0 0
 0 0 0
 0 0 0
 0 0 0
 0 0 0
 0 0 0
 0 0 0
 0 0 0
 0 0 0
 0 0 0
 0 0 0
 0 0 0
 0 0 0
 0 0 0
 0 0 0
 0 0 0
 0 0 0
 0 0 0
 0 0 0
 0 0 0
 0 0 0
 0 0 0
 0 0 0
 0 0 0
 0 0 0
 -0.284 -1.28 4.272
 -0.26 -1.285 4.292
 -0.235 -1.287 4.3
 -0.209 -1.283 4.286
 -0.183 -1.281 4.28
 -0.159 -1.289 4.307
 -0.133 -1.28 4.278
 -0.107 -1.276 4.265
 -0.083 -1.282 4.286
 -0.057 -1.287 4.302
 -0.032 -1.283 4.286
 -0.007 -1.268 4.238
 0 0 0
 0 0 0
 0 0 0
 0 0 0
 0 0 0
 0 0 0
 0 0 0
 0 0 0
 0 0 0
 0 0 0
 0 0 0
 0 0 0
 0 0 0
 0 0 0
 0 0 0
 0 0 0
 0 0 0
 0 0 0
 0 0 0
 0 0 0
 0 0 0
 0 0 0
 0 0 0
 0 0 0
 0 0 0
 0 0 0
 0 0 0
 0 0 0
 0 0 0
 0 0 0
 0 0 0
 0 0 0
 0 0 0
 0 0 0
 0 0 0
 0 0 0
 0 0 0
 0 0 0
 0 0 0
 0 0 0
 1.045 -1.308 4.249
 1.072 -1.31 4.25
 1.099 -1.312 4.25
 1.116 -1.302 4.213
 1.155 -1.317 4.255
 1.181 -1.317 4.248
 1.212 -1.323 4.263
 1.234 -1.319 4.24
 1.262 -1.322 4.244
 1.294 -1.328 4.256
 1.316 -1.324 4.236
 1.347 -1.329 4.245
 1.377 -1.333 4.249
 1.409 -1.338 4.26
 1.438 -1.341 4.26
 1.458 -1.336 4.236
 1.481 -1.333 4.217
 1.52 -1.344 4.245
 1.535 -1.335 4.206
 1.573 -1.345 4.231
 1.591 -1.338 4.199
 1.628 -1.348 4.22
 1.643 -1.338 4.18
 1.69 -1.355 4.223
 1.718 -1.356 4.219
 1.749 -1.359 4.218
 1.77 -1.356 4.196
 1.804 -1.361 4.203
 1.833 -1.363 4.197
 0 0 0
 0 0 0
 0 0 0
 0 0 0
 0 0 0
 0 0 0
 0 0 0
 0 0 0
 0 0 0
 0 0 0
 0 0 0
 0 0 0
 0 0 0
 0 0 0
 0 0 0
 0 0 0
 0 0 0
 1.869 -1.104 3.216
 1.855 -1.083 3.145
 1.903 -1.099 3.179
 -2.528 -1.444 4.388
 -2.485 -1.436 4.378
 -2.439 -1.427 4.363
 -2.4 -1.421 4.359
 -2.373 -1.422 4.376
 -2.331 -1.414 4.365
 -2.279 -1.4 4.333
 -2.266 -1.41 4.378
 -2.219 -1.398 4.354
 -2.179 -1.391 4.343
 -2.156 -1.395 4.367
 -2.111 -1.384 4.343
 -2.082 -1.384 4.354
 -2.036 -1.372 4.328
 -2.006 -1.37 4.335
 -1.968 -1.363 4.322
 -1.945 -1.366 4.343
 -1.925 -1.372 4.371
 -1.873 -1.354 4.326
 -1.847 -1.356 4.341
 -1.818 -1.355 4.348
 -1.79 -1.354 4.355
