 0.225 0.103 1.174
 0.223 0.099 1.129
 0.209 0.09 1.024
 0.195 0.081 0.928
 0.18 0.073 0.832
 0.158 0.062 0.71
 0.143 0.054 0.626
 0.131 0.048 0.558
 0.114 0.041 0.475
 0.102 0.035 0.411
 0.096 0.032 0.378
 0.095 0.031 0.364
 0.094 0.03 0.354
 0.095 0.029 0.347
 0.095 0.028 0.338
 0.095 0.028 0.333
 0.096 0.027 0.327
 0.095 0.027 0.319
 0.095 0.026 0.312
 0.095 0.026 0.305
 0.096 0.025 0.3
 0.097 0.025 0.297
 0.099 0.025 0.296
 0.101 0.025 0.297
 0.104 0.025 0.301
 0.108 0.026 0.307
 0.112 0.026 0.311
 0.116 0.027 0.317
 0.121 0.028 0.326
 0.126 0.028 0.332
 0.131 0.029 0.338
 0.137 0.03 0.349
 0.142 0.031 0.354
 0.145 0.031 0.356
 0.149 0.031 0.36
 0.153 0.032 0.364
 0.156 0.032 0.364
 0.162 0.033 0.372
 0.169 0.034 0.382
 0.175 0.035 0.39
 0.181 0.035 0.396
 0.187 0.036 0.404
 0.192 0.036 0.407
 0.197 0.037 0.41
 0.202 0.037 0.415
 0.209 0.038 0.424
 0.217 0.039 0.432
 0.225 0.04 0.441
 0.235 0.041 0.454
 0.252 0.044 0.479
 0.27 0.047 0.508
 0.293 0.05 0.543
 0.32 0.054 0.584
 0.345 0.058 0.621
 0.363 0.061 0.645
 0.232 0.037 0.403
 0.226 0.036 0.387
 -0.376 0.071 0.672
 -0.377 0.072 0.684
 -0.384 0.075 0.707
 -0.387 0.076 0.724
 -0.387 0.077 0.735
 -0.382 0.077 0.736
 -0.374 0.076 0.732
 -0.364 0.075 0.723
 -0.353 0.074 0.713
 -0.345 0.073 0.707
 -0.339 0.073 0.705
 -0.333 0.072 0.705
 -0.328 0.072 0.706
 -0.324 0.072 0.707
 -0.319 0.072 0.708
 -0.315 0.072 0.712
 -0.312 0.072 0.715
 -0.309 0.073 0.72
 -0.306 0.073 0.726
 -0.304 0.074 0.734
 -0.302 0.075 0.743
 -0.302 0.076 0.754
 -0.302 0.077 0.769
 -0.303 0.078 0.785
 -0.304 0.08 0.802
 -0.305 0.082 0.82
 -0.306 0.083 0.838
 -0.306 0.085 0.854
 -0.305 0.086 0.868
 -0.303 0.087 0.878
 -0.3 0.087 0.887
 -0.296 0.088 0.893
 -0.292 0.088 0.899
 -0.288 0.089 0.904
 -0.284 0.089 0.91
 -0.28 0.09 0.916
 -0.275 0.09 0.919
 -0.27 0.09 0.923
 -0.265 0.09 0.926
 -0.26 0.09 0.928
 -0.254 0.09 0.929
 -0.249 0.09 0.93
 -0.243 0.09 0.93
 -0.237 0.09 0.93
 -0.231 0.089 0.927
 -0.223 0.089 0.921
 -0.216 0.088 0.914
 -0.208 0.087 0.904
 -0.201 0.086 0.894
 -0.193 0.085 0.886
 -0.187 0.084 0.88
 -0.181 0.084 0.876
 -0.175 0.083 0.876
 -0.17 0.083 0.874
 -0.165 0.083 0.876
 -0.159 0.083 0.876
 -0.154 0.083 0.878
 -0.149 0.083 0.877
 -0.144 0.083 0.877
 -0.138 0.083 0.875
 -0.133 0.083 0.876
 -0.128 0.083 0.877
 -0.123 0.083 0.879
 -0.119 0.083 0.883
 -0.115 0.084 0.892
 -0.111 0.085 0.908
 -0.108 0.087 0.924
 -0.104 0.088 0.942
 -0.1 0.09 0.958
 -0.096 0.091 0.971
 -0.091 0.091 0.975
 -0.085 0.092 0.977
 -0.079 0.091 0.974
 -0.073 0.091 0.969
 -0.067 0.09 0.958
 -0.06 0.088 0.946
 -0.054 0.087 0.933
 -0.049 0.086 0.927
 -0.043 0.086 0.927
 -0.038 0.087 0.934
 -0.033 0.088 0.945
 -0.028 0.089 0.957
 -0.023 0.09 0.971
 -0.017 0.092 0.986
 -0.012 0.093 1.001
 -0.006 0.095 1.017
 0 0.097 1.036
 0.005 0.098 1.055
 0.011 0.1 1.07
 0.018 0.101 1.079
 0.024 0.101 1.084
 0.03 0.101 1.083
 0.036 0.101 1.08
 0.043 0.101 1.08
 0.049 0.102 1.091
 0.057 0.104 1.112
 0.065 0.106 1.14
 0.073 0.109 1.172
 0.083 0.113 1.215
 0.094 0.118 1.265
 0.105 0.122 1.309
 0.116 0.126 1.345
 0.126 0.128 1.369
 0.135 0.129 1.382
 0.143 0.129 1.383
 0.151 0.129 1.383
 0.159 0.129 1.381
 0.168 0.13 1.388
 0.176 0.13 1.39
 0.184 0.13 1.385
 0.192 0.13 1.387
 0.201 0.13 1.389
 0.209 0.13 1.388
 0.215 0.129 1.377
 0.217 0.125 1.339
 0.221 0.123 1.314
 0.224 0.121 1.29
 0.221 0.115 1.228
 0.222 0.112 1.194
 0.23 0.112 1.199
 0.23 0.109 1.161
 0.22 0.101 1.077
 0.217 0.097 1.034
 0.203 0.088 0.94
 0.17 0.071 0.766
 0.152 0.062 0.664
 0.137 0.054 0.585
 0.121 0.046 0.502
 0.108 0.04 0.436
 0.098 0.035 0.386
 0.095 0.033 0.365
 0.094 0.032 0.352
 0.094 0.031 0.345
 0.094 0.03 0.337
 0.095 0.03 0.332
 0.096 0.03 0.327
 0.095 0.029 0.319
 0.095 0.028 0.312
 0.096 0.028 0.306
 0.096 0.027 0.299
 0.097 0.027 0.297
 0.098 0.027 0.296
 0.101 0.027 0.297
 0.104 0.027 0.299
 0.108 0.028 0.305
 0.111 0.028 0.308
 0.115 0.029 0.313
 0.12 0.029 0.32
 0.125 0.03 0.328
 0.13 0.031 0.336
 0.137 0.032 0.349
 0.142 0.033 0.354
 0.145 0.033 0.355
 0.149 0.034 0.359
 0.151 0.034 0.358
 0.153 0.033 0.356
 0.159 0.034 0.365
 0.166 0.035 0.374
 0.17 0.036 0.378
 0.177 0.037 0.386
 0.183 0.038 0.394
 0.186 0.038 0.395
 0.191 0.038 0.398
 0.198 0.039 0.407
 0.206 0.04 0.415
 0.214 0.041 0.425
 0.223 0.043 0.438
 0.239 0.045 0.463
 0.263 0.049 0.501
 0.288 0.054 0.541
 0.31 0.057 0.574
 0.333 0.061 0.609
 0.353 0.064 0.636
 0.365 0.065 0.647
 0.391 0.069 0.683
 0.426 0.075 0.734
 -0.375 0.076 0.67
 -0.377 0.077 0.683
 -0.381 0.079 0.701
 -0.384 0.08 0.718
 -0.384 0.081 0.73
 -0.383 0.082 0.738
 -0.379 0.082 0.742
 -0.374 0.082 0.743
 -0.368 0.082 0.743
 -0.363 0.082 0.745
 -0.359 0.082 0.748
 -0.354 0.082 0.75
 -0.349 0.082 0.751
 -0.345 0.082 0.753
 -0.34 0.082 0.756
 -0.337 0.082 0.761
 -0.333 0.083 0.766
 -0.331 0.083 0.772
 -0.329 0.084 0.78
 -0.327 0.085 0.791
 -0.327 0.086 0.803
 -0.328 0.087 0.819
 -0.33 0.089 0.84
 -0.332 0.091 0.861
 -0.335 0.094 0.884
 -0.337 0.096 0.908
 -0.34 0.098 0.931
 -0.34 0.1 0.95
 -0.34 0.102 0.968
 -0.338 0.103 0.981
 -0.335 0.104 0.992
 -0.331 0.105 1
 -0.327 0.105 1.008
 -0.323 0.106 1.015
 -0.319 0.107 1.022
 -0.314 0.107 1.029
 -0.309 0.108 1.035
 -0.304 0.108 1.041
 -0.299 0.108 1.046
 -0.294 0.109 1.05
 -0.288 0.109 1.054
 -0.282 0.109 1.056
 -0.276 0.109 1.057
 -0.269 0.109 1.057
 -0.262 0.108 1.054
 -0.254 0.107 1.047
 -0.245 0.106 1.039
 -0.236 0.105 1.028
 -0.227 0.104 1.016
 -0.219 0.102 1.005
 -0.211 0.101 0.997
 -0.204 0.101 0.992
 -0.198 0.1 0.991
 -0.192 0.1 0.989
 -0.186 0.1 0.992
 -0.18 0.1 0.993
 -0.175 0.101 0.996
 -0.169 0.101 0.997
 -0.163 0.101 0.998
 -0.157 0.1 0.995
 -0.151 0.1 0.996
 -0.146 0.1 0.999
 -0.14 0.101 1.002
 -0.135 0.101 1.008
 -0.131 0.103 1.023
 -0.128 0.105 1.045
 -0.124 0.107 1.069
 -0.121 0.11 1.095
 -0.117 0.112 1.118
 -0.112 0.113 1.134
 -0.106 0.114 1.139
 -0.099 0.114 1.139
 -0.092 0.113 1.133
 -0.085 0.112 1.124
 -0.077 0.11 1.107
 -0.069 0.108 1.089
 -0.062 0.107 1.071
 -0.055 0.105 1.057
 -0.049 0.105 1.053
 -0.043 0.105 1.056
 -0.037 0.106 1.063
 -0.031 0.107 1.074
 -0.025 0.108 1.088
 -0.019 0.11 1.105
 -0.013 0.111 1.122
 -0.007 0.113 1.14
 0 0.115 1.162
 0.006 0.117 1.184
 0.013 0.119 1.2
 0.02 0.12 1.208
 0.027 0.12 1.211
 0.034 0.12 1.206
 0.041 0.119 1.2
 0.047 0.119 1.197
 0.055 0.12 1.209
 0.063 0.122 1.231
 0.072 0.125 1.264
 0.082 0.13 1.306
 0.093 0.135 1.362
 0.106 0.141 1.422
 0.118 0.146 1.473
 0.13 0.15 1.513
 0.141 0.153 1.536
 0.151 0.154 1.545
 0.16 0.154 1.544
 0.169 0.153 1.542
 0.177 0.153 1.537
 0.186 0.153 1.538
 0.195 0.153 1.534
 0.202 0.151 1.521
 0.208 0.149 1.499
 0.214 0.147 1.478
 0.219 0.145 1.455
 0.222 0.142 1.422
 0.222 0.136 1.368
 0.226 0.134 1.343
 0.23 0.131 1.319
 0.225 0.125 1.25
 0.227 0.122 1.222
 0.234 0.121 1.219
 0.234 0.118 1.184
 0.228 0.111 1.116
 0.232 0.11 1.105
 0.216 0.099 0.997
 0.177 0.079 0.794
 0.158 0.068 0.692
 0.14 0.059 0.595
 0.126 0.051 0.524
 0.113 0.044 0.455
 0.103 0.039 0.405
 0.096 0.036 0.368
 0.094 0.034 0.353
 0.094 0.033 0.344
 0.095 0.033 0.34
 0.096 0.032 0.336
 0.096 0.032 0.328
 0.096 0.031 0.321
 0.096 0.03 0.315
 0.096 0.03 0.306
 0.096 0.029 0.3
 0.097 0.029 0.299
 0.099 0.029 0.296
 0.101 0.029 0.298
 0.104 0.029 0.3
 0.108 0.03 0.306
 0.111 0.03 0.308
 0.115 0.031 0.313
 0.119 0.031 0.32
 0.124 0.032 0.328
 0.129 0.033 0.335
 0.137 0.034 0.348
 0.141 0.035 0.352
 0.144 0.035 0.354
 0.147 0.035 0.355
 0.149 0.035 0.354
 0.15 0.035 0.349
 0.157 0.036 0.36
 0.164 0.037 0.371
 0.171 0.038 0.38
 0.178 0.04 0.389
 0.185 0.041 0.398
 0.188 0.041 0.397
 0.192 0.041 0.4
 0.199 0.042 0.408
 0.204 0.042 0.412
 0.211 0.043 0.419
 0.22 0.045 0.431
 0.237 0.048 0.457
 0.269 0.054 0.513
 0.299 0.059 0.562
 0.319 0.063 0.591
 0.339 0.066 0.618
 0.354 0.068 0.637
 0.361 0.069 0.64
 0.43 0.081 0.752
 0.434 0.081 0.748
 -0.373 0.08 0.667
 -0.372 0.08 0.673
 -0.378 0.083 0.695
 -0.382 0.084 0.713
 -0.385 0.086 0.73
 -0.387 0.088 0.745
 -0.387 0.089 0.757
 -0.385 0.09 0.766
 -0.383 0.09 0.774
 -0.38 0.091 0.78
 -0.377 0.091 0.785
 -0.373 0.091 0.79
 -0.369 0.092 0.794
 -0.365 0.092 0.798
 -0.362 0.092 0.804
 -0.359 0.093 0.81
 -0.356 0.093 0.817
 -0.354 0.094 0.826
 -0.353 0.095 0.838
 -0.353 0.097 0.853
 -0.354 0.099 0.87
 -0.356 0.101 0.892
 -0.36 0.104 0.919
 -0.364 0.107 0.946
 -0.369 0.11 0.975
 -0.373 0.113 1.004
 -0.375 0.115 1.03
 -0.376 0.118 1.052
 -0.376 0.12 1.071
 -0.373 0.121 1.085
 -0.37 0.122 1.097
 -0.366 0.123 1.106
 -0.362 0.124 1.117
 -0.358 0.125 1.127
 -0.354 0.126 1.138
 -0.35 0.127 1.148
 -0.346 0.128 1.159
 -0.341 0.128 1.167
 -0.335 0.129 1.174
 -0.33 0.13 1.182
 -0.324 0.13 1.188
 -0.318 0.13 1.193
 -0.312 0.131 1.197
 -0.305 0.131 1.199
 -0.297 0.13 1.196
 -0.288 0.129 1.189
 -0.278 0.128 1.18
 -0.268 0.126 1.166
 -0.258 0.125 1.153
 -0.248 0.123 1.14
 -0.239 0.122 1.13
 -0.231 0.121 1.123
 -0.223 0.12 1.12
 -0.216 0.12 1.117
 -0.21 0.12 1.12
 -0.203 0.12 1.12
 -0.197 0.12 1.123
 -0.19 0.12 1.125
 -0.184 0.12 1.127
 -0.177 0.12 1.126
 -0.171 0.12 1.129
 -0.165 0.121 1.133
 -0.159 0.121 1.139
 -0.153 0.122 1.146
 -0.149 0.124 1.163
 -0.145 0.126 1.189
 -0.141 0.129 1.217
 -0.137 0.133 1.249
 -0.133 0.136 1.277
 -0.128 0.138 1.298
 -0.121 0.138 1.304
 -0.113 0.138 1.301
 -0.104 0.137 1.289
 -0.095 0.135 1.272
 -0.087 0.132 1.248
 -0.078 0.129 1.222
 -0.069 0.126 1.196
 -0.061 0.124 1.173
 -0.054 0.122 1.158
 -0.047 0.121 1.151
 -0.04 0.121 1.149
 -0.033 0.121 1.153
 -0.027 0.122 1.164
 -0.02 0.124 1.179
 -0.014 0.126 1.194
 -0.007 0.127 1.211
 0 0.13 1.233
 0.006 0.132 1.251
 0.014 0.133 1.264
 0.021 0.133 1.269
 0.028 0.133 1.27
 0.036 0.133 1.263
 0.043 0.132 1.255
 0.05 0.131 1.251
 0.057 0.133 1.263
 0.066 0.135 1.284
 0.075 0.139 1.318
 0.086 0.144 1.365
 0.098 0.15 1.424
 0.11 0.156 1.48
 0.123 0.161 1.527
 0.134 0.164 1.559
 0.145 0.166 1.572
 0.154 0.166 1.571
 0.162 0.165 1.564
 0.171 0.164 1.559
 0.179 0.164 1.553
 0.188 0.164 1.551
 0.196 0.163 1.546
 0.204 0.162 1.533
 0.21 0.16 1.513
 0.215 0.157 1.489
 0.22 0.154 1.462
 0.224 0.151 1.43
 0.224 0.146 1.379
 0.227 0.142 1.349
 0.231 0.14 1.325
 0.229 0.134 1.274
 0.233 0.132 1.25
 0.239 0.131 1.244
 0.241 0.128 1.216
 0.234 0.121 1.144
 0.232 0.117 1.104
 0.217 0.106 1.004
 0.19 0.09 0.855
 0.173 0.079 0.757
 0.153 0.068 0.653
 0.136 0.059 0.564
 0.114 0.047 0.458
 0.104 0.042 0.408
 0.096 0.038 0.369
 0.095 0.036 0.355
 0.094 0.035 0.344
 0.095 0.035 0.34
 0.096 0.035 0.336
 0.097 0.034 0.33
 0.097 0.033 0.323
 0.098 0.033 0.32
 0.098 0.032 0.312
 0.098 0.032 0.307
 0.1 0.032 0.306
 0.101 0.031 0.305
 0.103 0.031 0.305
 0.106 0.032 0.306
 0.109 0.032 0.309
 0.112 0.032 0.31
 0.115 0.033 0.313
 0.119 0.033 0.319
 0.124 0.034 0.327
 0.129 0.035 0.334
 0.135 0.036 0.344
 0.139 0.037 0.347
 0.143 0.037 0.35
 0.144 0.037 0.347
 0.146 0.037 0.347
 0.148 0.037 0.345
 0.156 0.038 0.357
 0.163 0.039 0.366
 0.171 0.041 0.379
 0.18 0.042 0.392
 0.186 0.043 0.399
 0.187 0.043 0.395
 0.191 0.043 0.398
 0.198 0.044 0.406
 0.2 0.044 0.403
 0.206 0.045 0.41
 0.213 0.046 0.417
 0.234 0.05 0.452
 0.281 0.06 0.536
 0.318 0.067 0.598
 0.342 0.071 0.632
 0.363 0.075 0.662
 0.38 0.078 0.683
 0.389 0.079 0.689
 0.41 0.082 0.716
 0.419 0.083 0.721
 -0.367 0.082 0.654
 -0.366 0.083 0.663
 -0.375 0.086 0.69
 -0.379 0.088 0.708
 -0.382 0.09 0.725
 -0.385 0.092 0.741
 -0.385 0.093 0.752
 -0.384 0.094 0.762
 -0.382 0.095 0.77
 -0.379 0.095 0.776
 -0.376 0.096 0.782
 -0.372 0.096 0.788
 -0.369 0.097 0.793
 -0.365 0.097 0.798
 -0.362 0.097 0.804
 -0.359 0.098 0.81
 -0.356 0.099 0.818
 -0.355 0.1 0.828
 -0.354 0.101 0.841
 -0.355 0.103 0.857
 -0.357 0.105 0.877
 -0.36 0.107 0.901
 -0.365 0.111 0.93
 -0.37 0.114 0.96
 -0.375 0.118 0.991
 -0.38 0.121 1.022
 -0.383 0.124 1.05
 -0.384 0.127 1.074
 -0.384 0.129 1.094
 -0.382 0.131 1.11
 -0.379 0.132 1.122
 -0.375 0.133 1.132
 -0.371 0.134 1.143
 -0.367 0.135 1.155
 -0.363 0.136 1.165
 -0.359 0.137 1.177
 -0.355 0.138 1.189
 -0.35 0.139 1.199
 -0.345 0.14 1.207
 -0.339 0.141 1.215
 -0.334 0.141 1.223
 -0.328 0.142 1.23
 -0.321 0.142 1.234
 -0.314 0.142 1.237
 -0.306 0.142 1.236
 -0.298 0.141 1.231
 -0.288 0.14 1.222
 -0.278 0.138 1.209
 -0.267 0.137 1.197
 -0.257 0.135 1.183
 -0.248 0.133 1.172
 -0.239 0.133 1.165
 -0.231 0.132 1.161
 -0.224 0.131 1.157
 -0.217 0.131 1.159
 -0.21 0.131 1.16
 -0.204 0.132 1.164
 -0.197 0.132 1.166
 -0.191 0.132 1.171
 -0.184 0.132 1.171
 -0.178 0.132 1.176
 -0.172 0.133 1.181
 -0.166 0.134 1.19
 -0.16 0.135 1.199
 -0.155 0.137 1.216
 -0.151 0.139 1.242
 -0.147 0.143 1.272
 -0.143 0.146 1.303
 -0.139 0.149 1.331
 -0.133 0.152 1.352
 -0.126 0.152 1.358
 -0.117 0.151 1.354
 -0.108 0.15 1.342
 -0.099 0.148 1.323
 -0.09 0.145 1.298
 -0.081 0.142 1.27
 -0.072 0.139 1.243
 -0.063 0.136 1.218
 -0.055 0.134 1.2
 -0.048 0.132 1.191
 -0.041 0.132 1.187
 -0.034 0.132 1.187
 -0.028 0.133 1.196
 -0.021 0.134 1.21
 -0.014 0.136 1.222
 -0.007 0.138 1.238
 0 0.14 1.257
 0.006 0.141 1.274
 0.014 0.143 1.284
 0.021 0.143 1.29
 0.029 0.143 1.29
 0.036 0.143 1.286
 0.044 0.142 1.281
 0.051 0.142 1.281
 0.059 0.144 1.296
 0.068 0.146 1.32
 0.077 0.15 1.354
 0.088 0.155 1.4
 0.1 0.162 1.454
 0.112 0.167 1.505
 0.124 0.172 1.546
 0.136 0.175 1.573
 0.146 0.176 1.582
 0.155 0.176 1.578
 0.163 0.175 1.572
 0.171 0.174 1.564
 0.18 0.173 1.558
 0.188 0.173 1.553
 0.196 0.172 1.546
 0.204 0.171 1.533
 0.21 0.169 1.515
 0.216 0.166 1.494
 0.221 0.164 1.468
 0.225 0.16 1.439
 0.226 0.155 1.394
 0.229 0.152 1.362
 0.232 0.149 1.333
 0.233 0.144 1.295
 0.237 0.142 1.274
 0.243 0.141 1.264
 0.244 0.137 1.229
 0.236 0.129 1.158
 0.236 0.125 1.122
 0.222 0.115 1.027
 0.202 0.101 0.906
 0.181 0.088 0.79
 0.159 0.075 0.675
 0.144 0.066 0.597
 0.124 0.055 0.5
 0.106 0.046 0.418
 0.097 0.041 0.373
 0.096 0.039 0.359
 0.097 0.039 0.355
 0.099 0.038 0.352
 0.099 0.038 0.347
 0.101 0.038 0.344
 0.101 0.037 0.337
 0.1 0.036 0.328
 0.1 0.035 0.318
 0.1 0.034 0.314
 0.101 0.034 0.31
 0.103 0.034 0.31
 0.106 0.034 0.311
 0.108 0.034 0.312
 0.112 0.035 0.316
 0.116 0.035 0.321
 0.119 0.036 0.325
 0.125 0.037 0.335
 0.13 0.038 0.341
 0.133 0.038 0.345
 0.138 0.039 0.351
 0.141 0.039 0.351
 0.142 0.039 0.347
 0.142 0.038 0.341
 0.145 0.039 0.343
 0.146 0.038 0.34
 0.153 0.04 0.351
 0.16 0.041 0.36
 0.168 0.043 0.373
 0.177 0.044 0.387
 0.183 0.045 0.392
 0.182 0.044 0.385
 0.184 0.044 0.382
 0.189 0.045 0.386
 0.185 0.043 0.371
 0.191 0.044 0.379
 0.204 0.047 0.399
 0.241 0.055 0.465
 0.307 0.069 0.585
 0.343 0.077 0.645
 0.364 0.081 0.674
 0.38 0.083 0.693
 0.391 0.085 0.703
 0.398 0.085 0.705
 0.388 0.082 0.677
 0.392 0.082 0.674
 -0.365 0.086 0.65
 -0.369 0.088 0.667
 -0.372 0.09 0.684
 -0.376 0.092 0.702
 -0.38 0.094 0.719
 -0.382 0.096 0.735
 -0.383 0.098 0.748
 -0.382 0.099 0.758
 -0.38 0.099 0.767
 -0.377 0.1 0.773
 -0.375 0.101 0.779
 -0.371 0.101 0.786
 -0.368 0.101 0.791
 -0.365 0.102 0.796
 -0.361 0.102 0.802
 -0.359 0.103 0.81
 -0.357 0.104 0.818
 -0.355 0.105 0.828
 -0.354 0.106 0.841
 -0.355 0.108 0.858
 -0.358 0.111 0.879
 -0.362 0.114 0.905
 -0.368 0.117 0.937
 -0.374 0.121 0.97
 -0.38 0.125 1.004
 -0.385 0.129 1.037
 -0.389 0.133 1.067
 -0.391 0.136 1.093
 -0.391 0.138 1.114
 -0.389 0.14 1.131
 -0.387 0.141 1.145
 -0.382 0.142 1.155
 -0.378 0.144 1.167
 -0.375 0.145 1.179
 -0.371 0.146 1.19
 -0.366 0.147 1.202
 -0.362 0.149 1.214
 -0.357 0.149 1.224
 -0.352 0.15 1.232
 -0.347 0.151 1.241
 -0.341 0.152 1.249
 -0.335 0.152 1.255
 -0.328 0.153 1.26
 -0.321 0.153 1.263
 -0.313 0.153 1.262
 -0.304 0.152 1.258
 -0.295 0.151 1.251
 -0.284 0.149 1.237
 -0.274 0.147 1.225
 -0.263 0.145 1.212
 -0.254 0.144 1.201
 -0.245 0.143 1.194
 -0.237 0.142 1.19
 -0.229 0.142 1.188
 -0.223 0.142 1.19
 -0.216 0.142 1.19
 -0.209 0.142 1.193
 -0.202 0.142 1.196
 -0.196 0.143 1.2
 -0.189 0.143 1.202
 -0.183 0.143 1.207
 -0.176 0.144 1.213
 -0.171 0.145 1.222
 -0.165 0.146 1.232
 -0.16 0.148 1.25
 -0.156 0.151 1.277
 -0.151 0.154 1.306
 -0.147 0.158 1.336
 -0.142 0.161 1.362
 -0.136 0.163 1.381
 -0.128 0.164 1.388
 -0.12 0.163 1.385
 -0.111 0.162 1.375
 -0.102 0.16 1.358
 -0.092 0.157 1.335
 -0.083 0.154 1.309
 -0.074 0.15 1.282
 -0.065 0.147 1.257
 -0.057 0.145 1.238
 -0.05 0.144 1.227
 -0.042 0.143 1.221
 -0.035 0.143 1.22
 -0.028 0.144 1.228
 -0.021 0.145 1.24
 -0.014 0.146 1.251
 -0.007 0.148 1.266
 0 0.15 1.282
 0.007 0.152 1.297
 0.014 0.153 1.306
 0.022 0.153 1.312
 0.03 0.153 1.313
 0.037 0.153 1.311
 0.045 0.153 1.309
 0.052 0.154 1.314
 0.061 0.155 1.33
 0.07 0.158 1.355
 0.08 0.162 1.389
 0.09 0.167 1.432
 0.102 0.173 1.481
 0.114 0.178 1.525
 0.126 0.183 1.559
 0.137 0.185 1.581
 0.146 0.186 1.588
 0.155 0.185 1.583
 0.164 0.185 1.576
 0.172 0.184 1.568
 0.18 0.183 1.561
 0.188 0.182 1.554
 0.197 0.181 1.545
 0.204 0.18 1.533
 0.211 0.178 1.516
 0.216 0.175 1.494
 0.221 0.172 1.469
 0.225 0.169 1.439
 0.227 0.164 1.399
 0.23 0.16 1.366
 0.233 0.157 1.337
 0.235 0.153 1.305
 0.24 0.151 1.287
 0.245 0.149 1.272
 0.246 0.146 1.238
 0.243 0.14 1.19
 0 0 0
 0 0 0
 0.212 0.112 0.953
 0.189 0.097 0.826
 0.168 0.083 0.712
 0.144 0.07 0.597
 0.127 0.059 0.512
 0.108 0.049 0.424
 0.099 0.044 0.379
 0.098 0.042 0.368
 0.1 0.042 0.364
 0.102 0.042 0.363
 0.103 0.042 0.36
 0.105 0.041 0.358
 0.105 0.041 0.352
 0.104 0.039 0.339
 0.103 0.038 0.33
 0.103 0.037 0.322
 0.103 0.036 0.315
 0.105 0.036 0.315
 0.108 0.037 0.318
 0.111 0.037 0.321
 0.116 0.038 0.327
 0.121 0.039 0.336
 0.125 0.04 0.341
 0.13 0.041 0.349
 0.135 0.042 0.355
 0.137 0.042 0.355
 0.14 0.042 0.355
 0.142 0.042 0.353
 0.142 0.041 0.348
 0.142 0.041 0.341
 0.145 0.041 0.342
 0.146 0.04 0.339
 0.152 0.042 0.349
 0.157 0.042 0.354
 0.166 0.044 0.366
 0.175 0.046 0.381
 0.181 0.047 0.389
 0.18 0.046 0.381
 0.182 0.046 0.377
 0.185 0.046 0.377
 0 0 0
 0 0 0
 0 0 0
 0 0 0
 0.345 0.082 0.657
 0.359 0.085 0.675
 0.367 0.086 0.68
 0.375 0.087 0.683
 0.383 0.087 0.687
 0.393 0.089 0.696
 0.392 0.087 0.684
 0.384 0.085 0.66
 -0.361 0.09 0.643
 -0.365 0.092 0.66
 -0.37 0.094 0.679
 -0.374 0.096 0.697
 -0.377 0.098 0.714
 -0.38 0.1 0.73
 -0.38 0.102 0.743
 -0.38 0.103 0.754
 -0.379 0.104 0.763
 -0.376 0.105 0.77
 -0.373 0.105 0.777
 -0.371 0.106 0.783
 -0.367 0.106 0.788
 -0.364 0.107 0.794
 -0.36 0.107 0.799
 -0.358 0.108 0.807
 -0.356 0.109 0.816
 -0.355 0.11 0.827
 -0.354 0.111 0.84
 -0.356 0.114 0.859
 -0.359 0.116 0.881
 -0.364 0.12 0.909
 -0.37 0.124 0.943
 -0.377 0.129 0.979
 -0.384 0.133 1.015
 -0.391 0.138 1.052
 -0.395 0.142 1.083
 -0.398 0.145 1.111
 -0.398 0.148 1.133
 -0.397 0.15 1.152
 -0.394 0.151 1.167
 -0.39 0.153 1.178
 -0.386 0.154 1.189
 -0.382 0.155 1.202
 -0.378 0.156 1.213
 -0.373 0.157 1.224
 -0.369 0.159 1.236
 -0.364 0.16 1.246
 -0.358 0.161 1.254
 -0.353 0.162 1.263
 -0.347 0.162 1.27
 -0.341 0.163 1.277
 -0.334 0.163 1.282
 -0.327 0.163 1.285
 -0.319 0.163 1.284
 -0.31 0.162 1.281
 -0.3 0.161 1.273
 -0.29 0.159 1.261
 -0.279 0.158 1.25
 -0.269 0.156 1.237
 -0.26 0.155 1.228
 -0.251 0.154 1.222
 -0.243 0.153 1.218
 -0.235 0.152 1.216
 -0.228 0.153 1.218
 -0.221 0.152 1.217
 -0.214 0.153 1.22
 -0.207 0.153 1.224
 -0.2 0.153 1.228
 -0.194 0.153 1.23
 -0.187 0.154 1.236
 -0.181 0.155 1.242
 -0.175 0.156 1.251
 -0.169 0.157 1.262
 -0.163 0.159 1.279
 -0.159 0.162 1.303
 -0.154 0.165 1.33
 -0.149 0.168 1.358
 -0.144 0.171 1.382
 -0.138 0.174 1.402
 -0.13 0.174 1.41
 -0.122 0.174 1.408
 -0.113 0.173 1.4
 -0.104 0.171 1.386
 -0.094 0.169 1.365
 -0.085 0.166 1.342
 -0.076 0.162 1.317
 -0.067 0.159 1.294
 -0.059 0.157 1.274
 -0.051 0.155 1.263
 -0.043 0.154 1.256
 -0.036 0.154 1.255
 -0.029 0.155 1.262
 -0.022 0.157 1.274
 -0.015 0.158 1.283
 -0.007 0.159 1.296
 0 0.161 1.311
 0.007 0.163 1.324
 0.015 0.164 1.332
 0.022 0.164 1.337
 0.03 0.164 1.339
 0.038 0.164 1.339
 0.046 0.164 1.339
 0.054 0.165 1.346
 0.062 0.167 1.363
 0.072 0.17 1.389
 0.081 0.174 1.421
 0.092 0.179 1.46
 0.104 0.185 1.502
 0.115 0.189 1.54
 0.126 0.193 1.568
 0.137 0.195 1.586
 0.147 0.195 1.59
 0.155 0.195 1.584
 0.164 0.194 1.578
 0.172 0.193 1.569
 0.18 0.192 1.561
 0.188 0.191 1.552
 0.196 0.19 1.543
 0.204 0.188 1.529
 0.211 0.187 1.514
 0.216 0.184 1.492
 0.221 0.181 1.468
 0.225 0.177 1.438
 0.228 0.173 1.402
 0.23 0.168 1.366
 0.234 0.165 1.34
 0.237 0.162 1.31
 0.241 0.16 1.293
 0.247 0.158 1.282
 0.248 0.155 1.251
 0.248 0.15 1.213
 0 0 0
 0 0 0
 0.216 0.12 0.968
 0.208 0.112 0.907
 0.19 0.099 0.806
 0.159 0.081 0.656
 0.125 0.061 0.503
 0.108 0.052 0.424
 0.1 0.047 0.384
 0.102 0.046 0.383
 0.104 0.046 0.38
 0.105 0.046 0.375
 0.107 0.045 0.373
 0.109 0.045 0.371
 0.108 0.044 0.36
 0.106 0.042 0.346
 0.105 0.041 0.336
 0.104 0.04 0.326
 0.104 0.039 0.317
 0.106 0.039 0.317
 0.11 0.039 0.322
 0.113 0.04 0.327
 0.119 0.041 0.336
 0.125 0.043 0.346
 0.128 0.043 0.35
 0.133 0.044 0.357
 0.138 0.045 0.362
 0.138 0.044 0.356
 0.14 0.044 0.356
 0.142 0.044 0.354
 0.142 0.043 0.347
 0.141 0.042 0.339
 0.147 0.044 0.348
 0.147 0.043 0.341
 0.153 0.044 0.351
 0.161 0.046 0.362
 0.175 0.049 0.388
 0.19 0.053 0.414
 0.202 0.056 0.434
 0 0 0
 0 0 0
 0 0 0
 0 0 0
 0 0 0
 0 0 0
 0 0 0
 0.331 0.083 0.63
 0.351 0.087 0.658
 0.362 0.089 0.669
 0.372 0.09 0.677
 0.38 0.091 0.682
 0.393 0.093 0.696
 0.408 0.096 0.711
 0.404 0.094 0.694
 -0.358 0.093 0.637
 -0.366 0.096 0.66
 -0.367 0.098 0.673
 -0.371 0.1 0.692
 -0.375 0.102 0.709
 -0.377 0.104 0.725
 -0.378 0.106 0.738
 -0.378 0.107 0.75
 -0.377 0.108 0.759
 -0.374 0.109 0.766
 -0.372 0.11 0.773
 -0.369 0.11 0.779
 -0.366 0.111 0.785
 -0.363 0.111 0.791
 -0.359 0.112 0.797
 -0.357 0.113 0.804
 -0.355 0.114 0.814
 -0.354 0.115 0.825
 -0.354 0.117 0.839
 -0.356 0.119 0.859
 -0.359 0.122 0.882
 -0.365 0.126 0.912
 -0.372 0.131 0.947
 -0.38 0.136 0.986
 -0.388 0.141 1.025
 -0.395 0.146 1.063
 -0.4 0.15 1.097
 -0.404 0.154 1.127
 -0.404 0.157 1.151
 -0.403 0.159 1.169
 -0.4 0.161 1.185
 -0.396 0.162 1.197
 -0.392 0.164 1.209
 -0.389 0.165 1.221
 -0.384 0.166 1.233
 -0.38 0.168 1.245
 -0.375 0.169 1.257
 -0.37 0.17 1.266
 -0.364 0.171 1.273
 -0.358 0.172 1.282
 -0.352 0.172 1.288
 -0.346 0.173 1.295
 -0.339 0.173 1.3
 -0.332 0.174 1.304
 -0.323 0.173 1.304
 -0.315 0.173 1.3
 -0.305 0.171 1.293
 -0.294 0.17 1.282
 -0.284 0.168 1.271
 -0.274 0.166 1.259
 -0.264 0.165 1.251
 -0.256 0.164 1.245
 -0.247 0.163 1.241
 -0.239 0.163 1.238
 -0.232 0.163 1.239
 -0.224 0.162 1.238
 -0.217 0.163 1.241
 -0.211 0.163 1.245
 -0.204 0.163 1.249
 -0.197 0.164 1.253
 -0.191 0.164 1.259
 -0.184 0.165 1.266
 -0.178 0.166 1.275
 -0.172 0.167 1.286
 -0.166 0.169 1.302
 -0.161 0.172 1.323
 -0.156 0.175 1.348
 -0.151 0.178 1.372
 -0.145 0.181 1.395
 -0.139 0.183 1.413
 -0.131 0.185 1.423
 -0.123 0.184 1.423
 -0.114 0.183 1.417
 -0.105 0.182 1.405
 -0.096 0.179 1.388
 -0.087 0.177 1.367
 -0.078 0.174 1.345
 -0.069 0.171 1.325
 -0.06 0.169 1.307
 -0.052 0.167 1.297
 -0.045 0.166 1.291
 -0.037 0.166 1.29
 -0.03 0.167 1.296
 -0.022 0.168 1.307
 -0.015 0.17 1.317
 -0.007 0.171 1.328
 0 0.172 1.34
 0.007 0.174 1.351
 0.015 0.175 1.358
 0.023 0.175 1.363
 0.031 0.176 1.365
 0.039 0.176 1.366
 0.047 0.176 1.368
 0.055 0.177 1.376
 0.064 0.179 1.392
 0.073 0.182 1.417
 0.083 0.186 1.447
 0.094 0.191 1.482
 0.105 0.196 1.519
 0.116 0.2 1.551
 0.127 0.203 1.573
 0.137 0.205 1.588
 0.147 0.205 1.59
 0.156 0.204 1.585
 0.164 0.203 1.577
 0.172 0.202 1.569
 0.18 0.201 1.559
 0.188 0.2 1.549
 0.196 0.198 1.538
 0.203 0.197 1.525
 0.21 0.195 1.51
 0.216 0.192 1.489
 0.221 0.189 1.464
 0.225 0.185 1.433
 0.227 0.18 1.396
 0.23 0.176 1.361
 0.232 0.172 1.328
 0.235 0.168 1.302
 0.24 0.166 1.286
 0.245 0.165 1.273
 0.244 0.159 1.228
 0.247 0.156 1.205
 0 0 0
 0.219 0.13 1.008
 0.218 0.127 0.979
 0.219 0.124 0.956
 0.225 0.124 0.954
 0.174 0.093 0.721
 0.125 0.065 0.504
 0.1 0.05 0.392
 0.101 0.049 0.388
 0.105 0.05 0.394
 0.108 0.05 0.394
 0.109 0.05 0.387
 0.112 0.05 0.389
 0.114 0.05 0.388
 0.111 0.048 0.371
 0.109 0.045 0.354
 0.107 0.044 0.343
 0.105 0.042 0.329
 0.104 0.041 0.318
 0.106 0.041 0.319
 0.111 0.042 0.325
 0.115 0.043 0.331
 0.121 0.044 0.341
 0.128 0.046 0.355
 0.132 0.047 0.361
 0.138 0.048 0.368
 0.141 0.048 0.369
 0.14 0.047 0.361
 0.141 0.047 0.358
 0.144 0.047 0.359
 0.141 0.045 0.345
 0.144 0.046 0.347
 0.153 0.048 0.362
 0.149 0.046 0.347
 0 0 0
 0 0 0
 0 0 0
 0 0 0
 0 0 0
 0 0 0
 0 0 0
 0 0 0
 0 0 0
 0 0 0
 0 0 0
 0 0 0
 0.301 0.079 0.572
 0.342 0.089 0.64
 0.359 0.092 0.662
 0.371 0.094 0.675
 0.383 0.096 0.687
 0.399 0.099 0.706
 0.416 0.102 0.725
 0.419 0.102 0.72
 -0.357 0.097 0.634
 -0.361 0.099 0.652
 -0.365 0.101 0.668
 -0.369 0.104 0.686
 -0.372 0.106 0.703
 -0.375 0.108 0.719
 -0.376 0.11 0.733
 -0.376 0.111 0.745
 -0.375 0.112 0.754
 -0.373 0.113 0.762
 -0.37 0.114 0.768
 -0.367 0.115 0.775
 -0.364 0.115 0.781
 -0.361 0.116 0.787
 -0.358 0.116 0.793
 -0.356 0.117 0.801
 -0.354 0.118 0.81
 -0.353 0.12 0.822
 -0.353 0.122 0.837
 -0.356 0.124 0.858
 -0.36 0.128 0.883
 -0.366 0.132 0.914
 -0.374 0.137 0.951
 -0.383 0.143 0.992
 -0.391 0.148 1.033
 -0.399 0.154 1.073
 -0.405 0.159 1.109
 -0.408 0.163 1.14
 -0.41 0.166 1.165
 -0.409 0.169 1.185
 -0.406 0.171 1.201
 -0.402 0.172 1.213
 -0.398 0.174 1.225
 -0.394 0.175 1.238
 -0.39 0.176 1.25
 -0.385 0.178 1.262
 -0.38 0.179 1.273
 -0.375 0.18 1.282
 -0.369 0.181 1.29
 -0.363 0.182 1.298
 -0.356 0.182 1.304
 -0.35 0.183 1.309
 -0.342 0.183 1.314
 -0.335 0.183 1.317
 -0.327 0.183 1.317
 -0.318 0.182 1.315
 -0.309 0.181 1.308
 -0.298 0.18 1.298
 -0.288 0.178 1.289
 -0.278 0.176 1.278
 -0.268 0.175 1.269
 -0.26 0.174 1.264
 -0.251 0.173 1.26
 -0.243 0.173 1.257
 -0.235 0.173 1.257
 -0.228 0.172 1.256
 -0.221 0.172 1.259
 -0.214 0.173 1.263
 -0.207 0.173 1.267
 -0.2 0.174 1.27
 -0.194 0.174 1.278
 -0.187 0.175 1.284
 -0.181 0.176 1.293
 -0.174 0.178 1.304
 -0.169 0.18 1.321
 -0.163 0.182 1.34
 -0.158 0.185 1.364
 -0.153 0.188 1.386
 -0.146 0.191 1.407
 -0.14 0.193 1.423
 -0.132 0.194 1.432
 -0.124 0.194 1.433
 -0.115 0.193 1.428
 -0.106 0.192 1.418
 -0.097 0.19 1.403
 -0.088 0.187 1.384
 -0.079 0.185 1.366
 -0.07 0.182 1.348
 -0.061 0.18 1.335
 -0.053 0.179 1.326
 -0.046 0.178 1.322
 -0.038 0.178 1.322
 -0.03 0.179 1.328
 -0.023 0.18 1.337
 -0.015 0.181 1.347
 -0.007 0.183 1.356
 0 0.184 1.366
 0.007 0.185 1.377
 0.015 0.186 1.383
 0.023 0.187 1.387
 0.032 0.187 1.39
 0.04 0.187 1.391
 0.048 0.188 1.394
 0.056 0.189 1.403
 0.065 0.191 1.418
 0.074 0.194 1.441
 0.084 0.198 1.469
 0.095 0.202 1.499
 0.106 0.206 1.53
 0.117 0.21 1.557
 0.127 0.212 1.576
 0.137 0.214 1.587
 0.147 0.214 1.588
 0.155 0.213 1.583
 0.164 0.212 1.576
 0.172 0.211 1.568
 0.18 0.21 1.558
 0.188 0.209 1.548
 0.196 0.207 1.536
 0.203 0.205 1.52
 0.209 0.203 1.504
 0.215 0.2 1.482
 0.22 0.197 1.457
 0.224 0.193 1.429
 0.227 0.189 1.395
 0.23 0.184 1.362
 0.232 0.179 1.325
 0.235 0.176 1.301
 0.239 0.173 1.282
 0.244 0.171 1.266
 0.243 0.165 1.221
 0.248 0.164 1.21
 0 0 0
 0 0 0
 0.215 0.131 0.964
 0.194 0.115 0.847
 0.185 0.106 0.786
 0.157 0.088 0.65
 0.139 0.075 0.559
 0.117 0.062 0.46
 0.113 0.058 0.431
 0.113 0.057 0.424
 0.114 0.056 0.416
 0.114 0.055 0.407
 0.116 0.054 0.405
 0.117 0.054 0.4
 0.115 0.051 0.382
 0.11 0.048 0.36
 0.108 0.046 0.344
 0.105 0.044 0.328
 0.104 0.043 0.317
 0.107 0.043 0.319
 0.112 0.044 0.329
 0.118 0.046 0.339
 0.124 0.048 0.352
 0.132 0.05 0.366
 0.137 0.051 0.373
 0.142 0.052 0.379
 0.144 0.052 0.377
 0.144 0.051 0.371
 0.146 0.051 0.37
 0.149 0.051 0.372
 0.147 0.05 0.359
 0.157 0.052 0.377
 0 0 0
 0 0 0
 0 0 0
 0 0 0
 0 0 0
 0 0 0
 0 0 0
 0 0 0
 0 0 0
 0 0 0
 0 0 0
 0 0 0
 0 0 0
 0.253 0.07 0.486
 0.286 0.078 0.542
 0.327 0.089 0.611
 0.352 0.095 0.65
 0.366 0.098 0.666
 0.383 0.101 0.686
 0.402 0.105 0.709
 0.419 0.108 0.73
 0.428 0.109 0.734
 -0.352 0.099 0.624
 -0.358 0.102 0.644
 -0.362 0.105 0.662
 -0.366 0.107 0.68
 -0.369 0.11 0.696
 -0.372 0.112 0.713
 -0.373 0.114 0.727
 -0.374 0.115 0.74
 -0.373 0.117 0.75
 -0.371 0.118 0.758
 -0.368 0.118 0.764
 -0.366 0.119 0.771
 -0.362 0.119 0.776
 -0.359 0.12 0.783
 -0.357 0.121 0.789
 -0.354 0.122 0.797
 -0.353 0.123 0.807
 -0.352 0.125 0.819
 -0.352 0.127 0.834
 -0.355 0.13 0.856
 -0.36 0.133 0.883
 -0.367 0.138 0.916
 -0.376 0.144 0.955
 -0.385 0.15 0.997
 -0.395 0.156 1.041
 -0.403 0.162 1.082
 -0.409 0.167 1.12
 -0.413 0.172 1.153
 -0.415 0.176 1.179
 -0.414 0.178 1.199
 -0.411 0.18 1.215
 -0.407 0.182 1.227
 -0.403 0.183 1.239
 -0.398 0.184 1.25
 -0.394 0.186 1.263
 -0.389 0.187 1.274
 -0.384 0.189 1.285
 -0.378 0.189 1.293
 -0.372 0.19 1.301
 -0.366 0.191 1.308
 -0.359 0.192 1.314
 -0.352 0.192 1.319
 -0.345 0.193 1.324
 -0.338 0.193 1.327
 -0.329 0.192 1.326
 -0.321 0.192 1.325
 -0.311 0.191 1.319
 -0.301 0.189 1.31
 -0.291 0.188 1.301
 -0.281 0.186 1.292
 -0.272 0.185 1.284
 -0.263 0.184 1.278
 -0.254 0.183 1.274
 -0.246 0.182 1.271
 -0.238 0.182 1.271
 -0.23 0.182 1.27
 -0.223 0.182 1.272
 -0.216 0.182 1.277
 -0.21 0.183 1.282
 -0.202 0.183 1.285
 -0.196 0.184 1.294
 -0.189 0.185 1.3
 -0.183 0.186 1.308
 -0.176 0.188 1.32
 -0.171 0.19 1.337
 -0.165 0.192 1.353
 -0.16 0.195 1.376
 -0.154 0.198 1.397
 -0.147 0.2 1.415
 -0.141 0.202 1.429
 -0.133 0.204 1.439
 -0.125 0.204 1.44
 -0.116 0.203 1.436
 -0.107 0.202 1.427
 -0.098 0.2 1.415
 -0.089 0.197 1.399
 -0.08 0.195 1.382
 -0.071 0.193 1.366
 -0.062 0.191 1.355
 -0.054 0.19 1.347
 -0.046 0.189 1.344
 -0.039 0.189 1.346
 -0.031 0.19 1.352
 -0.023 0.191 1.362
 -0.015 0.193 1.372
 -0.008 0.194 1.381
 0 0.195 1.39
 0.008 0.197 1.399
 0.016 0.197 1.404
 0.024 0.198 1.409
 0.032 0.198 1.412
 0.04 0.199 1.414
 0.049 0.199 1.416
 0.057 0.2 1.424
 0.066 0.202 1.438
 0.075 0.205 1.458
 0.085 0.208 1.483
 0.096 0.212 1.51
 0.106 0.216 1.537
 0.117 0.219 1.56
 0.127 0.221 1.574
 0.137 0.223 1.584
 0.146 0.223 1.583
 0.155 0.222 1.578
 0.164 0.221 1.572
 0.172 0.22 1.564
 0.18 0.219 1.553
 0.188 0.217 1.544
 0.195 0.216 1.532
 0.202 0.213 1.515
 0.209 0.211 1.498
 0.215 0.208 1.477
 0.219 0.205 1.451
 0.223 0.2 1.419
 0.226 0.196 1.386
 0.228 0.191 1.352
 0.23 0.185 1.314
 0.234 0.182 1.291
 0.238 0.18 1.276
 0.242 0.177 1.254
 0.246 0.175 1.235
 0.256 0.177 1.25
 0 0 0
 0 0 0
 0 0 0
 0 0 0
 0.168 0.101 0.713
 0.138 0.08 0.57
 0.123 0.069 0.493
 0.119 0.066 0.467
 0.116 0.062 0.445
 0.117 0.061 0.435
 0.115 0.059 0.421
 0.115 0.058 0.41
 0.117 0.057 0.406
 0.117 0.056 0.398
 0.114 0.053 0.378
 0.111 0.051 0.362
 0.109 0.049 0.349
 0.107 0.047 0.333
 0.106 0.045 0.323
 0.109 0.046 0.327
 0.115 0.048 0.338
 0.121 0.049 0.348
 0.127 0.051 0.359
 0.134 0.053 0.371
 0.137 0.053 0.374
 0.139 0.053 0.372
 0.14 0.053 0.367
 0.138 0.051 0.356
 0.144 0.052 0.363
 0.148 0.053 0.367
 0.15 0.053 0.367
 0.158 0.055 0.379
 0.174 0.06 0.41
 0 0 0
 0 0 0
 0.165 0.054 0.37
 0 0 0
 0 0 0
 0 0 0
 0 0 0
 0 0 0
 0 0 0
 0.231 0.069 0.465
 0.229 0.068 0.453
 0.242 0.071 0.472
 0.254 0.073 0.488
 0.276 0.079 0.522
 0.311 0.088 0.581
 0.342 0.096 0.629
 0.359 0.1 0.651
 0.379 0.104 0.679
 0.4 0.109 0.705
 0.422 0.114 0.734
 0.413 0.11 0.708
 -0.354 0.104 0.628
 -0.356 0.106 0.641
 -0.359 0.108 0.657
 -0.363 0.111 0.674
 -0.366 0.113 0.69
 -0.369 0.116 0.707
 -0.37 0.118 0.721
 -0.371 0.119 0.733
 -0.37 0.12 0.743
 -0.368 0.121 0.751
 -0.366 0.122 0.759
 -0.363 0.123 0.765
 -0.36 0.124 0.771
 -0.358 0.125 0.778
 -0.355 0.125 0.785
 -0.353 0.126 0.793
 -0.351 0.128 0.803
 -0.351 0.129 0.816
 -0.352 0.132 0.832
 -0.355 0.135 0.855
 -0.36 0.139 0.882
 -0.368 0.144 0.917
 -0.377 0.15 0.958
 -0.387 0.157 1.001
 -0.397 0.163 1.045
 -0.406 0.17 1.089
 -0.412 0.175 1.126
 -0.416 0.18 1.159
 -0.418 0.184 1.187
 -0.417 0.187 1.208
 -0.414 0.189 1.224
 -0.41 0.191 1.237
 -0.406 0.192 1.249
 -0.401 0.194 1.26
 -0.397 0.195 1.271
 -0.392 0.196 1.282
 -0.387 0.198 1.292
 -0.381 0.199 1.301
 -0.375 0.199 1.309
 -0.368 0.2 1.316
 -0.362 0.201 1.322
 -0.355 0.201 1.327
 -0.347 0.202 1.33
 -0.34 0.202 1.333
 -0.331 0.201 1.333
 -0.323 0.201 1.332
 -0.313 0.2 1.327
 -0.304 0.199 1.32
 -0.294 0.197 1.312
 -0.284 0.196 1.303
 -0.274 0.194 1.297
 -0.265 0.193 1.29
 -0.257 0.192 1.286
 -0.248 0.192 1.284
 -0.241 0.192 1.285
 -0.233 0.191 1.284
 -0.226 0.192 1.286
 -0.219 0.192 1.29
 -0.212 0.192 1.294
 -0.204 0.193 1.298
 -0.198 0.194 1.307
 -0.191 0.195 1.313
 -0.185 0.196 1.322
 -0.178 0.198 1.334
 -0.172 0.2 1.349
 -0.166 0.202 1.363
 -0.161 0.205 1.384
 -0.155 0.207 1.405
 -0.148 0.21 1.421
 -0.141 0.212 1.435
 -0.134 0.213 1.445
 -0.125 0.213 1.448
 -0.117 0.213 1.445
 -0.108 0.211 1.436
 -0.098 0.209 1.424
 -0.089 0.207 1.409
 -0.08 0.205 1.394
 -0.071 0.203 1.38
 -0.063 0.201 1.37
 -0.055 0.2 1.364
 -0.047 0.2 1.362
 -0.039 0.2 1.366
 -0.031 0.201 1.372
 -0.023 0.202 1.381
 -0.016 0.204 1.39
 -0.008 0.205 1.399
 0 0.206 1.408
 0.008 0.207 1.416
 0.016 0.208 1.422
 0.024 0.209 1.426
 0.033 0.209 1.429
 0.041 0.209 1.431
 0.049 0.21 1.433
 0.058 0.211 1.441
 0.067 0.213 1.453
 0.076 0.215 1.472
 0.086 0.219 1.494
 0.096 0.222 1.517
 0.107 0.225 1.539
 0.117 0.228 1.559
 0.127 0.23 1.571
 0.137 0.231 1.579
 0.146 0.231 1.578
 0.155 0.231 1.575
 0.163 0.23 1.568
 0.172 0.229 1.559
 0.179 0.227 1.548
 0.187 0.226 1.538
 0.195 0.224 1.525
 0.201 0.221 1.508
 0.208 0.219 1.491
 0.214 0.216 1.47
 0.218 0.212 1.441
 0.221 0.207 1.409
 0.224 0.202 1.376
 0.226 0.197 1.339
 0.228 0.191 1.301
 0.232 0.189 1.281
 0.237 0.186 1.265
 0.24 0.183 1.245
 0.245 0.181 1.231
 0.248 0.178 1.208
 0 0 0
 0.223 0.151 1.027
 0 0 0
 0.202 0.13 0.879
 0.164 0.102 0.696
 0.145 0.088 0.598
 0.129 0.076 0.518
 0.127 0.073 0.496
 0.124 0.069 0.473
 0.122 0.067 0.454
 0.119 0.063 0.433
 0.118 0.062 0.421
 0.118 0.06 0.41
 0.117 0.059 0.399
 0.114 0.055 0.378
 0.111 0.053 0.36
 0.108 0.051 0.345
 0.106 0.049 0.331
 0.107 0.048 0.326
 0.111 0.049 0.333
 0.118 0.051 0.345
 0.124 0.053 0.357
 0.129 0.054 0.364
 0.134 0.055 0.37
 0.136 0.055 0.369
 0.138 0.055 0.367
 0.136 0.053 0.355
 0.138 0.053 0.354
 0.142 0.054 0.358
 0.146 0.054 0.362
 0.148 0.054 0.361
 0.154 0.056 0.37
 0.16 0.057 0.377
 0.166 0.058 0.384
 0.171 0.059 0.39
 0.174 0.06 0.39
 0.191 0.065 0.421
 0.2 0.067 0.435
 0.196 0.064 0.419
 0.202 0.066 0.425
 0.216 0.069 0.447
 0.217 0.069 0.443
 0.22 0.069 0.443
 0.226 0.07 0.448
 0.24 0.073 0.467
 0.253 0.076 0.485
 0.273 0.082 0.517
 0.306 0.091 0.572
 0.336 0.098 0.618
 0.354 0.103 0.642
 0.376 0.108 0.672
 0.396 0.112 0.697
 0.414 0.116 0.719
 0.421 0.117 0.721
 -0.35 0.107 0.62
 -0.353 0.109 0.634
 -0.357 0.112 0.652
 -0.36 0.114 0.669
 -0.363 0.117 0.685
 -0.366 0.119 0.7
 -0.367 0.121 0.714
 -0.367 0.123 0.726
 -0.367 0.124 0.736
 -0.365 0.125 0.745
 -0.364 0.126 0.753
 -0.361 0.127 0.76
 -0.359 0.128 0.767
 -0.356 0.129 0.774
 -0.353 0.13 0.781
 -0.351 0.131 0.789
 -0.35 0.132 0.798
 -0.349 0.134 0.811
 -0.35 0.136 0.828
 -0.354 0.14 0.851
 -0.359 0.144 0.88
 -0.368 0.15 0.916
 -0.377 0.156 0.958
 -0.388 0.163 1.002
 -0.397 0.17 1.047
 -0.406 0.177 1.09
 -0.413 0.183 1.129
 -0.417 0.188 1.162
 -0.419 0.192 1.191
 -0.419 0.195 1.212
 -0.416 0.197 1.229
 -0.412 0.199 1.241
 -0.408 0.201 1.253
 -0.403 0.202 1.263
 -0.398 0.204 1.276
 -0.393 0.205 1.287
 -0.388 0.206 1.298
 -0.383 0.208 1.307
 -0.377 0.209 1.315
 -0.37 0.209 1.321
 -0.363 0.21 1.327
 -0.356 0.21 1.332
 -0.349 0.21 1.335
 -0.341 0.21 1.337
 -0.332 0.21 1.337
 -0.324 0.21 1.336
 -0.314 0.209 1.331
 -0.305 0.207 1.325
 -0.295 0.206 1.317
 -0.285 0.204 1.309
 -0.276 0.203 1.303
 -0.267 0.202 1.296
 -0.258 0.201 1.292
 -0.25 0.201 1.291
 -0.242 0.201 1.292
 -0.234 0.2 1.292
 -0.227 0.201 1.296
 -0.22 0.201 1.299
 -0.213 0.202 1.305
 -0.206 0.202 1.308
 -0.2 0.203 1.317
 -0.193 0.204 1.323
 -0.186 0.205 1.332
 -0.18 0.207 1.344
 -0.174 0.209 1.359
 -0.167 0.211 1.371
 -0.161 0.214 1.39
 -0.155 0.217 1.41
 -0.148 0.219 1.424
 -0.141 0.22 1.437
 -0.134 0.222 1.448
 -0.126 0.223 1.452
 -0.117 0.222 1.449
 -0.108 0.221 1.442
 -0.099 0.219 1.432
 -0.09 0.217 1.418
 -0.081 0.215 1.404
 -0.072 0.213 1.392
 -0.064 0.211 1.383
 -0.055 0.21 1.379
 -0.047 0.21 1.377
 -0.039 0.21 1.38
 -0.032 0.211 1.385
 -0.024 0.212 1.394
 -0.016 0.214 1.402
 -0.008 0.215 1.412
 0 0.217 1.422
 0.008 0.218 1.43
 0.016 0.219 1.436
 0.025 0.219 1.44
 0.033 0.22 1.442
 0.041 0.22 1.444
 0.05 0.22 1.446
 0.058 0.221 1.452
 0.067 0.223 1.463
 0.077 0.225 1.481
 0.087 0.229 1.5
 0.097 0.232 1.521
 0.107 0.235 1.541
 0.117 0.238 1.559
 0.127 0.239 1.569
 0.137 0.24 1.575
 0.146 0.24 1.575
 0.155 0.24 1.571
 0.163 0.238 1.561
 0.171 0.237 1.552
 0.179 0.235 1.539
 0.186 0.233 1.529
 0.194 0.231 1.516
 0.201 0.229 1.501
 0.207 0.227 1.483
 0.213 0.223 1.461
 0.217 0.219 1.431
 0.22 0.214 1.397
 0.223 0.209 1.364
 0.224 0.203 1.324
 0.224 0.196 1.281
 0.228 0.193 1.257
 0.232 0.19 1.239
 0.235 0.186 1.215
 0.24 0.184 1.202
 0.242 0.181 1.18
 0 0 0
 0 0 0
 0 0 0
 0.186 0.124 0.808
 0.159 0.103 0.671
 0.144 0.091 0.594
 0.14 0.086 0.562
 0.136 0.082 0.533
 0.131 0.077 0.501
 0.128 0.073 0.479
 0.124 0.069 0.451
 0.122 0.067 0.435
 0.119 0.063 0.414
 0.117 0.061 0.399
 0.114 0.058 0.378
 0.11 0.055 0.359
 0.108 0.053 0.344
 0.107 0.051 0.334
 0.109 0.051 0.333
 0.114 0.052 0.34
 0.12 0.054 0.351
 0.126 0.056 0.362
 0.13 0.057 0.367
 0.135 0.058 0.373
 0.137 0.058 0.371
 0.138 0.057 0.369
 0.137 0.056 0.36
 0.142 0.057 0.364
 0.145 0.057 0.367
 0.15 0.059 0.373
 0.152 0.058 0.371
 0.155 0.059 0.372
 0.156 0.058 0.366
 0.162 0.059 0.375
 0.167 0.06 0.381
 0.172 0.061 0.385
 0.185 0.065 0.409
 0.193 0.067 0.418
 0.193 0.066 0.412
 0.2 0.068 0.42
 0.213 0.071 0.441
 0.217 0.072 0.443
 0.226 0.074 0.453
 0.231 0.074 0.457
 0.246 0.078 0.479
 0.257 0.081 0.493
 0.274 0.085 0.518
 0.301 0.093 0.562
 0.33 0.101 0.607
 0.348 0.105 0.631
 0.371 0.111 0.663
 0.39 0.115 0.686
 0.397 0.116 0.688
 0.413 0.119 0.706
 -0.345 0.11 0.611
 -0.349 0.112 0.627
 -0.354 0.115 0.646
 -0.357 0.118 0.662
 -0.36 0.12 0.678
 -0.363 0.123 0.694
 -0.364 0.125 0.707
 -0.364 0.126 0.718
 -0.364 0.128 0.729
 -0.363 0.129 0.738
 -0.361 0.13 0.747
 -0.359 0.131 0.754
 -0.356 0.132 0.761
 -0.354 0.133 0.768
 -0.351 0.134 0.775
 -0.349 0.135 0.784
 -0.347 0.136 0.793
 -0.347 0.138 0.806
 -0.349 0.141 0.823
 -0.353 0.144 0.847
 -0.358 0.149 0.877
 -0.367 0.155 0.914
 -0.378 0.162 0.958
 -0.388 0.169 1.002
 -0.398 0.177 1.047
 -0.407 0.184 1.09
 -0.414 0.19 1.131
 -0.418 0.195 1.163
 -0.42 0.2 1.192
 -0.42 0.203 1.214
 -0.417 0.206 1.231
 -0.413 0.207 1.244
 -0.409 0.209 1.256
 -0.404 0.21 1.266
 -0.399 0.212 1.278
 -0.394 0.213 1.289
 -0.389 0.215 1.299
 -0.383 0.216 1.308
 -0.377 0.217 1.316
 -0.371 0.218 1.323
 -0.364 0.218 1.329
 -0.357 0.219 1.333
 -0.349 0.219 1.337
 -0.341 0.219 1.339
 -0.333 0.219 1.339
 -0.324 0.218 1.337
 -0.315 0.217 1.334
 -0.306 0.216 1.328
 -0.296 0.215 1.321
 -0.286 0.213 1.314
 -0.277 0.212 1.31
 -0.268 0.211 1.303
 -0.26 0.21 1.3
 -0.252 0.21 1.299
 -0.244 0.21 1.301
 -0.236 0.21 1.301
 -0.229 0.21 1.305
 -0.222 0.21 1.308
 -0.215 0.211 1.313
 -0.207 0.211 1.316
 -0.201 0.212 1.324
 -0.194 0.213 1.33
 -0.187 0.214 1.339
 -0.181 0.216 1.35
 -0.174 0.218 1.364
 -0.168 0.22 1.376
 -0.162 0.223 1.394
 -0.156 0.225 1.413
 -0.149 0.228 1.427
 -0.142 0.23 1.44
 -0.134 0.231 1.451
 -0.126 0.232 1.455
 -0.118 0.232 1.455
 -0.109 0.23 1.448
 -0.1 0.229 1.44
 -0.09 0.227 1.426
 -0.081 0.224 1.413
 -0.073 0.223 1.402
 -0.064 0.221 1.394
 -0.056 0.22 1.39
 -0.048 0.22 1.389
 -0.04 0.22 1.389
 -0.032 0.221 1.394
 -0.024 0.222 1.402
 -0.016 0.223 1.41
 -0.008 0.225 1.421
 0 0.227 1.431
 0.008 0.228 1.441
 0.016 0.229 1.446
 0.025 0.23 1.451
 0.033 0.23 1.453
 0.042 0.23 1.455
 0.05 0.23 1.456
 0.059 0.231 1.462
 0.068 0.233 1.471
 0.077 0.235 1.486
 0.087 0.238 1.503
 0.097 0.241 1.521
 0.107 0.244 1.539
 0.117 0.246 1.555
 0.127 0.248 1.564
 0.136 0.249 1.57
 0.146 0.249 1.569
 0.154 0.248 1.565
 0.162 0.246 1.555
 0.17 0.245 1.545
 0.178 0.243 1.531
 0.186 0.241 1.52
 0.192 0.239 1.504
 0.199 0.236 1.488
 0.205 0.233 1.47
 0.21 0.229 1.445
 0.214 0.224 1.412
 0.218 0.22 1.383
 0.221 0.215 1.35
 0.221 0.207 1.303
 0.222 0.201 1.264
 0.225 0.197 1.239
 0.227 0.193 1.211
 0.229 0.189 1.186
 0.233 0.186 1.168
 0.233 0.181 1.136
 0.226 0.17 1.066
 0.219 0.16 1.006
 0.198 0.141 0.886
 0.178 0.123 0.773
 0.15 0.101 0.635
 0.147 0.096 0.604
 0.139 0.089 0.557
 0.138 0.086 0.541
 0.136 0.082 0.518
 0.133 0.079 0.497
 0.13 0.075 0.471
 0.128 0.072 0.454
 0.122 0.068 0.424
 0.119 0.064 0.404
 0.115 0.061 0.38
 0.111 0.058 0.361
 0.109 0.055 0.345
 0.109 0.054 0.339
 0.112 0.055 0.341
 0.117 0.056 0.35
 0.123 0.058 0.36
 0.129 0.06 0.372
 0.134 0.061 0.378
 0.137 0.061 0.38
 0.139 0.061 0.376
 0.141 0.061 0.375
 0.141 0.06 0.37
 0.146 0.061 0.375
 0.149 0.061 0.376
 0.156 0.063 0.386
 0.157 0.063 0.382
 0.158 0.062 0.377
 0.158 0.061 0.371
 0.168 0.064 0.389
 0.17 0.064 0.388
 0.177 0.066 0.397
 0.19 0.069 0.418
 0.193 0.07 0.418
 0.194 0.069 0.414
 0.204 0.072 0.429
 0.215 0.075 0.445
 0.221 0.076 0.449
 0.233 0.079 0.468
 0.24 0.08 0.474
 0.252 0.083 0.49
 0.261 0.085 0.5
 0.276 0.089 0.521
 0.298 0.095 0.555
 0.325 0.103 0.596
 0.344 0.108 0.623
 0.367 0.114 0.654
 0.385 0.118 0.676
 0.394 0.119 0.683
 0.4 0.12 0.682
 -0.342 0.113 0.605
 -0.347 0.116 0.623
 -0.351 0.119 0.64
 -0.355 0.121 0.656
 -0.358 0.124 0.672
 -0.36 0.126 0.687
 -0.361 0.128 0.701
 -0.361 0.13 0.712
 -0.361 0.131 0.723
 -0.36 0.133 0.732
 -0.359 0.134 0.741
 -0.356 0.135 0.748
 -0.354 0.136 0.756
 -0.351 0.137 0.762
 -0.349 0.138 0.768
 -0.346 0.139 0.776
 -0.345 0.14 0.786
 -0.345 0.142 0.8
 -0.346 0.145 0.817
 -0.351 0.149 0.842
 -0.357 0.154 0.873
 -0.366 0.161 0.912
 -0.377 0.168 0.956
 -0.388 0.176 1.001
 -0.397 0.183 1.044
 -0.406 0.19 1.087
 -0.413 0.197 1.127
 -0.417 0.202 1.159
 -0.419 0.207 1.189
 -0.42 0.21 1.213
 -0.417 0.213 1.231
 -0.414 0.215 1.245
 -0.41 0.217 1.258
 -0.405 0.218 1.268
 -0.4 0.22 1.279
 -0.395 0.222 1.291
 -0.389 0.223 1.299
 -0.384 0.224 1.308
 -0.378 0.225 1.316
 -0.371 0.226 1.323
 -0.364 0.226 1.328
 -0.357 0.227 1.333
 -0.349 0.227 1.336
 -0.342 0.227 1.338
 -0.333 0.227 1.338
 -0.324 0.226 1.336
 -0.315 0.225 1.333
 -0.306 0.224 1.329
 -0.297 0.223 1.323
 -0.287 0.222 1.318
 -0.279 0.221 1.315
 -0.27 0.22 1.309
 -0.261 0.219 1.307
 -0.253 0.219 1.307
 -0.245 0.219 1.308
 -0.238 0.219 1.308
 -0.23 0.219 1.312
 -0.223 0.219 1.314
 -0.216 0.22 1.318
 -0.209 0.22 1.323
 -0.202 0.221 1.329
 -0.195 0.222 1.335
 -0.188 0.223 1.342
 -0.181 0.224 1.352
 -0.174 0.226 1.364
 -0.168 0.228 1.377
 -0.162 0.231 1.394
 -0.156 0.234 1.411
 -0.149 0.236 1.427
 -0.142 0.238 1.44
 -0.134 0.24 1.451
 -0.126 0.24 1.456
 -0.118 0.24 1.456
 -0.109 0.24 1.452
 -0.1 0.238 1.444
 -0.091 0.236 1.432
 -0.082 0.234 1.421
 -0.073 0.232 1.411
 -0.064 0.231 1.403
 -0.056 0.23 1.399
 -0.048 0.23 1.396
 -0.04 0.23 1.396
 -0.032 0.23 1.399
 -0.024 0.231 1.407
 -0.016 0.232 1.415
 -0.008 0.234 1.427
 0 0.236 1.437
 0.008 0.238 1.447
 0.017 0.239 1.453
 0.025 0.239 1.458
 0.034 0.24 1.459
 0.042 0.24 1.462
 0.051 0.24 1.463
 0.059 0.241 1.467
 0.068 0.242 1.475
 0.077 0.244 1.489
 0.087 0.247 1.503
 0.097 0.249 1.519
 0.107 0.252 1.534
 0.117 0.254 1.548
 0.126 0.255 1.555
 0.136 0.256 1.561
 0.145 0.256 1.56
 0.153 0.256 1.555
 0.161 0.254 1.545
 0.169 0.252 1.533
 0.176 0.25 1.518
 0.184 0.248 1.505
 0.191 0.245 1.489
 0.197 0.243 1.474
 0.204 0.24 1.457
 0.209 0.236 1.432
 0.213 0.231 1.402
 0.216 0.226 1.372
 0.218 0.22 1.334
 0.218 0.212 1.283
 0.218 0.205 1.242
 0.221 0.201 1.215
 0.222 0.196 1.185
 0.225 0.192 1.163
 0.229 0.19 1.146
 0.23 0.185 1.117
 0.226 0.176 1.065
 0.219 0.166 1.005
 0.193 0.142 0.86
 0.185 0.133 0.804
 0.159 0.111 0.671
 0.151 0.103 0.621
 0.143 0.095 0.572
 0.139 0.09 0.542
 0.137 0.087 0.525
 0.133 0.082 0.497
 0.13 0.079 0.474
 0.129 0.076 0.458
 0.125 0.072 0.433
 0.121 0.068 0.409
 0.117 0.064 0.388
 0.114 0.061 0.37
 0.112 0.059 0.355
 0.112 0.058 0.348
 0.116 0.059 0.353
 0.121 0.06 0.361
 0.127 0.062 0.371
 0.133 0.064 0.381
 0.137 0.065 0.386
 0.139 0.065 0.385
 0.141 0.064 0.383
 0.143 0.064 0.381
 0.143 0.063 0.373
 0.145 0.063 0.373
 0.149 0.064 0.376
 0.155 0.065 0.384
 0.156 0.065 0.379
 0.158 0.064 0.377
 0.159 0.064 0.373
 0.166 0.066 0.383
 0.169 0.066 0.384
 0.176 0.068 0.394
 0.186 0.071 0.41
 0.19 0.071 0.413
 0.196 0.072 0.417
 0.203 0.074 0.427
 0.213 0.077 0.44
 0.218 0.078 0.444
 0.229 0.081 0.458
 0.235 0.082 0.464
 0.248 0.085 0.482
 0.256 0.087 0.49
 0.273 0.092 0.515
 0.294 0.098 0.547
 0.317 0.104 0.581
 0.336 0.109 0.606
 0.358 0.115 0.637
 0.375 0.119 0.659
 0.374 0.118 0.647
 0.385 0.12 0.656
 -0.341 0.116 0.601
 -0.347 0.12 0.623
 -0.349 0.122 0.635
 -0.352 0.125 0.651
 -0.355 0.127 0.667
 -0.357 0.13 0.681
 -0.358 0.132 0.695
 -0.358 0.133 0.706
 -0.358 0.135 0.717
 -0.358 0.137 0.726
 -0.356 0.138 0.735
 -0.354 0.139 0.742
 -0.352 0.14 0.75
 -0.349 0.141 0.756
 -0.346 0.141 0.761
 -0.344 0.142 0.769
 -0.342 0.144 0.778
 -0.342 0.146 0.792
 -0.344 0.149 0.81
 -0.348 0.153 0.834
 -0.355 0.158 0.866
 -0.364 0.165 0.904
 -0.375 0.173 0.949
 -0.385 0.18 0.993
 -0.395 0.188 1.037
 -0.404 0.196 1.08
 -0.411 0.203 1.121
 -0.415 0.208 1.152
 -0.418 0.213 1.183
 -0.418 0.217 1.208
 -0.416 0.22 1.227
 -0.413 0.222 1.242
 -0.409 0.224 1.255
 -0.405 0.226 1.266
 -0.4 0.228 1.278
 -0.395 0.229 1.29
 -0.39 0.231 1.299
 -0.384 0.232 1.308
 -0.378 0.233 1.316
 -0.371 0.234 1.323
 -0.364 0.234 1.328
 -0.357 0.235 1.333
 -0.349 0.235 1.336
 -0.342 0.235 1.338
 -0.333 0.235 1.337
 -0.325 0.234 1.337
 -0.316 0.234 1.335
 -0.307 0.233 1.331
 -0.297 0.231 1.326
 -0.288 0.23 1.321
 -0.279 0.229 1.317
 -0.27 0.228 1.311
 -0.262 0.228 1.31
 -0.254 0.227 1.311
 -0.247 0.228 1.313
 -0.239 0.228 1.314
 -0.232 0.228 1.318
 -0.224 0.228 1.32
 -0.217 0.229 1.324
 -0.21 0.229 1.328
 -0.202 0.23 1.333
 -0.195 0.231 1.338
 -0.188 0.232 1.345
 -0.181 0.233 1.355
 -0.175 0.235 1.366
 -0.168 0.237 1.378
 -0.162 0.239 1.393
 -0.155 0.242 1.409
 -0.149 0.244 1.424
 -0.141 0.246 1.437
 -0.134 0.248 1.448
 -0.126 0.249 1.454
 -0.118 0.249 1.456
 -0.109 0.248 1.452
 -0.1 0.247 1.445
 -0.091 0.245 1.433
 -0.082 0.243 1.424
 -0.073 0.241 1.415
 -0.065 0.24 1.409
 -0.056 0.24 1.406
 -0.048 0.239 1.403
 -0.04 0.239 1.403
 -0.032 0.239 1.405
 -0.024 0.24 1.411
 -0.016 0.241 1.418
 -0.008 0.243 1.429
 0 0.245 1.441
 0.008 0.247 1.451
 0.017 0.248 1.458
 0.025 0.249 1.462
 0.034 0.249 1.463
 0.042 0.249 1.464
 0.051 0.249 1.465
 0.059 0.25 1.469
 0.068 0.251 1.476
 0.078 0.253 1.488
 0.087 0.255 1.501
 0.097 0.258 1.515
 0.106 0.26 1.528
 0.116 0.262 1.539
 0.125 0.263 1.544
 0.135 0.264 1.548
 0.144 0.264 1.547
 0.152 0.263 1.542
 0.16 0.261 1.532
 0.168 0.259 1.522
 0.175 0.257 1.508
 0.183 0.255 1.494
 0.189 0.252 1.476
 0.196 0.249 1.461
 0.202 0.246 1.442
 0.206 0.242 1.415
 0.21 0.236 1.383
 0.213 0.231 1.353
 0.215 0.224 1.312
 0.214 0.215 1.26
 0.214 0.209 1.219
 0.216 0.203 1.188
 0.217 0.198 1.157
 0.218 0.193 1.125
 0.218 0.187 1.091
 0.211 0.176 1.026
 0.207 0.167 0.976
 0.204 0.161 0.935
 0.194 0.149 0.865
 0.18 0.134 0.782
 0.161 0.117 0.68
 0.154 0.109 0.635
 0.147 0.101 0.59
 0.143 0.096 0.56
 0.14 0.092 0.535
 0.135 0.086 0.501
 0.132 0.082 0.479
 0.13 0.079 0.462
 0.126 0.075 0.438
 0.123 0.072 0.417
 0.12 0.069 0.399
 0.117 0.065 0.378
 0.114 0.062 0.361
 0.114 0.061 0.354
 0.119 0.062 0.361
 0.123 0.064 0.369
 0.129 0.066 0.378
 0.135 0.067 0.387
 0.139 0.068 0.392
 0.14 0.068 0.388
 0.143 0.068 0.388
 0.146 0.068 0.388
 0.146 0.067 0.381
 0.152 0.069 0.391
 0.154 0.068 0.389
 0.16 0.07 0.397
 0.161 0.069 0.392
 0.163 0.069 0.389
 0.16 0.067 0.377
 0.17 0.07 0.392
 0.171 0.069 0.388
 0.177 0.071 0.396
 0.186 0.073 0.41
 0.188 0.073 0.406
 0.191 0.073 0.407
 0.198 0.075 0.416
 0.206 0.077 0.425
 0.211 0.078 0.429
 0.223 0.081 0.446
 0.234 0.084 0.461
 0.246 0.088 0.478
 0.258 0.091 0.493
 0.275 0.096 0.518
 0.295 0.102 0.549
 0.314 0.107 0.575
 0.331 0.111 0.597
 0.35 0.116 0.622
 0.366 0.121 0.642
 0.392 0.128 0.678
 0.401 0.129 0.682
 -0.338 0.119 0.595
 -0.342 0.122 0.612
 -0.346 0.125 0.628
 -0.349 0.128 0.644
 -0.352 0.13 0.661
 -0.354 0.133 0.675
 -0.356 0.135 0.688
 -0.356 0.137 0.7
 -0.356 0.139 0.711
 -0.355 0.14 0.721
 -0.354 0.142 0.729
 -0.351 0.142 0.736
 -0.349 0.143 0.743
 -0.346 0.144 0.748
 -0.342 0.144 0.753
 -0.339 0.145 0.759
 -0.338 0.147 0.768
 -0.338 0.149 0.781
 -0.339 0.152 0.799
 -0.344 0.156 0.824
 -0.351 0.162 0.856
 -0.36 0.169 0.894
 -0.372 0.177 0.94
 -0.382 0.185 0.984
 -0.392 0.193 1.029
