 -1.627 -1.605 3.756
 -1.632 -1.635 3.834
 -1.598 -1.625 3.82
 -1.556 -1.608 3.788
 -1.535 -1.612 3.807
 -1.496 -1.596 3.778
 -1.496 -1.623 3.85
 -1.471 -1.623 3.859
 -1.43 -1.605 3.823
 -1.436 -1.64 3.915
 -1.397 -1.624 3.883
 -1.384 -1.639 3.926
 -1.355 -1.633 3.919
 -1.307 -1.606 3.861
 -1.289 -1.613 3.886
 -1.259 -1.606 3.876
 -1.242 -1.616 3.907
 -1.221 -1.622 3.927
 -1.193 -1.617 3.921
 -1.159 -1.605 3.899
 -1.135 -1.606 3.906
 -1.13 -1.634 3.98
 -1.087 -1.606 3.919
 -1.074 -1.624 3.968
 -1.044 -1.616 3.955
 -1.006 -1.596 3.91
 -0.987 -1.604 3.935
 -0.961 -1.602 3.934
 -0.936 -1.601 3.936
 -0.926 -1.627 4.006
 -0.899 -1.623 4.001
 -0.877 -1.628 4.016
 -0.852 -1.628 4.022
 -0.818 -1.609 3.98
 -0.8 -1.624 4.019
 -0.765 -1.601 3.967
 -0.74 -1.601 3.969
 -0.723 -1.617 4.015
 -0.692 -1.603 3.981
 -0.671 -1.611 4.005
 -0.649 -1.617 4.024
 -0.632 -1.637 4.077
 -0.605 -1.63 4.063
 -0.572 -1.608 4.011
 -0.558 -1.639 4.09
 -0.53 -1.63 4.07
 -0.503 -1.624 4.058
 -0.475 -1.614 4.034
 -0.451 -1.613 4.035
 -0.429 -1.624 4.064
 -0.399 -1.605 4.017
 -0.377 -1.615 4.046
 -0.352 -1.612 4.039
 -0.329 -1.619 4.059
 -0.307 -1.633 4.093
 -0.281 -1.627 4.079
 -0.256 -1.627 4.083
 -0.229 -1.612 4.045
 -0.205 -1.615 4.052
 -0.181 -1.619 4.064
 -0.156 -1.612 4.045
 -0.131 -1.615 4.054
 -0.107 -1.615 4.055
 -0.082 -1.612 4.048
 -0.058 -1.627 4.085
 -0.033 -1.617 4.061
 -0.009 -1.623 4.075
 0.015 -1.629 4.089
 0.04 -1.629 4.091
 0.063 -1.605 4.029
 0.088 -1.608 4.035
 0.113 -1.616 4.055
 0.14 -1.641 4.116
 0.162 -1.612 4.042
 0.189 -1.633 4.093
 0.211 -1.618 4.054
 0.237 -1.624 4.069
 0.259 -1.611 4.034
 0.285 -1.62 4.056
 0.308 -1.612 4.033
 0.334 -1.617 4.044
 0.362 -1.634 4.084
 0.382 -1.615 4.034
 0.408 -1.619 4.043
 0.432 -1.616 4.033
 0.454 -1.61 4.014
 0.478 -1.608 4.008
 0.511 -1.633 4.067
 0.524 -1.601 3.983
 0.554 -1.616 4.018
 0.587 -1.639 4.072
 0.606 -1.625 4.034
 0.631 -1.624 4.029
 0.65 -1.611 3.991
 0.686 -1.639 4.058
 0.709 -1.635 4.044
 0.73 -1.627 4.019
 0.748 -1.613 3.981
 0.781 -1.631 4.02
 0.799 -1.618 3.983
 0.836 -1.642 4.039
 0.851 -1.622 3.985
 0.866 -1.605 3.939
 0.913 -1.647 4.036
 0.926 -1.625 3.977
 0.957 -1.636 3.999
 0.975 -1.626 3.968
 1.015 -1.65 4.021
 1.018 -1.616 3.932
 1.045 -1.62 3.937
 1.068 -1.618 3.926
 1.113 -1.648 3.992
 1.126 -1.631 3.944
 1.14 -1.616 3.901
 1.186 -1.645 3.966
 1.2 -1.631 3.923
 1.227 -1.635 3.926
 1.255 -1.638 3.928
 1.277 -1.635 3.912
 1.3 -1.633 3.899
 1.332 -1.643 3.916
 1.36 -1.646 3.915
 1.389 -1.651 3.92
 1.398 -1.632 3.867
 1.428 -1.638 3.873
 1.456 -1.643 3.874
 1.482 -1.645 3.87
 1.486 -1.622 3.807
 1.522 -1.634 3.827
 1.533 -1.619 3.785
 1.577 -1.64 3.824
 1.605 -1.643 3.821
 1.631 -1.645 3.816
 1.638 -1.627 3.765
 1.67 -1.634 3.772
 1.688 -1.629 3.748
 1.727 -1.642 3.77
 1.737 -1.628 3.727
 1.789 -1.654 3.775
 1.812 -1.652 3.76
 1.795 -1.614 3.663
 1.798 -1.596 3.61
 1.828 -1.601 3.61
 1.816 -1.57 3.529
 1.793 -1.53 3.428
 1.82 -1.534 3.426
 1.799 -1.497 3.332
 1.828 -1.502 3.333
 1.788 -1.452 3.21
 1.77 -1.42 3.129
 1.765 -1.399 3.072
 1.758 -1.378 3.013
 1.762 -1.364 2.973
 1.778 -1.361 2.956
 1.739 -1.316 2.847
 1.767 -1.323 2.85
 -2.153 -1.604 3.604
 -2.145 -1.617 3.646
 -2.124 -1.621 3.667
 -2.099 -1.621 3.679
 -2.07 -1.618 3.685
 -2.046 -1.619 3.699
 -2.021 -1.62 3.712
 -1.999 -1.622 3.729
 -1.975 -1.623 3.742
 -1.955 -1.627 3.763
 -1.928 -1.626 3.772
 -1.905 -1.628 3.788
 -1.88 -1.629 3.8
 -1.858 -1.632 3.818
 -1.832 -1.632 3.828
 -1.806 -1.631 3.836
 -1.781 -1.632 3.848
 -1.754 -1.63 3.854
 -1.725 -1.626 3.855
 -1.698 -1.625 3.862
 -1.673 -1.625 3.871
 -1.643 -1.62 3.868
 -1.616 -1.619 3.875
 -1.59 -1.618 3.882
 -1.563 -1.617 3.887
 -1.538 -1.617 3.896
 -1.514 -1.618 3.907
 -1.489 -1.618 3.915
 -1.464 -1.618 3.923
 -1.439 -1.619 3.933
 -1.414 -1.618 3.939
 -1.387 -1.617 3.944
 -1.361 -1.616 3.949
 -1.336 -1.616 3.956
 -1.311 -1.616 3.963
 -1.286 -1.616 3.97
 -1.262 -1.617 3.98
 -1.237 -1.618 3.989
 -1.213 -1.619 3.998
 -1.188 -1.619 4.003
 -1.16 -1.616 4.002
 -1.135 -1.616 4.006
 -1.109 -1.615 4.01
 -1.082 -1.611 4.007
 -1.056 -1.61 4.01
 -1.032 -1.612 4.021
 -1.005 -1.609 4.018
 -0.981 -1.61 4.025
 -0.958 -1.613 4.039
 -0.933 -1.615 4.046
 -0.908 -1.614 4.049
 -0.885 -1.617 4.061
 -0.859 -1.616 4.063
 -0.834 -1.616 4.066
 -0.808 -1.614 4.065
 -0.782 -1.612 4.066
 -0.757 -1.613 4.072
 -0.732 -1.613 4.074
 -0.707 -1.613 4.077
 -0.683 -1.615 4.088
 -0.659 -1.617 4.095
 -0.634 -1.617 4.098
 -0.609 -1.619 4.106
 -0.585 -1.619 4.109
 -0.559 -1.619 4.11
 -0.534 -1.618 4.111
 -0.508 -1.615 4.107
 -0.483 -1.615 4.109
 -0.457 -1.612 4.104
 -0.432 -1.611 4.101
 -0.407 -1.611 4.104
 -0.383 -1.613 4.111
 -0.357 -1.612 4.111
 -0.333 -1.613 4.115
 -0.308 -1.616 4.122
 -0.283 -1.615 4.122
 -0.258 -1.614 4.12
 -0.233 -1.614 4.12
 -0.208 -1.612 4.117
 -0.183 -1.611 4.114
 -0.158 -1.611 4.116
 -0.133 -1.611 4.115
 -0.108 -1.611 4.117
 -0.083 -1.612 4.12
 -0.058 -1.613 4.123
 -0.034 -1.614 4.124
 -0.009 -1.615 4.126
 0.015 -1.614 4.123
 0.04 -1.616 4.127
 0.065 -1.613 4.121
 0.09 -1.614 4.121
 0.115 -1.614 4.121
 0.14 -1.616 4.126
 0.165 -1.615 4.12
 0.19 -1.616 4.122
 0.214 -1.614 4.116
 0.239 -1.613 4.112
 0.263 -1.611 4.105
 0.288 -1.611 4.102
 0.313 -1.612 4.104
 0.338 -1.613 4.104
 0.363 -1.613 4.102
 0.388 -1.615 4.105
 0.413 -1.615 4.104
 0.438 -1.613 4.097
 0.463 -1.615 4.099
 0.488 -1.616 4.099
 0.514 -1.618 4.1
 0.539 -1.62 4.102
 0.565 -1.622 4.105
 0.59 -1.622 4.1
 0.614 -1.621 4.094
 0.639 -1.621 4.092
 0.665 -1.622 4.09
 0.69 -1.623 4.088
 0.715 -1.623 4.084
 0.74 -1.624 4.084
 0.765 -1.623 4.077
 0.79 -1.623 4.072
 0.814 -1.623 4.067
 0.839 -1.623 4.062
 0.865 -1.624 4.06
 0.89 -1.624 4.056
 0.915 -1.625 4.053
 0.94 -1.625 4.047
 0.966 -1.626 4.045
 0.991 -1.626 4.039
 1.016 -1.626 4.034
 1.04 -1.626 4.026
 1.067 -1.628 4.027
 1.092 -1.629 4.021
 1.117 -1.628 4.015
 1.143 -1.63 4.012
 1.169 -1.632 4.009
 1.193 -1.63 3.998
 1.219 -1.632 3.997
 1.246 -1.634 3.995
 1.272 -1.635 3.991
 1.298 -1.637 3.987
 1.325 -1.639 3.984
 1.35 -1.639 3.977
 1.376 -1.64 3.972
 1.403 -1.642 3.967
 1.426 -1.639 3.953
 1.451 -1.64 3.947
 1.475 -1.639 3.934
 1.499 -1.637 3.922
 1.522 -1.635 3.908
 1.547 -1.636 3.9
 1.572 -1.635 3.89
 1.598 -1.637 3.884
 1.623 -1.636 3.873
 1.648 -1.637 3.865
 1.671 -1.635 3.851
 1.695 -1.633 3.837
 1.719 -1.633 3.826
 1.745 -1.634 3.818
 1.769 -1.633 3.805
 1.791 -1.63 3.788
 1.805 -1.621 3.755
 1.816 -1.608 3.715
 1.822 -1.593 3.668
 1.821 -1.57 3.605
 1.82 -1.549 3.546
 1.825 -1.533 3.498
 1.826 -1.515 3.445
 1.808 -1.482 3.358
 1.788 -1.447 3.269
 1.776 -1.42 3.197
 1.769 -1.398 3.135
 1.77 -1.382 3.088
 1.768 -1.364 3.039
 1.765 -1.346 2.987
 1.762 -1.328 2.936
 1.754 -1.307 2.879
 1.747 -1.287 2.824
 -2.222 -1.63 3.73
 -2.183 -1.621 3.722
 -2.157 -1.62 3.734
 -2.133 -1.622 3.75
 -2.105 -1.62 3.758
 -2.078 -1.619 3.766
 -2.054 -1.62 3.781
 -2.027 -1.619 3.792
 -2.002 -1.62 3.804
 -1.981 -1.624 3.825
 -1.955 -1.623 3.835
 -1.931 -1.625 3.85
 -1.908 -1.627 3.867
 -1.886 -1.63 3.884
 -1.86 -1.63 3.895
 -1.833 -1.629 3.902
 -1.806 -1.628 3.91
 -1.778 -1.626 3.915
 -1.748 -1.623 3.917
 -1.721 -1.621 3.923
 -1.697 -1.622 3.936
 -1.667 -1.619 3.937
 -1.64 -1.618 3.942
 -1.613 -1.616 3.948
 -1.586 -1.614 3.952
 -1.56 -1.614 3.961
 -1.535 -1.614 3.969
 -1.509 -1.615 3.978
 -1.485 -1.615 3.988
 -1.46 -1.616 3.999
 -1.433 -1.615 4.003
 -1.408 -1.616 4.013
 -1.382 -1.615 4.017
 -1.356 -1.615 4.025
 -1.331 -1.616 4.034
 -1.307 -1.617 4.043
 -1.282 -1.618 4.052
 -1.256 -1.618 4.06
 -1.231 -1.618 4.067
 -1.206 -1.618 4.074
 -1.178 -1.615 4.071
 -1.151 -1.613 4.073
 -1.125 -1.613 4.078
 -1.096 -1.608 4.071
 -1.07 -1.606 4.072
 -1.045 -1.606 4.078
 -1.018 -1.604 4.077
 -0.992 -1.604 4.083
 -0.97 -1.609 4.1
 -0.946 -1.611 4.109
 -0.921 -1.612 4.116
 -0.898 -1.615 4.13
 -0.872 -1.615 4.133
 -0.846 -1.614 4.136
 -0.819 -1.611 4.132
 -0.793 -1.61 4.133
 -0.767 -1.609 4.134
 -0.742 -1.609 4.137
 -0.716 -1.608 4.139
 -0.692 -1.611 4.15
 -0.667 -1.612 4.154
 -0.642 -1.612 4.159
 -0.617 -1.613 4.164
 -0.591 -1.613 4.167
 -0.565 -1.611 4.165
 -0.54 -1.611 4.166
 -0.514 -1.608 4.163
 -0.489 -1.609 4.166
 -0.463 -1.606 4.161
 -0.437 -1.605 4.16
 -0.412 -1.605 4.162
 -0.387 -1.607 4.167
 -0.362 -1.606 4.169
 -0.337 -1.608 4.174
 -0.312 -1.609 4.179
 -0.286 -1.608 4.178
 -0.261 -1.607 4.175
 -0.236 -1.607 4.177
 -0.21 -1.607 4.177
 -0.185 -1.606 4.176
 -0.16 -1.608 4.18
 -0.135 -1.608 4.182
 -0.11 -1.608 4.182
 -0.084 -1.607 4.18
 -0.059 -1.608 4.181
 -0.034 -1.609 4.183
 -0.009 -1.608 4.181
 0.016 -1.605 4.174
 0.041 -1.607 4.179
 0.066 -1.605 4.173
 0.091 -1.606 4.175
 0.116 -1.608 4.179
 0.142 -1.61 4.184
 0.167 -1.608 4.177
 0.192 -1.61 4.181
 0.217 -1.608 4.174
 0.242 -1.606 4.167
 0.267 -1.605 4.164
 0.292 -1.607 4.166
 0.318 -1.608 4.166
 0.343 -1.609 4.167
 0.368 -1.61 4.167
 0.394 -1.61 4.165
 0.418 -1.609 4.16
 0.443 -1.606 4.152
 0.468 -1.607 4.151
 0.494 -1.608 4.151
 0.519 -1.609 4.15
 0.545 -1.611 4.153
 0.572 -1.615 4.16
 0.597 -1.615 4.155
 0.621 -1.614 4.149
 0.647 -1.615 4.15
 0.672 -1.615 4.145
 0.697 -1.614 4.139
 0.723 -1.615 4.137
 0.749 -1.616 4.137
 0.773 -1.615 4.128
 0.799 -1.616 4.127
 0.824 -1.617 4.123
 0.849 -1.616 4.117
 0.874 -1.616 4.112
 0.9 -1.617 4.11
 0.926 -1.618 4.107
 0.951 -1.617 4.1
 0.977 -1.62 4.101
 1.003 -1.621 4.098
 1.029 -1.622 4.094
 1.053 -1.62 4.084
 1.08 -1.623 4.086
 1.106 -1.624 4.081
 1.131 -1.623 4.073
 1.158 -1.625 4.072
 1.185 -1.628 4.072
 1.209 -1.626 4.062
 1.236 -1.628 4.059
 1.263 -1.63 4.057
 1.289 -1.631 4.052
 1.315 -1.633 4.049
 1.342 -1.634 4.043
 1.368 -1.634 4.037
 1.395 -1.636 4.034
 1.421 -1.638 4.029
 1.445 -1.636 4.017
 1.472 -1.637 4.011
 1.496 -1.636 3.999
 1.52 -1.635 3.988
 1.544 -1.633 3.973
 1.57 -1.634 3.967
 1.594 -1.633 3.955
 1.621 -1.634 3.949
 1.646 -1.634 3.938
 1.671 -1.634 3.928
 1.694 -1.631 3.912
 1.718 -1.63 3.9
 1.741 -1.628 3.884
 1.766 -1.628 3.873
 1.788 -1.625 3.856
 1.808 -1.62 3.833
 1.819 -1.608 3.793
 1.827 -1.593 3.748
 1.834 -1.578 3.7
 1.834 -1.557 3.64
 1.833 -1.537 3.581
 1.84 -1.522 3.536
 1.844 -1.506 3.489
 1.814 -1.463 3.377
 1.782 -1.42 3.267
 1.769 -1.393 3.193
 1.764 -1.372 3.133
 1.767 -1.358 3.091
 1.768 -1.343 3.046
 1.767 -1.327 2.998
 1.763 -1.309 2.946
 1.774 -1.302 2.92
 1.756 -1.274 2.848
 -2.197 -1.586 3.699
 -2.211 -1.615 3.779
 -2.19 -1.619 3.801
 -2.166 -1.62 3.816
 -2.139 -1.62 3.828
 -2.112 -1.619 3.839
 -2.086 -1.619 3.851
 -2.061 -1.62 3.865
 -2.034 -1.62 3.876
 -2.01 -1.621 3.89
 -1.982 -1.62 3.899
 -1.959 -1.623 3.916
 -1.933 -1.623 3.928
 -1.91 -1.625 3.945
 -1.885 -1.626 3.957
 -1.858 -1.626 3.966
 -1.83 -1.624 3.974
 -1.802 -1.623 3.98
 -1.775 -1.621 3.987
 -1.747 -1.62 3.994
 -1.722 -1.621 4.004
 -1.694 -1.619 4.009
 -1.666 -1.617 4.013
 -1.637 -1.615 4.017
 -1.609 -1.613 4.021
 -1.583 -1.613 4.03
 -1.556 -1.611 4.035
 -1.531 -1.612 4.045
 -1.505 -1.612 4.053
 -1.479 -1.612 4.061
 -1.452 -1.611 4.066
 -1.426 -1.611 4.074
 -1.399 -1.609 4.077
 -1.374 -1.61 4.087
 -1.349 -1.611 4.096
 -1.324 -1.612 4.106
 -1.299 -1.613 4.115
 -1.274 -1.614 4.125
 -1.248 -1.615 4.133
 -1.222 -1.614 4.139
 -1.194 -1.612 4.137
 -1.166 -1.609 4.138
 -1.14 -1.608 4.141
 -1.111 -1.604 4.136
 -1.085 -1.603 4.138
 -1.06 -1.605 4.148
 -1.033 -1.603 4.149
 -1.007 -1.602 4.151
 -0.983 -1.605 4.164
 -0.958 -1.607 4.173
 -0.932 -1.605 4.174
 -0.908 -1.608 4.187
 -0.882 -1.609 4.193
 -0.857 -1.609 4.198
 -0.829 -1.606 4.193
 -0.803 -1.606 4.196
 -0.777 -1.604 4.196
 -0.751 -1.603 4.197
 -0.725 -1.602 4.199
 -0.7 -1.603 4.204
 -0.674 -1.603 4.208
 -0.648 -1.604 4.212
 -0.623 -1.603 4.213
 -0.596 -1.602 4.213
 -0.571 -1.602 4.215
 -0.545 -1.601 4.216
 -0.519 -1.599 4.212
 -0.493 -1.6 4.217
 -0.467 -1.598 4.214
 -0.441 -1.597 4.213
 -0.416 -1.596 4.213
 -0.39 -1.596 4.216
 -0.365 -1.596 4.217
 -0.339 -1.597 4.22
 -0.314 -1.598 4.224
 -0.289 -1.597 4.222
 -0.263 -1.596 4.221
 -0.238 -1.596 4.223
 -0.212 -1.596 4.224
 -0.187 -1.595 4.222
 -0.161 -1.597 4.226
 -0.136 -1.597 4.228
 -0.11 -1.597 4.229
 -0.085 -1.596 4.225
 -0.059 -1.596 4.225
 -0.034 -1.596 4.226
 -0.009 -1.595 4.222
 0.016 -1.593 4.216
 0.041 -1.595 4.222
 0.067 -1.594 4.217
 0.092 -1.594 4.217
 0.118 -1.597 4.224
 0.143 -1.598 4.226
 0.168 -1.595 4.218
 0.194 -1.597 4.222
 0.219 -1.597 4.219
 0.244 -1.593 4.209
 0.269 -1.594 4.209
 0.295 -1.595 4.209
 0.32 -1.595 4.209
 0.346 -1.596 4.209
 0.372 -1.597 4.21
 0.397 -1.597 4.208
 0.422 -1.597 4.205
 0.447 -1.595 4.197
 0.472 -1.595 4.195
 0.498 -1.597 4.196
 0.524 -1.598 4.197
 0.55 -1.6 4.198
 0.577 -1.604 4.206
 0.602 -1.605 4.203
 0.628 -1.604 4.197
 0.653 -1.604 4.196
 0.679 -1.604 4.192
 0.704 -1.603 4.185
 0.73 -1.605 4.185
 0.755 -1.605 4.182
 0.78 -1.604 4.175
 0.806 -1.605 4.173
 0.832 -1.606 4.171
 0.857 -1.606 4.165
 0.883 -1.606 4.161
 0.909 -1.607 4.159
 0.935 -1.608 4.157
 0.96 -1.608 4.151
 0.986 -1.609 4.147
 1.014 -1.612 4.149
 1.04 -1.613 4.146
 1.065 -1.612 4.138
 1.093 -1.616 4.141
 1.12 -1.618 4.14
 1.145 -1.617 4.133
 1.172 -1.619 4.13
 1.199 -1.621 4.13
 1.224 -1.621 4.121
 1.251 -1.622 4.118
 1.278 -1.624 4.115
 1.305 -1.626 4.112
 1.331 -1.627 4.106
 1.357 -1.627 4.1
 1.384 -1.628 4.096
 1.412 -1.63 4.092
 1.438 -1.631 4.086
 1.463 -1.631 4.076
 1.491 -1.633 4.073
 1.516 -1.631 4.061
 1.541 -1.631 4.05
 1.566 -1.63 4.04
 1.592 -1.631 4.032
 1.617 -1.629 4.019
 1.643 -1.63 4.012
 1.668 -1.63 4
 1.692 -1.628 3.986
 1.716 -1.626 3.972
 1.74 -1.625 3.958
 1.763 -1.623 3.942
 1.786 -1.621 3.926
 1.806 -1.615 3.903
 1.821 -1.606 3.871
 1.83 -1.592 3.826
 1.835 -1.575 3.772
 1.841 -1.559 3.724
 1.843 -1.54 3.667
 1.844 -1.521 3.61
 1.852 -1.508 3.568
 1.86 -1.496 3.528
 1.818 -1.444 3.394
 1.764 -1.384 3.242
 1.756 -1.361 3.177
 1.755 -1.344 3.127
 1.765 -1.335 3.096
 1.769 -1.322 3.055
 1.769 -1.307 3.009
 1.764 -1.289 2.956
 1.757 -1.269 2.9
 1.764 -1.26 2.868
 -2.283 -1.622 3.854
 -2.23 -1.603 3.822
 -2.224 -1.618 3.87
 -2.198 -1.618 3.883
 -2.17 -1.617 3.894
 -2.143 -1.616 3.904
 -2.115 -1.616 3.915
 -2.09 -1.617 3.93
 -2.064 -1.617 3.943
 -2.038 -1.617 3.955
 -2.009 -1.616 3.962
 -1.985 -1.618 3.979
 -1.959 -1.618 3.991
 -1.934 -1.619 4.005
 -1.909 -1.621 4.018
 -1.884 -1.622 4.032
 -1.857 -1.621 4.041
 -1.827 -1.618 4.044
 -1.8 -1.618 4.053
 -1.771 -1.616 4.058
 -1.745 -1.616 4.067
 -1.716 -1.614 4.072
 -1.689 -1.613 4.08
 -1.661 -1.611 4.084
 -1.634 -1.611 4.092
 -1.607 -1.611 4.1
 -1.579 -1.608 4.103
 -1.553 -1.609 4.112
 -1.526 -1.608 4.12
 -1.499 -1.608 4.127
 -1.471 -1.606 4.13
 -1.446 -1.607 4.14
 -1.418 -1.606 4.143
 -1.393 -1.606 4.153
 -1.366 -1.606 4.16
 -1.341 -1.607 4.169
 -1.315 -1.607 4.176
 -1.289 -1.607 4.183
 -1.262 -1.607 4.188
 -1.237 -1.608 4.199
 -1.209 -1.606 4.198
 -1.181 -1.604 4.2
 -1.154 -1.603 4.203
 -1.126 -1.599 4.199
 -1.097 -1.596 4.196
 -1.072 -1.596 4.203
 -1.045 -1.596 4.206
 -1.018 -1.594 4.207
 -0.993 -1.596 4.218
 -0.968 -1.598 4.227
 -0.941 -1.596 4.226
 -0.916 -1.597 4.233
 -0.889 -1.595 4.234
 -0.863 -1.596 4.239
 -0.835 -1.592 4.232
 -0.809 -1.591 4.234
 -0.782 -1.589 4.233
 -0.756 -1.589 4.237
 -0.73 -1.588 4.238
 -0.704 -1.588 4.241
 -0.679 -1.589 4.246
 -0.653 -1.589 4.251
 -0.627 -1.588 4.25
 -0.6 -1.587 4.249
 -0.575 -1.587 4.253
 -0.549 -1.586 4.254
 -0.522 -1.585 4.251
 -0.496 -1.584 4.253
 -0.47 -1.583 4.252
 -0.444 -1.582 4.25
 -0.418 -1.581 4.249
 -0.393 -1.581 4.25
 -0.367 -1.581 4.252
 -0.341 -1.58 4.252
 -0.316 -1.581 4.257
 -0.29 -1.581 4.256
 -0.264 -1.58 4.255
 -0.239 -1.58 4.257
 -0.213 -1.58 4.258
 -0.187 -1.579 4.256
 -0.162 -1.579 4.256
 -0.136 -1.58 4.257
 -0.111 -1.581 4.26
 -0.085 -1.58 4.258
 -0.06 -1.579 4.257
 -0.034 -1.579 4.257
 -0.008 -1.579 4.255
 0.016 -1.576 4.248
 0.042 -1.577 4.251
 0.067 -1.576 4.246
 0.093 -1.576 4.247
 0.118 -1.578 4.251
 0.144 -1.579 4.252
 0.169 -1.578 4.249
 0.195 -1.581 4.254
 0.221 -1.58 4.251
 0.246 -1.578 4.244
 0.271 -1.578 4.242
 0.297 -1.578 4.241
 0.322 -1.579 4.241
 0.348 -1.58 4.242
 0.374 -1.581 4.242
 0.4 -1.581 4.241
 0.425 -1.582 4.241
 0.45 -1.581 4.235
 0.476 -1.581 4.233
 0.502 -1.582 4.234
 0.528 -1.583 4.232
 0.553 -1.583 4.229
 0.58 -1.585 4.232
 0.605 -1.585 4.229
 0.63 -1.584 4.222
 0.656 -1.586 4.223
 0.682 -1.586 4.221
 0.707 -1.586 4.215
 0.734 -1.587 4.214
 0.76 -1.589 4.215
 0.785 -1.588 4.208
 0.812 -1.59 4.208
 0.838 -1.591 4.207
 0.864 -1.591 4.203
 0.889 -1.591 4.198
 0.916 -1.593 4.197
 0.942 -1.594 4.194
 0.968 -1.595 4.191
 0.995 -1.596 4.19
 1.022 -1.599 4.191
 1.049 -1.601 4.191
 1.075 -1.601 4.186
 1.102 -1.604 4.186
 1.129 -1.605 4.182
 1.155 -1.605 4.175
 1.18 -1.605 4.169
 1.209 -1.608 4.171
 1.235 -1.608 4.164
 1.262 -1.61 4.163
 1.29 -1.613 4.161
 1.317 -1.615 4.159
 1.344 -1.616 4.154
 1.369 -1.615 4.144
 1.397 -1.617 4.141
 1.424 -1.618 4.137
 1.451 -1.62 4.132
 1.477 -1.62 4.123
 1.507 -1.624 4.125
 1.532 -1.622 4.113
 1.558 -1.623 4.105
 1.585 -1.623 4.097
 1.611 -1.624 4.09
 1.636 -1.622 4.076
 1.663 -1.623 4.069
 1.689 -1.623 4.059
 1.713 -1.622 4.044
 1.736 -1.619 4.027
 1.759 -1.616 4.01
 1.78 -1.612 3.989
 1.8 -1.607 3.966
 1.816 -1.598 3.934
 1.829 -1.587 3.896
 1.837 -1.572 3.848
 1.841 -1.555 3.794
 1.848 -1.54 3.746
 1.852 -1.523 3.694
 1.855 -1.506 3.642
 1.863 -1.493 3.598
 1.875 -1.483 3.564
 1.819 -1.421 3.403
 1.729 -1.335 3.185
 1.738 -1.325 3.151
 1.749 -1.318 3.123
 1.759 -1.31 3.093
 1.768 -1.3 3.06
 1.771 -1.288 3.02
 1.767 -1.27 2.968
 1.769 -1.257 2.926
 1.758 -1.236 2.866
 -2.31 -1.614 3.91
 -2.278 -1.611 3.914
 -2.254 -1.613 3.932
 -2.227 -1.613 3.946
 -2.198 -1.611 3.955
 -2.172 -1.612 3.968
 -2.142 -1.61 3.975
 -2.12 -1.613 3.995
 -2.092 -1.613 4.007
 -2.068 -1.614 4.023
 -2.038 -1.612 4.029
 -2.014 -1.615 4.046
 -1.987 -1.615 4.058
 -1.962 -1.616 4.072
 -1.934 -1.615 4.082
 -1.911 -1.618 4.099
 -1.884 -1.618 4.11
 -1.852 -1.614 4.11
 -1.826 -1.615 4.122
 -1.797 -1.613 4.127
 -1.77 -1.613 4.136
 -1.742 -1.612 4.144
 -1.715 -1.611 4.152
 -1.687 -1.61 4.158
 -1.66 -1.61 4.167
 -1.631 -1.608 4.17
 -1.601 -1.604 4.17
 -1.575 -1.605 4.181
 -1.547 -1.604 4.186
 -1.52 -1.603 4.192
 -1.491 -1.602 4.196
 -1.465 -1.602 4.204
 -1.437 -1.6 4.206
 -1.409 -1.599 4.21
 -1.382 -1.598 4.217
 -1.355 -1.598 4.223
 -1.328 -1.597 4.229
 -1.301 -1.597 4.234
 -1.274 -1.596 4.239
 -1.249 -1.597 4.248
 -1.221 -1.596 4.25
 -1.193 -1.594 4.252
 -1.166 -1.592 4.253
 -1.137 -1.589 4.25
 -1.108 -1.586 4.247
 -1.081 -1.585 4.251
 -1.054 -1.583 4.252
 -1.027 -1.582 4.254
 -1.002 -1.584 4.263
 -0.976 -1.584 4.269
 -0.949 -1.582 4.269
 -0.923 -1.583 4.275
 -0.895 -1.581 4.273
 -0.869 -1.58 4.274
 -0.841 -1.577 4.271
 -0.814 -1.576 4.272
 -0.787 -1.574 4.271
 -0.761 -1.574 4.274
 -0.735 -1.573 4.276
 -0.708 -1.572 4.276
 -0.682 -1.572 4.279
 -0.656 -1.571 4.281
 -0.63 -1.571 4.281
 -0.603 -1.569 4.279
 -0.577 -1.569 4.282
 -0.551 -1.569 4.284
 -0.525 -1.568 4.284
 -0.499 -1.566 4.282
 -0.472 -1.565 4.279
 -0.446 -1.564 4.279
 -0.42 -1.562 4.275
 -0.394 -1.56 4.273
 -0.368 -1.561 4.275
 -0.342 -1.56 4.276
 -0.317 -1.561 4.279
 -0.291 -1.56 4.278
 -0.265 -1.56 4.278
 -0.239 -1.56 4.279
 -0.214 -1.56 4.28
 -0.188 -1.559 4.278
 -0.162 -1.56 4.281
 -0.137 -1.56 4.283
 -0.111 -1.562 4.287
 -0.085 -1.56 4.282
 -0.06 -1.559 4.28
 -0.034 -1.558 4.278
 -0.008 -1.558 4.277
 0.016 -1.554 4.267
 0.042 -1.556 4.271
 0.067 -1.555 4.267
 0.093 -1.556 4.269
 0.119 -1.557 4.27
 0.144 -1.558 4.272
 0.17 -1.557 4.269
 0.196 -1.559 4.272
 0.221 -1.558 4.269
 0.247 -1.557 4.264
 0.272 -1.558 4.266
 0.298 -1.559 4.266
 0.324 -1.559 4.266
 0.35 -1.56 4.265
 0.375 -1.56 4.264
 0.401 -1.561 4.262
 0.426 -1.56 4.259
 0.452 -1.56 4.255
 0.477 -1.56 4.253
 0.503 -1.56 4.251
 0.529 -1.56 4.247
 0.554 -1.56 4.246
 0.581 -1.562 4.247
 0.606 -1.562 4.244
 0.632 -1.562 4.24
 0.658 -1.564 4.241
 0.684 -1.565 4.24
 0.71 -1.565 4.236
 0.736 -1.566 4.236
 0.763 -1.569 4.24
 0.789 -1.57 4.236
 0.816 -1.572 4.238
 0.842 -1.573 4.238
 0.869 -1.575 4.237
 0.894 -1.574 4.23
 0.921 -1.576 4.23
 0.947 -1.576 4.225
 0.973 -1.577 4.222
 1 -1.578 4.219
 1.027 -1.581 4.221
 1.055 -1.583 4.221
 1.081 -1.584 4.218
 1.109 -1.587 4.22
 1.136 -1.588 4.216
 1.162 -1.589 4.212
 1.188 -1.589 4.205
 1.216 -1.591 4.204
 1.243 -1.592 4.2
 1.271 -1.595 4.201
 1.298 -1.596 4.197
 1.326 -1.599 4.195
 1.354 -1.601 4.192
 1.379 -1.6 4.182
 1.407 -1.601 4.179
 1.434 -1.603 4.175
 1.462 -1.605 4.17
 1.489 -1.605 4.164
 1.518 -1.609 4.164
 1.544 -1.609 4.155
 1.572 -1.61 4.149
 1.599 -1.611 4.143
 1.626 -1.612 4.135
 1.652 -1.612 4.125
 1.679 -1.613 4.118
 1.706 -1.613 4.109
 1.73 -1.611 4.094
 1.754 -1.609 4.079
 1.777 -1.606 4.06
 1.795 -1.599 4.033
 1.812 -1.591 4
 1.825 -1.58 3.961
 1.832 -1.564 3.91
 1.839 -1.549 3.862
 1.844 -1.532 3.809
 1.851 -1.518 3.762
 1.858 -1.503 3.714
 1.869 -1.492 3.676
 1.877 -1.479 3.633
 0 0 0
 0 0 0
 1.705 -1.295 3.147
 1.738 -1.304 3.158
 1.749 -1.296 3.131
 1.759 -1.288 3.1
 1.769 -1.28 3.07
 1.775 -1.27 3.034
 1.773 -1.254 2.986
 1.757 -1.228 2.913
 1.772 -1.225 2.895
 -2.35 -1.615 3.987
 -2.341 -1.628 4.033
 -2.288 -1.61 4.002
 -2.26 -1.609 4.013
 -2.232 -1.609 4.025
 -2.205 -1.609 4.039
 -2.088 -1.543 3.883
 -2.065 -1.546 3.902
 -2.038 -1.545 3.912
 -2.013 -1.546 3.926
 -1.986 -1.545 3.934
 -2.043 -1.611 4.115
 -2.016 -1.611 4.126
 -1.989 -1.611 4.137
 -1.96 -1.61 4.146
 -1.935 -1.612 4.162
 -1.909 -1.613 4.176
 -1.878 -1.609 4.177
 -1.85 -1.609 4.186
 -1.821 -1.607 4.191
 -1.791 -1.605 4.197
 -1.763 -1.604 4.204
 -1.735 -1.604 4.212
 -1.708 -1.604 4.221
 -1.682 -1.604 4.231
 -1.653 -1.602 4.236
 -1.622 -1.598 4.234
 -1.595 -1.599 4.244
 -1.566 -1.597 4.247
 -1.537 -1.595 4.249
 -1.508 -1.592 4.25
 -1.481 -1.592 4.258
 -1.451 -1.589 4.258
 -1.423 -1.588 4.263
 -1.396 -1.588 4.268
 -1.369 -1.587 4.274
 -1.341 -1.587 4.28
 -1.313 -1.585 4.282
 -1.285 -1.583 4.284
 -1.258 -1.583 4.289
 -1.23 -1.581 4.291
 -1.201 -1.577 4.288
 -1.173 -1.576 4.29
 -1.144 -1.573 4.288
 -1.116 -1.57 4.284
 -1.088 -1.569 4.286
 -1.061 -1.567 4.288
 -1.033 -1.566 4.288
 -1.007 -1.565 4.293
 -0.98 -1.565 4.297
 -0.953 -1.563 4.296
 -0.926 -1.562 4.298
 -0.899 -1.561 4.299
 -0.872 -1.56 4.3
 -0.845 -1.558 4.299
 -0.818 -1.557 4.3
 -0.791 -1.556 4.3
 -0.764 -1.555 4.301
 -0.738 -1.554 4.303
 -0.711 -1.552 4.3
 -0.684 -1.551 4.3
 -0.658 -1.549 4.3
 -0.631 -1.548 4.298
 -0.604 -1.546 4.296
 -0.579 -1.547 4.301
 -0.553 -1.547 4.304
 -0.527 -1.548 4.308
 -0.5 -1.546 4.305
 -0.474 -1.545 4.304
 -0.448 -1.543 4.3
 -0.421 -1.541 4.296
 -0.395 -1.538 4.291
 -0.369 -1.538 4.293
 -0.343 -1.537 4.292
 -0.317 -1.538 4.295
 -0.291 -1.538 4.295
 -0.266 -1.537 4.295
 -0.24 -1.537 4.295
 -0.214 -1.537 4.295
 -0.188 -1.535 4.291
 -0.162 -1.535 4.291
 -0.137 -1.535 4.291
 -0.111 -1.535 4.293
 -0.085 -1.534 4.289
 -0.059 -1.533 4.286
 -0.034 -1.533 4.286
 -0.008 -1.532 4.284
 0.016 -1.53 4.277
 0.042 -1.53 4.277
 0.068 -1.53 4.277
 0.093 -1.53 4.275
 0.119 -1.53 4.274
 0.144 -1.531 4.277
 0.17 -1.532 4.277
 0.196 -1.533 4.28
 0.222 -1.533 4.28
 0.247 -1.534 4.28
 0.273 -1.535 4.282
 0.299 -1.535 4.28
 0.324 -1.536 4.279
 0.35 -1.535 4.276
 0.376 -1.535 4.274
 0.401 -1.534 4.269
 0.427 -1.534 4.267
 0.452 -1.534 4.263
 0.478 -1.534 4.259
 0.503 -1.534 4.259
 0.529 -1.535 4.257
 0.555 -1.535 4.256
 0.581 -1.536 4.254
 0.607 -1.537 4.255
 0.632 -1.537 4.25
 0.659 -1.539 4.251
 0.685 -1.541 4.253
 0.711 -1.542 4.252
 0.738 -1.543 4.252
 0.764 -1.545 4.253
 0.79 -1.546 4.25
 0.816 -1.547 4.248
 0.843 -1.549 4.249
 0.87 -1.55 4.247
 0.896 -1.551 4.245
 0.923 -1.553 4.246
 0.948 -1.552 4.238
 0.975 -1.553 4.236
 1.002 -1.555 4.234
 1.029 -1.557 4.235
 1.057 -1.56 4.237
 1.085 -1.563 4.239
 1.112 -1.565 4.238
 1.14 -1.567 4.238
 1.167 -1.568 4.235
 1.193 -1.569 4.229
 1.22 -1.57 4.227
 1.249 -1.573 4.228
 1.276 -1.574 4.224
 1.303 -1.576 4.22
 1.331 -1.578 4.218
 1.359 -1.58 4.218
 1.385 -1.58 4.208
 1.413 -1.582 4.207
 1.44 -1.583 4.2
 1.468 -1.585 4.198
 1.496 -1.586 4.192
 1.525 -1.59 4.192
 1.553 -1.591 4.186
 1.581 -1.593 4.183
 1.609 -1.595 4.178
 1.637 -1.596 4.172
 1.664 -1.596 4.163
 1.692 -1.598 4.158
 1.72 -1.599 4.151
 1.744 -1.597 4.136
 1.769 -1.596 4.121
 1.79 -1.591 4.098
 1.807 -1.583 4.068
 1.823 -1.574 4.033
 1.832 -1.56 3.986
 1.838 -1.544 3.933
 1.846 -1.529 3.885
 1.852 -1.513 3.834
 1.857 -1.497 3.781
 1.867 -1.486 3.742
 1.879 -1.476 3.705
 0 0 0
 0 0 0
 0 0 0
 0 0 0
 1.744 -1.286 3.177
 1.753 -1.278 3.145
 1.764 -1.271 3.116
 1.772 -1.261 3.082
 1.78 -1.253 3.05
 1.78 -1.238 3.004
 1.777 -1.222 2.954
 1.788 -1.216 2.928
 -2.377 -1.606 4.044
 -2.35 -1.606 4.058
 -1.94 -1.342 3.399
 -1.917 -1.343 3.412
 -1.803 -1.278 3.257
 -1.782 -1.279 3.27
 -1.668 -1.212 3.108
 -1.651 -1.215 3.125
 -1.715 -1.279 3.299
 -1.779 -1.344 3.477
 -1.841 -1.408 3.655
 -1.901 -1.473 3.836
 -1.874 -1.472 3.843
 -1.849 -1.473 3.856
 -1.822 -1.471 3.862
 -1.798 -1.472 3.874
 -1.853 -1.539 4.062
 -1.9 -1.601 4.236
 -1.871 -1.6 4.243
 -1.841 -1.598 4.249
 -1.812 -1.596 4.255
 -1.782 -1.595 4.259
 -1.754 -1.593 4.265
 -1.726 -1.593 4.274
 -1.698 -1.592 4.281
 -1.667 -1.589 4.283
 -1.636 -1.586 4.282
 -1.609 -1.586 4.292
 -1.578 -1.583 4.29
 -1.548 -1.579 4.29
 -1.519 -1.578 4.294
 -1.49 -1.576 4.296
 -1.46 -1.572 4.293
 -1.433 -1.572 4.3
 -1.405 -1.571 4.305
 -1.376 -1.568 4.305
 -1.349 -1.568 4.312
 -1.321 -1.568 4.317
 -1.292 -1.565 4.318
 -1.265 -1.565 4.322
 -1.237 -1.563 4.324
 -1.207 -1.56 4.32
 -1.179 -1.557 4.32
 -1.15 -1.555 4.318
 -1.12 -1.55 4.312
 -1.093 -1.549 4.313
 -1.065 -1.547 4.313
 -1.037 -1.545 4.312
 -1.009 -1.543 4.312
 -0.983 -1.543 4.317
 -0.955 -1.541 4.315
 -0.928 -1.539 4.316
 -0.9 -1.538 4.315
 -0.873 -1.536 4.316
 -0.846 -1.534 4.313
 -0.819 -1.533 4.314
 -0.792 -1.532 4.317
 -0.766 -1.531 4.317
 -0.739 -1.53 4.317
 -0.712 -1.528 4.315
 -0.685 -1.526 4.312
 -0.658 -1.524 4.308
 -0.631 -1.523 4.309
 -0.605 -1.522 4.308
 -0.579 -1.523 4.314
 -0.553 -1.522 4.316
 -0.527 -1.523 4.319
 -0.501 -1.521 4.316
 -0.474 -1.52 4.315
 -0.448 -1.518 4.31
 -0.421 -1.516 4.309
 -0.395 -1.514 4.304
 -0.369 -1.514 4.305
 -0.343 -1.513 4.303
 -0.317 -1.512 4.304
 -0.291 -1.512 4.303
 -0.265 -1.511 4.302
 -0.239 -1.51 4.301
 -0.214 -1.509 4.297
 -0.188 -1.508 4.295
 -0.162 -1.507 4.292
 -0.136 -1.507 4.293
 -0.111 -1.507 4.294
 -0.085 -1.507 4.293
 -0.059 -1.505 4.289
 -0.034 -1.505 4.288
 -0.008 -1.505 4.286
 0.017 -1.503 4.281
 0.042 -1.503 4.282
 0.068 -1.504 4.283
 0.093 -1.504 4.282
 0.119 -1.503 4.279
 0.145 -1.504 4.281
 0.17 -1.504 4.281
 0.196 -1.505 4.282
 0.221 -1.506 4.283
 0.247 -1.507 4.285
 0.273 -1.508 4.285
 0.298 -1.507 4.282
 0.324 -1.508 4.281
 0.35 -1.508 4.279
 0.375 -1.508 4.278
 0.401 -1.508 4.276
 0.427 -1.51 4.277
 0.453 -1.51 4.277
 0.479 -1.511 4.275
 0.504 -1.511 4.273
 0.53 -1.511 4.271
 0.556 -1.511 4.268
 0.581 -1.511 4.262
 0.607 -1.513 4.265
 0.633 -1.513 4.261
 0.659 -1.513 4.26
 0.686 -1.516 4.264
 0.712 -1.517 4.263
 0.738 -1.518 4.261
 0.765 -1.52 4.263
 0.791 -1.522 4.263
 0.818 -1.522 4.261
 0.844 -1.524 4.26
 0.87 -1.525 4.258
 0.897 -1.526 4.256
 0.923 -1.527 4.253
 0.948 -1.525 4.244
 0.975 -1.528 4.246
 1.002 -1.53 4.246
 1.029 -1.531 4.244
 1.057 -1.534 4.246
 1.086 -1.538 4.251
 1.113 -1.539 4.249
 1.14 -1.541 4.247
 1.168 -1.543 4.247
 1.195 -1.544 4.243
 1.222 -1.546 4.242
 1.251 -1.549 4.243
 1.279 -1.552 4.243
 1.307 -1.554 4.24
 1.335 -1.556 4.238
 1.363 -1.558 4.238
 1.389 -1.558 4.229
 1.418 -1.56 4.227
 1.444 -1.561 4.22
 1.472 -1.563 4.217
 1.5 -1.564 4.211
 1.53 -1.567 4.213
 1.558 -1.569 4.209
 1.587 -1.572 4.207
 1.617 -1.575 4.205
 1.645 -1.577 4.201
 1.672 -1.578 4.193
 1.7 -1.579 4.187
 1.728 -1.58 4.181
 1.753 -1.578 4.165
 1.777 -1.577 4.15
 1.798 -1.571 4.125
 1.815 -1.563 4.094
 1.829 -1.553 4.056
 1.84 -1.54 4.012
 1.847 -1.525 3.96
 1.856 -1.511 3.914
 1.861 -1.495 3.861
 1.864 -1.478 3.805
 1.871 -1.463 3.757
 0 0 0
 0 0 0
 0 0 0
 0 0 0
 0 0 0
 1.745 -1.266 3.187
 1.758 -1.26 3.162
 1.77 -1.253 3.133
 1.778 -1.244 3.1
 1.789 -1.237 3.072
 1.789 -1.223 3.026
 1.797 -1.215 2.995
 1.832 -1.225 3.008
 -2.404 -1.596 4.099
 -2.396 -1.61 4.148
 -1.499 -1.02 2.631
 -1.481 -1.019 2.638
 -1.369 -0.954 2.477
 -1.351 -0.953 2.481
 -1.243 -0.888 2.318
 -1.229 -0.889 2.328
 -1.3 -0.953 2.502
 -1.369 -1.016 2.679
 -1.437 -1.081 2.857
 -1.501 -1.144 3.034
 -1.481 -1.144 3.042
 -1.542 -1.207 3.22
 -1.601 -1.271 3.4
 -1.658 -1.335 3.581
 -1.793 -1.464 3.939
 -1.918 -1.588 4.285
 -1.888 -1.586 4.291
 -1.856 -1.583 4.293
 -1.827 -1.582 4.3
 -1.796 -1.579 4.3
 -1.767 -1.578 4.308
 -1.74 -1.578 4.318
 -1.711 -1.578 4.325
 -1.679 -1.574 4.323
 -1.649 -1.571 4.325
 -1.62 -1.569 4.328
 -1.587 -1.564 4.323
 -1.556 -1.561 4.321
 -1.528 -1.559 4.326
 -1.498 -1.557 4.327
 -1.469 -1.555 4.329
 -1.442 -1.555 4.336
 -1.413 -1.554 4.341
 -1.384 -1.551 4.339
 -1.356 -1.549 4.343
 -1.327 -1.548 4.345
 -1.297 -1.545 4.343
 -1.269 -1.542 4.343
 -1.24 -1.54 4.342
 -1.21 -1.536 4.337
 -1.181 -1.533 4.336
 -1.152 -1.53 4.333
 -1.122 -1.526 4.327
 -1.093 -1.524 4.325
 -1.065 -1.521 4.323
 -1.037 -1.519 4.322
 -1.009 -1.517 4.321
 -0.982 -1.516 4.322
 -0.955 -1.514 4.323
 -0.928 -1.513 4.325
 -0.9 -1.51 4.321
 -0.873 -1.509 4.322
 -0.845 -1.507 4.32
 -0.818 -1.506 4.32
 -0.792 -1.506 4.323
 -0.766 -1.505 4.325
 -0.739 -1.504 4.325
 -0.712 -1.503 4.324
 -0.685 -1.5 4.322
 -0.657 -1.497 4.315
 -0.631 -1.497 4.316
 -0.605 -1.496 4.316
 -0.579 -1.496 4.319
 -0.553 -1.496 4.321
 -0.526 -1.495 4.322
 -0.5 -1.493 4.317
 -0.473 -1.491 4.315
 -0.447 -1.489 4.311
 -0.421 -1.488 4.31
 -0.395 -1.487 4.308
 -0.369 -1.487 4.31
 -0.343 -1.485 4.306
 -0.317 -1.485 4.306
 -0.291 -1.484 4.305
 -0.265 -1.483 4.303
 -0.239 -1.483 4.304
 -0.213 -1.482 4.303
 -0.188 -1.482 4.302
 -0.162 -1.482 4.301
 -0.136 -1.482 4.302
 -0.11 -1.481 4.301
 -0.085 -1.48 4.297
 -0.059 -1.478 4.291
 -0.033 -1.477 4.288
 -0.008 -1.476 4.285
 0.017 -1.474 4.28
 0.042 -1.475 4.283
 0.068 -1.477 4.286
 0.093 -1.477 4.286
 0.119 -1.476 4.283
 0.145 -1.478 4.286
 0.17 -1.477 4.284
 0.196 -1.478 4.284
 0.221 -1.479 4.285
 0.247 -1.481 4.29
 0.273 -1.481 4.29
 0.299 -1.482 4.29
 0.324 -1.482 4.288
 0.35 -1.482 4.286
 0.375 -1.482 4.283
 0.401 -1.481 4.28
 0.427 -1.482 4.28
 0.453 -1.483 4.281
 0.478 -1.483 4.277
 0.504 -1.484 4.276
 0.529 -1.484 4.273
 0.555 -1.483 4.268
 0.58 -1.483 4.264
 0.607 -1.485 4.267
 0.632 -1.485 4.263
 0.658 -1.485 4.261
 0.685 -1.488 4.266
 0.711 -1.489 4.265
 0.737 -1.489 4.262
 0.764 -1.492 4.265
 0.791 -1.495 4.269
 0.818 -1.496 4.268
 0.844 -1.497 4.266
 0.871 -1.499 4.266
 0.897 -1.5 4.264
 0.923 -1.5 4.259
 0.947 -1.498 4.249
 0.975 -1.501 4.251
 1.002 -1.503 4.252
 1.029 -1.504 4.248
 1.056 -1.507 4.251
 1.085 -1.511 4.256
 1.112 -1.511 4.252
 1.139 -1.513 4.249
 1.167 -1.515 4.25
 1.194 -1.517 4.248
 1.222 -1.519 4.247
 1.25 -1.522 4.249
 1.278 -1.525 4.249
 1.306 -1.526 4.245
 1.334 -1.528 4.244
 1.362 -1.531 4.244
 1.389 -1.531 4.237
 1.417 -1.533 4.235
 1.445 -1.535 4.23
 1.473 -1.537 4.228
 1.5 -1.537 4.221
 1.53 -1.541 4.221
 1.559 -1.544 4.22
 1.589 -1.547 4.219
 1.618 -1.549 4.218
 1.648 -1.552 4.216
 1.676 -1.554 4.212
 1.704 -1.555 4.205
 1.733 -1.558 4.201
 1.758 -1.556 4.187
 1.783 -1.555 4.172
 1.804 -1.549 4.147
 1.82 -1.541 4.114
 1.834 -1.531 4.075
 1.845 -1.518 4.031
 1.853 -1.504 3.982
 1.862 -1.49 3.936
 1.871 -1.477 3.889
 1.874 -1.46 3.833
 0 0 0
 0 0 0
 0 0 0
 0 0 0
 0 0 0
 0 0 0
 1.827 -1.302 3.344
 1.809 -1.274 3.26
 1.778 -1.238 3.155
 1.787 -1.23 3.124
 1.801 -1.225 3.1
 1.803 -1.212 3.057
 1.817 -1.207 3.034
 0 0 0
 -0.007 -0.006 0
 -2.368 -1.563 4.109
 -1.06 -0.709 1.86
 -1.047 -0.709 1.867
 -0.941 -0.645 1.702
 -0.928 -0.644 1.704
 -0.822 -0.578 1.533
 -0.811 -0.577 1.536
 -0.885 -0.638 1.704
 -0.959 -0.7 1.877
 -1.03 -0.762 2.049
 -1.183 -0.886 2.393
 -1.248 -0.947 2.567
 -1.394 -1.073 2.917
 -1.536 -1.198 3.268
 -1.672 -1.322 3.618
 -1.805 -1.448 3.974
 -1.931 -1.572 4.325
 -1.901 -1.569 4.33
 -1.868 -1.566 4.33
 -1.84 -1.565 4.339
 -1.808 -1.562 4.339
 -1.778 -1.56 4.344
 -1.749 -1.559 4.351
 -1.719 -1.557 4.354
 -1.686 -1.552 4.349
 -1.656 -1.55 4.352
 -1.625 -1.546 4.351
 -1.592 -1.541 4.345
 -1.561 -1.538 4.345
 -1.532 -1.537 4.348
 -1.501 -1.533 4.345
 -1.472 -1.531 4.349
 -1.444 -1.53 4.352
 -1.416 -1.529 4.357
 -1.385 -1.526 4.353
 -1.357 -1.524 4.356
 -1.328 -1.522 4.357
 -1.298 -1.519 4.355
 -1.267 -1.514 4.348
 -1.239 -1.512 4.348
 -1.209 -1.508 4.343
 -1.179 -1.505 4.339
 -1.151 -1.502 4.337
 -1.122 -1.5 4.336
 -1.093 -1.497 4.333
 -1.065 -1.495 4.331
 -1.037 -1.493 4.331
 -1.009 -1.491 4.33
 -0.982 -1.489 4.33
 -0.954 -1.488 4.33
 -0.927 -1.486 4.331
 -0.9 -1.485 4.33
 -0.873 -1.484 4.332
 -0.846 -1.482 4.331
 -0.819 -1.481 4.331
 -0.792 -1.48 4.334
 -0.766 -1.479 4.333
 -0.738 -1.477 4.331
 -0.711 -1.476 4.33
 -0.684 -1.473 4.326
 -0.657 -1.47 4.321
 -0.63 -1.469 4.319
 -0.604 -1.469 4.321
 -0.578 -1.468 4.321
 -0.552 -1.468 4.323
 -0.525 -1.467 4.322
 -0.499 -1.465 4.319
 -0.472 -1.463 4.316
 -0.446 -1.461 4.313
 -0.42 -1.461 4.312
 -0.394 -1.459 4.31
 -0.368 -1.46 4.314
 -0.342 -1.458 4.31
 -0.316 -1.458 4.311
 -0.29 -1.458 4.31
 -0.265 -1.457 4.31
 -0.239 -1.456 4.308
 -0.213 -1.456 4.308
 -0.187 -1.455 4.305
 -0.161 -1.454 4.304
 -0.136 -1.454 4.305
 -0.11 -1.453 4.301
 -0.084 -1.452 4.298
 -0.059 -1.451 4.294
 -0.033 -1.45 4.291
 -0.008 -1.448 4.287
 0.017 -1.447 4.282
 0.042 -1.448 4.284
 0.068 -1.448 4.285
 0.093 -1.449 4.285
 0.119 -1.449 4.285
 0.145 -1.45 4.288
 0.17 -1.449 4.283
 0.196 -1.45 4.285
 0.221 -1.45 4.284
 0.247 -1.452 4.289
 0.273 -1.453 4.291
 0.299 -1.455 4.293
 0.324 -1.455 4.291
 0.35 -1.455 4.291
 0.375 -1.454 4.285
 0.401 -1.454 4.281
 0.426 -1.454 4.278
 0.452 -1.455 4.279
 0.477 -1.453 4.272
 0.503 -1.454 4.271
 0.528 -1.454 4.269
 0.554 -1.454 4.267
 0.579 -1.454 4.263
 0.606 -1.458 4.27
 0.632 -1.457 4.265
 0.657 -1.457 4.262
 0.684 -1.461 4.268
 0.711 -1.462 4.268
 0.736 -1.462 4.265
 0.763 -1.465 4.267
 0.79 -1.467 4.271
 0.816 -1.468 4.268
 0.843 -1.469 4.267
 0.869 -1.47 4.266
 0.896 -1.472 4.266
 0.922 -1.472 4.262
 0.947 -1.472 4.255
 0.974 -1.474 4.255
 1.002 -1.476 4.256
 1.028 -1.477 4.253
 1.055 -1.479 4.253
 1.083 -1.482 4.256
 1.11 -1.483 4.254
 1.137 -1.484 4.251
 1.165 -1.487 4.253
 1.193 -1.49 4.253
 1.221 -1.492 4.254
 1.249 -1.494 4.253
 1.277 -1.497 4.252
 1.305 -1.498 4.25
 1.333 -1.501 4.249
 1.361 -1.503 4.248
 1.39 -1.505 4.247
 1.418 -1.507 4.244
 1.445 -1.508 4.239
 1.473 -1.51 4.235
 1.5 -1.511 4.229
 1.529 -1.513 4.227
 1.559 -1.517 4.229
 1.589 -1.52 4.227
 1.618 -1.523 4.226
 1.647 -1.525 4.223
 1.675 -1.526 4.217
 1.703 -1.527 4.211
 1.732 -1.53 4.206
 1.757 -1.528 4.193
 1.785 -1.529 4.185
 1.807 -1.526 4.165
 1.825 -1.519 4.135
 1.84 -1.509 4.098
 1.854 -1.499 4.059
 1.859 -1.483 4.004
 1.872 -1.473 3.966
 1.88 -1.458 3.916
 0 0 0
 0 0 0
 0 0 0
 0 0 0
 0 0 0
 0 0 0
 0 0 0
 1.592 -1.116 2.919
 1.819 -1.259 3.286
 1.787 -1.222 3.178
 1.797 -1.215 3.148
 1.812 -1.211 3.126
 1.817 -1.2 3.088
 0 0 0
 0 0 0
 -0.066 -0.044 0.1
 -0.038 -0.026 0.053
 -0.616 -0.405 1.078
 -0.608 -0.405 1.081
 -0.507 -0.342 0.913
 -0.497 -0.34 0.91
 -0.398 -0.275 0.737
 -0.39 -0.273 0.733
 -0.468 -0.332 0.896
 -0.542 -0.389 1.058
 -0.618 -0.45 1.228
 -0.774 -0.57 1.565
 -0.926 -0.691 1.906
 -1.076 -0.814 2.253
 -1.304 -0.999 2.778
 -1.521 -1.182 3.297
 -1.735 -1.367 3.827
 -1.862 -1.489 4.179
 -1.909 -1.548 4.358
 -1.876 -1.544 4.357
 -1.846 -1.543 4.363
 -1.812 -1.538 4.358
 -1.781 -1.535 4.36
 -1.751 -1.533 4.364
 -1.721 -1.531 4.367
 -1.688 -1.527 4.365
 -1.659 -1.525 4.369
 -1.626 -1.521 4.365
 -1.593 -1.515 4.357
 -1.562 -1.512 4.356
 -1.532 -1.509 4.356
 -1.501 -1.506 4.354
 -1.473 -1.505 4.358
 -1.445 -1.504 4.363
 -1.416 -1.502 4.366
 -1.386 -1.499 4.364
 -1.357 -1.497 4.364
 -1.327 -1.494 4.363
 -1.297 -1.491 4.36
 -1.267 -1.487 4.354
 -1.237 -1.484 4.352
 -1.208 -1.481 4.348
 -1.178 -1.477 4.344
 -1.149 -1.474 4.341
 -1.121 -1.472 4.34
 -1.093 -1.47 4.338
 -1.065 -1.467 4.337
 -1.037 -1.466 4.337
 -1.009 -1.464 4.336
 -0.981 -1.462 4.336
 -0.954 -1.46 4.335
 -0.927 -1.459 4.336
 -0.899 -1.457 4.335
 -0.872 -1.456 4.335
 -0.845 -1.454 4.334
 -0.818 -1.453 4.335
 -0.791 -1.453 4.336
 -0.764 -1.451 4.335
 -0.737 -1.449 4.331
 -0.71 -1.446 4.328
 -0.683 -1.444 4.325
 -0.656 -1.442 4.32
 -0.629 -1.44 4.317
 -0.603 -1.439 4.318
 -0.576 -1.438 4.318
 -0.55 -1.438 4.319
 -0.524 -1.436 4.316
 -0.498 -1.436 4.318
 -0.472 -1.436 4.318
 -0.445 -1.434 4.315
 -0.419 -1.433 4.315
 -0.393 -1.432 4.313
 -0.367 -1.432 4.313
 -0.341 -1.429 4.308
 -0.316 -1.43 4.311
 -0.29 -1.429 4.309
 -0.264 -1.429 4.311
 -0.238 -1.43 4.312
 -0.213 -1.429 4.313
 -0.187 -1.428 4.31
 -0.161 -1.427 4.306
 -0.135 -1.427 4.305
 -0.11 -1.424 4.299
 -0.084 -1.423 4.294
 -0.058 -1.421 4.289
 -0.033 -1.421 4.288
 -0.007 -1.419 4.282
 0.017 -1.42 4.285
 0.042 -1.421 4.287
 0.068 -1.422 4.291
 0.093 -1.422 4.289
 0.119 -1.422 4.289
 0.144 -1.421 4.284
 0.17 -1.421 4.283
 0.195 -1.421 4.283
 0.221 -1.421 4.28
 0.246 -1.423 4.285
 0.272 -1.424 4.287
 0.298 -1.425 4.286
 0.323 -1.424 4.283
 0.349 -1.426 4.286
 0.374 -1.425 4.282
 0.4 -1.425 4.278
 0.426 -1.426 4.28
 0.451 -1.427 4.281
 0.476 -1.425 4.271
 0.502 -1.425 4.268
 0.527 -1.426 4.268
 0.552 -1.425 4.262
 0.578 -1.426 4.262
 0.606 -1.43 4.272
 0.631 -1.43 4.268
 0.657 -1.43 4.266
 0.684 -1.433 4.271
 0.71 -1.434 4.27
 0.736 -1.435 4.267
 0.762 -1.436 4.268
 0.79 -1.44 4.275
 0.816 -1.44 4.271
 0.842 -1.441 4.27
 0.868 -1.443 4.269
 0.895 -1.444 4.269
 0.92 -1.443 4.26
 0.946 -1.444 4.258
 0.973 -1.446 4.258
 1 -1.448 4.258
 1.027 -1.449 4.256
 1.054 -1.451 4.256
 1.081 -1.453 4.255
 1.108 -1.454 4.254
 1.135 -1.455 4.25
 1.163 -1.458 4.251
 1.191 -1.461 4.254
 1.22 -1.464 4.257
 1.248 -1.466 4.255
 1.276 -1.469 4.256
 1.304 -1.471 4.256
 1.332 -1.473 4.253
 1.36 -1.475 4.251
 1.389 -1.477 4.251
 1.417 -1.479 4.248
 1.445 -1.481 4.246
 1.473 -1.483 4.242
 1.5 -1.484 4.236
 1.529 -1.486 4.235
 1.559 -1.49 4.235
 1.587 -1.492 4.232
 1.617 -1.494 4.23
 1.646 -1.496 4.227
 1.673 -1.497 4.219
 1.701 -1.498 4.212
 1.729 -1.5 4.207
 1.754 -1.499 4.193
 1.783 -1.5 4.188
 1.807 -1.498 4.172
 1.827 -1.493 4.146
 1.845 -1.487 4.117
 1.863 -1.48 4.087
 1.871 -1.466 4.038
 1.886 -1.457 4.002
 0 0 0
 0 0 0
 0 0 0
 0 0 0
 0 0 0
 0 0 0
 0 0 0
 0 0 0
 1.401 -0.965 2.574
 1.678 -1.142 3.038
 1.795 -1.207 3.201
 1.81 -1.202 3.177
 1.827 -1.199 3.158
 1.838 -1.193 3.131
 0 0 0
 0 0 0
 -0.055 -0.036 0.081
 -0.106 -0.069 0.173
 -0.164 -0.107 0.279
 -0.161 -0.106 0.277
 -0.063 -0.043 0.103
 -0.059 -0.041 0.096
 -0.052 -0.037 0.085
 -0.046 -0.033 0.075
 -0.126 -0.089 0.233
 -0.203 -0.144 0.389
 -0.281 -0.201 0.551
 -0.357 -0.259 0.715
 -0.514 -0.377 1.054
 -0.75 -0.557 1.57
 -1.063 -0.8 2.268
 -1.364 -1.041 2.963
 -1.659 -1.283 3.666
 -1.864 -1.463 4.193
 -1.913 -1.523 4.376
 -1.88 -1.52 4.375
 -1.849 -1.518 4.38
 -1.814 -1.512 4.373
 -1.782 -1.509 4.373
 -1.75 -1.505 4.371
 -1.719 -1.502 4.372
 -1.686 -1.498 4.368
 -1.657 -1.496 4.373
 -1.625 -1.492 4.369
 -1.593 -1.488 4.365
 -1.563 -1.485 4.366
 -1.532 -1.482 4.366
 -1.501 -1.479 4.363
 -1.472 -1.477 4.366
 -1.443 -1.475 4.366
 -1.413 -1.472 4.365
 -1.382 -1.469 4.362
 -1.353 -1.466 4.362
 -1.324 -1.463 4.36
 -1.294 -1.461 4.358
 -1.264 -1.456 4.352
 -1.235 -1.454 4.351
 -1.205 -1.451 4.346
 -1.176 -1.448 4.343
 -1.147 -1.445 4.341
 -1.119 -1.444 4.342
 -1.092 -1.442 4.343
 -1.064 -1.441 4.344
 -1.036 -1.439 4.344
 -1.009 -1.438 4.345
 -0.981 -1.436 4.345
 -0.954 -1.434 4.342
 -0.926 -1.432 4.341
 -0.899 -1.431 4.341
 -0.872 -1.429 4.342
 -0.844 -1.427 4.338
 -0.817 -1.425 4.337
 -0.79 -1.424 4.336
 -0.763 -1.422 4.334
 -0.735 -1.419 4.329
 -0.709 -1.419 4.33
 -0.682 -1.417 4.329
 -0.655 -1.415 4.326
 -0.628 -1.413 4.322
 -0.602 -1.413 4.326
 -0.576 -1.412 4.323
 -0.549 -1.41 4.321
 -0.523 -1.408 4.317
 -0.497 -1.408 4.319
 -0.471 -1.407 4.318
 -0.445 -1.406 4.315
 -0.419 -1.406 4.316
 -0.393 -1.404 4.314
 -0.367 -1.403 4.312
 -0.34 -1.401 4.305
 -0.315 -1.4 4.306
 -0.289 -1.4 4.305
 -0.263 -1.4 4.307
 -0.238 -1.4 4.308
 -0.212 -1.4 4.309
 -0.186 -1.4 4.307
 -0.161 -1.399 4.306
 -0.135 -1.399 4.306
 -0.109 -1.398 4.303
 -0.084 -1.396 4.299
 -0.058 -1.395 4.295
 -0.033 -1.395 4.293
 -0.007 -1.392 4.286
 0.017 -1.393 4.288
 0.043 -1.394 4.291
 0.068 -1.395 4.294
 0.094 -1.395 4.293
 0.119 -1.396 4.295
 0.144 -1.394 4.288
 0.17 -1.394 4.286
 0.195 -1.395 4.286
 0.221 -1.394 4.282
 0.246 -1.395 4.284
 0.272 -1.396 4.287
 0.297 -1.397 4.286
 0.323 -1.396 4.282
 0.349 -1.398 4.288
 0.374 -1.398 4.286
 0.399 -1.398 4.281
 0.425 -1.399 4.284
 0.451 -1.4 4.285
 0.476 -1.398 4.274
 0.501 -1.397 4.269
 0.527 -1.398 4.269
 0.552 -1.397 4.261
 0.578 -1.398 4.262
 0.605 -1.402 4.273
 0.631 -1.403 4.271
 0.657 -1.404 4.27
 0.684 -1.407 4.275
 0.709 -1.407 4.274
 0.735 -1.408 4.27
 0.762 -1.41 4.272
 0.79 -1.414 4.28
 0.816 -1.415 4.279
 0.842 -1.416 4.278
 0.869 -1.417 4.278
 0.895 -1.419 4.277
 0.921 -1.418 4.269
 0.947 -1.419 4.269
 0.974 -1.42 4.267
 1.001 -1.422 4.267
 1.027 -1.423 4.263
 1.054 -1.424 4.261
 1.08 -1.424 4.255
 1.107 -1.426 4.255
 1.133 -1.427 4.25
 1.161 -1.429 4.25
 1.19 -1.433 4.255
 1.218 -1.436 4.258
 1.246 -1.437 4.255
 1.274 -1.44 4.257
 1.302 -1.442 4.257
 1.329 -1.443 4.251
 1.357 -1.445 4.25
 1.386 -1.448 4.249
 1.414 -1.449 4.246
 1.443 -1.452 4.246
 1.471 -1.454 4.244
 1.498 -1.455 4.238
 1.528 -1.458 4.239
 1.557 -1.461 4.238
 1.586 -1.464 4.236
 1.615 -1.466 4.234
 1.643 -1.468 4.229
 1.671 -1.468 4.222
 1.699 -1.47 4.216
 1.727 -1.471 4.209
 1.752 -1.47 4.196
 1.782 -1.473 4.194
 1.808 -1.472 4.181
 1.829 -1.468 4.159
 1.848 -1.462 4.132
 1.873 -1.461 4.117
 1.882 -1.447 4.068
 0 0 0
 0 0 0
 0 0 0
 0 0 0
 0 0 0
 0 0 0
 0.588 -0.415 1.131
 0.596 -0.415 1.128
 0.603 -0.415 1.124
 1.35 -0.913 2.484
 1.674 -1.118 3.036
 1.803 -1.19 3.221
 1.824 -1.19 3.21
 1.845 -1.19 3.198
 1.664 -1.061 2.84
 0 0 0
 0 0 0
 -0.095 -0.06 0.151
 -0.108 -0.069 0.177
 -0.09 -0.058 0.147
 -0.083 -0.054 0.137
 -0.077 -0.051 0.128
 -0.072 -0.049 0.121
 -0.063 -0.043 0.106
 -0.055 -0.039 0.093
 -0.049 -0.035 0.082
 -0.038 -0.028 0.063
 -0.03 -0.022 0.048
 -0.108 -0.078 0.208
 -0.35 -0.252 0.714
 -0.587 -0.428 1.228
 -0.984 -0.727 2.101
 -1.367 -1.024 2.974
 -1.66 -1.261 3.677
 -1.788 -1.378 4.029
 -1.913 -1.496 4.386
 -1.879 -1.491 4.382
 -1.847 -1.488 4.384
 -1.813 -1.483 4.378
 -1.781 -1.479 4.377
 -1.748 -1.475 4.374
 -1.717 -1.473 4.377
 -1.685 -1.469 4.373
 -1.655 -1.467 4.376
 -1.623 -1.463 4.373
 -1.593 -1.46 4.373
 -1.562 -1.458 4.374
 -1.532 -1.455 4.372
 -1.5 -1.451 4.369
 -1.472 -1.45 4.373
 -1.441 -1.446 4.368
 -1.411 -1.443 4.367
 -1.381 -1.44 4.365
 -1.352 -1.438 4.365
 -1.322 -1.434 4.361
 -1.292 -1.432 4.359
 -1.261 -1.427 4.351
 -1.232 -1.425 4.351
 -1.203 -1.421 4.346
 -1.174 -1.419 4.344
 -1.146 -1.417 4.344
 -1.119 -1.416 4.347
 -1.091 -1.415 4.347
 -1.064 -1.414 4.352
 -1.036 -1.413 4.352
 -1.009 -1.411 4.352
 -0.981 -1.409 4.351
 -0.953 -1.406 4.346
 -0.925 -1.404 4.343
 -0.898 -1.403 4.345
 -0.871 -1.402 4.347
 -0.844 -1.4 4.343
 -0.817 -1.399 4.343
 -0.79 -1.397 4.342
 -0.762 -1.395 4.34
 -0.735 -1.393 4.336
 -0.708 -1.392 4.334
 -0.682 -1.391 4.335
 -0.655 -1.39 4.335
 -0.628 -1.387 4.33
 -0.602 -1.387 4.331
 -0.575 -1.385 4.328
 -0.549 -1.384 4.325
 -0.522 -1.38 4.318
 -0.496 -1.381 4.32
 -0.47 -1.379 4.319
 -0.444 -1.379 4.318
 -0.418 -1.378 4.317
 -0.392 -1.377 4.317
 -0.366 -1.376 4.314
 -0.34 -1.373 4.306
 -0.314 -1.373 4.309
 -0.288 -1.373 4.308
 -0.263 -1.373 4.309
 -0.237 -1.373 4.31
 -0.212 -1.374 4.313
 -0.186 -1.373 4.31
 -0.16 -1.373 4.311
 -0.135 -1.372 4.308
 -0.109 -1.371 4.305
 -0.084 -1.369 4.301
 -0.058 -1.368 4.298
 -0.033 -1.368 4.295
 -0.007 -1.366 4.288
 0.017 -1.367 4.293
 0.043 -1.368 4.295
 0.068 -1.37 4.299
 0.094 -1.369 4.297
 0.119 -1.37 4.301
 0.144 -1.368 4.292
 0.17 -1.368 4.29
 0.195 -1.368 4.29
 0.22 -1.367 4.284
 0.246 -1.368 4.286
 0.272 -1.37 4.29
 0.297 -1.37 4.289
 0.323 -1.369 4.284
 0.349 -1.372 4.292
 0.374 -1.371 4.285
 0.399 -1.37 4.28
 0.425 -1.371 4.283
 0.45 -1.372 4.282
 0.475 -1.368 4.268
 0.5 -1.368 4.266
 0.526 -1.369 4.265
 0.55 -1.367 4.257
 0.576 -1.369 4.26
 0.604 -1.374 4.271
 0.63 -1.375 4.27
 0.656 -1.376 4.27
 0.683 -1.379 4.275
 0.709 -1.38 4.275
 0.735 -1.381 4.274
 0.761 -1.382 4.274
 0.789 -1.386 4.283
 0.815 -1.387 4.281
 0.841 -1.388 4.279
 0.868 -1.39 4.281
 0.895 -1.392 4.281
 0.92 -1.391 4.274
 0.947 -1.393 4.275
 0.974 -1.394 4.273
 1 -1.395 4.269
 1.026 -1.395 4.265
 1.052 -1.396 4.262
 1.078 -1.396 4.256
 1.105 -1.398 4.255
 1.132 -1.399 4.252
 1.16 -1.402 4.255
 1.189 -1.405 4.259
 1.218 -1.408 4.262
 1.244 -1.409 4.258
 1.272 -1.411 4.257
 1.3 -1.413 4.254
 1.326 -1.413 4.248
 1.354 -1.415 4.246
 1.383 -1.419 4.249
 1.412 -1.421 4.249
 1.441 -1.424 4.25
 1.47 -1.427 4.249
 1.497 -1.428 4.244
 1.526 -1.43 4.241
 1.554 -1.431 4.237
 1.583 -1.434 4.235
 1.612 -1.436 4.234
 1.64 -1.438 4.228
 1.668 -1.439 4.224
 1.697 -1.441 4.22
 1.725 -1.443 4.213
 1.751 -1.442 4.201
 1.781 -1.445 4.2
 1.808 -1.446 4.191
 1.832 -1.443 4.173
 1.856 -1.441 4.157
 1.888 -1.445 4.158
 0 0 0
 0 0 0
 0 0 0
 0 0 0
 0 0 0
 0 0 0
 0 0 0
 0.511 -0.355 0.984
 0.518 -0.355 0.981
 0.524 -0.355 0.978
 1.13 -0.751 2.083
 1.65 -1.082 2.999
 1.804 -1.169 3.229
 1.825 -1.168 3.217
 1.846 -1.168 3.206
 1.467 -0.918 2.508
 0 0 0
 0 0 0
 -0.126 -0.078 0.205
 -0.106 -0.067 0.174
 -0.097 -0.062 0.161
 -0.091 -0.058 0.152
 -0.084 -0.055 0.142
 -0.081 -0.053 0.138
 -0.072 -0.048 0.124
 -0.064 -0.043 0.11
 -0.055 -0.038 0.095
 -0.13 -0.09 0.246
 -0.119 -0.083 0.227
 -0.278 -0.195 0.557
 -0.6 -0.424 1.238
 -0.752 -0.538 1.58
 -1.064 -0.771 2.279
 -1.445 -1.062 3.152
 -1.659 -1.237 3.683
 -1.71 -1.293 3.861
 -1.913 -1.467 4.393
 -1.879 -1.463 4.391
 -1.847 -1.46 4.391
 -1.812 -1.455 4.385
 -1.779 -1.45 4.382
 -1.746 -1.446 4.377
 -1.716 -1.444 4.381
 -1.684 -1.44 4.378
 -1.653 -1.438 4.38
 -1.621 -1.434 4.377
 -1.592 -1.432 4.379
 -1.56 -1.429 4.376
 -1.529 -1.425 4.374
 -1.498 -1.422 4.371
 -1.47 -1.42 4.374
 -1.438 -1.416 4.368
 -1.409 -1.414 4.37
 -1.38 -1.412 4.369
 -1.35 -1.409 4.368
 -1.32 -1.406 4.364
 -1.29 -1.403 4.362
 -1.26 -1.399 4.354
 -1.231 -1.397 4.356
 -1.202 -1.394 4.351
 -1.173 -1.391 4.349
 -1.145 -1.389 4.348
 -1.117 -1.388 4.35
 -1.09 -1.387 4.35
 -1.064 -1.388 4.359
 -1.036 -1.386 4.36
 -1.009 -1.386 4.363
 -0.982 -1.384 4.363
 -0.953 -1.381 4.356
 -0.924 -1.377 4.348
 -0.897 -1.376 4.35
 -0.871 -1.376 4.352
 -0.843 -1.373 4.349
 -0.816 -1.372 4.349
 -0.789 -1.371 4.348
 -0.762 -1.369 4.345
 -0.734 -1.365 4.338
 -0.707 -1.363 4.333
 -0.68 -1.362 4.332
 -0.654 -1.361 4.332
 -0.627 -1.358 4.327
 -0.601 -1.358 4.33
 -0.574 -1.357 4.326
 -0.548 -1.355 4.324
 -0.521 -1.352 4.317
 -0.496 -1.354 4.323
 -0.47 -1.353 4.324
 -0.444 -1.352 4.323
 -0.418 -1.352 4.323
 -0.391 -1.35 4.318
 -0.365 -1.348 4.314
 -0.339 -1.346 4.307
 -0.314 -1.347 4.313
 -0.288 -1.347 4.314
 -0.263 -1.347 4.316
 -0.237 -1.346 4.313
 -0.211 -1.346 4.313
 -0.186 -1.344 4.308
 -0.16 -1.344 4.307
 -0.134 -1.343 4.304
 -0.109 -1.342 4.303
 -0.083 -1.342 4.302
 -0.058 -1.342 4.301
 -0.032 -1.341 4.298
 -0.007 -1.339 4.293
 0.017 -1.342 4.301
 0.043 -1.342 4.301
 0.068 -1.343 4.303
 0.094 -1.342 4.299
 0.119 -1.343 4.3
 0.144 -1.339 4.287
 0.17 -1.34 4.289
 0.195 -1.34 4.289
 0.22 -1.338 4.279
 0.246 -1.339 4.281
 0.271 -1.34 4.283
 0.297 -1.34 4.282
 0.322 -1.339 4.278
 0.348 -1.344 4.29
 0.373 -1.343 4.285
 0.398 -1.342 4.28
 0.424 -1.344 4.284
 0.45 -1.346 4.288
 0.474 -1.341 4.271
 0.5 -1.341 4.268
 0.525 -1.342 4.266
 0.55 -1.34 4.258
 0.575 -1.34 4.255
 0.603 -1.345 4.267
 0.628 -1.346 4.267
 0.655 -1.348 4.269
 0.682 -1.351 4.275
 0.708 -1.353 4.277
 0.735 -1.355 4.28
 0.761 -1.356 4.281
 0.789 -1.36 4.29
 0.814 -1.36 4.284
 0.841 -1.362 4.285
 0.868 -1.363 4.284
 0.894 -1.364 4.284
 0.919 -1.364 4.277
 0.947 -1.366 4.278
 0.973 -1.367 4.275
 0.999 -1.368 4.273
 1.025 -1.368 4.268
 1.051 -1.368 4.264
 1.077 -1.368 4.257
 1.104 -1.37 4.256
 1.13 -1.37 4.252
 1.158 -1.373 4.253
 1.187 -1.376 4.257
 1.216 -1.38 4.262
 1.243 -1.381 4.258
 1.271 -1.383 4.258
 1.298 -1.385 4.256
 1.324 -1.385 4.248
 1.352 -1.387 4.249
 1.382 -1.391 4.252
 1.411 -1.393 4.251
 1.439 -1.396 4.251
 1.469 -1.399 4.253
 1.496 -1.4 4.248
 1.525 -1.402 4.246
 1.553 -1.404 4.242
 1.582 -1.406 4.239
