 -0.068 0.038 0.827
 -0.063 0.038 0.824
 -0.058 0.038 0.82
 -0.053 0.038 0.817
 -0.048 0.038 0.818
 -0.043 0.038 0.819
 -0.038 0.038 0.817
 -0.033 0.038 0.814
 -0.029 0.037 0.808
 -0.024 0.037 0.798
 -0.019 0.036 0.788
 -0.014 0.036 0.781
 -0.01 0.036 0.775
 -0.005 0.035 0.772
 -0.001 0.036 0.783
 0.003 0.037 0.814
 0.008 0.039 0.846
 0.014 0.041 0.884
 0.02 0.043 0.923
 0.026 0.044 0.949
 0.031 0.044 0.949
 0.037 0.044 0.952
 0.043 0.044 0.954
 0.048 0.044 0.961
 0.055 0.045 0.982
 0.064 0.048 1.029
 0.071 0.049 1.045
 0.079 0.05 1.069
 0.088 0.051 1.102
 0.097 0.053 1.133
 0.1 0.051 1.101
 0.11 0.053 1.13
 0.121 0.055 1.173
 0.131 0.056 1.201
 0.133 0.054 1.159
 0.144 0.056 1.194
 0.153 0.057 1.212
 0.159 0.056 1.207
 0.16 0.054 1.158
 0.165 0.053 1.145
 0.171 0.053 1.146
 0.174 0.052 1.117
 0.168 0.048 1.043
 0.172 0.048 1.03
 0.179 0.048 1.036
 0.174 0.045 0.969
 0.171 0.042 0.922
 0.181 0.044 0.945
 0.181 0.042 0.921
 0.179 0.04 0.879
 0.189 0.042 0.903
 0.211 0.045 0.982
 0.227 0.048 1.028
 0.233 0.048 1.026
 0.232 0.046 0.995
 0.221 0.042 0.921
 0.188 0.035 0.763
 0.151 0.027 0.597
 0.129 0.022 0.497
 0.114 0.018 0.429
 0.105 0.016 0.385
 0.102 0.015 0.366
 0.102 0.015 0.357
 0.102 0.015 0.351
 0.104 0.015 0.348
 0.104 0.014 0.343
 0.104 0.014 0.336
 0.105 0.014 0.331
 0.106 0.014 0.327
 0.107 0.013 0.324
 0.109 0.013 0.324
 0.111 0.013 0.323
 0.114 0.014 0.325
 0.118 0.014 0.331
 0.121 0.014 0.332
 0.125 0.014 0.335
 0.129 0.014 0.342
 0.133 0.015 0.347
 0.138 0.015 0.351
 0.142 0.015 0.357
 0.147 0.016 0.362
 0.151 0.016 0.365
 0.154 0.016 0.367
 0.157 0.016 0.367
 0.16 0.016 0.368
 0.161 0.016 0.365
 0.163 0.016 0.363
 0.166 0.016 0.364
 0.17 0.016 0.367
 0.173 0.016 0.367
 0.178 0.016 0.371
 0.185 0.017 0.38
 0.198 0.018 0.402
 0.221 0.02 0.443
 0.252 0.023 0.496
 0.289 0.026 0.562
 0.33 0.03 0.634
 0.366 0.033 0.693
 0.392 0.035 0.731
 0.411 0.037 0.756
 0.424 0.037 0.768
 0.43 0.038 0.768
 0.411 0.035 0.722
 0.424 0.036 0.735
 -0.335 0.036 0.599
 -0.35 0.038 0.637
 -0.37 0.041 0.684
 -0.377 0.042 0.707
 -0.383 0.044 0.73
 -0.386 0.045 0.746
 -0.387 0.045 0.76
 -0.387 0.046 0.772
 -0.384 0.046 0.777
 -0.378 0.046 0.777
 -0.37 0.045 0.773
 -0.362 0.045 0.769
 -0.354 0.045 0.764
 -0.347 0.044 0.761
 -0.342 0.044 0.762
 -0.338 0.044 0.766
 -0.335 0.044 0.77
 -0.331 0.045 0.775
 -0.327 0.045 0.779
 -0.324 0.045 0.785
 -0.321 0.045 0.791
 -0.317 0.045 0.796
 -0.313 0.045 0.8
 -0.309 0.045 0.802
 -0.303 0.045 0.802
 -0.298 0.045 0.801
 -0.292 0.045 0.801
 -0.287 0.045 0.802
 -0.282 0.045 0.803
 -0.278 0.045 0.807
 -0.273 0.045 0.809
 -0.266 0.045 0.803
 -0.26 0.044 0.798
 -0.252 0.044 0.79
 -0.242 0.043 0.775
 -0.235 0.042 0.769
 -0.231 0.042 0.771
 -0.226 0.042 0.772
 -0.223 0.043 0.779
 -0.222 0.043 0.793
 -0.219 0.044 0.8
 -0.214 0.044 0.801
 -0.209 0.044 0.8
 -0.204 0.043 0.801
 -0.201 0.044 0.809
 -0.198 0.044 0.818
 -0.194 0.044 0.818
 -0.188 0.044 0.816
 -0.182 0.044 0.811
 -0.173 0.043 0.794
 -0.163 0.041 0.765
 -0.155 0.04 0.749
 -0.147 0.039 0.733
 -0.14 0.038 0.717
 -0.133 0.037 0.703
 -0.128 0.037 0.701
 -0.124 0.037 0.7
 -0.12 0.037 0.702
 -0.116 0.037 0.705
 -0.112 0.037 0.706
 -0.109 0.038 0.717
 -0.108 0.039 0.739
 -0.106 0.04 0.756
 -0.104 0.041 0.773
 -0.102 0.042 0.79
 -0.098 0.042 0.799
 -0.094 0.042 0.804
 -0.09 0.043 0.813
 -0.086 0.043 0.819
 -0.082 0.043 0.828
 -0.078 0.044 0.832
 -0.073 0.043 0.829
 -0.067 0.043 0.825
 -0.062 0.043 0.822
 -0.057 0.043 0.819
 -0.052 0.043 0.816
 -0.048 0.043 0.817
 -0.043 0.043 0.818
 -0.038 0.042 0.816
 -0.033 0.042 0.81
 -0.028 0.042 0.802
 -0.023 0.041 0.789
 -0.019 0.04 0.776
 -0.014 0.04 0.767
 -0.009 0.039 0.761
 -0.005 0.039 0.76
 -0.001 0.04 0.774
 0.003 0.042 0.808
 0.008 0.044 0.844
 0.014 0.046 0.884
 0.02 0.048 0.926
 0.026 0.05 0.953
 0.032 0.05 0.953
 0.037 0.05 0.958
 0.043 0.05 0.963
 0.049 0.051 0.976
 0.057 0.052 1.007
 0.067 0.056 1.071
 0.076 0.059 1.12
 0.087 0.062 1.176
 0.097 0.064 1.22
 0.108 0.066 1.258
 0.114 0.066 1.249
 0.122 0.066 1.26
 0.13 0.067 1.266
 0.138 0.067 1.271
 0.141 0.064 1.228
 0.146 0.064 1.216
 0.151 0.063 1.194
 0.154 0.061 1.167
 0.154 0.058 1.115
 0.153 0.056 1.064
 0.16 0.056 1.067
 0.163 0.054 1.045
 0.158 0.051 0.981
 0.164 0.051 0.978
 0.176 0.053 1.015
 0.171 0.049 0.952
 0.168 0.047 0.91
 0.179 0.049 0.938
 0.18 0.047 0.911
 0.172 0.044 0.848
 0.185 0.046 0.885
 0.21 0.051 0.974
 0.22 0.052 0.994
 0.217 0.05 0.953
 0.211 0.047 0.903
 0.194 0.042 0.81
 0.16 0.033 0.648
 0.129 0.025 0.509
 0.115 0.022 0.443
 0.106 0.019 0.399
 0.101 0.018 0.37
 0.099 0.017 0.356
 0.099 0.017 0.348
 0.1 0.016 0.341
 0.101 0.016 0.339
 0.102 0.016 0.333
 0.101 0.015 0.326
 0.103 0.015 0.323
 0.104 0.015 0.319
 0.105 0.015 0.317
 0.107 0.015 0.316
 0.109 0.015 0.316
 0.112 0.015 0.317
 0.116 0.016 0.324
 0.12 0.016 0.328
 0.123 0.016 0.331
 0.127 0.016 0.336
 0.132 0.017 0.344
 0.136 0.017 0.347
 0.14 0.017 0.351
 0.145 0.018 0.357
 0.15 0.018 0.363
 0.153 0.018 0.365
 0.157 0.018 0.367
 0.16 0.018 0.369
 0.163 0.018 0.369
 0.166 0.018 0.369
 0.17 0.019 0.373
 0.174 0.019 0.376
 0.178 0.019 0.377
 0.181 0.019 0.379
 0.185 0.019 0.38
 0.191 0.02 0.388
 0.206 0.021 0.412
 0.227 0.023 0.448
 0.257 0.026 0.498
 0.292 0.03 0.559
 0.332 0.034 0.627
 0.364 0.037 0.678
 0.392 0.039 0.719
 0.412 0.041 0.746
 0.427 0.042 0.761
 0.433 0.042 0.762
 0.443 0.043 0.767
 -0.362 0.043 0.647
 -0.369 0.045 0.672
 -0.379 0.047 0.7
 -0.387 0.048 0.725
 -0.393 0.05 0.748
 -0.395 0.051 0.764
 -0.395 0.051 0.776
 -0.392 0.051 0.782
 -0.385 0.051 0.78
 -0.374 0.05 0.77
 -0.362 0.049 0.756
 -0.351 0.048 0.744
 -0.34 0.047 0.733
 -0.333 0.047 0.729
 -0.328 0.047 0.73
 -0.325 0.047 0.734
 -0.321 0.047 0.74
 -0.318 0.047 0.745
 -0.315 0.048 0.75
 -0.312 0.048 0.755
 -0.309 0.048 0.761
 -0.306 0.048 0.766
 -0.302 0.048 0.77
 -0.298 0.049 0.774
 -0.294 0.049 0.776
 -0.288 0.048 0.776
 -0.283 0.048 0.777
 -0.279 0.048 0.779
 -0.275 0.048 0.781
 -0.271 0.049 0.786
 -0.266 0.049 0.787
 -0.259 0.048 0.78
 -0.252 0.048 0.775
 -0.244 0.047 0.764
 -0.234 0.046 0.748
 -0.227 0.045 0.741
 -0.222 0.045 0.741
 -0.217 0.045 0.741
 -0.214 0.045 0.747
 -0.213 0.046 0.76
 -0.21 0.046 0.767
 -0.206 0.046 0.768
 -0.201 0.046 0.767
 -0.196 0.046 0.767
 -0.193 0.046 0.774
 -0.19 0.047 0.781
 -0.185 0.047 0.783
 -0.18 0.047 0.782
 -0.175 0.046 0.779
 -0.167 0.045 0.764
 -0.157 0.044 0.738
 -0.15 0.043 0.724
 -0.142 0.042 0.709
 -0.135 0.041 0.694
 -0.128 0.04 0.681
 -0.124 0.04 0.678
 -0.12 0.04 0.677
 -0.116 0.04 0.677
 -0.112 0.04 0.68
 -0.108 0.04 0.68
 -0.105 0.04 0.689
 -0.104 0.041 0.71
 -0.102 0.042 0.726
 -0.1 0.043 0.743
 -0.098 0.044 0.761
 -0.095 0.045 0.774
 -0.092 0.046 0.784
 -0.089 0.047 0.798
 -0.085 0.047 0.808
 -0.082 0.048 0.822
 -0.077 0.048 0.828
 -0.072 0.048 0.825
 -0.067 0.048 0.822
 -0.062 0.048 0.819
 -0.057 0.047 0.816
 -0.052 0.047 0.814
 -0.048 0.047 0.816
 -0.043 0.047 0.817
 -0.038 0.047 0.815
 -0.033 0.047 0.81
 -0.028 0.046 0.802
 -0.023 0.046 0.789
 -0.019 0.045 0.776
 -0.014 0.044 0.768
 -0.009 0.044 0.763
 -0.005 0.044 0.762
 -0.001 0.045 0.778
 0.003 0.047 0.812
 0.008 0.049 0.848
 0.014 0.051 0.885
 0.02 0.054 0.925
 0.026 0.055 0.946
 0.031 0.055 0.942
 0.037 0.054 0.941
 0.042 0.054 0.939
 0.047 0.054 0.94
 0.054 0.055 0.958
 0.063 0.059 1.011
 0.071 0.061 1.05
 0.082 0.064 1.104
 0.092 0.067 1.157
 0.103 0.071 1.209
 0.114 0.073 1.243
 0.125 0.075 1.282
 0.135 0.076 1.308
 0.146 0.078 1.342
 0.155 0.079 1.355
 0.164 0.08 1.361
 0.172 0.08 1.361
 0.181 0.08 1.366
 0.188 0.08 1.363
 0.182 0.074 1.266
 0.185 0.072 1.238
 0.187 0.07 1.205
 0.183 0.066 1.135
 0.183 0.063 1.09
 0.193 0.065 1.111
 0.188 0.061 1.049
 0.186 0.058 1.005
 0.194 0.059 1.015
 0.191 0.056 0.968
 0.18 0.051 0.885
 0.188 0.052 0.9
 0.205 0.055 0.952
 0.205 0.054 0.927
 0.195 0.05 0.858
 0.187 0.046 0.802
 0.171 0.041 0.711
 0.141 0.032 0.573
 0.12 0.026 0.474
 0.112 0.024 0.431
 0.105 0.022 0.396
 0.101 0.02 0.37
 0.099 0.019 0.354
 0.099 0.019 0.347
 0.099 0.018 0.34
 0.1 0.018 0.336
 0.1 0.018 0.33
 0.1 0.017 0.323
 0.101 0.017 0.318
 0.102 0.017 0.313
 0.103 0.017 0.312
 0.105 0.017 0.311
 0.108 0.017 0.314
 0.111 0.017 0.315
 0.116 0.017 0.323
 0.12 0.018 0.33
 0.124 0.018 0.334
 0.128 0.018 0.338
 0.133 0.019 0.346
 0.137 0.019 0.35
 0.141 0.02 0.353
 0.146 0.02 0.361
 0.151 0.02 0.365
 0.154 0.02 0.366
 0.157 0.021 0.367
 0.16 0.021 0.367
 0.163 0.021 0.369
 0.167 0.021 0.372
 0.172 0.021 0.378
 0.178 0.022 0.384
 0.182 0.022 0.387
 0.187 0.022 0.392
 0.193 0.023 0.397
 0.198 0.023 0.401
 0.208 0.024 0.415
 0.223 0.026 0.439
 0.243 0.028 0.472
 0.269 0.031 0.514
 0.304 0.035 0.573
 0.34 0.038 0.632
 0.372 0.042 0.683
 0.399 0.044 0.722
 0.42 0.046 0.749
 0.439 0.048 0.771
 0.443 0.048 0.768
 -0.376 0.049 0.674
 -0.378 0.05 0.687
 -0.385 0.052 0.71
 -0.392 0.054 0.735
 -0.397 0.055 0.756
 -0.398 0.056 0.771
 -0.396 0.056 0.777
 -0.388 0.056 0.774
 -0.377 0.055 0.764
 -0.363 0.053 0.746
 -0.348 0.052 0.726
 -0.335 0.05 0.71
 -0.324 0.049 0.699
 -0.317 0.049 0.694
 -0.313 0.049 0.696
 -0.31 0.049 0.7
 -0.307 0.049 0.705
 -0.304 0.049 0.71
 -0.301 0.05 0.714
 -0.297 0.05 0.719
 -0.294 0.05 0.724
 -0.291 0.05 0.729
 -0.288 0.051 0.733
 -0.285 0.051 0.738
 -0.28 0.051 0.74
 -0.276 0.051 0.743
 -0.272 0.051 0.745
 -0.268 0.051 0.748
 -0.264 0.051 0.75
 -0.261 0.051 0.756
 -0.257 0.051 0.758
 -0.251 0.051 0.755
 -0.245 0.051 0.753
 -0.238 0.05 0.747
 -0.23 0.049 0.736
 -0.223 0.049 0.729
 -0.217 0.048 0.724
 -0.211 0.048 0.718
 -0.206 0.048 0.718
 -0.203 0.048 0.723
 -0.199 0.048 0.726
 -0.196 0.048 0.729
 -0.192 0.048 0.732
 -0.188 0.048 0.733
 -0.183 0.048 0.734
 -0.179 0.048 0.735
 -0.173 0.048 0.731
 -0.168 0.048 0.726
 -0.162 0.047 0.721
 -0.156 0.047 0.715
 -0.15 0.046 0.705
 -0.145 0.046 0.701
 -0.14 0.045 0.697
 -0.135 0.045 0.692
 -0.13 0.044 0.687
 -0.125 0.044 0.686
 -0.121 0.044 0.685
 -0.117 0.044 0.685
 -0.113 0.044 0.686
 -0.109 0.044 0.686
 -0.105 0.044 0.685
 -0.101 0.044 0.688
 -0.098 0.044 0.692
 -0.094 0.045 0.699
 -0.092 0.045 0.709
 -0.089 0.047 0.726
 -0.088 0.048 0.75
 -0.086 0.05 0.773
 -0.083 0.051 0.791
 -0.08 0.052 0.808
 -0.076 0.052 0.818
 -0.072 0.052 0.816
 -0.067 0.052 0.814
 -0.062 0.052 0.811
 -0.057 0.052 0.809
 -0.052 0.051 0.806
 -0.047 0.051 0.804
 -0.042 0.051 0.803
 -0.038 0.051 0.8
 -0.033 0.051 0.795
 -0.028 0.05 0.788
 -0.023 0.049 0.78
 -0.018 0.049 0.771
 -0.014 0.048 0.764
 -0.009 0.048 0.759
 -0.005 0.048 0.759
 -0.001 0.049 0.772
 0.003 0.05 0.796
 0.008 0.052 0.823
 0.013 0.054 0.852
 0.019 0.056 0.884
 0.025 0.057 0.903
 0.03 0.057 0.903
 0.035 0.057 0.899
 0.04 0.057 0.901
 0.045 0.057 0.902
 0.052 0.058 0.917
 0.06 0.062 0.966
 0.068 0.064 1.006
 0.077 0.067 1.046
 0.087 0.07 1.089
 0.097 0.072 1.13
 0.105 0.074 1.154
 0.115 0.076 1.179
 0.123 0.077 1.198
 0.132 0.078 1.211
 0.138 0.077 1.202
 0.144 0.077 1.195
 0.151 0.077 1.199
 0.161 0.078 1.214
 0.173 0.08 1.253
 0.175 0.078 1.215
 0.181 0.077 1.207
 0.185 0.076 1.19
 0.186 0.074 1.152
 0.185 0.071 1.102
 0.193 0.071 1.112
 0.196 0.07 1.095
 0.2 0.069 1.077
 0.206 0.069 1.077
 0.208 0.068 1.055
 0.198 0.062 0.973
 0.196 0.06 0.933
 0.2 0.059 0.927
 0.192 0.055 0.865
 0.177 0.049 0.778
 0.167 0.045 0.713
 0.15 0.039 0.625
 0.128 0.032 0.519
 0.114 0.028 0.449
 0.109 0.026 0.419
 0.103 0.023 0.387
 0.099 0.022 0.365
 0.098 0.021 0.352
 0.099 0.021 0.345
 0.099 0.02 0.339
 0.1 0.02 0.334
 0.1 0.02 0.327
 0.1 0.019 0.32
 0.1 0.019 0.315
 0.101 0.018 0.31
 0.102 0.018 0.308
 0.104 0.018 0.308
 0.107 0.019 0.311
 0.11 0.019 0.312
 0.114 0.019 0.319
 0.119 0.02 0.326
 0.123 0.02 0.331
 0.128 0.021 0.338
 0.133 0.021 0.346
 0.137 0.021 0.35
 0.142 0.022 0.357
 0.147 0.022 0.363
 0.151 0.023 0.366
 0.155 0.023 0.369
 0.159 0.023 0.372
 0.161 0.023 0.37
 0.165 0.023 0.375
 0.169 0.024 0.376
 0.173 0.024 0.378
 0.177 0.024 0.382
 0.182 0.024 0.386
 0.187 0.025 0.391
 0.194 0.025 0.398
 0.201 0.026 0.408
 0.212 0.027 0.423
 0.224 0.029 0.44
 0.237 0.03 0.458
 0.256 0.032 0.489
 0.285 0.036 0.537
 0.32 0.04 0.594
 0.357 0.044 0.654
 0.391 0.048 0.706
 0.418 0.051 0.744
 0.435 0.053 0.765
 0.44 0.052 0.762
 -0.38 0.055 0.681
 -0.384 0.056 0.698
 -0.388 0.057 0.716
 -0.393 0.059 0.737
 -0.396 0.06 0.755
 -0.395 0.06 0.764
 -0.388 0.06 0.762
 -0.376 0.059 0.75
 -0.361 0.057 0.73
 -0.343 0.055 0.705
 -0.327 0.053 0.681
 -0.314 0.051 0.664
 -0.303 0.05 0.652
 -0.296 0.049 0.646
 -0.292 0.049 0.647
 -0.288 0.049 0.65
 -0.285 0.05 0.654
 -0.282 0.05 0.658
 -0.279 0.05 0.662
 -0.276 0.05 0.666
 -0.273 0.05 0.67
 -0.27 0.051 0.674
 -0.267 0.051 0.678
 -0.264 0.051 0.682
 -0.26 0.051 0.685
 -0.256 0.051 0.688
 -0.253 0.051 0.69
 -0.249 0.051 0.693
 -0.245 0.051 0.696
 -0.242 0.052 0.7
 -0.239 0.052 0.704
 -0.234 0.052 0.705
 -0.23 0.052 0.706
 -0.226 0.052 0.706
 -0.22 0.051 0.704
 -0.215 0.051 0.702
 -0.21 0.051 0.701
 -0.206 0.051 0.7
 -0.201 0.051 0.7
 -0.197 0.051 0.702
 -0.193 0.051 0.704
 -0.19 0.051 0.706
 -0.185 0.051 0.707
 -0.181 0.051 0.707
 -0.177 0.051 0.707
 -0.172 0.051 0.708
 -0.168 0.05 0.706
 -0.163 0.05 0.703
 -0.158 0.05 0.701
 -0.153 0.05 0.699
 -0.148 0.049 0.695
 -0.143 0.049 0.691
 -0.138 0.049 0.687
 -0.133 0.048 0.683
 -0.128 0.048 0.679
 -0.124 0.048 0.677
 -0.12 0.048 0.677
 -0.116 0.048 0.677
 -0.112 0.048 0.677
 -0.108 0.047 0.677
 -0.103 0.047 0.676
 -0.1 0.048 0.679
 -0.096 0.048 0.684
 -0.093 0.048 0.69
 -0.09 0.049 0.699
 -0.088 0.05 0.711
 -0.085 0.051 0.724
 -0.082 0.051 0.735
 -0.078 0.052 0.744
 -0.075 0.052 0.752
 -0.071 0.053 0.755
 -0.066 0.053 0.755
 -0.062 0.052 0.754
 -0.057 0.052 0.753
 -0.053 0.052 0.752
 -0.048 0.052 0.75
 -0.044 0.052 0.748
 -0.04 0.052 0.748
 -0.035 0.052 0.746
 -0.031 0.051 0.743
 -0.026 0.051 0.739
 -0.022 0.051 0.734
 -0.017 0.05 0.729
 -0.013 0.05 0.725
 -0.009 0.05 0.723
 -0.005 0.05 0.724
 -0.001 0.05 0.732
 0.003 0.051 0.745
 0.007 0.053 0.761
 0.012 0.054 0.779
 0.017 0.055 0.797
 0.022 0.056 0.809
 0.027 0.056 0.817
 0.032 0.057 0.825
 0.037 0.058 0.839
 0.043 0.059 0.856
 0.05 0.061 0.882
 0.057 0.064 0.921
 0.064 0.066 0.948
 0.072 0.068 0.977
 0.08 0.07 1.011
 0.089 0.072 1.04
 0.097 0.074 1.059
 0.105 0.076 1.084
 0.113 0.077 1.1
 0.119 0.076 1.096
 0.125 0.076 1.09
 0.131 0.076 1.088
 0.138 0.076 1.091
 0.145 0.077 1.101
 0.16 0.081 1.16
 0.171 0.083 1.188
 0.183 0.086 1.221
 0.194 0.087 1.243
 0.202 0.087 1.246
 0.204 0.085 1.217
 0.214 0.086 1.231
 0.208 0.081 1.16
 0.208 0.078 1.12
 0 0 0
 0 0 0
 0.167 0.057 0.822
 0.175 0.058 0.833
 0.178 0.057 0.826
 0.167 0.052 0.755
 0.157 0.047 0.687
 0.149 0.044 0.636
 0.132 0.037 0.547
 0.115 0.031 0.464
 0.106 0.028 0.421
 0.103 0.026 0.396
 0.099 0.025 0.373
 0.097 0.024 0.356
 0.096 0.023 0.345
 0.097 0.022 0.34
 0.098 0.022 0.334
 0.098 0.022 0.329
 0.099 0.021 0.323
 0.099 0.021 0.317
 0.099 0.02 0.311
 0.099 0.02 0.306
 0.101 0.02 0.304
 0.103 0.02 0.305
 0.107 0.02 0.309
 0.11 0.021 0.312
 0.114 0.021 0.319
 0.119 0.022 0.327
 0.123 0.022 0.331
 0.128 0.023 0.337
 0.134 0.023 0.346
 0.138 0.024 0.351
 0.142 0.024 0.356
 0.148 0.025 0.363
 0.152 0.025 0.367
 0.154 0.025 0.367
 0.158 0.025 0.37
 0.161 0.026 0.371
 0.167 0.026 0.377
 0.17 0.026 0.379
 0.176 0.027 0.385
 0.18 0.027 0.388
 0.184 0.027 0.39
 0.19 0.028 0.396
 0.197 0.029 0.405
 0.206 0.029 0.417
 0.217 0.031 0.433
 0.23 0.032 0.451
 0.238 0.033 0.461
 0.252 0.035 0.48
 0.273 0.037 0.515
 0.306 0.042 0.568
 0.342 0.046 0.627
 0.379 0.051 0.684
 0.41 0.055 0.729
 0.441 0.058 0.773
 0.443 0.058 0.767
 -0.378 0.059 0.677
 -0.381 0.06 0.692
 -0.387 0.062 0.715
 -0.391 0.063 0.734
 -0.391 0.064 0.745
 -0.387 0.064 0.747
 -0.377 0.063 0.739
 -0.363 0.061 0.722
 -0.345 0.059 0.697
 -0.328 0.056 0.672
 -0.313 0.054 0.652
 -0.301 0.053 0.637
 -0.292 0.052 0.626
 -0.285 0.051 0.622
 -0.28 0.051 0.622
 -0.276 0.051 0.623
 -0.273 0.051 0.625
 -0.269 0.051 0.626
 -0.265 0.051 0.628
 -0.261 0.051 0.629
 -0.257 0.051 0.63
 -0.253 0.051 0.631
 -0.25 0.051 0.633
 -0.246 0.051 0.636
 -0.243 0.051 0.64
 -0.241 0.052 0.644
 -0.238 0.052 0.649
 -0.235 0.052 0.654
 -0.233 0.053 0.659
 -0.23 0.053 0.665
 -0.227 0.053 0.669
 -0.224 0.053 0.672
 -0.22 0.053 0.674
 -0.216 0.053 0.676
 -0.212 0.053 0.676
 -0.207 0.053 0.676
 -0.203 0.053 0.676
 -0.199 0.053 0.677
 -0.195 0.053 0.679
 -0.191 0.053 0.681
 -0.188 0.053 0.682
 -0.184 0.053 0.683
 -0.179 0.053 0.683
 -0.174 0.053 0.681
 -0.17 0.053 0.68
 -0.165 0.052 0.678
 -0.16 0.052 0.675
 -0.156 0.052 0.673
 -0.151 0.052 0.671
 -0.147 0.051 0.669
 -0.142 0.051 0.666
 -0.138 0.051 0.665
 -0.134 0.051 0.664
 -0.129 0.051 0.663
 -0.125 0.051 0.661
 -0.121 0.05 0.661
 -0.117 0.05 0.66
 -0.113 0.05 0.659
 -0.108 0.05 0.658
 -0.104 0.05 0.656
 -0.1 0.05 0.655
 -0.096 0.05 0.656
 -0.093 0.05 0.658
 -0.089 0.05 0.662
 -0.086 0.05 0.667
 -0.083 0.051 0.673
 -0.08 0.051 0.679
 -0.076 0.052 0.685
 -0.073 0.052 0.689
 -0.069 0.052 0.694
 -0.065 0.053 0.697
 -0.062 0.053 0.701
 -0.058 0.053 0.705
 -0.054 0.053 0.709
 -0.05 0.053 0.712
 -0.046 0.054 0.714
 -0.042 0.054 0.715
 -0.038 0.054 0.718
 -0.034 0.054 0.722
 -0.03 0.054 0.726
 -0.026 0.055 0.731
 -0.022 0.055 0.735
 -0.018 0.055 0.737
 -0.013 0.056 0.742
 -0.009 0.056 0.746
 -0.005 0.056 0.753
 0 0.057 0.765
 0.003 0.058 0.78
 0.008 0.06 0.795
 0.013 0.061 0.808
 0.018 0.061 0.82
 0.023 0.062 0.828
 0.028 0.063 0.834
 0.033 0.063 0.84
 0.038 0.064 0.853
 0.044 0.065 0.871
 0.05 0.067 0.895
 0.057 0.069 0.923
 0.065 0.072 0.96
 0.074 0.076 1.006
 0.084 0.08 1.053
 0.094 0.083 1.095
 0.104 0.086 1.133
 0.113 0.088 1.161
 0.121 0.089 1.176
 0.128 0.089 1.177
 0.135 0.089 1.174
 0.142 0.089 1.177
 0.15 0.09 1.185
 0.158 0.091 1.194
 0.17 0.094 1.233
 0.179 0.094 1.244
 0.19 0.096 1.268
 0.199 0.097 1.277
 0.204 0.096 1.261
 0.207 0.094 1.235
 0.216 0.094 1.241
 0.21 0.089 1.171
 0.21 0.086 1.134
 0.217 0.086 1.132
 0 0 0
 0.18 0.067 0.886
 0.171 0.061 0.815
 0.169 0.059 0.785
 0.154 0.052 0.694
 0.145 0.047 0.634
 0.136 0.043 0.579
 0.12 0.037 0.497
 0.105 0.031 0.424
 0.1 0.029 0.396
 0.098 0.027 0.379
 0.097 0.026 0.365
 0.096 0.025 0.353
 0.096 0.025 0.344
 0.097 0.024 0.339
 0.097 0.024 0.331
 0.097 0.023 0.326
 0.098 0.023 0.32
 0.097 0.022 0.312
 0.098 0.022 0.306
 0.098 0.022 0.302
 0.1 0.022 0.301
 0.103 0.022 0.304
 0.107 0.022 0.309
 0.11 0.023 0.311
 0.114 0.023 0.318
 0.119 0.024 0.326
 0.123 0.024 0.33
 0.127 0.025 0.336
 0.134 0.026 0.347
 0.138 0.026 0.352
 0.142 0.026 0.356
 0.147 0.027 0.361
 0.15 0.027 0.364
 0.153 0.027 0.364
 0.157 0.028 0.368
 0.161 0.028 0.369
 0.167 0.028 0.378
 0.173 0.029 0.384
 0.178 0.03 0.39
 0.182 0.03 0.393
 0.187 0.03 0.396
 0.193 0.031 0.403
 0.2 0.032 0.411
 0.208 0.033 0.422
 0.22 0.034 0.44
 0.233 0.036 0.458
 0.241 0.037 0.466
 0.249 0.037 0.475
 0.265 0.039 0.498
 0.289 0.043 0.535
 0.317 0.046 0.579
 0.344 0.05 0.621
 0.371 0.054 0.66
 0.441 0.063 0.773
 0.44 0.062 0.76
 -0.375 0.063 0.672
 -0.381 0.064 0.692
 -0.385 0.066 0.711
 -0.389 0.067 0.73
 -0.389 0.068 0.741
 -0.385 0.068 0.743
 -0.375 0.067 0.735
 -0.361 0.066 0.719
 -0.344 0.063 0.696
 -0.33 0.061 0.676
 -0.318 0.06 0.661
 -0.308 0.059 0.652
 -0.301 0.058 0.647
 -0.297 0.058 0.647
 -0.293 0.058 0.649
 -0.289 0.058 0.651
 -0.285 0.058 0.654
 -0.282 0.058 0.656
 -0.278 0.058 0.66
 -0.275 0.058 0.663
 -0.272 0.058 0.667
 -0.269 0.059 0.671
 -0.266 0.059 0.677
 -0.265 0.06 0.684
 -0.263 0.06 0.693
 -0.262 0.061 0.702
 -0.26 0.062 0.712
 -0.259 0.062 0.721
 -0.257 0.063 0.729
 -0.254 0.063 0.736
 -0.251 0.064 0.741
 -0.248 0.064 0.745
 -0.244 0.064 0.748
 -0.239 0.064 0.75
 -0.235 0.064 0.751
 -0.23 0.064 0.752
 -0.226 0.064 0.752
 -0.221 0.064 0.753
 -0.217 0.064 0.754
 -0.212 0.064 0.755
 -0.208 0.064 0.757
 -0.203 0.064 0.757
 -0.198 0.064 0.757
 -0.193 0.063 0.755
 -0.188 0.063 0.753
 -0.182 0.063 0.749
 -0.176 0.062 0.744
 -0.171 0.062 0.739
 -0.165 0.061 0.734
 -0.16 0.061 0.729
 -0.155 0.06 0.726
 -0.15 0.06 0.725
 -0.146 0.06 0.725
 -0.141 0.06 0.726
 -0.137 0.06 0.726
 -0.133 0.06 0.726
 -0.128 0.06 0.726
 -0.124 0.06 0.724
 -0.119 0.059 0.722
 -0.114 0.059 0.72
 -0.11 0.059 0.718
 -0.105 0.059 0.717
 -0.101 0.059 0.718
 -0.097 0.059 0.719
 -0.093 0.059 0.724
 -0.09 0.06 0.73
 -0.087 0.06 0.739
 -0.083 0.061 0.748
 -0.08 0.062 0.756
 -0.076 0.062 0.764
 -0.072 0.063 0.769
 -0.068 0.063 0.774
 -0.064 0.063 0.777
 -0.059 0.063 0.779
 -0.055 0.063 0.779
 -0.05 0.063 0.778
 -0.045 0.063 0.776
 -0.041 0.063 0.776
 -0.037 0.063 0.781
 -0.032 0.064 0.789
 -0.028 0.065 0.798
 -0.024 0.065 0.807
 -0.019 0.066 0.816
 -0.015 0.067 0.826
 -0.01 0.068 0.834
 -0.005 0.068 0.844
 0 0.069 0.857
 0.004 0.071 0.87
 0.009 0.072 0.882
 0.014 0.072 0.89
 0.019 0.073 0.895
 0.025 0.073 0.897
 0.03 0.073 0.897
 0.035 0.073 0.897
 0.041 0.073 0.906
 0.046 0.074 0.919
 0.053 0.076 0.936
 0.059 0.078 0.956
 0.067 0.08 0.985
 0.076 0.083 1.026
 0.085 0.087 1.071
 0.095 0.091 1.112
 0.105 0.094 1.15
 0.115 0.096 1.179
 0.123 0.098 1.196
 0.132 0.099 1.207
 0.139 0.099 1.215
 0.149 0.1 1.23
 0.158 0.102 1.246
 0.167 0.103 1.259
 0.178 0.105 1.285
 0.189 0.107 1.308
 0.199 0.108 1.325
 0.207 0.109 1.328
 0.211 0.107 1.301
 0.214 0.104 1.276
 0.218 0.103 1.254
 0.211 0.096 1.175
 0.211 0.093 1.137
 0.218 0.093 1.138
 0.211 0.087 1.067
 0.202 0.081 0.99
 0.186 0.072 0.885
 0.162 0.061 0.749
 0.144 0.052 0.649
 0.133 0.047 0.585
 0.125 0.043 0.533
 0.111 0.036 0.459
 0.1 0.032 0.404
 0.095 0.03 0.376
 0.094 0.028 0.362
 0.094 0.028 0.354
 0.094 0.027 0.346
 0.094 0.026 0.338
 0.095 0.026 0.332
 0.096 0.026 0.327
 0.096 0.025 0.321
 0.096 0.025 0.315
 0.096 0.024 0.308
 0.096 0.023 0.302
 0.096 0.023 0.296
 0.098 0.023 0.295
 0.101 0.023 0.299
 0.106 0.024 0.306
 0.11 0.024 0.311
 0.115 0.025 0.319
 0.12 0.026 0.328
 0.124 0.027 0.334
 0.129 0.027 0.341
 0.135 0.028 0.349
 0.139 0.029 0.355
 0.143 0.029 0.359
 0.148 0.029 0.363
 0.151 0.029 0.364
 0.153 0.03 0.365
 0.157 0.03 0.366
 0.16 0.03 0.368
 0.167 0.031 0.378
 0.172 0.031 0.383
 0.178 0.032 0.391
 0.184 0.033 0.397
 0.188 0.033 0.399
 0.194 0.034 0.405
 0.202 0.035 0.414
 0.21 0.036 0.425
 0.22 0.037 0.439
 0.232 0.039 0.456
 0.24 0.039 0.463
 0.249 0.041 0.476
 0.263 0.042 0.493
 0.283 0.045 0.524
 0.309 0.049 0.564
 0.335 0.053 0.603
 0.358 0.056 0.637
 0.428 0.066 0.751
 0.413 0.063 0.712
 -0.378 0.067 0.675
 -0.381 0.069 0.691
 -0.383 0.07 0.706
 -0.387 0.072 0.724
 -0.387 0.073 0.735
 -0.382 0.073 0.738
 -0.373 0.072 0.731
 -0.36 0.07 0.717
 -0.346 0.068 0.699
 -0.334 0.066 0.685
 -0.325 0.065 0.677
 -0.319 0.065 0.674
 -0.313 0.065 0.673
 -0.309 0.064 0.674
 -0.305 0.064 0.676
 -0.301 0.065 0.678
 -0.297 0.065 0.681
 -0.294 0.065 0.685
 -0.291 0.065 0.689
 -0.288 0.065 0.694
 -0.285 0.066 0.699
 -0.283 0.066 0.707
 -0.282 0.067 0.717
 -0.281 0.068 0.728
 -0.281 0.069 0.741
 -0.281 0.07 0.756
 -0.281 0.071 0.769
 -0.281 0.073 0.782
 -0.279 0.073 0.792
 -0.276 0.074 0.8
 -0.273 0.074 0.807
 -0.269 0.075 0.812
 -0.266 0.075 0.816
 -0.261 0.075 0.82
 -0.257 0.075 0.823
 -0.253 0.076 0.826
 -0.248 0.076 0.828
 -0.243 0.076 0.83
 -0.239 0.076 0.832
 -0.234 0.076 0.834
 -0.229 0.076 0.836
 -0.224 0.076 0.838
 -0.219 0.076 0.838
 -0.214 0.076 0.837
 -0.208 0.075 0.834
 -0.201 0.075 0.829
 -0.195 0.074 0.823
 -0.188 0.073 0.816
 -0.181 0.072 0.807
 -0.175 0.072 0.801
 -0.169 0.071 0.796
 -0.164 0.071 0.794
 -0.159 0.071 0.793
 -0.154 0.071 0.794
 -0.15 0.071 0.795
 -0.145 0.071 0.796
 -0.14 0.071 0.797
 -0.136 0.07 0.796
 -0.131 0.07 0.795
 -0.125 0.07 0.792
 -0.121 0.07 0.791
 -0.116 0.07 0.791
 -0.111 0.07 0.792
 -0.107 0.07 0.793
 -0.103 0.07 0.799
 -0.099 0.071 0.81
 -0.096 0.072 0.824
 -0.093 0.073 0.837
 -0.089 0.075 0.85
 -0.085 0.076 0.861
 -0.081 0.076 0.865
 -0.076 0.076 0.869
 -0.071 0.076 0.87
 -0.066 0.076 0.867
 -0.06 0.075 0.862
 -0.055 0.075 0.856
 -0.05 0.074 0.848
 -0.044 0.074 0.845
 -0.04 0.074 0.848
 -0.035 0.075 0.855
 -0.03 0.075 0.865
 -0.026 0.076 0.877
 -0.021 0.077 0.889
 -0.016 0.079 0.902
 -0.011 0.08 0.915
 -0.006 0.081 0.927
 0 0.082 0.943
 0.004 0.084 0.959
 0.01 0.085 0.972
 0.016 0.085 0.979
 0.021 0.086 0.983
 0.027 0.086 0.983
 0.033 0.085 0.98
 0.038 0.085 0.98
 0.045 0.086 0.989
 0.051 0.088 1.005
 0.058 0.089 1.026
 0.065 0.091 1.048
 0.074 0.094 1.081
 0.083 0.098 1.121
 0.093 0.101 1.16
 0.102 0.104 1.19
 0.111 0.106 1.214
 0.12 0.107 1.228
 0.127 0.108 1.233
 0.135 0.108 1.235
 0.142 0.108 1.239
 0.151 0.11 1.254
 0.161 0.111 1.27
 0.17 0.112 1.284
 0.181 0.115 1.307
 0.192 0.117 1.332
 0.203 0.118 1.349
 0.21 0.118 1.345
 0.212 0.115 1.312
 0.215 0.113 1.283
 0.219 0.111 1.26
 0.213 0.104 1.182
 0.212 0.1 1.143
 0.218 0.1 1.137
 0.212 0.094 1.072
 0.213 0.092 1.048
 0.208 0.087 0.989
 0.178 0.072 0.825
 0.157 0.061 0.706
 0.142 0.054 0.62
 0.128 0.047 0.547
 0.115 0.041 0.478
 0.101 0.035 0.41
 0.094 0.031 0.372
 0.093 0.03 0.358
 0.093 0.029 0.349
 0.093 0.029 0.341
 0.093 0.028 0.334
 0.094 0.028 0.329
 0.095 0.027 0.324
 0.095 0.027 0.319
 0.096 0.026 0.313
 0.096 0.026 0.307
 0.096 0.025 0.302
 0.097 0.025 0.297
 0.098 0.025 0.295
 0.101 0.025 0.299
 0.105 0.026 0.303
 0.109 0.026 0.309
 0.113 0.027 0.315
 0.118 0.027 0.322
 0.122 0.028 0.328
 0.127 0.029 0.336
 0.132 0.03 0.343
 0.137 0.03 0.349
 0.142 0.031 0.354
 0.146 0.031 0.358
 0.15 0.032 0.362
 0.153 0.032 0.362
 0.156 0.032 0.365
 0.161 0.032 0.37
 0.167 0.033 0.378
 0.171 0.034 0.379
 0.176 0.034 0.386
 0.182 0.035 0.392
 0.186 0.035 0.393
 0.191 0.036 0.399
 0.2 0.037 0.41
 0.208 0.038 0.421
 0.217 0.039 0.432
 0.227 0.041 0.446
 0.236 0.042 0.457
 0.253 0.044 0.482
 0.271 0.047 0.509
 0.295 0.051 0.546
 0.319 0.054 0.582
 0.344 0.058 0.619
 0.361 0.06 0.641
 0.225 0.036 0.391
 0.233 0.037 0.399
 -0.376 0.071 0.672
 -0.375 0.072 0.68
 -0.381 0.074 0.701
 -0.384 0.076 0.719
 -0.384 0.077 0.73
 -0.38 0.077 0.733
 -0.373 0.076 0.73
 -0.363 0.075 0.722
 -0.353 0.074 0.712
 -0.344 0.073 0.705
 -0.338 0.072 0.703
 -0.333 0.072 0.704
 -0.328 0.072 0.704
 -0.323 0.072 0.706
 -0.319 0.072 0.708
 -0.315 0.072 0.711
 -0.311 0.072 0.715
 -0.308 0.073 0.719
 -0.306 0.073 0.725
 -0.303 0.074 0.732
 -0.301 0.074 0.74
 -0.301 0.075 0.752
 -0.301 0.077 0.766
 -0.302 0.078 0.781
 -0.303 0.08 0.799
 -0.304 0.081 0.818
 -0.305 0.083 0.836
 -0.305 0.085 0.852
 -0.305 0.086 0.866
 -0.302 0.087 0.876
 -0.299 0.087 0.885
 -0.296 0.088 0.892
 -0.292 0.088 0.898
 -0.288 0.089 0.904
 -0.284 0.089 0.91
 -0.279 0.089 0.915
 -0.274 0.09 0.917
 -0.269 0.09 0.92
 -0.264 0.09 0.923
 -0.259 0.09 0.925
 -0.254 0.09 0.926
 -0.248 0.09 0.929
 -0.243 0.09 0.93
 -0.237 0.09 0.93
 -0.231 0.089 0.927
 -0.224 0.089 0.922
 -0.216 0.088 0.914
 -0.208 0.087 0.904
 -0.2 0.085 0.893
 -0.193 0.084 0.884
 -0.186 0.084 0.878
 -0.18 0.083 0.875
 -0.175 0.083 0.874
 -0.17 0.083 0.875
 -0.165 0.083 0.876
 -0.16 0.083 0.878
 -0.155 0.083 0.879
 -0.149 0.083 0.879
 -0.144 0.083 0.878
 -0.138 0.083 0.876
 -0.133 0.083 0.876
 -0.128 0.083 0.876
 -0.123 0.083 0.878
 -0.118 0.083 0.88
 -0.114 0.084 0.889
 -0.111 0.085 0.904
 -0.108 0.087 0.923
 -0.104 0.088 0.941
 -0.1 0.09 0.959
 -0.096 0.091 0.973
 -0.091 0.092 0.977
 -0.085 0.092 0.979
 -0.079 0.091 0.977
 -0.073 0.091 0.97
 -0.067 0.09 0.959
 -0.061 0.088 0.947
 -0.054 0.087 0.933
 -0.048 0.086 0.926
 -0.043 0.086 0.926
 -0.038 0.087 0.933
 -0.033 0.088 0.945
 -0.028 0.089 0.957
 -0.023 0.09 0.971
 -0.017 0.092 0.987
 -0.012 0.093 1.002
 -0.006 0.095 1.018
 0 0.097 1.037
 0.005 0.098 1.057
 0.011 0.1 1.071
 0.018 0.101 1.08
 0.024 0.101 1.084
 0.03 0.101 1.083
 0.036 0.101 1.08
 0.042 0.1 1.079
 0.049 0.102 1.092
 0.057 0.104 1.112
 0.065 0.106 1.14
 0.073 0.109 1.171
 0.083 0.114 1.217
 0.094 0.118 1.267
 0.105 0.123 1.315
 0.116 0.126 1.349
 0.126 0.129 1.375
 0.135 0.129 1.385
 0.143 0.129 1.385
 0.151 0.129 1.382
 0.159 0.129 1.381
 0.168 0.13 1.388
 0.176 0.13 1.391
 0.184 0.13 1.386
 0.192 0.13 1.388
 0.201 0.13 1.392
 0.209 0.13 1.39
 0.215 0.129 1.377
 0.217 0.126 1.339
 0.219 0.122 1.306
 0.223 0.12 1.282
 0.217 0.113 1.204
 0.216 0.109 1.163
 0.221 0.108 1.153
 0.212 0.1 1.071
 0.213 0.098 1.047
 0 0 0
 0.193 0.083 0.893
 0.17 0.071 0.763
 0.151 0.061 0.663
 0.135 0.053 0.577
 0.123 0.047 0.511
 0.11 0.04 0.443
 0.098 0.035 0.387
 0.095 0.033 0.364
 0.094 0.032 0.352
 0.094 0.031 0.343
 0.094 0.03 0.335
 0.094 0.03 0.329
 0.094 0.029 0.323
 0.095 0.029 0.319
 0.096 0.028 0.313
 0.096 0.028 0.309
 0.097 0.027 0.303
 0.097 0.027 0.297
 0.098 0.027 0.295
 0.101 0.027 0.297
 0.104 0.027 0.301
 0.108 0.028 0.308
 0.113 0.029 0.315
 0.118 0.029 0.322
 0.122 0.03 0.327
 0.126 0.031 0.333
 0.131 0.031 0.339
 0.135 0.032 0.343
 0.138 0.032 0.345
 0.143 0.033 0.351
 0.147 0.033 0.356
 0.149 0.033 0.355
 0.153 0.034 0.358
 0.16 0.034 0.366
 0.165 0.035 0.372
 0.168 0.035 0.374
 0.176 0.036 0.384
 0.182 0.037 0.392
 0.185 0.037 0.392
 0.191 0.038 0.398
 0.199 0.039 0.409
 0.207 0.04 0.418
 0.215 0.041 0.428
 0.226 0.043 0.443
 0.241 0.045 0.465
 0.264 0.05 0.503
 0.288 0.054 0.542
 0.311 0.057 0.577
 0.331 0.06 0.605
 0.351 0.063 0.632
 0.363 0.065 0.644
 0.392 0.069 0.685
 0.416 0.073 0.718
 -0.368 0.074 0.658
 -0.373 0.076 0.677
 -0.378 0.078 0.697
 -0.382 0.08 0.714
 -0.383 0.081 0.727
 -0.381 0.082 0.735
 -0.378 0.082 0.74
 -0.373 0.082 0.742
 -0.367 0.082 0.741
 -0.362 0.082 0.743
 -0.358 0.082 0.746
 -0.354 0.082 0.749
 -0.349 0.082 0.75
 -0.345 0.082 0.753
 -0.34 0.082 0.756
 -0.337 0.082 0.761
 -0.333 0.083 0.765
 -0.33 0.083 0.771
 -0.328 0.084 0.78
 -0.327 0.085 0.79
 -0.326 0.086 0.802
 -0.327 0.087 0.818
 -0.329 0.089 0.837
 -0.331 0.091 0.857
 -0.333 0.093 0.881
 -0.336 0.096 0.905
 -0.338 0.098 0.928
 -0.34 0.1 0.949
 -0.339 0.102 0.966
 -0.337 0.103 0.98
 -0.335 0.104 0.991
 -0.331 0.105 1
 -0.327 0.105 1.008
 -0.323 0.106 1.016
 -0.319 0.107 1.024
 -0.314 0.107 1.03
 -0.309 0.107 1.034
 -0.304 0.108 1.039
 -0.298 0.108 1.043
 -0.292 0.108 1.046
 -0.287 0.108 1.05
 -0.281 0.109 1.054
 -0.276 0.109 1.057
 -0.269 0.109 1.058
 -0.262 0.108 1.056
 -0.254 0.107 1.049
 -0.245 0.106 1.04
 -0.236 0.105 1.028
 -0.227 0.103 1.014
 -0.219 0.102 1.003
 -0.211 0.101 0.996
 -0.204 0.101 0.993
 -0.198 0.101 0.992
 -0.192 0.101 0.993
 -0.186 0.101 0.994
 -0.181 0.101 0.997
 -0.175 0.101 0.998
 -0.169 0.101 0.999
 -0.164 0.101 1
 -0.157 0.101 0.999
 -0.152 0.1 0.999
 -0.146 0.1 1
 -0.14 0.101 1.003
 -0.135 0.101 1.008
 -0.131 0.102 1.021
 -0.127 0.104 1.042
 -0.124 0.107 1.068
 -0.121 0.11 1.094
 -0.117 0.112 1.118
 -0.112 0.114 1.135
 -0.106 0.114 1.141
 -0.099 0.114 1.14
 -0.092 0.113 1.135
 -0.085 0.112 1.124
 -0.077 0.11 1.108
 -0.069 0.108 1.089
 -0.062 0.106 1.07
 -0.055 0.105 1.056
 -0.049 0.104 1.051
 -0.043 0.105 1.055
 -0.037 0.106 1.064
 -0.031 0.107 1.074
 -0.025 0.108 1.089
 -0.019 0.11 1.106
 -0.013 0.111 1.123
 -0.007 0.113 1.141
 0 0.116 1.164
 0.006 0.118 1.185
 0.013 0.119 1.2
 0.02 0.12 1.208
 0.027 0.12 1.21
 0.034 0.12 1.206
 0.041 0.119 1.2
 0.047 0.119 1.197
 0.055 0.12 1.209
 0.063 0.122 1.231
 0.072 0.125 1.262
 0.082 0.129 1.303
 0.093 0.135 1.362
 0.106 0.141 1.422
 0.119 0.147 1.478
 0.131 0.151 1.518
 0.142 0.153 1.543
 0.151 0.154 1.549
 0.16 0.154 1.547
 0.169 0.153 1.541
 0.177 0.153 1.534
 0.186 0.153 1.534
 0.194 0.152 1.53
 0.202 0.151 1.519
 0.207 0.149 1.496
 0.213 0.147 1.477
 0.218 0.145 1.452
 0.222 0.141 1.419
 0.221 0.136 1.363
 0.224 0.133 1.331
 0.228 0.13 1.307
 0.223 0.124 1.241
 0.223 0.12 1.2
 0.228 0.118 1.188
 0.217 0.109 1.094
 0.216 0.106 1.06
 0 0 0
 0 0 0
 0.17 0.076 0.763
 0.153 0.066 0.669
 0.135 0.057 0.577
 0.127 0.052 0.528
 0.115 0.045 0.463
 0.104 0.04 0.409
 0.097 0.036 0.372
 0.094 0.034 0.353
 0.094 0.033 0.345
 0.095 0.033 0.339
 0.096 0.032 0.334
 0.096 0.032 0.328
 0.097 0.031 0.325
 0.098 0.031 0.319
 0.098 0.03 0.314
 0.098 0.03 0.307
 0.098 0.029 0.301
 0.099 0.029 0.298
 0.101 0.029 0.297
 0.104 0.029 0.3
 0.107 0.03 0.305
 0.112 0.03 0.31
 0.116 0.031 0.318
 0.121 0.032 0.325
 0.126 0.033 0.331
 0.13 0.033 0.336
 0.134 0.034 0.339
 0.136 0.034 0.341
 0.141 0.034 0.345
 0.145 0.035 0.349
 0.148 0.035 0.352
 0.152 0.036 0.355
 0.158 0.036 0.363
 0.164 0.037 0.37
 0.168 0.038 0.372
 0.174 0.039 0.38
 0.181 0.04 0.39
 0.185 0.04 0.392
 0.19 0.041 0.396
 0.198 0.042 0.406
 0.205 0.043 0.414
 0.211 0.043 0.419
 0.219 0.045 0.429
 0.237 0.048 0.457
 0.269 0.054 0.513
 0.299 0.059 0.562
 0.32 0.063 0.593
 0.336 0.065 0.613
 0.351 0.068 0.632
 0.359 0.068 0.636
 0.428 0.081 0.749
 0.429 0.08 0.74
 -0.369 0.079 0.658
 -0.372 0.08 0.674
 -0.375 0.082 0.69
 -0.379 0.084 0.709
 -0.383 0.086 0.726
 -0.385 0.087 0.742
 -0.385 0.089 0.754
 -0.385 0.09 0.765
 -0.382 0.09 0.772
 -0.379 0.091 0.778
 -0.376 0.091 0.784
 -0.373 0.091 0.789
 -0.369 0.092 0.793
 -0.365 0.092 0.798
 -0.362 0.092 0.804
 -0.359 0.093 0.81
 -0.356 0.093 0.817
 -0.354 0.094 0.826
 -0.352 0.095 0.837
 -0.352 0.097 0.851
 -0.353 0.098 0.869
 -0.355 0.101 0.89
 -0.359 0.103 0.915
 -0.363 0.106 0.942
 -0.368 0.109 0.972
 -0.371 0.112 1
 -0.374 0.115 1.026
 -0.375 0.117 1.05
 -0.375 0.119 1.069
 -0.373 0.121 1.083
 -0.37 0.122 1.095
 -0.366 0.123 1.107
 -0.362 0.124 1.117
 -0.358 0.125 1.128
 -0.355 0.126 1.14
 -0.351 0.127 1.151
 -0.346 0.128 1.16
 -0.341 0.128 1.167
 -0.335 0.129 1.174
 -0.329 0.129 1.179
 -0.324 0.13 1.186
 -0.318 0.13 1.193
 -0.312 0.131 1.198
 -0.305 0.131 1.2
 -0.297 0.13 1.198
 -0.288 0.129 1.191
 -0.278 0.128 1.181
 -0.268 0.126 1.168
 -0.258 0.125 1.153
 -0.248 0.123 1.139
 -0.239 0.122 1.129
 -0.231 0.121 1.124
 -0.223 0.121 1.121
 -0.216 0.12 1.119
 -0.21 0.12 1.121
 -0.204 0.121 1.124
 -0.197 0.121 1.126
 -0.191 0.121 1.128
 -0.185 0.121 1.131
 -0.178 0.121 1.132
 -0.172 0.121 1.133
 -0.165 0.121 1.135
 -0.159 0.121 1.139
 -0.153 0.122 1.144
 -0.148 0.123 1.159
 -0.144 0.126 1.183
 -0.141 0.129 1.215
 -0.137 0.132 1.247
 -0.133 0.136 1.277
 -0.128 0.138 1.298
 -0.121 0.138 1.305
 -0.113 0.138 1.3
 -0.104 0.136 1.289
 -0.095 0.135 1.271
 -0.086 0.132 1.247
 -0.077 0.129 1.219
 -0.069 0.126 1.193
 -0.061 0.123 1.17
 -0.053 0.122 1.156
 -0.046 0.121 1.149
 -0.04 0.121 1.149
 -0.033 0.121 1.152
 -0.027 0.122 1.163
 -0.02 0.124 1.178
 -0.014 0.126 1.193
 -0.007 0.127 1.21
 0 0.13 1.232
 0.006 0.132 1.25
 0.014 0.133 1.262
 0.021 0.133 1.267
 0.028 0.133 1.266
 0.035 0.132 1.259
 0.042 0.132 1.252
 0.05 0.131 1.249
 0.057 0.133 1.262
 0.066 0.135 1.283
 0.075 0.138 1.316
 0.086 0.143 1.361
 0.098 0.15 1.422
 0.11 0.156 1.478
 0.123 0.161 1.527
 0.135 0.165 1.562
 0.145 0.166 1.576
 0.154 0.166 1.573
 0.162 0.165 1.566
 0.17 0.164 1.557
 0.179 0.163 1.549
 0.188 0.163 1.548
 0.196 0.163 1.542
 0.203 0.161 1.531
 0.21 0.159 1.51
 0.216 0.157 1.492
 0.22 0.155 1.465
 0.224 0.151 1.433
 0.225 0.146 1.384
 0.227 0.142 1.349
 0.23 0.139 1.321
 0.228 0.134 1.267
 0.228 0.13 1.227
 0.232 0.128 1.209
 0.224 0.119 1.129
 0.214 0.111 1.05
 0 0 0
 0 0 0
 0.178 0.084 0.799
 0.16 0.073 0.698
 0.14 0.062 0.594
 0.128 0.055 0.532
 0.117 0.049 0.473
 0.106 0.043 0.417
 0.098 0.039 0.376
 0.096 0.037 0.358
 0.096 0.036 0.35
 0.097 0.035 0.345
 0.097 0.035 0.34
 0.099 0.035 0.339
 0.1 0.034 0.334
 0.1 0.034 0.327
 0.1 0.033 0.321
 0.101 0.032 0.315
 0.1 0.032 0.307
 0.101 0.031 0.304
 0.103 0.031 0.302
 0.105 0.031 0.303
 0.108 0.032 0.307
 0.112 0.032 0.312
 0.116 0.033 0.317
 0.121 0.034 0.325
 0.126 0.035 0.33
 0.129 0.035 0.334
 0.133 0.036 0.339
 0.136 0.036 0.34
 0.14 0.036 0.344
 0.145 0.037 0.35
 0.149 0.037 0.353
 0.152 0.038 0.354
 0.158 0.039 0.363
 0.164 0.04 0.37
 0.167 0.04 0.37
 0.173 0.041 0.378
 0.181 0.042 0.389
 0.185 0.042 0.39
 0.188 0.043 0.391
 0.197 0.044 0.404
 0.202 0.045 0.408
 0.206 0.045 0.409
 0.211 0.045 0.413
 0.235 0.05 0.453
 0.28 0.06 0.534
 0.319 0.067 0.599
 0.344 0.072 0.638
 0.36 0.075 0.657
 0.378 0.077 0.68
 0.389 0.079 0.69
 0.407 0.081 0.711
 0.415 0.082 0.716
 -0.366 0.082 0.652
 -0.366 0.083 0.663
 -0.372 0.086 0.684
 -0.376 0.088 0.702
 -0.379 0.09 0.72
 -0.382 0.091 0.736
 -0.383 0.093 0.75
 -0.383 0.094 0.761
 -0.381 0.095 0.77
 -0.379 0.095 0.777
 -0.376 0.096 0.782
 -0.372 0.096 0.788
 -0.369 0.097 0.792
 -0.365 0.097 0.798
 -0.362 0.097 0.804
 -0.359 0.098 0.811
 -0.357 0.099 0.819
 -0.355 0.1 0.828
 -0.354 0.101 0.841
 -0.354 0.103 0.856
 -0.356 0.105 0.874
 -0.359 0.107 0.898
 -0.364 0.11 0.926
 -0.368 0.114 0.956
 -0.374 0.117 0.988
 -0.379 0.121 1.019
 -0.382 0.124 1.047
 -0.383 0.127 1.072
 -0.383 0.129 1.092
 -0.381 0.13 1.108
 -0.378 0.132 1.121
 -0.375 0.133 1.133
 -0.371 0.134 1.144
 -0.367 0.135 1.156
 -0.364 0.136 1.169
 -0.36 0.137 1.181
 -0.355 0.138 1.191
 -0.35 0.139 1.2
 -0.345 0.14 1.208
 -0.339 0.14 1.214
 -0.334 0.141 1.222
 -0.328 0.142 1.23
 -0.321 0.142 1.235
 -0.315 0.142 1.238
 -0.307 0.142 1.238
 -0.298 0.141 1.232
 -0.288 0.14 1.222
 -0.278 0.138 1.21
 -0.267 0.136 1.195
 -0.257 0.135 1.181
 -0.247 0.133 1.171
 -0.239 0.132 1.165
 -0.231 0.132 1.161
 -0.224 0.132 1.16
 -0.217 0.132 1.161
 -0.211 0.132 1.164
 -0.204 0.132 1.167
 -0.198 0.132 1.17
 -0.192 0.133 1.174
 -0.185 0.133 1.177
 -0.179 0.133 1.181
 -0.172 0.133 1.184
 -0.166 0.134 1.189
 -0.16 0.134 1.196
 -0.155 0.136 1.21
 -0.15 0.139 1.235
 -0.147 0.142 1.268
 -0.143 0.146 1.3
 -0.138 0.149 1.329
 -0.133 0.151 1.351
 -0.125 0.152 1.357
 -0.117 0.151 1.352
 -0.108 0.15 1.34
 -0.099 0.148 1.321
 -0.09 0.145 1.297
 -0.08 0.141 1.267
 -0.071 0.138 1.239
 -0.063 0.135 1.214
 -0.055 0.133 1.197
 -0.048 0.132 1.188
 -0.041 0.132 1.185
 -0.034 0.132 1.186
 -0.028 0.133 1.194
 -0.021 0.134 1.208
 -0.014 0.136 1.222
 -0.007 0.137 1.238
 0 0.14 1.257
 0.006 0.141 1.274
 0.014 0.143 1.284
 0.021 0.143 1.288
 0.029 0.143 1.288
 0.036 0.142 1.283
 0.043 0.142 1.28
 0.051 0.142 1.28
 0.059 0.144 1.296
 0.068 0.146 1.32
 0.077 0.15 1.353
 0.088 0.155 1.397
 0.1 0.161 1.453
 0.112 0.167 1.502
 0.124 0.172 1.544
 0.136 0.175 1.573
 0.146 0.176 1.583
 0.155 0.176 1.579
 0.163 0.175 1.572
 0.171 0.174 1.563
 0.18 0.173 1.556
 0.188 0.173 1.553
 0.196 0.172 1.546
 0.204 0.171 1.535
 0.21 0.169 1.516
 0.216 0.167 1.496
 0.221 0.164 1.468
 0.225 0.16 1.437
 0.227 0.156 1.396
 0.229 0.152 1.36
 0.232 0.149 1.334
 0.234 0.145 1.297
 0.237 0.142 1.272
 0.241 0.14 1.254
 0.242 0.136 1.222
 0 0 0
 0 0 0
 0 0 0
 0.2 0.1 0.897
 0.181 0.088 0.791
 0.16 0.075 0.68
 0.135 0.062 0.558
 0.121 0.053 0.487
 0.109 0.047 0.429
 0.1 0.042 0.384
 0.097 0.04 0.365
 0.098 0.039 0.356
 0.099 0.039 0.355
 0.099 0.038 0.347
 0.101 0.038 0.346
 0.103 0.038 0.343
 0.104 0.037 0.338
 0.104 0.036 0.331
 0.103 0.035 0.322
 0.102 0.034 0.313
 0.103 0.034 0.31
 0.104 0.034 0.307
 0.106 0.034 0.307
 0.11 0.034 0.31
 0.113 0.035 0.314
 0.116 0.035 0.317
 0.121 0.036 0.323
 0.124 0.036 0.325
 0.127 0.037 0.329
 0.132 0.037 0.335
 0.135 0.038 0.337
 0.139 0.038 0.341
 0.145 0.039 0.349
 0.148 0.04 0.351
 0.151 0.04 0.352
 0.157 0.041 0.36
 0.161 0.041 0.364
 0.163 0.041 0.362
 0.169 0.042 0.369
 0.176 0.043 0.377
 0.18 0.044 0.38
 0.183 0.044 0.381
 0.192 0.045 0.393
 0.197 0.046 0.396
 0.2 0.046 0.397
 0.202 0.046 0.395
 0.242 0.055 0.468
 0.309 0.07 0.588
 0.345 0.077 0.649
 0.367 0.081 0.679
 0.375 0.082 0.684
 0.388 0.084 0.697
 0.397 0.085 0.703
 0.38 0.08 0.664
 0.387 0.081 0.666
 -0.359 0.085 0.64
 -0.366 0.088 0.662
 -0.369 0.089 0.678
 -0.373 0.092 0.696
 -0.377 0.094 0.714
 -0.379 0.095 0.73
 -0.381 0.097 0.744
 -0.381 0.098 0.756
 -0.38 0.099 0.765
 -0.377 0.1 0.773
 -0.374 0.1 0.779
 -0.371 0.101 0.786
 -0.368 0.101 0.791
 -0.365 0.102 0.797
 -0.362 0.102 0.803
 -0.359 0.103 0.81
 -0.357 0.104 0.819
 -0.355 0.105 0.829
 -0.354 0.106 0.841
 -0.355 0.108 0.858
 -0.357 0.11 0.878
 -0.361 0.113 0.903
 -0.367 0.117 0.934
 -0.372 0.121 0.966
 -0.379 0.125 1
 -0.384 0.129 1.034
 -0.388 0.133 1.065
 -0.39 0.136 1.091
 -0.391 0.138 1.113
 -0.389 0.14 1.13
 -0.386 0.141 1.144
 -0.383 0.143 1.156
 -0.379 0.144 1.167
 -0.375 0.145 1.179
 -0.372 0.146 1.193
 -0.367 0.148 1.205
 -0.363 0.149 1.215
 -0.358 0.15 1.225
 -0.352 0.15 1.233
 -0.346 0.151 1.24
 -0.341 0.152 1.248
 -0.335 0.153 1.256
 -0.328 0.153 1.261
 -0.321 0.153 1.264
 -0.314 0.153 1.264
 -0.304 0.152 1.259
 -0.295 0.151 1.25
 -0.285 0.149 1.239
 -0.274 0.147 1.226
 -0.263 0.145 1.212
 -0.254 0.144 1.2
 -0.245 0.143 1.195
 -0.237 0.142 1.191
 -0.23 0.142 1.19
 -0.223 0.142 1.19
 -0.216 0.142 1.195
 -0.21 0.143 1.197
 -0.203 0.143 1.2
 -0.197 0.143 1.204
 -0.19 0.144 1.209
 -0.184 0.144 1.214
 -0.177 0.144 1.218
 -0.171 0.145 1.224
 -0.165 0.146 1.233
 -0.159 0.148 1.248
 -0.155 0.15 1.271
 -0.151 0.154 1.302
 -0.147 0.157 1.333
 -0.142 0.161 1.36
 -0.136 0.163 1.38
 -0.128 0.164 1.388
 -0.12 0.163 1.385
 -0.111 0.162 1.373
 -0.102 0.16 1.356
 -0.092 0.157 1.335
 -0.083 0.153 1.306
 -0.074 0.15 1.279
 -0.065 0.147 1.254
 -0.057 0.145 1.235
 -0.049 0.143 1.224
 -0.042 0.143 1.219
 -0.035 0.143 1.218
 -0.028 0.143 1.226
 -0.021 0.145 1.238
 -0.014 0.146 1.25
 -0.007 0.148 1.264
 0 0.15 1.281
 0.007 0.151 1.296
 0.014 0.153 1.305
 0.022 0.153 1.309
 0.029 0.153 1.31
 0.037 0.153 1.309
 0.045 0.153 1.308
 0.052 0.153 1.312
 0.061 0.155 1.329
 0.07 0.158 1.355
 0.079 0.162 1.388
 0.09 0.167 1.429
 0.102 0.173 1.479
 0.114 0.178 1.522
 0.125 0.182 1.558
 0.137 0.185 1.582
 0.146 0.186 1.589
 0.155 0.186 1.584
 0.164 0.185 1.576
 0.172 0.183 1.566
 0.18 0.183 1.558
 0.188 0.182 1.553
 0.196 0.181 1.544
 0.204 0.18 1.532
 0.21 0.178 1.514
 0.216 0.175 1.495
 0.221 0.172 1.468
 0.226 0.169 1.44
 0.229 0.165 1.406
 0.232 0.162 1.376
 0.235 0.158 1.348
 0.239 0.156 1.326
 0.244 0.154 1.308
 0.249 0.152 1.295
 0.254 0.151 1.28
 0 0 0
 0 0 0
 0 0 0
 0 0 0
 0.195 0.1 0.854
 0.173 0.086 0.735
 0.135 0.065 0.561
 0.126 0.059 0.507
 0.114 0.052 0.447
 0.104 0.046 0.398
 0.101 0.044 0.378
 0.101 0.043 0.37
 0.101 0.042 0.361
 0.1 0.04 0.348
 0.102 0.04 0.348
 0.104 0.04 0.346
 0.104 0.039 0.34
 0.104 0.038 0.333
 0.104 0.038 0.326
 0.104 0.037 0.318
 0.105 0.036 0.314
 0.107 0.036 0.314
 0.109 0.036 0.314
 0.113 0.037 0.321
 0.118 0.038 0.327
 0.123 0.039 0.335
 0.127 0.04 0.339
 0.13 0.04 0.342
 0.132 0.04 0.342
 0.135 0.04 0.342
 0.134 0.039 0.334
 0.138 0.04 0.337
 0.143 0.041 0.343
 0.146 0.041 0.346
 0.149 0.041 0.347
 0.154 0.042 0.353
 0.159 0.043 0.359
 0.163 0.043 0.361
 0.169 0.044 0.367
 0.174 0.045 0.374
 0.181 0.046 0.382
 0.183 0.046 0.381
 0 0 0
 0 0 0
 0 0 0
 0 0 0
 0 0 0
 0.337 0.081 0.643
 0.353 0.084 0.664
 0.363 0.085 0.672
 0.372 0.086 0.678
 0.38 0.087 0.683
 0.392 0.088 0.694
 0.397 0.089 0.693
 0.391 0.086 0.672
 -0.357 0.089 0.636
 -0.363 0.091 0.656
 -0.366 0.093 0.672
 -0.37 0.095 0.69
 -0.374 0.097 0.708
 -0.377 0.099 0.724
 -0.378 0.101 0.739
 -0.379 0.103 0.752
 -0.378 0.104 0.761
 -0.376 0.104 0.769
 -0.373 0.105 0.775
 -0.37 0.106 0.782
 -0.367 0.106 0.788
 -0.364 0.107 0.794
 -0.361 0.107 0.8
 -0.358 0.108 0.808
 -0.356 0.109 0.816
 -0.354 0.11 0.826
 -0.354 0.111 0.839
 -0.355 0.114 0.858
 -0.358 0.116 0.879
 -0.362 0.119 0.906
 -0.369 0.124 0.94
 -0.377 0.128 0.976
 -0.383 0.133 1.012
 -0.389 0.137 1.048
 -0.394 0.141 1.081
 -0.397 0.145 1.109
 -0.397 0.147 1.132
 -0.396 0.15 1.15
 -0.394 0.151 1.166
 -0.39 0.153 1.178
 -0.386 0.154 1.189
 -0.382 0.155 1.2
 -0.378 0.156 1.214
 -0.374 0.158 1.226
 -0.369 0.159 1.237
 -0.364 0.16 1.247
 -0.359 0.161 1.256
 -0.353 0.161 1.263
 -0.347 0.162 1.271
 -0.341 0.163 1.277
 -0.334 0.163 1.282
 -0.327 0.163 1.285
 -0.319 0.163 1.286
 -0.31 0.162 1.282
 -0.3 0.161 1.274
 -0.29 0.16 1.265
 -0.28 0.158 1.252
 -0.269 0.156 1.238
 -0.26 0.155 1.228
 -0.251 0.154 1.223
 -0.243 0.153 1.219
 -0.235 0.153 1.217
 -0.228 0.153 1.219
 -0.221 0.153 1.221
 -0.215 0.153 1.225
 -0.208 0.153 1.228
 -0.201 0.154 1.232
 -0.195 0.154 1.237
 -0.188 0.155 1.242
 -0.181 0.155 1.246
 -0.175 0.156 1.253
 -0.169 0.157 1.263
 -0.163 0.159 1.277
 -0.158 0.161 1.299
 -0.154 0.164 1.326
 -0.149 0.168 1.354
 -0.143 0.171 1.378
 -0.137 0.173 1.397
 -0.13 0.174 1.406
 -0.122 0.174 1.405
 -0.113 0.173 1.397
 -0.104 0.171 1.384
 -0.094 0.168 1.365
 -0.085 0.165 1.339
 -0.076 0.162 1.315
 -0.067 0.159 1.292
 -0.059 0.157 1.272
 -0.051 0.155 1.261
 -0.043 0.154 1.255
 -0.036 0.154 1.253
 -0.029 0.155 1.259
 -0.022 0.156 1.271
 -0.015 0.158 1.282
 -0.007 0.159 1.295
 0 0.161 1.31
 0.007 0.162 1.322
 0.015 0.163 1.331
 0.022 0.164 1.334
 0.03 0.164 1.337
 0.038 0.164 1.336
 0.046 0.164 1.339
 0.054 0.165 1.346
 0.062 0.167 1.363
 0.072 0.17 1.388
 0.081 0.174 1.419
 0.092 0.179 1.457
 0.103 0.184 1.5
 0.115 0.189 1.537
 0.126 0.193 1.567
 0.137 0.195 1.586
 0.147 0.196 1.591
 0.155 0.195 1.586
 0.164 0.194 1.577
 0.172 0.193 1.567
 0.18 0.192 1.557
 0.188 0.191 1.551
 0.196 0.19 1.541
 0.204 0.188 1.529
 0.21 0.186 1.512
 0.216 0.184 1.491
 0.221 0.181 1.466
 0.225 0.177 1.436
 0.228 0.173 1.404
 0.231 0.169 1.372
 0.234 0.166 1.343
 0.237 0.162 1.312
 0.242 0.16 1.297
 0.246 0.158 1.278
 0.25 0.155 1.258
 0 0 0
 0 0 0
 0 0 0
 0 0 0
 0 0 0
 0.191 0.1 0.81
 0.136 0.069 0.562
 0.115 0.057 0.465
 0.114 0.055 0.447
 0.106 0.049 0.405
 0.105 0.048 0.393
 0.105 0.047 0.383
 0.104 0.045 0.372
 0.102 0.043 0.355
 0.104 0.043 0.355
 0.105 0.042 0.349
 0.105 0.042 0.341
 0.104 0.041 0.333
 0.104 0.039 0.324
 0.104 0.039 0.318
 0.105 0.038 0.314
 0.107 0.038 0.314
 0.11 0.039 0.317
 0.115 0.04 0.325
 0.12 0.041 0.333
 0.126 0.042 0.344
 0.13 0.043 0.347
 0.134 0.044 0.352
 0.136 0.044 0.351
 0.138 0.044 0.35
 0.136 0.042 0.339
 0.14 0.043 0.343
 0.144 0.043 0.346
 0.149 0.044 0.353
 0.15 0.044 0.349
 0.156 0.045 0.357
 0.163 0.046 0.366
 0.167 0.047 0.369
 0.168 0.047 0.366
 0 0 0
 0 0 0
 0 0 0
 0 0 0
 0 0 0
 0 0 0
 0 0 0
 0 0 0
 0.312 0.078 0.594
 0.338 0.084 0.633
 0.353 0.087 0.653
 0.365 0.089 0.665
 0.377 0.091 0.677
 0.393 0.093 0.695
 0.417 0.098 0.728
 0.405 0.094 0.696
 -0.354 0.092 0.63
 -0.363 0.095 0.656
 -0.363 0.097 0.666
 -0.367 0.099 0.684
 -0.37 0.101 0.701
 -0.373 0.103 0.717
 -0.375 0.105 0.732
 -0.376 0.107 0.746
 -0.375 0.108 0.756
 -0.374 0.109 0.764
 -0.371 0.109 0.771
 -0.368 0.11 0.778
 -0.365 0.111 0.784
 -0.362 0.111 0.79
 -0.359 0.112 0.796
 -0.357 0.113 0.804
 -0.355 0.114 0.813
 -0.354 0.115 0.824
 -0.354 0.117 0.839
 -0.355 0.119 0.857
 -0.359 0.122 0.88
 -0.364 0.126 0.909
 -0.371 0.13 0.944
 -0.379 0.135 0.983
 -0.387 0.14 1.022
 -0.394 0.145 1.06
 -0.4 0.15 1.096
 -0.403 0.154 1.126
 -0.404 0.157 1.149
 -0.403 0.159 1.168
 -0.4 0.161 1.185
 -0.396 0.162 1.196
 -0.392 0.164 1.208
 -0.388 0.165 1.22
 -0.384 0.166 1.233
 -0.38 0.168 1.245
 -0.375 0.169 1.257
 -0.37 0.17 1.267
 -0.364 0.171 1.275
 -0.358 0.172 1.282
 -0.352 0.172 1.289
 -0.345 0.173 1.295
 -0.338 0.173 1.299
 -0.331 0.173 1.301
 -0.323 0.173 1.302
 -0.314 0.172 1.299
 -0.305 0.171 1.293
 -0.295 0.17 1.285
 -0.285 0.169 1.274
 -0.274 0.167 1.262
 -0.265 0.165 1.252
 -0.256 0.164 1.246
 -0.247 0.163 1.24
 -0.239 0.163 1.238
 -0.232 0.163 1.24
 -0.225 0.163 1.241
 -0.218 0.163 1.244
 -0.211 0.163 1.247
 -0.204 0.163 1.25
 -0.198 0.164 1.256
 -0.191 0.165 1.263
 -0.185 0.165 1.268
 -0.178 0.166 1.276
 -0.172 0.167 1.286
 -0.166 0.169 1.298
 -0.16 0.171 1.318
 -0.156 0.174 1.342
 -0.151 0.178 1.368
 -0.145 0.181 1.392
 -0.139 0.183 1.411
 -0.131 0.184 1.421
 -0.123 0.184 1.422
 -0.114 0.183 1.416
 -0.105 0.182 1.404
 -0.096 0.18 1.388
 -0.087 0.176 1.365
 -0.077 0.174 1.343
 -0.069 0.171 1.323
 -0.06 0.168 1.305
 -0.052 0.167 1.294
 -0.044 0.166 1.289
 -0.037 0.166 1.288
 -0.03 0.167 1.293
 -0.022 0.168 1.304
 -0.015 0.169 1.314
 -0.007 0.171 1.326
 0 0.172 1.338
 0.007 0.174 1.349
 0.015 0.175 1.357
 0.023 0.175 1.361
 0.031 0.175 1.364
 0.039 0.176 1.365
 0.047 0.176 1.369
 0.055 0.177 1.377
 0.064 0.179 1.394
 0.073 0.182 1.417
 0.083 0.186 1.446
 0.094 0.19 1.479
 0.105 0.195 1.516
 0.116 0.199 1.548
 0.127 0.202 1.572
 0.137 0.204 1.586
 0.147 0.205 1.59
 0.155 0.204 1.583
 0.164 0.203 1.575
 0.172 0.202 1.564
 0.18 0.201 1.555
 0.188 0.199 1.547
 0.196 0.198 1.535
 0.203 0.196 1.523
 0.21 0.194 1.507
 0.215 0.192 1.486
 0.221 0.189 1.462
 0.225 0.185 1.434
 0.228 0.181 1.402
 0.231 0.177 1.371
 0.234 0.173 1.339
 0.237 0.17 1.314
 0.241 0.167 1.293
 0.246 0.165 1.277
 0.25 0.163 1.26
 0.256 0.162 1.25
 0 0 0
 0 0 0
 0 0 0
 0 0 0
 0.191 0.105 0.81
 0.145 0.077 0.598
 0.109 0.056 0.439
 0.112 0.056 0.438
 0.111 0.054 0.425
 0.111 0.053 0.413
 0.111 0.052 0.404
 0.11 0.05 0.391
 0.106 0.047 0.369
 0.106 0.046 0.362
 0.107 0.046 0.356
 0.106 0.044 0.345
 0.105 0.043 0.333
