 1.823 -1.579 3.477
 1.817 -1.554 3.411
 1.785 -1.508 3.298
 1.795 -1.497 3.264
 1.816 -1.497 3.252
 1.789 -1.457 3.155
 1.772 -1.426 3.077
 1.741 -1.385 2.975
 1.754 -1.379 2.952
 1.766 -1.372 2.927
 1.764 -1.356 2.881
 1.733 -1.317 2.787
 -2.152 -1.628 3.592
 -2.129 -1.63 3.609
 -2.068 -1.603 3.56
 -2.11 -1.654 3.688
 -2.029 -1.61 3.601
 -1.994 -1.602 3.594
 -2.007 -1.633 3.676
 -2.005 -1.652 3.73
 -1.951 -1.628 3.688
 -1.932 -1.633 3.71
 -1.889 -1.618 3.687
 -1.875 -1.627 3.718
 -1.848 -1.626 3.726
 -1.832 -1.633 3.753
 -1.822 -1.647 3.795
 -1.761 -1.615 3.73
 -1.747 -1.625 3.763
 -1.725 -1.628 3.78
 -1.693 -1.621 3.774
 -1.662 -1.615 3.77
 -1.643 -1.621 3.792
 -1.617 -1.62 3.798
 -1.585 -1.613 3.791
 -1.564 -1.616 3.808
 -1.543 -1.62 3.826
 -1.511 -1.613 3.816
 -1.473 -1.599 3.792
 -1.469 -1.621 3.853
 -1.44 -1.616 3.85
 -1.423 -1.625 3.878
 -1.395 -1.621 3.877
 -1.38 -1.633 3.913
 -1.329 -1.601 3.844
 -1.329 -1.632 3.925
 -1.292 -1.617 3.894
 -1.274 -1.626 3.924
 -1.234 -1.606 3.882
 -1.216 -1.615 3.911
 -1.186 -1.608 3.9
 -1.161 -1.607 3.903
 -1.151 -1.627 3.959
 -1.112 -1.608 3.917
 -1.097 -1.622 3.958
 -1.083 -1.638 4.002
 -1.033 -1.6 3.914
 -1.027 -1.628 3.99
 -0.991 -1.611 3.952
 -0.976 -1.626 3.995
 -0.962 -1.645 4.047
 -0.925 -1.624 3.999
 -0.898 -1.62 3.994
 -0.863 -1.602 3.952
 -0.849 -1.621 4.006
 -0.815 -1.605 3.968
 -0.794 -1.61 3.986
 -0.779 -1.632 4.043
 -0.738 -1.596 3.958
 -0.72 -1.611 4
 -0.698 -1.616 4.014
 -0.671 -1.61 4.003
 -0.654 -1.629 4.053
 -0.619 -1.602 3.99
 -0.594 -1.602 3.993
 -0.581 -1.635 4.077
 -0.547 -1.607 4.009
 -0.531 -1.634 4.08
 -0.499 -1.611 4.026
 -0.472 -1.603 4.006
 -0.453 -1.623 4.059
 -0.434 -1.643 4.111
 -0.405 -1.626 4.069
 -0.374 -1.602 4.011
 -0.352 -1.61 4.033
 -0.329 -1.619 4.057
 -0.3 -1.594 3.997
 -0.278 -1.612 4.043
 -0.255 -1.622 4.068
 -0.231 -1.622 4.07
 -0.204 -1.608 4.036
 -0.182 -1.632 4.096
 -0.156 -1.611 4.043
 -0.132 -1.62 4.067
 -0.108 -1.625 4.08
 -0.082 -1.598 4.013
 -0.059 -1.64 4.117
 -0.034 -1.634 4.102
 -0.009 -1.636 4.109
 0.015 -1.609 4.039
 0.039 -1.607 4.033
 0.064 -1.619 4.062
 0.088 -1.603 4.024
 0.112 -1.606 4.029
 0.138 -1.625 4.076
 0.163 -1.621 4.064
 0.187 -1.617 4.054
 0.212 -1.622 4.064
 0.235 -1.61 4.035
 0.26 -1.618 4.052
 0.289 -1.639 4.102
 0.309 -1.617 4.045
 0.335 -1.623 4.06
 0.353 -1.593 3.982
 0.385 -1.625 4.059
 0.408 -1.618 4.04
 0.427 -1.597 3.986
 0.458 -1.621 4.043
 0.48 -1.613 4.02
 0.505 -1.617 4.026
 0.536 -1.635 4.069
 0.553 -1.613 4.011
 0.583 -1.628 4.045
 0.607 -1.627 4.038
 0.63 -1.622 4.023
 0.649 -1.61 3.988
 0.684 -1.635 4.048
 0.716 -1.652 4.085
 0.726 -1.618 3.996
 0.762 -1.644 4.057
 0.766 -1.599 3.942
 0.807 -1.633 4.022
 0.827 -1.624 3.994
 0.849 -1.619 3.976
 0.875 -1.623 3.982
 0.912 -1.645 4.031
 0.914 -1.604 3.925
 0.946 -1.618 3.953
 0.983 -1.639 4
 1.001 -1.628 3.968
 1.042 -1.654 4.026
 1.066 -1.652 4.014
 1.083 -1.64 3.979
 1.1 -1.629 3.947
 1.139 -1.649 3.989
 1.156 -1.638 3.956
 1.166 -1.618 3.9
 1.205 -1.638 3.941
 1.232 -1.642 3.943
 1.255 -1.639 3.929
 1.28 -1.639 3.922
 1.292 -1.623 3.877
 1.328 -1.637 3.903
 1.348 -1.632 3.882
 1.381 -1.642 3.898
 1.406 -1.642 3.89
 1.436 -1.648 3.896
 1.457 -1.644 3.877
 1.483 -1.645 3.872
 1.495 -1.631 3.83
 1.524 -1.636 3.833
 1.555 -1.643 3.839
 1.578 -1.641 3.827
 1.6 -1.638 3.81
 1.619 -1.633 3.788
 1.652 -1.641 3.797
 1.666 -1.63 3.763
 1.702 -1.641 3.778
 1.728 -1.643 3.772
 1.748 -1.638 3.75
 1.78 -1.645 3.756
 1.782 -1.624 3.697
 1.787 -1.607 3.647
 1.827 -1.621 3.668
 1.81 -1.585 3.575
 1.815 -1.569 3.528
 1.82 -1.553 3.48
 1.801 -1.517 3.389
 1.811 -1.507 3.355
 1.809 -1.487 3.3
 1.749 -1.42 3.14
 1.777 -1.426 3.142
 1.763 -1.398 3.069
 1.776 -1.392 3.045
 1.762 -1.365 2.975
 1.731 -1.325 2.877
 1.752 -1.326 2.869
 1.741 -1.303 2.808
 -2.168 -1.616 3.63
 -2.15 -1.621 3.655
 -2.126 -1.622 3.669
 -2.099 -1.621 3.679
 -2.075 -1.622 3.694
 -2.051 -1.623 3.709
 -2.024 -1.622 3.717
 -2 -1.623 3.73
 -1.976 -1.624 3.745
 -1.952 -1.625 3.758
 -1.93 -1.628 3.776
 -1.908 -1.631 3.795
 -1.883 -1.632 3.807
 -1.858 -1.631 3.817
 -1.832 -1.631 3.827
 -1.802 -1.627 3.827
 -1.772 -1.623 3.828
 -1.745 -1.621 3.833
 -1.723 -1.624 3.85
 -1.698 -1.625 3.861
 -1.672 -1.625 3.87
 -1.647 -1.625 3.88
 -1.623 -1.626 3.891
 -1.597 -1.625 3.899
 -1.569 -1.622 3.9
 -1.544 -1.623 3.91
 -1.518 -1.621 3.915
 -1.491 -1.62 3.92
 -1.464 -1.618 3.924
 -1.441 -1.62 3.936
 -1.412 -1.617 3.936
 -1.388 -1.618 3.946
 -1.362 -1.617 3.952
 -1.338 -1.618 3.962
 -1.311 -1.616 3.962
 -1.288 -1.618 3.975
 -1.261 -1.617 3.978
 -1.237 -1.618 3.987
 -1.211 -1.616 3.99
 -1.187 -1.619 4.002
 -1.161 -1.617 4.005
 -1.135 -1.616 4.007
 -1.107 -1.612 4.002
 -1.081 -1.61 4.005
 -1.055 -1.609 4.008
 -1.032 -1.612 4.019
 -1.008 -1.613 4.027
 -0.984 -1.616 4.039
 -0.959 -1.615 4.044
 -0.932 -1.611 4.038
 -0.907 -1.613 4.046
 -0.882 -1.613 4.051
 -0.857 -1.612 4.054
 -0.833 -1.614 4.062
 -0.808 -1.614 4.067
 -0.782 -1.612 4.065
 -0.756 -1.611 4.066
 -0.731 -1.611 4.07
 -0.706 -1.61 4.07
 -0.682 -1.612 4.08
 -0.657 -1.612 4.082
 -0.633 -1.615 4.093
 -0.608 -1.615 4.095
 -0.584 -1.617 4.104
 -0.559 -1.617 4.105
 -0.533 -1.616 4.105
 -0.508 -1.614 4.104
 -0.483 -1.616 4.111
 -0.457 -1.613 4.106
 -0.433 -1.615 4.112
 -0.408 -1.617 4.119
 -0.383 -1.615 4.115
 -0.358 -1.614 4.116
 -0.333 -1.616 4.121
 -0.308 -1.617 4.126
 -0.283 -1.617 4.127
 -0.259 -1.619 4.133
 -0.234 -1.618 4.132
 -0.208 -1.616 4.127
 -0.183 -1.613 4.121
 -0.158 -1.612 4.119
 -0.133 -1.61 4.112
 -0.108 -1.61 4.113
 -0.083 -1.61 4.115
 -0.058 -1.612 4.118
 -0.034 -1.612 4.118
 -0.009 -1.613 4.122
 0.015 -1.613 4.121
 0.04 -1.613 4.119
 0.065 -1.61 4.113
 0.09 -1.611 4.114
 0.115 -1.611 4.112
 0.139 -1.611 4.112
 0.164 -1.613 4.117
 0.189 -1.613 4.115
 0.214 -1.614 4.116
 0.24 -1.616 4.121
 0.264 -1.616 4.118
 0.289 -1.616 4.116
 0.314 -1.617 4.116
 0.339 -1.616 4.113
 0.364 -1.615 4.109
 0.388 -1.613 4.101
 0.413 -1.612 4.097
 0.438 -1.614 4.099
 0.463 -1.614 4.095
 0.488 -1.615 4.096
 0.513 -1.617 4.097
 0.538 -1.617 4.095
 0.563 -1.618 4.093
 0.589 -1.62 4.095
 0.614 -1.619 4.09
 0.64 -1.623 4.096
 0.665 -1.624 4.094
 0.691 -1.625 4.093
 0.716 -1.626 4.092
 0.74 -1.624 4.084
 0.765 -1.623 4.076
 0.79 -1.623 4.071
 0.815 -1.624 4.07
 0.839 -1.622 4.06
 0.865 -1.625 4.062
 0.89 -1.624 4.055
 0.915 -1.625 4.053
 0.94 -1.625 4.049
 0.966 -1.627 4.047
 0.992 -1.628 4.044
 1.019 -1.631 4.046
 1.045 -1.632 4.043
 1.069 -1.632 4.036
 1.095 -1.633 4.032
 1.12 -1.633 4.025
 1.145 -1.632 4.018
 1.17 -1.633 4.013
 1.197 -1.635 4.011
 1.223 -1.636 4.007
 1.249 -1.638 4.004
 1.275 -1.639 4
 1.301 -1.64 3.995
 1.326 -1.64 3.988
 1.351 -1.641 3.98
 1.375 -1.639 3.968
 1.401 -1.639 3.962
 1.425 -1.639 3.952
 1.449 -1.638 3.941
 1.474 -1.637 3.931
 1.5 -1.638 3.925
 1.524 -1.638 3.915
 1.549 -1.637 3.904
 1.575 -1.639 3.899
 1.598 -1.637 3.884
 1.624 -1.637 3.876
 1.648 -1.636 3.864
 1.673 -1.637 3.856
 1.696 -1.634 3.84
 1.722 -1.635 3.832
 1.745 -1.633 3.817
 1.765 -1.629 3.796
 1.78 -1.62 3.765
 1.795 -1.612 3.734
 1.805 -1.599 3.694
 1.812 -1.584 3.647
 1.817 -1.567 3.597
 1.821 -1.55 3.549
 1.822 -1.531 3.493
 1.824 -1.514 3.443
 1.797 -1.473 3.338
 1.778 -1.439 3.25
 1.767 -1.413 3.18
 1.764 -1.394 3.126
 1.765 -1.378 3.08
 1.765 -1.362 3.033
 1.762 -1.344 2.982
 1.756 -1.324 2.927
 1.76 -1.312 2.89
 1.741 -1.283 2.816
 -2.211 -1.622 3.713
 -2.163 -1.606 3.687
 -2.163 -1.625 3.744
 -2.135 -1.623 3.752
 -2.111 -1.624 3.767
 -2.087 -1.626 3.784
 -2.059 -1.624 3.791
 -2.033 -1.624 3.803
 -2.008 -1.625 3.816
 -1.981 -1.623 3.824
 -1.956 -1.624 3.838
 -1.933 -1.627 3.854
 -1.91 -1.629 3.87
 -1.885 -1.629 3.882
 -1.86 -1.63 3.895
 -1.832 -1.628 3.9
 -1.801 -1.624 3.901
 -1.772 -1.621 3.903
 -1.747 -1.621 3.914
 -1.723 -1.623 3.928
 -1.697 -1.623 3.937
 -1.671 -1.623 3.946
 -1.646 -1.623 3.956
 -1.619 -1.622 3.962
 -1.589 -1.617 3.959
 -1.562 -1.616 3.965
 -1.535 -1.615 3.97
 -1.509 -1.614 3.976
 -1.482 -1.613 3.982
 -1.458 -1.614 3.993
 -1.43 -1.612 3.996
 -1.405 -1.613 4.005
 -1.381 -1.613 4.014
 -1.356 -1.615 4.024
 -1.329 -1.613 4.027
 -1.305 -1.615 4.038
 -1.278 -1.613 4.041
 -1.253 -1.613 4.047
 -1.227 -1.613 4.053
 -1.203 -1.615 4.065
 -1.176 -1.613 4.067
 -1.15 -1.612 4.07
 -1.122 -1.609 4.067
 -1.096 -1.608 4.071
 -1.07 -1.607 4.074
 -1.046 -1.608 4.082
 -1.021 -1.61 4.092
 -0.997 -1.612 4.102
 -0.971 -1.611 4.106
 -0.944 -1.608 4.102
 -0.92 -1.61 4.111
 -0.894 -1.608 4.112
 -0.868 -1.608 4.116
 -0.844 -1.61 4.124
 -0.818 -1.609 4.127
 -0.791 -1.606 4.123
 -0.767 -1.608 4.132
 -0.741 -1.607 4.133
 -0.715 -1.606 4.134
 -0.691 -1.608 4.141
 -0.665 -1.608 4.145
 -0.64 -1.609 4.15
 -0.615 -1.61 4.156
 -0.591 -1.611 4.162
 -0.565 -1.612 4.166
 -0.54 -1.61 4.165
 -0.514 -1.61 4.166
 -0.489 -1.61 4.17
 -0.463 -1.608 4.166
 -0.438 -1.608 4.169
 -0.413 -1.61 4.175
 -0.387 -1.608 4.17
 -0.362 -1.608 4.172
 -0.337 -1.609 4.176
 -0.312 -1.611 4.182
 -0.287 -1.611 4.184
 -0.262 -1.612 4.189
 -0.236 -1.611 4.186
 -0.21 -1.609 4.181
 -0.185 -1.607 4.178
 -0.16 -1.606 4.175
 -0.134 -1.604 4.172
 -0.109 -1.606 4.175
 -0.084 -1.605 4.174
 -0.059 -1.606 4.175
 -0.034 -1.606 4.176
 -0.009 -1.607 4.178
 0.016 -1.605 4.173
 0.041 -1.606 4.175
 0.066 -1.604 4.169
 0.091 -1.604 4.168
 0.116 -1.602 4.164
 0.141 -1.603 4.163
 0.166 -1.605 4.168
 0.192 -1.605 4.167
 0.217 -1.607 4.172
 0.243 -1.611 4.18
 0.268 -1.612 4.18
 0.293 -1.611 4.177
 0.318 -1.61 4.173
 0.343 -1.609 4.167
 0.368 -1.607 4.162
 0.392 -1.605 4.154
 0.418 -1.606 4.152
 0.443 -1.608 4.156
 0.468 -1.608 4.153
 0.494 -1.609 4.154
 0.52 -1.611 4.154
 0.545 -1.611 4.151
 0.57 -1.611 4.149
 0.596 -1.613 4.15
 0.621 -1.611 4.143
 0.647 -1.615 4.15
 0.673 -1.616 4.148
 0.698 -1.616 4.144
 0.723 -1.617 4.142
 0.749 -1.616 4.136
 0.773 -1.615 4.129
 0.799 -1.616 4.127
 0.825 -1.618 4.128
 0.85 -1.618 4.123
 0.877 -1.62 4.124
 0.902 -1.62 4.117
 0.927 -1.621 4.114
 0.952 -1.62 4.108
 0.978 -1.621 4.104
 1.003 -1.621 4.099
 1.03 -1.624 4.1
 1.056 -1.625 4.097
 1.082 -1.625 4.092
 1.109 -1.628 4.092
 1.135 -1.629 4.089
 1.161 -1.629 4.082
 1.186 -1.629 4.076
 1.212 -1.631 4.073
 1.238 -1.631 4.066
 1.264 -1.632 4.061
 1.29 -1.632 4.055
 1.317 -1.635 4.053
 1.342 -1.635 4.045
 1.368 -1.634 4.037
 1.392 -1.634 4.028
 1.42 -1.636 4.024
 1.444 -1.635 4.013
 1.469 -1.635 4.005
 1.494 -1.634 3.995
 1.52 -1.635 3.988
 1.545 -1.634 3.976
 1.57 -1.634 3.966
 1.596 -1.634 3.959
 1.62 -1.633 3.946
 1.646 -1.633 3.937
 1.67 -1.633 3.926
 1.695 -1.632 3.915
 1.719 -1.631 3.9
 1.744 -1.631 3.891
 1.766 -1.627 3.872
 1.783 -1.62 3.844
 1.797 -1.611 3.811
 1.808 -1.598 3.77
 1.816 -1.584 3.725
 1.823 -1.568 3.677
 1.828 -1.552 3.628
 1.831 -1.535 3.577
 1.834 -1.518 3.526
 1.837 -1.501 3.476
 1.794 -1.447 3.34
 1.767 -1.408 3.239
 1.756 -1.383 3.169
 1.757 -1.366 3.121
 1.762 -1.354 3.082
 1.766 -1.342 3.043
 1.764 -1.324 2.993
 1.76 -1.306 2.941
 1.744 -1.28 2.871
 1.753 -1.272 2.843
 -2.26 -1.632 3.805
 -2.191 -1.601 3.745
 -2.194 -1.622 3.808
 -2.167 -1.621 3.819
 -2.142 -1.622 3.834
 -2.116 -1.622 3.846
 -2.087 -1.62 3.852
 -2.06 -1.62 3.864
 -2.033 -1.619 3.873
 -2.006 -1.618 3.882
 -1.983 -1.621 3.9
 -1.962 -1.625 3.922
 -1.937 -1.626 3.936
 -1.913 -1.628 3.95
 -1.888 -1.629 3.964
 -1.859 -1.626 3.968
 -1.828 -1.623 3.97
 -1.799 -1.62 3.974
 -1.773 -1.619 3.982
 -1.749 -1.622 3.997
 -1.723 -1.622 4.007
 -1.697 -1.621 4.016
 -1.67 -1.621 4.025
 -1.644 -1.621 4.034
 -1.614 -1.617 4.033
 -1.586 -1.615 4.037
 -1.559 -1.614 4.041
 -1.531 -1.612 4.045
 -1.503 -1.61 4.047
 -1.476 -1.609 4.053
 -1.45 -1.608 4.059
 -1.425 -1.609 4.069
 -1.4 -1.61 4.08
 -1.376 -1.612 4.092
 -1.349 -1.611 4.097
 -1.324 -1.612 4.107
 -1.297 -1.611 4.11
 -1.272 -1.612 4.119
 -1.245 -1.61 4.122
 -1.22 -1.612 4.132
 -1.192 -1.609 4.131
 -1.165 -1.607 4.131
 -1.136 -1.603 4.128
 -1.11 -1.603 4.133
 -1.085 -1.603 4.138
 -1.059 -1.604 4.145
 -1.034 -1.604 4.152
 -1.008 -1.604 4.158
 -0.982 -1.603 4.159
 -0.954 -1.6 4.155
 -0.93 -1.602 4.165
 -0.904 -1.601 4.168
 -0.878 -1.601 4.173
 -0.853 -1.602 4.179
 -0.827 -1.601 4.181
 -0.8 -1.599 4.179
 -0.775 -1.601 4.188
 -0.749 -1.6 4.188
 -0.723 -1.599 4.191
 -0.699 -1.601 4.199
 -0.673 -1.601 4.201
 -0.647 -1.6 4.202
 -0.622 -1.601 4.207
 -0.596 -1.601 4.212
 -0.571 -1.602 4.215
 -0.545 -1.601 4.216
 -0.519 -1.601 4.219
 -0.494 -1.601 4.219
 -0.467 -1.598 4.215
 -0.442 -1.599 4.22
 -0.417 -1.6 4.224
 -0.391 -1.597 4.218
 -0.366 -1.599 4.225
 -0.34 -1.601 4.23
 -0.315 -1.601 4.231
 -0.289 -1.6 4.232
 -0.264 -1.602 4.237
 -0.238 -1.599 4.229
 -0.212 -1.597 4.226
 -0.186 -1.595 4.221
 -0.161 -1.593 4.217
 -0.135 -1.594 4.218
 -0.11 -1.594 4.219
 -0.085 -1.591 4.213
 -0.059 -1.592 4.214
 -0.034 -1.593 4.216
 -0.009 -1.592 4.215
 0.016 -1.592 4.213
 0.041 -1.594 4.219
 0.067 -1.593 4.215
 0.092 -1.592 4.211
 0.117 -1.59 4.206
 0.142 -1.591 4.207
 0.168 -1.593 4.211
 0.193 -1.593 4.21
 0.219 -1.595 4.216
 0.245 -1.598 4.221
 0.27 -1.598 4.22
 0.295 -1.597 4.216
 0.321 -1.597 4.213
 0.346 -1.596 4.208
 0.371 -1.596 4.206
 0.396 -1.595 4.2
 0.422 -1.595 4.199
 0.448 -1.597 4.202
 0.473 -1.597 4.2
 0.499 -1.599 4.2
 0.525 -1.6 4.201
 0.55 -1.6 4.197
 0.575 -1.599 4.193
 0.601 -1.6 4.193
 0.626 -1.6 4.189
 0.653 -1.604 4.194
 0.678 -1.603 4.188
 0.704 -1.604 4.187
 0.73 -1.605 4.185
 0.755 -1.604 4.178
 0.78 -1.603 4.173
 0.807 -1.606 4.176
 0.833 -1.608 4.177
 0.859 -1.609 4.174
 0.886 -1.611 4.173
 0.911 -1.611 4.168
 0.938 -1.613 4.168
 0.963 -1.612 4.161
 0.989 -1.613 4.157
 1.015 -1.613 4.153
 1.041 -1.614 4.15
 1.067 -1.615 4.145
 1.093 -1.616 4.141
 1.12 -1.618 4.14
 1.147 -1.62 4.139
 1.174 -1.622 4.138
 1.2 -1.622 4.133
 1.227 -1.625 4.131
 1.254 -1.625 4.126
 1.28 -1.626 4.121
 1.306 -1.626 4.114
 1.333 -1.628 4.111
 1.359 -1.628 4.103
 1.384 -1.628 4.096
 1.41 -1.629 4.088
 1.437 -1.63 4.083
 1.462 -1.629 4.072
 1.488 -1.629 4.064
 1.514 -1.629 4.056
 1.54 -1.63 4.048
 1.565 -1.629 4.037
 1.59 -1.628 4.026
 1.617 -1.63 4.02
 1.641 -1.628 4.007
 1.668 -1.629 3.999
 1.693 -1.629 3.989
 1.718 -1.628 3.977
 1.74 -1.625 3.959
 1.764 -1.623 3.944
 1.782 -1.617 3.918
 1.798 -1.608 3.886
 1.812 -1.598 3.85
 1.819 -1.583 3.802
 1.825 -1.566 3.751
 1.832 -1.551 3.704
 1.836 -1.534 3.652
 1.839 -1.517 3.6
 1.844 -1.501 3.552
 1.85 -1.488 3.508
 1.791 -1.422 3.342
 1.753 -1.375 3.222
 1.745 -1.352 3.156
 1.75 -1.34 3.117
 1.761 -1.332 3.089
 1.768 -1.322 3.054
 1.766 -1.305 3.003
 1.763 -1.288 2.953
 1.75 -1.264 2.888
 1.759 -1.256 2.859
 -2.295 -1.63 3.874
 -2.271 -1.632 3.892
 -2.229 -1.621 3.879
 -2.201 -1.621 3.89
 -2.174 -1.62 3.901
 -2.149 -1.621 3.916
 -2.118 -1.618 3.92
 -2.09 -1.616 3.929
 -2.06 -1.614 3.935
 -2.033 -1.614 3.945
 -2.008 -1.615 3.96
 -1.988 -1.62 3.985
 -1.963 -1.622 3.999
 -1.94 -1.624 4.016
 -1.915 -1.626 4.032
 -1.885 -1.623 4.035
 -1.855 -1.62 4.038
 -1.826 -1.618 4.042
 -1.798 -1.617 4.05
 -1.772 -1.617 4.061
 -1.748 -1.619 4.075
 -1.721 -1.619 4.084
 -1.694 -1.618 4.092
 -1.667 -1.617 4.099
 -1.638 -1.615 4.102
 -1.608 -1.611 4.102
 -1.58 -1.61 4.106
 -1.552 -1.608 4.111
 -1.525 -1.607 4.115
 -1.497 -1.605 4.119
 -1.47 -1.604 4.125
 -1.444 -1.605 4.133
 -1.418 -1.605 4.143
 -1.393 -1.606 4.153
 -1.367 -1.606 4.16
 -1.342 -1.609 4.173
 -1.314 -1.607 4.175
 -1.288 -1.607 4.183
 -1.262 -1.606 4.187
 -1.235 -1.606 4.193
 -1.206 -1.602 4.189
 -1.18 -1.602 4.194
 -1.152 -1.6 4.196
 -1.125 -1.599 4.198
 -1.099 -1.599 4.203
 -1.074 -1.6 4.212
 -1.047 -1.598 4.214
 -1.021 -1.598 4.217
 -0.993 -1.596 4.216
 -0.966 -1.593 4.215
 -0.94 -1.594 4.222
 -0.913 -1.592 4.221
 -0.887 -1.592 4.225
 -0.862 -1.593 4.231
 -0.835 -1.591 4.23
 -0.807 -1.588 4.226
 -0.782 -1.59 4.235
 -0.756 -1.589 4.236
 -0.73 -1.588 4.238
 -0.705 -1.59 4.245
 -0.679 -1.589 4.246
 -0.652 -1.587 4.244
 -0.626 -1.586 4.244
 -0.6 -1.586 4.248
 -0.575 -1.587 4.252
 -0.549 -1.586 4.254
 -0.523 -1.587 4.257
 -0.497 -1.587 4.259
 -0.471 -1.585 4.256
 -0.445 -1.584 4.257
 -0.42 -1.585 4.261
 -0.393 -1.582 4.254
 -0.368 -1.584 4.261
 -0.342 -1.585 4.265
 -0.317 -1.586 4.269
 -0.291 -1.585 4.267
 -0.265 -1.586 4.272
 -0.239 -1.582 4.263
 -0.213 -1.58 4.257
 -0.187 -1.577 4.249
 -0.162 -1.576 4.247
 -0.136 -1.576 4.249
 -0.111 -1.576 4.249
 -0.085 -1.574 4.244
 -0.059 -1.576 4.248
 -0.034 -1.577 4.252
 -0.008 -1.577 4.249
 0.016 -1.577 4.25
 0.042 -1.58 4.257
 0.067 -1.578 4.252
 0.093 -1.577 4.249
 0.118 -1.576 4.245
 0.144 -1.576 4.244
 0.169 -1.576 4.244
 0.195 -1.577 4.245
 0.22 -1.579 4.247
 0.246 -1.58 4.25
 0.272 -1.581 4.251
 0.297 -1.582 4.25
 0.323 -1.58 4.245
 0.348 -1.58 4.242
 0.374 -1.58 4.239
 0.399 -1.578 4.233
 0.424 -1.578 4.231
 0.45 -1.58 4.234
 0.476 -1.581 4.232
 0.502 -1.582 4.233
 0.528 -1.584 4.236
 0.554 -1.585 4.235
 0.579 -1.585 4.231
 0.605 -1.586 4.23
 0.631 -1.586 4.228
 0.657 -1.588 4.228
 0.682 -1.586 4.221
 0.708 -1.588 4.22
 0.734 -1.588 4.218
 0.759 -1.587 4.209
 0.785 -1.587 4.207
 0.812 -1.59 4.209
 0.838 -1.592 4.209
 0.864 -1.592 4.206
 0.892 -1.595 4.209
 0.917 -1.595 4.203
 0.943 -1.596 4.201
 0.97 -1.597 4.198
 0.996 -1.598 4.196
 1.022 -1.598 4.19
 1.048 -1.599 4.187
 1.074 -1.6 4.184
 1.1 -1.6 4.177
 1.128 -1.603 4.179
 1.156 -1.606 4.18
 1.184 -1.609 4.18
 1.21 -1.61 4.177
 1.238 -1.612 4.176
 1.264 -1.612 4.168
 1.29 -1.613 4.162
 1.316 -1.613 4.155
 1.344 -1.615 4.154
 1.372 -1.618 4.152
 1.398 -1.618 4.146
 1.425 -1.619 4.14
 1.453 -1.621 4.135
 1.478 -1.621 4.127
 1.504 -1.621 4.118
 1.531 -1.622 4.112
 1.558 -1.623 4.105
 1.583 -1.622 4.094
 1.609 -1.622 4.084
 1.636 -1.622 4.076
 1.66 -1.621 4.063
 1.686 -1.621 4.053
 1.712 -1.62 4.041
 1.736 -1.619 4.027
 1.758 -1.616 4.009
 1.78 -1.612 3.99
 1.798 -1.605 3.96
 1.813 -1.596 3.928
 1.824 -1.583 3.885
 1.83 -1.566 3.834
 1.834 -1.549 3.78
 1.84 -1.533 3.73
 1.841 -1.514 3.673
 1.846 -1.499 3.624
 1.859 -1.49 3.59
 1.868 -1.478 3.551
 1.787 -1.396 3.343
 1.739 -1.342 3.203
 1.736 -1.324 3.148
 1.751 -1.319 3.127
 1.761 -1.311 3.097
 1.77 -1.302 3.064
 1.767 -1.285 3.013
 1.766 -1.269 2.965
 1.772 -1.259 2.931
 1.778 -1.25 2.898
 -2.316 -1.619 3.92
 -2.286 -1.616 3.928
 -2.263 -1.619 3.948
 -2.234 -1.617 3.957
 -2.205 -1.616 3.967
 -2.179 -1.617 3.982
 -2.15 -1.615 3.99
 -2.12 -1.613 3.996
 -2.091 -1.611 4.003
 -2.063 -1.611 4.014
 -2.037 -1.611 4.027
 -2.013 -1.614 4.045
 -1.988 -1.615 4.059
 -1.964 -1.618 4.077
 -1.938 -1.619 4.09
 -1.908 -1.616 4.094
 -1.879 -1.614 4.1
 -1.85 -1.612 4.105
 -1.822 -1.611 4.113
 -1.796 -1.612 4.124
 -1.77 -1.613 4.137
 -1.745 -1.614 4.149
 -1.716 -1.613 4.156
 -1.689 -1.613 4.165
 -1.66 -1.61 4.168
 -1.632 -1.608 4.172
 -1.602 -1.606 4.173
 -1.575 -1.605 4.18
 -1.546 -1.603 4.182
 -1.517 -1.601 4.185
 -1.49 -1.6 4.191
 -1.464 -1.6 4.2
 -1.437 -1.6 4.208
 -1.411 -1.601 4.216
 -1.384 -1.6 4.223
 -1.357 -1.6 4.23
 -1.329 -1.598 4.23
 -1.302 -1.598 4.237
 -1.275 -1.597 4.241
 -1.248 -1.596 4.245
 -1.219 -1.593 4.244
 -1.193 -1.593 4.25
 -1.165 -1.591 4.25
 -1.137 -1.589 4.252
 -1.111 -1.59 4.258
 -1.084 -1.589 4.261
 -1.057 -1.588 4.263
 -1.03 -1.587 4.265
 -1.002 -1.584 4.262
 -0.974 -1.582 4.262
 -0.948 -1.582 4.267
 -0.92 -1.578 4.26
 -0.893 -1.577 4.264
 -0.867 -1.577 4.268
 -0.84 -1.576 4.267
 -0.812 -1.572 4.263
 -0.788 -1.575 4.272
 -0.761 -1.573 4.271
 -0.734 -1.572 4.272
 -0.708 -1.571 4.274
 -0.682 -1.571 4.276
 -0.655 -1.569 4.273
 -0.629 -1.568 4.273
 -0.603 -1.567 4.275
 -0.577 -1.568 4.279
 -0.551 -1.567 4.28
 -0.525 -1.568 4.284
 -0.499 -1.568 4.287
 -0.473 -1.567 4.286
 -0.447 -1.566 4.286
 -0.421 -1.567 4.289
 -0.395 -1.564 4.283
 -0.369 -1.565 4.288
 -0.343 -1.565 4.29
 -0.318 -1.565 4.29
 -0.292 -1.564 4.288
 -0.266 -1.564 4.29
 -0.24 -1.561 4.282
 -0.214 -1.56 4.28
 -0.188 -1.558 4.275
 -0.162 -1.558 4.276
 -0.137 -1.558 4.277
 -0.111 -1.558 4.277
 -0.085 -1.555 4.269
 -0.06 -1.556 4.273
 -0.034 -1.556 4.272
 -0.008 -1.555 4.269
 0.016 -1.555 4.269
 0.042 -1.558 4.277
 0.068 -1.558 4.274
 0.093 -1.557 4.273
 0.119 -1.557 4.272
 0.144 -1.557 4.27
 0.17 -1.557 4.269
 0.196 -1.557 4.268
 0.221 -1.558 4.269
 0.247 -1.559 4.271
 0.273 -1.56 4.272
 0.298 -1.56 4.269
 0.324 -1.56 4.267
 0.349 -1.559 4.263
 0.375 -1.559 4.262
 0.4 -1.559 4.257
 0.426 -1.559 4.256
 0.452 -1.561 4.257
 0.478 -1.561 4.257
 0.504 -1.562 4.256
 0.53 -1.563 4.257
 0.556 -1.564 4.256
 0.581 -1.564 4.252
 0.607 -1.563 4.247
 0.632 -1.564 4.245
 0.658 -1.564 4.243
 0.684 -1.564 4.237
 0.71 -1.565 4.237
 0.736 -1.566 4.237
 0.761 -1.565 4.229
 0.788 -1.568 4.231
 0.815 -1.57 4.232
 0.841 -1.571 4.231
 0.868 -1.572 4.23
 0.895 -1.576 4.234
 0.921 -1.575 4.228
 0.948 -1.577 4.228
 0.974 -1.579 4.226
 1.001 -1.58 4.225
 1.028 -1.581 4.222
 1.054 -1.582 4.218
 1.081 -1.584 4.216
 1.107 -1.583 4.21
 1.135 -1.587 4.212
 1.162 -1.589 4.211
 1.19 -1.591 4.211
 1.217 -1.593 4.208
 1.246 -1.596 4.211
 1.271 -1.595 4.201
 1.298 -1.597 4.197
 1.325 -1.598 4.192
 1.353 -1.6 4.191
 1.381 -1.602 4.187
 1.409 -1.604 4.186
 1.436 -1.606 4.181
 1.464 -1.607 4.177
 1.491 -1.608 4.17
 1.518 -1.609 4.164
 1.545 -1.61 4.158
 1.573 -1.611 4.152
 1.599 -1.611 4.143
 1.625 -1.611 4.134
 1.653 -1.612 4.127
 1.678 -1.612 4.115
 1.705 -1.612 4.107
 1.729 -1.611 4.092
 1.753 -1.608 4.076
 1.774 -1.603 4.053
 1.795 -1.599 4.03
 1.81 -1.59 3.998
 1.825 -1.58 3.962
 1.836 -1.567 3.919
 1.845 -1.553 3.873
 1.849 -1.536 3.819
 1.857 -1.522 3.773
 1.86 -1.505 3.719
 1.865 -1.489 3.668
 1.878 -1.48 3.635
 0 0 0
 0 0 0
 1.717 -1.304 3.17
 1.736 -1.302 3.155
 1.751 -1.298 3.134
 1.763 -1.291 3.106
 1.771 -1.282 3.074
 1.772 -1.268 3.029
 1.771 -1.253 2.982
 1.742 -1.218 2.889
 1.786 -1.235 2.917
 -2.343 -1.61 3.976
 -2.345 -1.631 4.04
 -2.203 -1.55 3.853
 -2.175 -1.549 3.862
 -2.239 -1.614 4.037
 -2.213 -1.615 4.054
 -2.184 -1.614 4.063
 -2.154 -1.612 4.07
 -2.125 -1.61 4.079
 -2.096 -1.609 4.087
 -2.069 -1.61 4.101
 -2.042 -1.61 4.113
 -2.016 -1.611 4.126
 -1.992 -1.613 4.144
 -1.965 -1.614 4.157
 -1.935 -1.611 4.161
 -1.906 -1.611 4.169
 -1.876 -1.608 4.174
 -1.847 -1.606 4.179
 -1.82 -1.606 4.189
 -1.794 -1.608 4.203
 -1.767 -1.608 4.213
 -1.739 -1.607 4.22
 -1.71 -1.605 4.226
 -1.68 -1.602 4.227
 -1.649 -1.599 4.227
 -1.62 -1.597 4.229
 -1.592 -1.595 4.235
 -1.563 -1.594 4.238
 -1.535 -1.593 4.244
 -1.508 -1.592 4.251
 -1.481 -1.593 4.26
 -1.454 -1.592 4.266
 -1.426 -1.591 4.271
 -1.398 -1.59 4.276
 -1.37 -1.589 4.278
 -1.34 -1.585 4.277
 -1.312 -1.584 4.279
 -1.284 -1.582 4.281
 -1.256 -1.58 4.283
 -1.227 -1.578 4.282
 -1.2 -1.577 4.286
 -1.172 -1.575 4.286
 -1.145 -1.574 4.289
 -1.118 -1.573 4.293
 -1.09 -1.572 4.295
 -1.063 -1.57 4.297
 -1.035 -1.569 4.297
 -1.007 -1.566 4.294
 -0.98 -1.565 4.297
 -0.953 -1.564 4.299
 -0.925 -1.56 4.292
 -0.898 -1.56 4.297
 -0.871 -1.559 4.298
 -0.844 -1.557 4.295
 -0.816 -1.554 4.292
 -0.791 -1.555 4.298
 -0.763 -1.552 4.295
 -0.737 -1.552 4.299
 -0.711 -1.551 4.299
 -0.684 -1.55 4.299
 -0.657 -1.548 4.297
 -0.631 -1.547 4.295
 -0.604 -1.546 4.295
 -0.578 -1.545 4.297
 -0.552 -1.545 4.298
 -0.526 -1.545 4.302
 -0.5 -1.545 4.304
 -0.474 -1.544 4.302
 -0.448 -1.544 4.305
 -0.422 -1.544 4.305
 -0.395 -1.54 4.297
 -0.369 -1.54 4.299
 -0.343 -1.54 4.3
 -0.317 -1.538 4.294
 -0.291 -1.537 4.292
 -0.266 -1.537 4.295
 -0.239 -1.535 4.29
 -0.214 -1.534 4.288
 -0.188 -1.533 4.287
 -0.162 -1.534 4.288
 -0.137 -1.534 4.291
 -0.111 -1.534 4.289
 -0.085 -1.531 4.282
 -0.059 -1.532 4.285
 -0.034 -1.532 4.285
 -0.008 -1.531 4.281
 0.016 -1.532 4.283
 0.042 -1.535 4.29
 0.068 -1.534 4.287
 0.093 -1.532 4.282
 0.119 -1.533 4.282
 0.145 -1.532 4.28
 0.17 -1.531 4.277
 0.196 -1.531 4.275
 0.221 -1.533 4.278
 0.247 -1.533 4.277
 0.273 -1.534 4.278
 0.298 -1.534 4.276
 0.324 -1.534 4.274
 0.35 -1.533 4.27
 0.375 -1.533 4.268
 0.4 -1.532 4.263
 0.426 -1.533 4.262
 0.452 -1.534 4.263
 0.478 -1.535 4.264
 0.504 -1.536 4.263
 0.53 -1.537 4.263
 0.556 -1.539 4.265
 0.582 -1.538 4.26
 0.607 -1.538 4.257
 0.633 -1.539 4.256
 0.659 -1.54 4.255
 0.684 -1.539 4.249
 0.711 -1.542 4.252
 0.737 -1.542 4.25
 0.763 -1.542 4.244
 0.79 -1.544 4.247
 0.816 -1.546 4.248
 0.842 -1.547 4.244
 0.869 -1.549 4.246
 0.897 -1.552 4.249
 0.923 -1.553 4.246
 0.95 -1.555 4.246
 0.977 -1.557 4.246
 1.004 -1.558 4.244
 1.031 -1.56 4.245
 1.058 -1.561 4.241
 1.084 -1.562 4.237
 1.11 -1.562 4.23
 1.138 -1.564 4.23
 1.165 -1.566 4.228
 1.193 -1.569 4.229
 1.22 -1.57 4.227
 1.25 -1.575 4.232
 1.276 -1.575 4.226
 1.304 -1.577 4.223
 1.331 -1.577 4.217
 1.359 -1.58 4.217
 1.386 -1.582 4.213
 1.415 -1.584 4.212
 1.443 -1.586 4.208
 1.471 -1.588 4.205
 1.499 -1.59 4.201
 1.527 -1.591 4.197
 1.554 -1.592 4.19
 1.582 -1.594 4.186
 1.609 -1.594 4.176
 1.635 -1.594 4.168
 1.663 -1.596 4.161
 1.69 -1.596 4.153
 1.717 -1.596 4.143
 1.743 -1.596 4.132
 1.766 -1.593 4.114
 1.787 -1.588 4.091
 1.807 -1.583 4.067
 1.822 -1.574 4.033
 1.837 -1.564 3.996
 1.848 -1.552 3.954
 1.857 -1.538 3.909
 1.861 -1.52 3.852
 1.869 -1.507 3.807
 1.874 -1.491 3.755
 1.875 -1.472 3.697
 0 0 0
 0 0 0
 0 0 0
 0 0 0
 1.739 -1.283 3.169
 1.754 -1.278 3.146
 1.764 -1.271 3.117
 1.773 -1.262 3.085
 1.778 -1.251 3.047
 1.781 -1.239 3.005
 1.782 -1.225 2.962
 1.766 -1.201 2.892
 -2.396 -1.619 4.076
 -2.353 -1.608 4.063
 -1.854 -1.283 3.249
 -1.83 -1.281 3.255
 -1.897 -1.345 3.428
 -1.787 -1.282 3.278
 -1.765 -1.282 3.288
 -1.828 -1.345 3.461
 -1.892 -1.41 3.638
 -1.953 -1.474 3.816
 -2.011 -1.538 3.995
 -1.985 -1.539 4.007
 -1.958 -1.538 4.017
 -1.934 -1.54 4.032
 -1.909 -1.541 4.046
 -1.878 -1.538 4.049
 -1.93 -1.603 4.23
 -1.899 -1.6 4.234
 -1.87 -1.599 4.241
 -1.841 -1.597 4.247
 -1.814 -1.598 4.258
 -1.786 -1.598 4.267
 -1.756 -1.596 4.272
 -1.727 -1.594 4.278
 -1.698 -1.592 4.282
 -1.667 -1.59 4.283
 -1.637 -1.587 4.284
 -1.608 -1.585 4.288
 -1.578 -1.582 4.289
 -1.549 -1.58 4.292
 -1.521 -1.58 4.299
 -1.494 -1.579 4.305
 -1.466 -1.578 4.31
 -1.437 -1.577 4.314
 -1.408 -1.575 4.315
 -1.378 -1.571 4.313
 -1.349 -1.569 4.313
 -1.321 -1.567 4.316
 -1.293 -1.566 4.318
 -1.264 -1.563 4.318
 -1.235 -1.56 4.316
 -1.207 -1.559 4.319
 -1.178 -1.556 4.316
 -1.15 -1.554 4.317
 -1.123 -1.553 4.32
 -1.095 -1.552 4.322
 -1.066 -1.549 4.319
 -1.039 -1.547 4.319
 -1.01 -1.544 4.316
 -0.983 -1.543 4.318
 -0.956 -1.542 4.318
 -0.927 -1.539 4.314
 -0.9 -1.537 4.314
 -0.873 -1.535 4.313
 -0.845 -1.533 4.311
 -0.818 -1.531 4.31
 -0.792 -1.531 4.312
 -0.765 -1.53 4.312
 -0.738 -1.529 4.314
 -0.711 -1.527 4.311
 -0.684 -1.525 4.31
 -0.658 -1.523 4.308
 -0.631 -1.521 4.304
 -0.604 -1.52 4.303
 -0.578 -1.519 4.304
 -0.552 -1.519 4.306
 -0.526 -1.519 4.307
 -0.5 -1.519 4.311
 -0.474 -1.518 4.31
 -0.448 -1.518 4.313
 -0.422 -1.518 4.314
 -0.395 -1.516 4.309
 -0.369 -1.515 4.308
 -0.343 -1.515 4.308
 -0.317 -1.512 4.302
 -0.291 -1.51 4.297
 -0.265 -1.511 4.301
 -0.239 -1.509 4.296
 -0.213 -1.507 4.293
 -0.187 -1.506 4.29
 -0.162 -1.506 4.289
 -0.136 -1.505 4.287
 -0.11 -1.503 4.283
 -0.085 -1.503 4.281
 -0.059 -1.504 4.285
 -0.034 -1.505 4.287
 -0.008 -1.504 4.284
 0.017 -1.505 4.288
 0.042 -1.507 4.293
 0.068 -1.506 4.289
 0.093 -1.506 4.288
 0.119 -1.507 4.29
 0.145 -1.507 4.29
 0.17 -1.507 4.287
 0.196 -1.507 4.286
 0.222 -1.507 4.284
 0.247 -1.505 4.279
 0.273 -1.506 4.279
 0.298 -1.506 4.276
 0.324 -1.506 4.276
 0.349 -1.506 4.275
 0.375 -1.507 4.273
 0.4 -1.506 4.269
 0.426 -1.506 4.268
 0.452 -1.507 4.266
 0.477 -1.507 4.265
 0.504 -1.509 4.267
 0.529 -1.51 4.267
 0.556 -1.511 4.268
 0.582 -1.512 4.268
 0.607 -1.513 4.265
 0.633 -1.514 4.264
 0.659 -1.515 4.263
 0.685 -1.515 4.261
 0.711 -1.516 4.26
 0.737 -1.516 4.257
 0.763 -1.516 4.252
 0.79 -1.518 4.254
 0.816 -1.519 4.253
 0.842 -1.52 4.25
 0.869 -1.523 4.252
 0.896 -1.525 4.255
 0.923 -1.526 4.251
 0.95 -1.529 4.253
 0.977 -1.53 4.253
 1.004 -1.532 4.253
 1.032 -1.535 4.254
 1.059 -1.536 4.252
 1.086 -1.538 4.25
 1.112 -1.538 4.245
 1.139 -1.54 4.244
 1.166 -1.541 4.239
 1.193 -1.543 4.239
 1.221 -1.545 4.237
 1.25 -1.549 4.242
 1.278 -1.55 4.239
 1.306 -1.552 4.237
 1.333 -1.554 4.233
 1.361 -1.556 4.231
 1.389 -1.558 4.229
 1.418 -1.56 4.228
 1.447 -1.563 4.227
 1.474 -1.565 4.223
 1.504 -1.568 4.223
 1.531 -1.569 4.218
 1.56 -1.571 4.214
 1.588 -1.573 4.208
 1.615 -1.574 4.202
 1.642 -1.574 4.193
 1.67 -1.576 4.188
 1.698 -1.577 4.181
 1.726 -1.578 4.175
 1.751 -1.577 4.162
 1.775 -1.575 4.145
 1.795 -1.569 4.119
 1.813 -1.562 4.09
 1.827 -1.551 4.05
 1.843 -1.543 4.018
 1.854 -1.53 3.975
 1.866 -1.52 3.936
 1.872 -1.504 3.884
 1.88 -1.49 3.837
 1.877 -1.469 3.77
 0 0 0
 0 0 0
 0 0 0
 0 0 0
 0 0 0
 1.742 -1.264 3.181
 1.757 -1.259 3.159
 1.768 -1.252 3.131
 1.779 -1.245 3.102
 1.787 -1.236 3.07
 1.791 -1.225 3.03
 1.787 -1.208 2.977
 1.767 -1.182 2.901
 -2.406 -1.598 4.104
 -0.006 -0.005 -0.002
 -1.416 -0.963 2.484
 -1.396 -0.961 2.486
 -1.468 -1.023 2.656
 -1.361 -0.96 2.5
 -1.436 -1.026 2.68
 -1.503 -1.087 2.85
 -1.659 -1.215 3.197
 -1.721 -1.277 3.371
 -1.781 -1.339 3.544
 -1.67 -1.273 3.377
 -1.729 -1.336 3.555
 -1.707 -1.337 3.567
 -1.766 -1.402 3.751
 -1.817 -1.463 3.925
 -1.949 -1.591 4.282
 -1.919 -1.589 4.289
 -1.889 -1.587 4.293
 -1.858 -1.585 4.297
 -1.83 -1.585 4.307
 -1.802 -1.584 4.316
 -1.771 -1.581 4.316
 -1.74 -1.578 4.318
 -1.709 -1.576 4.32
 -1.678 -1.573 4.321
 -1.648 -1.57 4.321
 -1.618 -1.568 4.324
 -1.589 -1.566 4.328
 -1.56 -1.565 4.333
 -1.532 -1.563 4.338
 -1.502 -1.561 4.339
 -1.474 -1.56 4.344
 -1.444 -1.557 4.343
 -1.414 -1.554 4.342
 -1.383 -1.55 4.337
 -1.354 -1.547 4.337
 -1.324 -1.544 4.335
 -1.295 -1.542 4.335
 -1.266 -1.54 4.336
 -1.238 -1.538 4.337
 -1.209 -1.535 4.336
 -1.18 -1.532 4.333
 -1.151 -1.53 4.332
 -1.123 -1.528 4.332
 -1.095 -1.526 4.332
 -1.067 -1.523 4.33
 -1.039 -1.522 4.33
 -1.011 -1.519 4.328
 -0.984 -1.518 4.331
 -0.956 -1.517 4.33
 -0.928 -1.514 4.327
 -0.901 -1.512 4.326
 -0.874 -1.511 4.326
 -0.846 -1.508 4.323
 -0.818 -1.506 4.319
 -0.792 -1.505 4.321
 -0.765 -1.504 4.321
 -0.738 -1.502 4.319
 -0.711 -1.5 4.316
 -0.684 -1.498 4.315
 -0.657 -1.496 4.313
 -0.63 -1.494 4.309
 -0.603 -1.493 4.308
 -0.577 -1.491 4.306
 -0.551 -1.491 4.309
 -0.525 -1.491 4.31
 -0.499 -1.491 4.313
 -0.473 -1.491 4.313
 -0.447 -1.49 4.315
 -0.421 -1.49 4.314
 -0.395 -1.488 4.31
 -0.369 -1.487 4.31
 -0.343 -1.487 4.311
 -0.317 -1.486 4.309
 -0.291 -1.484 4.306
 -0.265 -1.486 4.311
 -0.239 -1.483 4.304
 -0.213 -1.482 4.3
 -0.187 -1.48 4.297
 -0.162 -1.479 4.294
 -0.136 -1.477 4.288
 -0.11 -1.477 4.289
 -0.084 -1.476 4.286
 -0.059 -1.477 4.289
 -0.033 -1.478 4.292
 -0.008 -1.478 4.29
 0.017 -1.478 4.292
 0.042 -1.481 4.298
 0.068 -1.48 4.295
 0.094 -1.48 4.294
 0.119 -1.481 4.297
 0.145 -1.481 4.295
 0.17 -1.479 4.29
 0.196 -1.479 4.288
 0.221 -1.479 4.286
 0.247 -1.478 4.282
 0.273 -1.479 4.284
 0.298 -1.479 4.283
 0.324 -1.48 4.282
 0.349 -1.479 4.279
 0.375 -1.48 4.278
 0.4 -1.479 4.274
 0.426 -1.479 4.271
 0.452 -1.48 4.27
 0.477 -1.48 4.27
 0.503 -1.482 4.271
 0.529 -1.483 4.27
 0.555 -1.484 4.271
 0.581 -1.485 4.272
 0.607 -1.486 4.271
 0.633 -1.487 4.269
 0.659 -1.487 4.267
 0.685 -1.488 4.265
 0.711 -1.489 4.263
 0.737 -1.489 4.26
 0.763 -1.49 4.259
 0.79 -1.492 4.261
 0.816 -1.493 4.259
 0.842 -1.494 4.257
 0.869 -1.496 4.258
 0.896 -1.498 4.26
 0.922 -1.499 4.257
 0.95 -1.502 4.259
 0.976 -1.503 4.256
 1.003 -1.505 4.257
 1.03 -1.506 4.256
 1.057 -1.508 4.255
 1.085 -1.51 4.254
 1.111 -1.511 4.251
 1.139 -1.513 4.25
 1.166 -1.514 4.247
 1.193 -1.515 4.244
 1.221 -1.518 4.244
 1.25 -1.521 4.246
 1.277 -1.523 4.245
 1.305 -1.525 4.244
 1.334 -1.528 4.243
 1.361 -1.529 4.24
 1.391 -1.533 4.241
 1.419 -1.535 4.239
 1.448 -1.538 4.238
 1.475 -1.539 4.234
 1.505 -1.542 4.234
 1.532 -1.543 4.228
 1.561 -1.545 4.225
 1.59 -1.548 4.222
 1.618 -1.55 4.218
 1.646 -1.551 4.212
 1.675 -1.553 4.208
 1.703 -1.554 4.201
 1.731 -1.555 4.195
 1.755 -1.554 4.18
 1.779 -1.551 4.162
 1.798 -1.545 4.135
 1.817 -1.538 4.106
 1.831 -1.528 4.069
 1.848 -1.521 4.039
 1.86 -1.509 3.997
 1.877 -1.502 3.967
 1.89 -1.492 3.929
 1.9 -1.48 3.887
 0 0 0
 0 0 0
 0 0 0
 0 0 0
 0 0 0
 0 0 0
 1.809 -1.29 3.311
 1.799 -1.267 3.242
 1.768 -1.231 3.138
 1.781 -1.226 3.113
 1.794 -1.22 3.088
 1.802 -1.211 3.056
 1.831 -1.217 3.059
 0 0 0
 -0.033 -0.023 0.044
 -0.032 -0.022 0.043
 -0.971 -0.649 1.703
 -0.954 -0.646 1.699
 -1.034 -0.708 1.871
 -0.933 -0.648 1.714
 -1.014 -0.712 1.892
 -1.085 -0.772 2.059
 -1.247 -0.898 2.405
 -1.313 -0.957 2.573
 -1.375 -1.016 2.739
 -1.266 -0.948 2.562
 -1.414 -1.073 2.911
 -1.476 -1.136 3.089
 -1.618 -1.262 3.444
 -1.753 -1.386 3.794
 -1.965 -1.576 4.326
 -1.933 -1.573 4.329
 -1.902 -1.571 4.333
 -1.871 -1.568 4.336
 -1.841 -1.567 4.342
 -1.811 -1.564 4.346
 -1.779 -1.561 4.346
 -1.747 -1.557 4.345
 -1.715 -1.553 4.343
 -1.684 -1.55 4.343
 -1.653 -1.547 4.345
 -1.624 -1.545 4.348
 -1.594 -1.544 4.352
 -1.565 -1.542 4.354
 -1.536 -1.541 4.359
 -1.506 -1.538 4.359
 -1.477 -1.536 4.362
 -1.447 -1.533 4.36
 -1.416 -1.53 4.358
 -1.384 -1.524 4.35
 -1.355 -1.522 4.35
 -1.325 -1.518 4.346
 -1.295 -1.515 4.345
 -1.266 -1.513 4.344
 -1.238 -1.511 4.346
 -1.208 -1.508 4.342
 -1.18 -1.505 4.34
 -1.151 -1.503 4.34
 -1.123 -1.501 4.34
 -1.094 -1.498 4.337
 -1.066 -1.496 4.335
 -1.038 -1.494 4.336
 -1.01 -1.492 4.334
 -0.983 -1.491 4.336
 -0.956 -1.489 4.335
 -0.928 -1.487 4.333
 -0.9 -1.485 4.331
 -0.872 -1.482 4.328
 -0.845 -1.48 4.326
 -0.818 -1.479 4.325
 -0.791 -1.478 4.325
 -0.764 -1.476 4.323
 -0.737 -1.474 4.32
 -0.709 -1.471 4.317
 -0.682 -1.469 4.314
 -0.656 -1.468 4.312
 -0.629 -1.466 4.31
 -0.603 -1.465 4.31
 -0.576 -1.463 4.308
 -0.55 -1.464 4.312
 -0.524 -1.463 4.312
 -0.498 -1.463 4.314
 -0.472 -1.462 4.313
 -0.446 -1.462 4.314
 -0.42 -1.461 4.312
 -0.394 -1.459 4.31
 -0.368 -1.459 4.309
 -0.342 -1.458 4.31
 -0.316 -1.458 4.31
 -0.29 -1.456 4.305
 -0.265 -1.457 4.309
 -0.239 -1.455 4.305
 -0.213 -1.454 4.303
 -0.187 -1.453 4.299
 -0.161 -1.452 4.298
 -0.135 -1.45 4.293
 -0.11 -1.45 4.292
 -0.084 -1.45 4.291
 -0.059 -1.451 4.295
 -0.033 -1.452 4.296
 -0.008 -1.451 4.294
 0.017 -1.452 4.297
 0.043 -1.453 4.3
 0.068 -1.452 4.296
 0.094 -1.452 4.294
 0.119 -1.453 4.297
 0.145 -1.452 4.294
 0.17 -1.451 4.29
 0.196 -1.451 4.288
 0.221 -1.451 4.288
 0.247 -1.45 4.282
 0.272 -1.451 4.282
 0.298 -1.451 4.282
 0.323 -1.452 4.282
 0.349 -1.452 4.28
 0.375 -1.452 4.279
 0.4 -1.452 4.277
 0.425 -1.452 4.273
 0.451 -1.452 4.271
 0.476 -1.452 4.267
 0.503 -1.454 4.272
 0.529 -1.455 4.272
 0.555 -1.457 4.274
 0.581 -1.459 4.279
 0.608 -1.461 4.279
 0.633 -1.46 4.274
 0.659 -1.46 4.271
 0.684 -1.46 4.267
 0.71 -1.46 4.262
 0.736 -1.461 4.261
 0.762 -1.462 4.261
 0.789 -1.465 4.265
 0.815 -1.466 4.264
 0.842 -1.467 4.263
 0.869 -1.469 4.263
 0.895 -1.471 4.262
 0.921 -1.471 4.259
 0.949 -1.474 4.262
 0.975 -1.475 4.26
 1.002 -1.476 4.257
 1.029 -1.479 4.259
 1.057 -1.48 4.258
 1.084 -1.482 4.257
 1.111 -1.484 4.257
 1.139 -1.487 4.257
 1.166 -1.488 4.254
 1.193 -1.489 4.252
 1.221 -1.492 4.253
 1.25 -1.495 4.254
 1.278 -1.497 4.253
 1.306 -1.499 4.252
 1.333 -1.501 4.25
 1.36 -1.502 4.245
 1.389 -1.504 4.244
 1.417 -1.506 4.241
 1.445 -1.509 4.24
 1.473 -1.51 4.236
 1.503 -1.513 4.235
 1.531 -1.515 4.232
 1.56 -1.517 4.23
 1.589 -1.52 4.227
 1.618 -1.522 4.226
 1.646 -1.524 4.221
 1.676 -1.527 4.218
 1.704 -1.528 4.213
 1.733 -1.53 4.209
 1.758 -1.529 4.194
 1.781 -1.526 4.177
 1.801 -1.52 4.15
 1.82 -1.514 4.121
 1.835 -1.505 4.086
 1.852 -1.498 4.056
 1.868 -1.49 4.023
 1.885 -1.482 3.992
 1.9 -1.474 3.958
 0 0 0
 0 0 0
 0 0 0
 0 0 0
 0 0 0
 0 0 0
 0 0 0
 1.568 -1.099 2.876
 1.662 -1.151 3.002
 1.781 -1.218 3.167
 1.795 -1.213 3.144
 1.81 -1.21 3.123
 1.823 -1.204 3.097
 1.832 -1.197 3.067
 0 0 0
 -0.065 -0.043 0.099
 -0.077 -0.051 0.122
 -0.524 -0.345 0.915
 -0.513 -0.342 0.91
 -0.598 -0.403 1.08
 -0.499 -0.341 0.913
 -0.582 -0.402 1.083
 -0.659 -0.461 1.248
 -0.824 -0.583 1.588
 -0.979 -0.702 1.92
 -1.046 -0.76 2.085
 -0.942 -0.694 1.908
 -1.179 -0.879 2.429
 -1.325 -1.001 2.777
 -1.468 -1.125 3.129
 -1.683 -1.308 3.651
 -1.974 -1.555 4.356
 -1.942 -1.552 4.358
 -1.912 -1.551 4.364
 -1.881 -1.548 4.368
 -1.849 -1.546 4.37
 -1.817 -1.542 4.37
 -1.785 -1.538 4.37
 -1.751 -1.533 4.365
 -1.718 -1.529 4.361
 -1.686 -1.525 4.358
 -1.656 -1.522 4.36
 -1.625 -1.52 4.361
 -1.596 -1.518 4.364
 -1.565 -1.514 4.362
 -1.536 -1.513 4.367
 -1.505 -1.51 4.365
 -1.476 -1.508 4.367
 -1.445 -1.504 4.364
 -1.415 -1.502 4.364
 -1.384 -1.497 4.358
 -1.355 -1.495 4.358
 -1.323 -1.49 4.351
 -1.294 -1.487 4.349
 -1.265 -1.485 4.349
 -1.237 -1.483 4.35
 -1.207 -1.479 4.344
 -1.179 -1.478 4.346
 -1.151 -1.476 4.347
 -1.122 -1.474 4.345
 -1.094 -1.471 4.343
 -1.065 -1.468 4.339
 -1.037 -1.466 4.339
 -1.008 -1.463 4.334
 -0.981 -1.461 4.334
 -0.953 -1.46 4.333
 -0.926 -1.458 4.334
 -0.898 -1.456 4.33
 -0.871 -1.454 4.33
 -0.844 -1.452 4.328
 -0.817 -1.451 4.329
 -0.79 -1.45 4.328
 -0.763 -1.448 4.326
 -0.736 -1.447 4.325
 -0.709 -1.445 4.325
 -0.682 -1.443 4.32
 -0.655 -1.441 4.319
 -0.629 -1.44 4.318
 -0.602 -1.438 4.314
 -0.575 -1.436 4.31
 -0.55 -1.436 4.313
 -0.523 -1.435 4.313
 -0.497 -1.435 4.315
 -0.471 -1.434 4.312
 -0.445 -1.433 4.311
 -0.419 -1.431 4.309
 -0.393 -1.43 4.306
 -0.367 -1.429 4.304
 -0.341 -1.429 4.308
 -0.316 -1.43 4.309
 -0.29 -1.428 4.306
 -0.264 -1.429 4.31
 -0.238 -1.428 4.308
 -0.212 -1.427 4.307
 -0.187 -1.426 4.302
 -0.161 -1.425 4.301
 -0.135 -1.424 4.298
 -0.11 -1.423 4.295
 -0.084 -1.423 4.294
 -0.059 -1.425 4.3
 -0.033 -1.424 4.299
 -0.007 -1.424 4.298
 0.017 -1.424 4.298
 0.043 -1.424 4.298
 0.068 -1.422 4.291
 0.094 -1.424 4.294
 0.119 -1.423 4.291
 0.144 -1.422 4.288
 0.17 -1.422 4.287
 0.195 -1.423 4.286
 0.221 -1.422 4.285
 0.246 -1.422 4.283
 0.272 -1.426 4.291
 0.298 -1.426 4.29
 0.324 -1.426 4.289
 0.349 -1.427 4.288
 0.375 -1.428 4.289
 0.4 -1.426 4.283
 0.426 -1.426 4.281
 0.451 -1.426 4.278
 0.476 -1.425 4.273
 0.503 -1.428 4.278
 0.528 -1.428 4.276
 0.555 -1.43 4.279
 0.581 -1.433 4.285
 0.608 -1.435 4.285
 0.633 -1.434 4.279
 0.659 -1.435 4.279
 0.684 -1.434 4.273
 0.71 -1.434 4.268
 0.736 -1.435 4.268
 0.762 -1.436 4.267
 0.789 -1.438 4.269
 0.815 -1.44 4.269
 0.841 -1.441 4.267
 0.868 -1.442 4.265
 0.894 -1.443 4.265
 0.92 -1.443 4.26
 0.948 -1.446 4.263
 0.974 -1.447 4.261
 1.001 -1.449 4.26
 1.028 -1.45 4.26
 1.055 -1.452 4.26
 1.082 -1.454 4.258
 1.11 -1.457 4.261
 1.138 -1.459 4.262
 1.165 -1.461 4.259
 1.192 -1.462 4.258
 1.221 -1.465 4.26
 1.248 -1.466 4.255
 1.276 -1.469 4.256
 1.304 -1.47 4.253
 1.332 -1.472 4.251
 1.358 -1.473 4.246
 1.388 -1.476 4.248
 1.415 -1.478 4.243
 1.444 -1.48 4.243
 1.472 -1.482 4.24
 1.501 -1.485 4.239
 1.529 -1.486 4.235
 1.558 -1.489 4.233
 1.588 -1.492 4.232
 1.617 -1.494 4.23
 1.645 -1.496 4.226
 1.674 -1.498 4.222
 1.703 -1.5 4.218
 1.731 -1.502 4.212
 1.758 -1.502 4.203
 1.782 -1.5 4.186
 1.803 -1.495 4.163
 1.823 -1.489 4.136
 1.839 -1.481 4.103
 1.855 -1.474 4.071
 1.873 -1.467 4.042
 1.889 -1.459 4.009
 0 0 0
 0 0 0
 0 0 0
 0 0 0
 0 0 0
 0.596 -0.428 1.144
 0.604 -0.428 1.14
 0.611 -0.428 1.136
 1.378 -0.949 2.531
 1.539 -1.047 2.784
 1.782 -1.198 3.177
 1.8 -1.196 3.16
 1.818 -1.193 3.143
 1.738 -1.128 2.96
 0 0 0
 0 0 0
 -0.112 -0.072 0.18
 -0.053 -0.035 0.08
 -0.167 -0.109 0.283
 -0.158 -0.105 0.272
 -0.155 -0.104 0.271
 -0.06 -0.041 0.098
 -0.145 -0.099 0.26
 -0.226 -0.156 0.421
 -0.394 -0.274 0.754
 -0.552 -0.389 1.08
 -0.624 -0.445 1.241
 -0.526 -0.381 1.062
 -0.851 -0.623 1.753
 -1 -0.742 2.097
 -1.227 -0.924 2.62
 -1.527 -1.165 3.319
 -1.898 -1.468 4.197
 -1.867 -1.465 4.198
 -1.914 -1.524 4.378
 -1.882 -1.522 4.381
 -1.848 -1.517 4.377
 -1.817 -1.514 4.378
 -1.784 -1.51 4.376
 -1.751 -1.506 4.373
 -1.718 -1.501 4.37
 -1.687 -1.498 4.369
 -1.656 -1.495 4.37
 -1.626 -1.493 4.371
 -1.596 -1.491 4.374
 -1.565 -1.487 4.371
 -1.535 -1.485 4.374
 -1.504 -1.481 4.37
 -1.474 -1.479 4.371
 -1.443 -1.475 4.366
 -1.413 -1.472 4.365
 -1.382 -1.468 4.361
 -1.353 -1.466 4.36
 -1.323 -1.462 4.356
 -1.294 -1.46 4.357
 -1.265 -1.458 4.356
 -1.236 -1.456 4.356
 -1.206 -1.452 4.352
 -1.178 -1.45 4.35
 -1.149 -1.448 4.349
 -1.121 -1.445 4.347
 -1.092 -1.443 4.345
 -1.063 -1.439 4.339
 -1.035 -1.437 4.338
 -1.006 -1.434 4.333
 -0.979 -1.433 4.335
 -0.952 -1.432 4.335
 -0.926 -1.431 4.339
 -0.898 -1.429 4.337
 -0.871 -1.428 4.338
 -0.843 -1.425 4.331
 -0.816 -1.424 4.334
 -0.79 -1.424 4.335
 -0.762 -1.42 4.329
 -0.735 -1.419 4.329
 -0.709 -1.419 4.331
 -0.681 -1.415 4.323
 -0.654 -1.412 4.317
 -0.628 -1.413 4.32
 -0.601 -1.41 4.315
 -0.575 -1.409 4.315
 -0.549 -1.409 4.317
 -0.523 -1.409 4.318
 -0.497 -1.408 4.319
 -0.471 -1.407 4.316
 -0.444 -1.405 4.311
 -0.418 -1.403 4.309
 -0.392 -1.402 4.306
 -0.366 -1.401 4.306
 -0.341 -1.402 4.308
 -0.315 -1.402 4.312
 -0.289 -1.402 4.311
 -0.264 -1.402 4.313
 -0.238 -1.401 4.31
 -0.212 -1.4 4.308
 -0.186 -1.398 4.301
 -0.16 -1.396 4.298
 -0.135 -1.395 4.295
 -0.109 -1.395 4.293
 -0.084 -1.395 4.295
 -0.058 -1.398 4.303
 -0.033 -1.398 4.304
 -0.007 -1.398 4.304
 0.017 -1.397 4.301
 0.043 -1.397 4.299
 0.068 -1.395 4.293
 0.094 -1.397 4.298
 0.119 -1.395 4.292
 0.144 -1.395 4.29
 0.17 -1.395 4.289
 0.195 -1.396 4.29
 0.221 -1.395 4.286
 0.246 -1.395 4.285
 0.272 -1.399 4.296
 0.298 -1.4 4.295
 0.323 -1.399 4.293
 0.349 -1.4 4.293
 0.375 -1.402 4.297
 0.4 -1.401 4.291
 0.426 -1.401 4.289
 0.451 -1.401 4.286
 0.477 -1.4 4.281
 0.503 -1.402 4.285
 0.529 -1.403 4.284
 0.555 -1.404 4.285
 0.582 -1.408 4.294
 0.608 -1.409 4.293
 0.633 -1.407 4.285
 0.659 -1.408 4.284
 0.684 -1.407 4.277
 0.709 -1.407 4.271
 0.736 -1.409 4.274
 0.762 -1.41 4.272
 0.789 -1.412 4.276
 0.815 -1.414 4.276
 0.842 -1.415 4.275
 0.868 -1.415 4.271
 0.894 -1.417 4.272
 0.919 -1.416 4.264
 0.947 -1.418 4.266
 0.973 -1.419 4.262
 0.999 -1.42 4.259
 1.026 -1.421 4.258
 1.053 -1.424 4.26
 1.08 -1.425 4.258
 1.109 -1.428 4.261
 1.137 -1.431 4.264
 1.164 -1.432 4.261
 1.19 -1.433 4.257
 1.219 -1.437 4.261
 1.246 -1.437 4.256
 1.274 -1.44 4.255
 1.301 -1.441 4.252
 1.33 -1.444 4.253
 1.356 -1.444 4.247
 1.385 -1.447 4.247
 1.412 -1.448 4.243
 1.442 -1.451 4.244
 1.47 -1.453 4.241
 1.498 -1.455 4.237
 1.527 -1.457 4.236
 1.556 -1.46 4.235
 1.586 -1.463 4.235
 1.615 -1.465 4.232
 1.644 -1.468 4.231
 1.673 -1.47 4.227
 1.701 -1.472 4.222
 1.73 -1.474 4.217
 1.757 -1.474 4.208
 1.781 -1.472 4.192
 1.803 -1.468 4.171
 1.822 -1.462 4.144
 1.839 -1.455 4.11
 1.855 -1.447 4.078
 1.871 -1.439 4.044
 0 0 0
 0 0 0
 0 0 0
 0 0 0
 0 0 0
 0 0 0
 0.596 -0.421 1.146
 0.604 -0.421 1.143
 0.611 -0.42 1.139
 1.33 -0.9 2.449
 1.521 -1.016 2.758
 1.785 -1.178 3.188
 1.805 -1.178 3.176
 1.824 -1.176 3.16
 1.607 -1.024 2.742
 0 0 0
 0 0 0
 -0.108 -0.068 0.174
 -0.121 -0.077 0.199
 -0.091 -0.059 0.15
 -0.082 -0.054 0.135
 -0.078 -0.052 0.131
 -0.07 -0.047 0.118
 -0.152 -0.103 0.275
 -0.144 -0.098 0.263
 -0.223 -0.153 0.423
 -0.297 -0.206 0.575
 -0.286 -0.201 0.564
 -0.276 -0.197 0.553
 -0.686 -0.493 1.414
 -0.919 -0.67 1.931
 -1.228 -0.907 2.628
 -1.608 -1.204 3.502
 -1.898 -1.442 4.206
 -1.868 -1.439 4.21
 -1.914 -1.496 4.388
 -1.883 -1.494 4.391
 -1.849 -1.489 4.387
 -1.817 -1.486 4.388
 -1.784 -1.482 4.385
 -1.751 -1.478 4.382
 -1.717 -1.473 4.376
 -1.686 -1.47 4.376
 -1.656 -1.467 4.377
 -1.625 -1.465 4.378
 -1.595 -1.462 4.379
 -1.564 -1.459 4.379
 -1.534 -1.457 4.378
 -1.502 -1.452 4.373
 -1.472 -1.45 4.373
 -1.441 -1.446 4.37
 -1.411 -1.444 4.369
 -1.381 -1.44 4.366
 -1.352 -1.438 4.365
 -1.322 -1.435 4.362
 -1.292 -1.431 4.358
 -1.263 -1.429 4.357
 -1.234 -1.427 4.357
 -1.205 -1.424 4.355
 -1.176 -1.422 4.354
 -1.149 -1.42 4.355
 -1.12 -1.418 4.352
 -1.091 -1.415 4.348
 -1.062 -1.412 4.344
 -1.034 -1.41 4.343
 -1.006 -1.407 4.339
 -0.979 -1.406 4.34
 -0.951 -1.405 4.341
 -0.925 -1.404 4.345
 -0.897 -1.402 4.343
 -0.871 -1.402 4.345
 -0.842 -1.398 4.336
 -0.816 -1.397 4.339
 -0.789 -1.397 4.34
 -0.761 -1.393 4.333
 -0.735 -1.392 4.333
 -0.709 -1.393 4.34
 -0.681 -1.389 4.33
 -0.654 -1.386 4.323
 -0.628 -1.387 4.327
 -0.601 -1.384 4.32
 -0.574 -1.382 4.317
 -0.548 -1.382 4.319
 -0.522 -1.382 4.322
 -0.496 -1.381 4.322
 -0.47 -1.38 4.319
 -0.444 -1.377 4.314
 -0.417 -1.375 4.309
 -0.391 -1.374 4.306
 -0.365 -1.374 4.307
 -0.34 -1.374 4.308
 -0.314 -1.374 4.312
 -0.289 -1.374 4.312
 -0.263 -1.374 4.312
 -0.237 -1.373 4.311
 -0.212 -1.373 4.311
 -0.186 -1.371 4.305
 -0.16 -1.37 4.303
 -0.135 -1.37 4.301
 -0.109 -1.369 4.299
 -0.084 -1.367 4.295
 -0.058 -1.37 4.304
 -0.033 -1.369 4.301
 -0.007 -1.37 4.303
 0.017 -1.369 4.299
 0.043 -1.371 4.304
 0.068 -1.368 4.296
 0.094 -1.37 4.301
 0.119 -1.368 4.294
 0.144 -1.367 4.289
 0.17 -1.367 4.286
 0.195 -1.367 4.285
 0.221 -1.367 4.285
 0.246 -1.368 4.286
 0.272 -1.372 4.299
 0.298 -1.375 4.304
 0.324 -1.374 4.302
 0.349 -1.375 4.301
 0.375 -1.377 4.305
 0.401 -1.375 4.297
 0.426 -1.375 4.295
 0.452 -1.376 4.294
 0.477 -1.375 4.288
 0.503 -1.377 4.293
 0.529 -1.378 4.293
 0.555 -1.38 4.296
 0.582 -1.382 4.301
 0.608 -1.383 4.299
 0.633 -1.381 4.29
 0.658 -1.382 4.288
 0.683 -1.379 4.277
 0.708 -1.379 4.274
 0.736 -1.383 4.28
 0.761 -1.383 4.276
 0.789 -1.386 4.282
 0.816 -1.388 4.284
 0.842 -1.389 4.281
 0.867 -1.388 4.275
 0.894 -1.391 4.278
 0.919 -1.389 4.268
 0.946 -1.391 4.268
 0.972 -1.392 4.265
 0.998 -1.393 4.263
 1.025 -1.394 4.261
 1.053 -1.396 4.263
 1.08 -1.398 4.263
 1.108 -1.401 4.265
 1.135 -1.403 4.265
 1.162 -1.404 4.261
 1.188 -1.404 4.256
 1.217 -1.407 4.259
 1.243 -1.408 4.254
 1.271 -1.41 4.254
 1.3 -1.413 4.254
 1.328 -1.416 4.256
 1.355 -1.416 4.25
 1.384 -1.419 4.251
 1.411 -1.421 4.247
 1.439 -1.422 4.244
 1.467 -1.424 4.242
 1.496 -1.426 4.238
 1.524 -1.428 4.237
 1.554 -1.431 4.236
 1.584 -1.435 4.238
 1.613 -1.437 4.236
 1.643 -1.44 4.235
 1.672 -1.442 4.232
 1.701 -1.444 4.229
 1.729 -1.445 4.221
 1.755 -1.445 4.212
 1.78 -1.444 4.197
 1.803 -1.442 4.179
 1.824 -1.437 4.156
 1.844 -1.432 4.13
 1.861 -1.425 4.098
 0 0 0
 0 0 0
 0 0 0
 0 0 0
 0 0 0
 0 0 0
 0 0 0
 0.596 -0.413 1.149
 0.604 -0.413 1.145
 0.611 -0.413 1.141
 1.259 -0.836 2.321
 1.472 -0.966 2.675
 1.787 -1.158 3.198
 1.808 -1.157 3.187
 1.828 -1.157 3.175
 1.496 -0.936 2.557
 0 0 0
 0.43 -0.265 0.707
 -0.146 -0.09 0.24
 -0.103 -0.064 0.167
 -0.098 -0.062 0.161
 -0.087 -0.056 0.145
 -0.084 -0.055 0.141
 -0.074 -0.049 0.126
 -0.065 -0.043 0.109
 -0.055 -0.037 0.092
 -0.047 -0.033 0.079
 -0.123 -0.085 0.232
 -0.115 -0.08 0.219
 -0.191 -0.134 0.379
 -0.52 -0.367 1.07
 -0.754 -0.54 1.586
 -1.065 -0.772 2.281
 -1.446 -1.063 3.155
 -1.738 -1.295 3.858
 -1.787 -1.351 4.034
 -1.911 -1.466 4.39
 -1.88 -1.464 4.393
 -1.846 -1.46 4.39
 -1.814 -1.456 4.39
 -1.782 -1.453 4.388
 -1.749 -1.448 4.385
 -1.715 -1.444 4.38
 -1.684 -1.441 4.379
 -1.654 -1.438 4.381
 -1.623 -1.436 4.382
 -1.592 -1.433 4.381
 -1.561 -1.43 4.38
 -1.531 -1.427 4.378
 -1.499 -1.423 4.373
 -1.469 -1.419 4.371
 -1.438 -1.416 4.368
 -1.409 -1.414 4.369
 -1.379 -1.412 4.368
 -1.35 -1.409 4.368
 -1.321 -1.407 4.367
 -1.292 -1.405 4.367
 -1.263 -1.402 4.364
 -1.234 -1.4 4.365
 -1.205 -1.397 4.362
 -1.176 -1.395 4.361
 -1.148 -1.393 4.361
 -1.119 -1.391 4.358
 -1.091 -1.388 4.355
 -1.062 -1.385 4.352
 -1.034 -1.384 4.351
 -1.005 -1.38 4.345
 -0.978 -1.379 4.346
 -0.951 -1.378 4.347
 -0.925 -1.378 4.353
 -0.898 -1.377 4.351
 -0.871 -1.376 4.353
 -0.842 -1.372 4.343
 -0.816 -1.372 4.348
 -0.789 -1.371 4.349
 -0.761 -1.367 4.338
 -0.735 -1.366 4.341
 -0.709 -1.368 4.348
 -0.681 -1.363 4.337
 -0.653 -1.36 4.329
 -0.628 -1.361 4.336
 -0.601 -1.358 4.329
 -0.574 -1.357 4.328
 -0.548 -1.356 4.325
 -0.522 -1.355 4.326
 -0.496 -1.355 4.326
 -0.469 -1.352 4.319
 -0.443 -1.349 4.313
 -0.417 -1.348 4.311
 -0.39 -1.346 4.307
 -0.365 -1.346 4.306
 -0.339 -1.345 4.306
 -0.313 -1.345 4.308
 -0.288 -1.344 4.306
 -0.262 -1.344 4.306
 -0.237 -1.344 4.305
 -0.211 -1.343 4.305
 -0.185 -1.342 4.301
 -0.16 -1.342 4.302
 -0.134 -1.341 4.3
 -0.109 -1.341 4.298
 -0.083 -1.341 4.298
 -0.058 -1.343 4.305
 -0.032 -1.342 4.302
 -0.007 -1.344 4.308
 0.017 -1.343 4.306
 0.043 -1.344 4.308
 0.068 -1.341 4.296
 0.094 -1.344 4.306
 0.119 -1.341 4.294
 0.144 -1.339 4.288
 0.17 -1.339 4.288
 0.195 -1.34 4.288
 0.22 -1.34 4.286
 0.246 -1.341 4.289
 0.273 -1.347 4.307
 0.299 -1.35 4.314
 0.324 -1.35 4.313
 0.35 -1.351 4.314
 0.376 -1.352 4.316
 0.401 -1.35 4.306
 0.427 -1.351 4.306
 0.452 -1.35 4.301
 0.477 -1.348 4.293
 0.503 -1.351 4.3
 0.529 -1.351 4.297
 0.555 -1.353 4.3
 0.582 -1.357 4.31
 0.608 -1.358 4.308
