1.467 -1.655 3.904
1.501 -1.665 3.918
1.505 -1.642 3.855
1.534 -1.646 3.857
1.569 -1.658 3.875
1.577 -1.64 3.823
1.611 -1.65 3.837
1.616 -1.63 3.781
1.661 -1.65 3.818
1.666 -1.63 3.762
1.702 -1.642 3.779
1.744 -1.658 3.806
1.75 -1.64 3.755
1.76 -1.627 3.713
1.761 -1.606 3.654
1.769 -1.591 3.611
1.748 -1.551 3.509
1.741 -1.525 3.439
1.753 -1.516 3.407
0 0 0
0 0 0
1.656 -1.378 3.067
1.693 -1.391 3.086
1.683 -1.367 3.022
1.687 -1.353 2.981
1.68 -1.332 2.923
1.638 -1.284 2.807
1.652 -1.279 2.788
1.656 -1.268 2.753
1.644 -1.245 2.692
1.661 -1.243 2.679
-2.16 -1.61 3.617
-2.135 -1.609 3.628
-2.118 -1.616 3.656
-2.098 -1.62 3.677
-2.075 -1.622 3.694
-2.054 -1.625 3.713
-2.028 -1.625 3.724
-2.005 -1.627 3.74
-1.982 -1.628 3.755
-1.955 -1.628 3.765
-1.93 -1.628 3.776
-1.908 -1.631 3.795
-1.882 -1.631 3.804
-1.853 -1.628 3.808
-1.826 -1.626 3.814
-1.799 -1.624 3.821
-1.771 -1.622 3.825
-1.748 -1.624 3.841
-1.724 -1.626 3.854
-1.697 -1.624 3.86
-1.673 -1.625 3.871
-1.648 -1.626 3.883
-1.62 -1.623 3.885
-1.597 -1.625 3.898
-1.576 -1.63 3.918
-1.549 -1.628 3.922
-1.524 -1.628 3.931
-1.498 -1.627 3.937
-1.47 -1.625 3.94
-1.441 -1.621 3.937
-1.417 -1.622 3.949
-1.389 -1.619 3.949
-1.364 -1.619 3.956
-1.338 -1.618 3.961
-1.314 -1.62 3.973
-1.289 -1.62 3.979
-1.265 -1.622 3.991
-1.241 -1.623 3.999
-1.215 -1.622 4.004
-1.188 -1.62 4.005
-1.163 -1.621 4.013
-1.138 -1.62 4.017
-1.112 -1.619 4.021
-1.087 -1.619 4.026
-1.063 -1.621 4.037
-1.036 -1.619 4.037
-1.012 -1.62 4.044
-0.987 -1.62 4.051
-0.962 -1.621 4.057
-0.937 -1.622 4.064
-0.912 -1.622 4.069
-0.887 -1.621 4.071
-0.861 -1.621 4.075
-0.836 -1.62 4.078
-0.811 -1.621 4.083
-0.785 -1.619 4.083
-0.761 -1.62 4.09
-0.735 -1.619 4.091
-0.711 -1.621 4.099
-0.685 -1.62 4.1
-0.661 -1.623 4.11
-0.635 -1.62 4.106
-0.61 -1.62 4.109
-0.585 -1.62 4.111
-0.559 -1.618 4.11
-0.534 -1.617 4.11
-0.509 -1.619 4.118
-0.485 -1.621 4.124
-0.46 -1.621 4.127
-0.435 -1.621 4.129
-0.41 -1.621 4.131
-0.384 -1.62 4.129
-0.359 -1.62 4.129
-0.334 -1.619 4.13
-0.309 -1.619 4.13
-0.284 -1.619 4.132
-0.259 -1.622 4.14
-0.234 -1.621 4.139
-0.209 -1.622 4.143
-0.184 -1.622 4.143
-0.159 -1.622 4.144
-0.134 -1.621 4.142
-0.109 -1.623 4.147
-0.084 -1.621 4.141
-0.059 -1.624 4.149
-0.034 -1.626 4.154
-0.009 -1.626 4.153
0.015 -1.625 4.153
0.04 -1.629 4.16
0.065 -1.625 4.152
0.09 -1.622 4.143
0.115 -1.623 4.145
0.14 -1.623 4.142
0.165 -1.622 4.139
0.19 -1.622 4.139
0.216 -1.623 4.14
0.24 -1.622 4.135
0.265 -1.622 4.134
0.29 -1.62 4.127
0.315 -1.62 4.126
0.34 -1.62 4.124
0.365 -1.621 4.124
0.39 -1.622 4.124
0.416 -1.624 4.126
0.441 -1.625 4.127
0.466 -1.624 4.121
0.491 -1.624 4.12
0.515 -1.623 4.114
0.541 -1.624 4.113
0.567 -1.628 4.12
0.593 -1.63 4.122
0.618 -1.63 4.117
0.643 -1.63 4.114
0.667 -1.629 4.107
0.691 -1.626 4.096
0.717 -1.628 4.098
0.742 -1.629 4.095
0.768 -1.629 4.091
0.795 -1.633 4.098
0.82 -1.634 4.094
0.844 -1.632 4.085
0.87 -1.633 4.083
0.896 -1.635 4.083
0.92 -1.633 4.074
0.945 -1.634 4.07
0.971 -1.636 4.069
0.996 -1.635 4.062
1.022 -1.636 4.057
1.047 -1.637 4.054
1.073 -1.638 4.051
1.099 -1.639 4.046
1.124 -1.639 4.042
1.15 -1.64 4.037
1.176 -1.641 4.032
1.202 -1.642 4.029
1.229 -1.644 4.027
1.253 -1.644 4.018
1.277 -1.642 4.008
1.303 -1.643 4.001
1.327 -1.641 3.99
1.352 -1.641 3.981
1.377 -1.641 3.974
1.404 -1.643 3.971
1.43 -1.644 3.964
1.456 -1.645 3.958
1.48 -1.644 3.947
1.508 -1.647 3.945
1.533 -1.647 3.937
1.557 -1.646 3.925
1.581 -1.644 3.912
1.606 -1.644 3.902
1.63 -1.644 3.892
1.655 -1.644 3.882
1.679 -1.642 3.868
1.702 -1.64 3.853
1.72 -1.633 3.827
1.735 -1.625 3.796
1.745 -1.611 3.754
1.751 -1.594 3.703
1.756 -1.576 3.651
1.761 -1.56 3.603
1.762 -1.54 3.546
1.765 -1.522 3.495
1.759 -1.497 3.427
1.723 -1.448 3.303
1.689 -1.402 3.186
1.68 -1.377 3.12
1.682 -1.362 3.074
1.686 -1.348 3.034
1.682 -1.329 2.98
1.675 -1.308 2.923
1.666 -1.285 2.862
1.659 -1.265 2.807
1.659 -1.251 2.765
1.657 -1.236 2.721
1.68 -1.238 2.716
-2.184 -1.602 3.666
-2.17 -1.611 3.7
-2.143 -1.61 3.709
-2.123 -1.614 3.732
-2.099 -1.615 3.746
-2.076 -1.617 3.763
-2.053 -1.62 3.781
-2.031 -1.622 3.798
-2.006 -1.623 3.812
-1.983 -1.625 3.828
-1.958 -1.626 3.841
-1.934 -1.628 3.856
-1.909 -1.628 3.869
-1.88 -1.626 3.873
-1.854 -1.625 3.884
-1.827 -1.624 3.891
-1.799 -1.622 3.897
-1.774 -1.623 3.908
-1.749 -1.623 3.919
-1.72 -1.62 3.921
-1.696 -1.622 3.936
-1.671 -1.623 3.947
-1.643 -1.62 3.949
-1.62 -1.623 3.964
-1.598 -1.627 3.983
-1.571 -1.625 3.988
-1.545 -1.625 3.996
-1.519 -1.625 4.005
-1.491 -1.623 4.006
-1.463 -1.62 4.007
-1.438 -1.621 4.018
-1.411 -1.619 4.021
-1.384 -1.617 4.024
-1.357 -1.616 4.027
-1.331 -1.616 4.034
-1.306 -1.616 4.042
-1.284 -1.62 4.059
-1.258 -1.619 4.064
-1.232 -1.62 4.07
-1.206 -1.618 4.074
-1.179 -1.617 4.078
-1.152 -1.615 4.077
-1.128 -1.617 4.087
-1.103 -1.617 4.095
-1.078 -1.619 4.105
-1.052 -1.618 4.107
-1.027 -1.618 4.113
-1.001 -1.618 4.117
-0.976 -1.618 4.123
-0.95 -1.618 4.129
-0.925 -1.618 4.133
-0.899 -1.617 4.135
-0.872 -1.616 4.137
-0.847 -1.617 4.142
-0.822 -1.617 4.146
-0.796 -1.615 4.146
-0.771 -1.616 4.153
-0.745 -1.617 4.158
-0.72 -1.618 4.163
-0.695 -1.618 4.168
-0.67 -1.62 4.177
-0.644 -1.618 4.173
-0.618 -1.617 4.175
-0.593 -1.617 4.177
-0.566 -1.614 4.173
-0.541 -1.613 4.172
-0.516 -1.615 4.18
-0.491 -1.617 4.186
-0.466 -1.617 4.189
-0.44 -1.617 4.19
-0.414 -1.615 4.189
-0.388 -1.613 4.184
-0.363 -1.612 4.183
-0.337 -1.611 4.182
-0.312 -1.611 4.184
-0.287 -1.612 4.187
-0.262 -1.614 4.194
-0.236 -1.614 4.194
-0.211 -1.615 4.197
-0.186 -1.615 4.198
-0.161 -1.615 4.199
-0.135 -1.615 4.198
-0.11 -1.616 4.203
-0.085 -1.614 4.197
-0.059 -1.615 4.199
-0.034 -1.616 4.203
-0.009 -1.617 4.204
0.016 -1.617 4.205
0.041 -1.62 4.211
0.066 -1.617 4.203
0.091 -1.614 4.194
0.117 -1.613 4.193
0.142 -1.611 4.185
0.167 -1.611 4.184
0.192 -1.613 4.188
0.218 -1.614 4.188
0.243 -1.612 4.184
0.268 -1.614 4.186
0.293 -1.613 4.182
0.319 -1.612 4.178
0.344 -1.613 4.179
0.369 -1.613 4.177
0.394 -1.613 4.175
0.42 -1.614 4.173
0.445 -1.614 4.172
0.47 -1.613 4.167
0.495 -1.613 4.164
0.52 -1.613 4.161
0.546 -1.613 4.159
0.572 -1.618 4.166
0.598 -1.618 4.165
0.624 -1.619 4.163
0.649 -1.619 4.16
0.674 -1.618 4.153
0.698 -1.615 4.142
0.724 -1.618 4.144
0.75 -1.619 4.143
0.775 -1.619 4.138
0.802 -1.623 4.144
0.828 -1.623 4.141
0.853 -1.623 4.134
0.878 -1.623 4.129
0.904 -1.625 4.129
0.929 -1.624 4.121
0.954 -1.624 4.116
0.981 -1.625 4.115
1.007 -1.626 4.112
1.033 -1.628 4.11
1.058 -1.628 4.104
1.085 -1.63 4.103
1.111 -1.63 4.098
1.136 -1.631 4.093
1.161 -1.631 4.086
1.188 -1.632 4.082
1.215 -1.634 4.08
1.241 -1.636 4.078
1.267 -1.636 4.071
1.293 -1.637 4.067
1.32 -1.639 4.063
1.345 -1.638 4.053
1.37 -1.638 4.045
1.396 -1.638 4.039
1.423 -1.639 4.033
1.448 -1.639 4.023
1.475 -1.641 4.02
1.499 -1.639 4.008
1.526 -1.641 4.002
1.551 -1.641 3.993
1.577 -1.641 3.985
1.599 -1.638 3.968
1.625 -1.638 3.958
1.65 -1.638 3.948
1.675 -1.637 3.936
1.697 -1.634 3.918
1.72 -1.632 3.903
1.735 -1.622 3.871
1.749 -1.612 3.835
1.758 -1.598 3.79
1.762 -1.579 3.736
1.766 -1.561 3.682
1.774 -1.547 3.638
1.772 -1.525 3.575
1.779 -1.511 3.531
1.788 -1.499 3.493
1.723 -1.426 3.312
1.668 -1.363 3.156
1.668 -1.346 3.106
1.678 -1.338 3.076
1.685 -1.327 3.041
1.683 -1.31 2.991
1.677 -1.289 2.933
1.668 -1.267 2.874
1.662 -1.248 2.82
1.662 -1.234 2.777
1.664 -1.221 2.738
1.674 -1.215 2.713
-2.219 -1.602 3.737
-2.224 -1.625 3.802
-2.179 -1.611 3.781
-2.159 -1.615 3.805
-2.132 -1.615 3.816
-2.11 -1.618 3.835
-2.087 -1.62 3.852
-2.062 -1.621 3.868
-2.036 -1.621 3.879
-2.014 -1.625 3.899
-1.988 -1.624 3.91
-1.962 -1.625 3.922
-1.939 -1.627 3.939
-1.91 -1.625 3.944
-1.882 -1.624 3.952
-1.855 -1.623 3.96
-1.828 -1.622 3.968
-1.801 -1.621 3.977
-1.775 -1.622 3.988
-1.746 -1.619 3.989
-1.721 -1.62 4.002
-1.695 -1.62 4.013
-1.666 -1.617 4.014
-1.642 -1.619 4.028
-1.619 -1.622 4.044
-1.592 -1.622 4.052
-1.565 -1.62 4.057
-1.54 -1.621 4.068
-1.511 -1.618 4.069
-1.483 -1.616 4.071
-1.457 -1.616 4.08
-1.43 -1.615 4.085
-1.402 -1.613 4.086
-1.375 -1.611 4.09
-1.349 -1.612 4.098
-1.324 -1.612 4.106
-1.3 -1.615 4.12
-1.274 -1.615 4.127
-1.248 -1.615 4.134
-1.221 -1.613 4.135
-1.194 -1.612 4.138
-1.167 -1.61 4.139
-1.143 -1.612 4.151
-1.117 -1.613 4.159
-1.093 -1.615 4.17
-1.067 -1.615 4.174
-1.04 -1.614 4.177
-1.014 -1.613 4.179
-0.988 -1.613 4.185
-0.961 -1.612 4.187
-0.935 -1.611 4.191
-0.91 -1.612 4.196
-0.883 -1.611 4.197
-0.858 -1.611 4.202
-0.832 -1.612 4.209
-0.806 -1.611 4.21
-0.78 -1.611 4.215
-0.755 -1.612 4.222
-0.73 -1.613 4.226
-0.703 -1.612 4.228
-0.679 -1.614 4.237
-0.651 -1.611 4.232
-0.625 -1.609 4.23
-0.599 -1.608 4.229
-0.572 -1.606 4.227
-0.546 -1.604 4.222
-0.52 -1.604 4.227
-0.495 -1.605 4.231
-0.469 -1.605 4.233
-0.444 -1.604 4.233
-0.418 -1.603 4.233
-0.392 -1.603 4.232
-0.366 -1.602 4.232
-0.341 -1.602 4.233
-0.315 -1.6 4.23
-0.289 -1.601 4.233
-0.264 -1.602 4.238
-0.238 -1.601 4.237
-0.213 -1.601 4.237
-0.187 -1.603 4.241
-0.162 -1.602 4.242
-0.136 -1.602 4.241
-0.111 -1.604 4.245
-0.085 -1.602 4.24
-0.06 -1.6 4.237
-0.034 -1.601 4.24
-0.009 -1.601 4.239
0.016 -1.601 4.237
0.041 -1.603 4.242
0.067 -1.602 4.24
0.092 -1.601 4.235
0.118 -1.599 4.23
0.143 -1.597 4.223
0.168 -1.597 4.223
0.194 -1.598 4.224
0.219 -1.597 4.22
0.245 -1.598 4.22
0.27 -1.6 4.224
0.296 -1.599 4.22
0.321 -1.599 4.219
0.347 -1.6 4.219
0.372 -1.598 4.213
0.397 -1.598 4.209
0.423 -1.599 4.21
0.448 -1.598 4.204
0.473 -1.598 4.202
0.499 -1.599 4.202
0.524 -1.599 4.2
0.55 -1.599 4.194
0.576 -1.602 4.2
0.601 -1.602 4.196
0.627 -1.603 4.196
0.652 -1.602 4.19
0.678 -1.602 4.185
0.703 -1.601 4.179
0.729 -1.603 4.181
0.755 -1.604 4.178
0.78 -1.604 4.175
0.807 -1.607 4.178
0.833 -1.608 4.176
0.858 -1.607 4.168
0.884 -1.608 4.166
0.91 -1.609 4.164
0.936 -1.61 4.161
0.962 -1.61 4.156
0.988 -1.612 4.156
1.014 -1.613 4.151
1.041 -1.614 4.149
1.066 -1.614 4.143
1.093 -1.616 4.142
1.12 -1.618 4.14
1.146 -1.618 4.135
1.172 -1.619 4.13
1.198 -1.619 4.124
1.224 -1.621 4.121
1.251 -1.622 4.117
1.277 -1.623 4.113
1.305 -1.626 4.112
1.333 -1.628 4.111
1.359 -1.628 4.103
1.385 -1.629 4.098
1.412 -1.63 4.092
1.437 -1.63 4.082
1.462 -1.629 4.073
1.49 -1.632 4.071
1.515 -1.631 4.06
1.543 -1.633 4.056
1.569 -1.633 4.047
1.595 -1.634 4.039
1.618 -1.631 4.022
1.643 -1.63 4.012
1.667 -1.629 3.998
1.692 -1.628 3.987
1.714 -1.624 3.966
1.734 -1.619 3.944
1.747 -1.608 3.906
1.759 -1.596 3.866
1.767 -1.581 3.819
1.77 -1.561 3.762
1.775 -1.545 3.71
1.785 -1.532 3.669
1.782 -1.509 3.604
1.79 -1.496 3.562
0 0 0
0 0 0
1.657 -1.333 3.142
1.671 -1.327 3.118
1.68 -1.318 3.086
1.686 -1.306 3.049
1.686 -1.291 3.003
1.68 -1.271 2.946
1.672 -1.25 2.887
1.667 -1.232 2.835
1.666 -1.218 2.792
1.674 -1.209 2.762
1.688 -1.206 2.744
-2.246 -1.596 3.792
-2.22 -1.596 3.805
-2.213 -1.61 3.851
-2.193 -1.614 3.874
-2.165 -1.613 3.885
-2.142 -1.616 3.904
-2.118 -1.618 3.92
-2.09 -1.617 3.93
-2.063 -1.616 3.94
-2.041 -1.62 3.961
-2.014 -1.62 3.972
-1.99 -1.621 3.987
-1.969 -1.626 4.01
-1.941 -1.625 4.019
-1.914 -1.625 4.029
-1.886 -1.623 4.036
-1.858 -1.623 4.044
-1.83 -1.621 4.051
-1.804 -1.622 4.063
-1.775 -1.619 4.066
-1.749 -1.62 4.078
-1.722 -1.62 4.087
-1.692 -1.617 4.088
-1.667 -1.618 4.1
-1.641 -1.618 4.111
-1.614 -1.618 4.118
-1.587 -1.617 4.124
-1.561 -1.618 4.135
-1.531 -1.614 4.134
-1.504 -1.613 4.139
-1.477 -1.613 4.147
-1.451 -1.613 4.154
-1.423 -1.611 4.156
-1.396 -1.61 4.161
-1.369 -1.609 4.166
-1.341 -1.608 4.17
-1.316 -1.608 4.18
-1.289 -1.608 4.185
-1.263 -1.608 4.191
-1.236 -1.607 4.196
-1.21 -1.607 4.203
-1.183 -1.606 4.206
-1.158 -1.608 4.218
-1.133 -1.609 4.226
-1.107 -1.611 4.235
-1.081 -1.61 4.239
-1.053 -1.608 4.238
-1.026 -1.607 4.242
-1 -1.607 4.247
-0.973 -1.605 4.247
-0.946 -1.603 4.246
-0.92 -1.604 4.253
-0.893 -1.602 4.251
-0.866 -1.602 4.255
-0.841 -1.602 4.26
-0.814 -1.601 4.26
-0.787 -1.6 4.263
-0.761 -1.6 4.266
-0.735 -1.598 4.265
-0.708 -1.598 4.266
-0.683 -1.599 4.274
-0.656 -1.596 4.269
-0.629 -1.595 4.268
-0.603 -1.594 4.268
-0.577 -1.592 4.267
-0.55 -1.589 4.262
-0.524 -1.59 4.267
-0.498 -1.591 4.269
-0.472 -1.59 4.27
-0.446 -1.589 4.27
-0.42 -1.589 4.27
-0.394 -1.588 4.269
-0.368 -1.586 4.267
-0.343 -1.586 4.269
-0.317 -1.585 4.265
-0.291 -1.584 4.266
-0.265 -1.584 4.267
-0.239 -1.585 4.269
-0.214 -1.584 4.269
-0.188 -1.585 4.272
-0.163 -1.586 4.274
-0.137 -1.586 4.275
-0.111 -1.587 4.277
-0.085 -1.584 4.27
-0.06 -1.582 4.264
-0.034 -1.582 4.265
-0.008 -1.582 4.265
0.016 -1.582 4.263
0.042 -1.583 4.266
0.067 -1.582 4.264
0.093 -1.581 4.259
0.118 -1.58 4.255
0.144 -1.578 4.25
0.169 -1.579 4.252
0.195 -1.581 4.254
0.221 -1.581 4.253
0.246 -1.58 4.251
0.272 -1.582 4.253
0.297 -1.58 4.247
0.323 -1.58 4.244
0.348 -1.58 4.243
0.373 -1.579 4.237
0.399 -1.578 4.232
0.425 -1.58 4.234
0.45 -1.58 4.231
0.475 -1.579 4.228
0.501 -1.581 4.23
0.527 -1.582 4.23
0.552 -1.581 4.223
0.578 -1.582 4.224
0.604 -1.583 4.222
0.63 -1.583 4.219
0.655 -1.582 4.212
0.68 -1.582 4.209
0.706 -1.582 4.206
0.732 -1.584 4.205
0.758 -1.584 4.203
0.783 -1.585 4.199
0.81 -1.587 4.201
0.836 -1.587 4.197
0.861 -1.587 4.193
0.888 -1.589 4.191
0.915 -1.591 4.193
0.942 -1.593 4.193
0.967 -1.593 4.188
0.994 -1.595 4.188
1.02 -1.596 4.183
1.046 -1.596 4.177
1.071 -1.596 4.171
1.099 -1.599 4.173
1.126 -1.6 4.17
1.152 -1.601 4.166
1.18 -1.604 4.166
1.206 -1.604 4.16
1.232 -1.605 4.155
1.259 -1.606 4.151
1.286 -1.607 4.148
1.313 -1.609 4.145
1.341 -1.612 4.145
1.367 -1.612 4.138
1.394 -1.614 4.133
1.422 -1.616 4.13
1.448 -1.616 4.122
1.473 -1.615 4.112
1.502 -1.618 4.112
1.528 -1.618 4.102
1.554 -1.619 4.095
1.582 -1.62 4.09
1.609 -1.621 4.083
1.632 -1.619 4.067
1.659 -1.619 4.059
1.683 -1.618 4.046
1.706 -1.615 4.028
1.729 -1.612 4.01
1.748 -1.606 3.985
1.761 -1.595 3.946
1.772 -1.581 3.903
1.782 -1.569 3.86
1.783 -1.548 3.799
1.791 -1.533 3.751
1.796 -1.517 3.702
1.789 -1.491 3.627
0 0 0
0 0 0
0 0 0
1.658 -1.312 3.151
1.67 -1.305 3.123
1.678 -1.296 3.091
1.686 -1.286 3.057
1.69 -1.273 3.017
1.685 -1.254 2.962
1.676 -1.233 2.902
1.672 -1.216 2.851
1.669 -1.2 2.803
1.667 -1.185 2.758
1.678 -1.18 2.735
-2.299 -1.607 3.891
-2.316 -1.637 3.979
-2.249 -1.609 3.923
-2.227 -1.613 3.945
-2.198 -1.611 3.955
-2.174 -1.613 3.972
-2.15 -1.615 3.989
-2.122 -1.615 4.001
-2.094 -1.614 4.009
-2.071 -1.617 4.029
-2.044 -1.617 4.041
-2.018 -1.617 4.054
-1.995 -1.621 4.073
-1.967 -1.62 4.082
-1.94 -1.62 4.094
-1.912 -1.619 4.103
-1.886 -1.62 4.115
-1.858 -1.619 4.123
-1.831 -1.619 4.134
-1.802 -1.617 4.138
-1.776 -1.618 4.15
-1.747 -1.616 4.156
-1.718 -1.615 4.16
-1.692 -1.615 4.17
-1.665 -1.615 4.179
-1.637 -1.613 4.185
-1.61 -1.614 4.194
-1.583 -1.614 4.203
-1.555 -1.612 4.206
-1.526 -1.61 4.211
-1.498 -1.609 4.215
-1.471 -1.608 4.221
-1.443 -1.606 4.224
-1.415 -1.605 4.228
-1.388 -1.604 4.234
-1.36 -1.603 4.238
-1.333 -1.603 4.244
-1.305 -1.601 4.246
-1.278 -1.6 4.25
-1.25 -1.599 4.253
-1.223 -1.599 4.259
-1.197 -1.599 4.264
-1.171 -1.6 4.273
-1.144 -1.6 4.279
-1.119 -1.601 4.287
-1.092 -1.6 4.292
-1.063 -1.597 4.287
-1.036 -1.596 4.292
-1.01 -1.597 4.297
-0.982 -1.594 4.296
-0.954 -1.592 4.294
-0.928 -1.592 4.3
-0.9 -1.589 4.296
-0.873 -1.588 4.296
-0.846 -1.587 4.299
-0.819 -1.585 4.297
-0.792 -1.584 4.299
-0.766 -1.584 4.303
-0.739 -1.582 4.301
-0.712 -1.581 4.3
-0.687 -1.582 4.307
-0.66 -1.58 4.303
-0.632 -1.577 4.299
-0.606 -1.577 4.301
-0.58 -1.577 4.303
-0.553 -1.573 4.296
-0.527 -1.573 4.297
-0.501 -1.572 4.298
-0.474 -1.57 4.295
-0.448 -1.568 4.292
-0.422 -1.568 4.293
-0.396 -1.568 4.293
-0.37 -1.567 4.292
-0.344 -1.567 4.294
-0.318 -1.565 4.29
-0.292 -1.565 4.29
-0.266 -1.564 4.29
-0.24 -1.563 4.288
-0.214 -1.562 4.285
-0.188 -1.563 4.289
-0.163 -1.562 4.288
-0.137 -1.563 4.291
-0.111 -1.564 4.293
-0.085 -1.563 4.291
-0.06 -1.561 4.285
-0.034 -1.561 4.285
-0.008 -1.56 4.283
0.016 -1.559 4.28
0.042 -1.559 4.279
0.068 -1.559 4.278
0.093 -1.558 4.275
0.119 -1.556 4.267
0.144 -1.554 4.263
0.17 -1.556 4.266
0.195 -1.557 4.267
0.221 -1.557 4.266
0.247 -1.558 4.267
0.273 -1.559 4.268
0.298 -1.558 4.263
0.323 -1.557 4.26
0.349 -1.557 4.258
0.374 -1.556 4.251
0.4 -1.555 4.248
0.425 -1.557 4.249
0.451 -1.556 4.246
0.476 -1.556 4.243
0.503 -1.558 4.246
0.529 -1.56 4.248
0.554 -1.56 4.245
0.58 -1.56 4.242
0.606 -1.561 4.239
0.631 -1.56 4.235
0.656 -1.559 4.228
0.681 -1.558 4.222
0.707 -1.559 4.222
0.733 -1.56 4.219
0.76 -1.562 4.22
0.785 -1.562 4.216
0.812 -1.564 4.217
0.838 -1.564 4.213
0.864 -1.565 4.211
0.89 -1.566 4.209
0.917 -1.568 4.209
0.944 -1.571 4.211
0.969 -1.571 4.205
0.997 -1.573 4.206
1.023 -1.573 4.201
1.049 -1.574 4.197
1.075 -1.574 4.192
1.103 -1.578 4.195
1.129 -1.579 4.191
1.155 -1.579 4.186
1.183 -1.582 4.187
1.21 -1.583 4.182
1.236 -1.584 4.178
1.264 -1.586 4.177
1.292 -1.589 4.176
1.319 -1.59 4.172
1.346 -1.592 4.169
1.373 -1.593 4.165
1.401 -1.595 4.16
1.429 -1.597 4.159
1.455 -1.598 4.152
1.482 -1.598 4.145
1.51 -1.6 4.141
1.535 -1.6 4.131
1.562 -1.6 4.123
1.59 -1.602 4.119
1.618 -1.604 4.114
1.642 -1.602 4.101
1.669 -1.603 4.093
1.694 -1.602 4.08
1.715 -1.598 4.059
1.737 -1.593 4.038
1.756 -1.587 4.011
1.77 -1.576 3.974
1.781 -1.564 3.933
1.796 -1.555 3.899
1.801 -1.537 3.844
1.806 -1.521 3.792
1.809 -1.503 3.736
0 0 0
0 0 0
0 0 0
0 0 0
1.647 -1.282 3.137
1.666 -1.281 3.125
1.675 -1.272 3.092
1.682 -1.262 3.057
1.691 -1.253 3.026
1.687 -1.235 2.972
1.677 -1.214 2.911
1.674 -1.198 2.861
1.671 -1.182 2.814
1.688 -1.18 2.799
1.652 -1.143 2.699
-2.335 -1.604 3.961
-2.292 -1.594 3.948
-2.188 -1.54 3.827
-2.168 -1.544 3.85
-2.14 -1.542 3.858
-2.115 -1.544 3.874
-2.09 -1.544 3.887
-2.062 -1.543 3.896
-2.034 -1.541 3.903
-2.098 -1.611 4.091
-2.07 -1.611 4.103
-2.045 -1.612 4.119
-2.023 -1.616 4.141
-1.996 -1.616 4.152
-1.97 -1.618 4.166
-1.943 -1.618 4.178
-1.916 -1.619 4.191
-1.887 -1.617 4.197
-1.858 -1.616 4.204
-1.829 -1.614 4.21
-1.801 -1.614 4.22
-1.772 -1.612 4.225
-1.743 -1.61 4.229
-1.715 -1.61 4.237
-1.685 -1.608 4.241
-1.656 -1.605 4.244
-1.628 -1.605 4.251
-1.602 -1.606 4.262
-1.574 -1.605 4.267
-1.545 -1.603 4.273
-1.517 -1.602 4.278
-1.49 -1.602 4.285
-1.46 -1.599 4.284
-1.431 -1.596 4.285
-1.402 -1.595 4.288
-1.375 -1.594 4.293
-1.346 -1.592 4.293
-1.317 -1.589 4.294
-1.29 -1.589 4.3
-1.262 -1.588 4.303
-1.234 -1.586 4.305
-1.208 -1.587 4.313
-1.182 -1.588 4.321
-1.154 -1.587 4.324
-1.127 -1.586 4.329
-1.1 -1.586 4.334
-1.07 -1.581 4.326
-1.042 -1.579 4.326
-1.015 -1.579 4.33
-0.987 -1.576 4.328
-0.96 -1.575 4.328
-0.933 -1.574 4.331
-0.905 -1.571 4.328
-0.877 -1.569 4.327
-0.851 -1.569 4.329
-0.823 -1.566 4.326
-0.796 -1.565 4.326
-0.769 -1.564 4.328
-0.742 -1.562 4.325
-0.715 -1.56 4.324
-0.688 -1.56 4.326
-0.662 -1.558 4.325
-0.634 -1.556 4.32
-0.608 -1.555 4.322
-0.582 -1.555 4.324
-0.555 -1.552 4.318
-0.528 -1.551 4.317
-0.502 -1.551 4.318
-0.475 -1.549 4.315
-0.449 -1.546 4.31
-0.422 -1.545 4.309
-0.396 -1.543 4.305
-0.37 -1.542 4.303
-0.344 -1.542 4.304
-0.318 -1.54 4.301
-0.292 -1.539 4.3
-0.266 -1.54 4.302
-0.24 -1.539 4.301
-0.214 -1.538 4.298
-0.188 -1.539 4.302
-0.163 -1.539 4.301
-0.137 -1.538 4.302
-0.111 -1.537 4.299
-0.085 -1.536 4.294
-0.059 -1.533 4.287
-0.034 -1.533 4.286
-0.008 -1.531 4.282
0.016 -1.531 4.28
0.042 -1.531 4.279
0.068 -1.531 4.28
0.093 -1.53 4.277
0.119 -1.529 4.271
0.144 -1.529 4.27
0.17 -1.531 4.275
0.196 -1.531 4.275
0.221 -1.532 4.275
0.247 -1.533 4.277
0.273 -1.534 4.278
0.298 -1.533 4.274
0.324 -1.533 4.271
0.35 -1.533 4.271
0.375 -1.531 4.262
0.4 -1.53 4.256
0.425 -1.53 4.253
0.451 -1.53 4.251
0.476 -1.53 4.248
0.503 -1.532 4.252
0.529 -1.535 4.256
0.554 -1.534 4.252
0.58 -1.535 4.251
0.606 -1.535 4.247
0.631 -1.534 4.242
0.656 -1.533 4.234
0.682 -1.534 4.234
0.708 -1.534 4.231
0.733 -1.534 4.227
0.76 -1.537 4.23
0.786 -1.538 4.228
0.812 -1.538 4.224
0.838 -1.539 4.223
0.865 -1.541 4.222
0.891 -1.541 4.22
0.917 -1.543 4.219
0.945 -1.546 4.221
0.97 -1.546 4.216
0.997 -1.547 4.215
1.023 -1.548 4.211
1.049 -1.549 4.208
1.075 -1.55 4.203
1.103 -1.552 4.205
1.13 -1.553 4.201
1.156 -1.555 4.198
1.184 -1.557 4.197
1.21 -1.557 4.192
1.237 -1.559 4.189
1.265 -1.561 4.188
1.292 -1.563 4.186
1.32 -1.565 4.185
1.348 -1.568 4.183
1.375 -1.569 4.179
1.402 -1.57 4.174
1.431 -1.573 4.173
1.458 -1.574 4.167
1.485 -1.575 4.163
1.514 -1.578 4.162
1.541 -1.579 4.155
1.568 -1.58 4.148
1.596 -1.582 4.145
1.624 -1.584 4.14
1.649 -1.582 4.127
1.677 -1.584 4.12
1.701 -1.582 4.106
1.723 -1.578 4.085
1.743 -1.573 4.061
1.762 -1.567 4.035
1.777 -1.557 4.001
1.791 -1.547 3.964
1.81 -1.541 3.937
1.824 -1.531 3.902
1.828 -1.514 3.847
0 0 0
0 0 0
0 0 0
0 0 0
0 0 0
1.65 -1.264 3.151
1.666 -1.26 3.132
1.672 -1.249 3.093
1.678 -1.238 3.058
1.687 -1.23 3.027
1.685 -1.214 2.976
1.678 -1.194 2.918
1.676 -1.179 2.871
1.673 -1.164 2.823
1.672 -1.15 2.78
1.662 -1.13 2.721
-2.399 -1.621 4.081
-2.357 -1.611 4.071
-1.854 -1.283 3.248
-1.835 -1.285 3.265
-1.81 -1.283 3.269
-1.879 -1.348 3.447
-1.852 -1.346 3.452
-1.826 -1.344 3.457
-1.713 -1.277 3.294
-1.864 -1.408 3.643
-1.754 -1.342 3.482
-1.735 -1.345 3.5
-1.799 -1.414 3.69
-1.857 -1.479 3.872
-1.751 -1.414 3.712
-1.808 -1.481 3.897
-1.86 -1.545 4.078
-1.833 -1.545 4.087
-1.804 -1.543 4.092
-1.853 -1.608 4.276
-1.824 -1.607 4.284
-1.795 -1.605 4.289
-1.764 -1.603 4.291
-1.735 -1.602 4.297
-1.705 -1.599 4.299
-1.674 -1.595 4.299
-1.646 -1.595 4.306
-1.618 -1.594 4.314
-1.59 -1.594 4.321
-1.56 -1.591 4.322
-1.531 -1.59 4.327
-1.502 -1.588 4.33
-1.472 -1.585 4.33
-1.443 -1.583 4.33
-1.414 -1.582 4.334
-1.386 -1.58 4.337
-1.356 -1.576 4.334
-1.328 -1.575 4.338
-1.3 -1.574 4.342
-1.271 -1.573 4.344
-1.243 -1.571 4.346
-1.217 -1.572 4.355
-1.189 -1.57 4.356
-1.16 -1.568 4.355
-1.132 -1.566 4.356
-1.104 -1.565 4.359
-1.074 -1.56 4.35
-1.045 -1.557 4.348
-1.018 -1.557 4.351
-0.99 -1.553 4.346
-0.962 -1.552 4.346
-0.935 -1.551 4.349
-0.907 -1.55 4.349
-0.879 -1.547 4.346
-0.853 -1.547 4.349
-0.825 -1.543 4.344
-0.797 -1.541 4.341
-0.77 -1.539 4.34
-0.742 -1.537 4.336
-0.715 -1.534 4.332
-0.688 -1.534 4.335
-0.661 -1.532 4.333
-0.634 -1.53 4.33
-0.608 -1.53 4.332
-0.582 -1.53 4.336
-0.555 -1.527 4.33
-0.528 -1.526 4.327
-0.502 -1.525 4.327
-0.475 -1.523 4.323
-0.448 -1.519 4.315
-0.422 -1.519 4.315
-0.396 -1.518 4.314
-0.37 -1.516 4.312
-0.344 -1.516 4.314
-0.318 -1.514 4.309
-0.291 -1.513 4.306
-0.266 -1.512 4.305
-0.24 -1.512 4.304
-0.214 -1.509 4.298
-0.188 -1.511 4.303
-0.162 -1.51 4.303
-0.137 -1.511 4.304
-0.111 -1.51 4.301
-0.085 -1.509 4.301
-0.059 -1.507 4.293
-0.034 -1.506 4.291
-0.008 -1.505 4.287
0.017 -1.505 4.286
0.042 -1.504 4.285
0.068 -1.505 4.286
0.093 -1.505 4.285
0.119 -1.504 4.281
0.144 -1.504 4.279
0.17 -1.505 4.283
0.196 -1.505 4.281
0.221 -1.505 4.28
0.247 -1.507 4.283
0.273 -1.508 4.284
0.298 -1.506 4.277
0.324 -1.505 4.273
0.349 -1.505 4.271
0.374 -1.503 4.264
0.399 -1.502 4.259
0.425 -1.503 4.258
0.451 -1.504 4.258
0.476 -1.504 4.255
0.502 -1.506 4.258
0.529 -1.508 4.26
0.554 -1.507 4.257
0.58 -1.507 4.253
0.605 -1.507 4.25
0.63 -1.506 4.244
0.656 -1.506 4.239
0.682 -1.507 4.238
0.707 -1.507 4.236
0.733 -1.508 4.232
0.76 -1.51 4.236
0.785 -1.51 4.23
0.811 -1.511 4.228
0.837 -1.512 4.226
0.864 -1.513 4.225
0.89 -1.514 4.224
0.917 -1.517 4.226
0.944 -1.52 4.228
0.971 -1.52 4.225
0.997 -1.522 4.224
1.023 -1.522 4.218
1.049 -1.522 4.213
1.075 -1.523 4.21
1.103 -1.526 4.211
1.129 -1.526 4.206
1.156 -1.528 4.205
1.184 -1.531 4.205
1.21 -1.531 4.2
1.237 -1.532 4.196
1.265 -1.535 4.196
1.292 -1.537 4.194
1.319 -1.538 4.19
1.347 -1.54 4.188
1.374 -1.541 4.183
1.402 -1.543 4.181
1.43 -1.545 4.178
1.458 -1.547 4.175
1.485 -1.549 4.171
1.514 -1.552 4.17
1.542 -1.553 4.164
1.569 -1.555 4.16
1.597 -1.556 4.156
1.626 -1.558 4.151
1.652 -1.558 4.142
1.679 -1.559 4.135
1.704 -1.558 4.122
1.726 -1.554 4.101
1.747 -1.55 4.08
1.766 -1.544 4.053
1.783 -1.536 4.023
1.798 -1.526 3.986
1.816 -1.52 3.959
1.831 -1.511 3.925
0 0 0
0 0 0
0 0 0
0 0 0
0 0 0
0 0 0
1.648 -1.241 3.153
1.666 -1.239 3.139
1.676 -1.231 3.108
1.682 -1.22 3.071
1.69 -1.211 3.038
1.69 -1.197 2.991
1.681 -1.177 2.931
1.677 -1.16 2.879
1.674 -1.145 2.832
1.674 -1.132 2.789
1.659 -1.109 2.722
-2.393 -1.589 4.08
-0.021 -0.016 0.024
-1.468 -0.998 2.575
-1.454 -1.001 2.59
-1.379 -0.961 2.494
-1.451 -1.024 2.666
-1.43 -1.021 2.668
-1.412 -1.021 2.675
-1.304 -0.955 2.509
-1.461 -1.084 2.858
-1.357 -1.021 2.698
-1.342 -1.023 2.711
-1.406 -1.086 2.888
-1.47 -1.151 3.069
-1.368 -1.086 2.902
-1.427 -1.149 3.08
-1.484 -1.212 3.258
-1.463 -1.212 3.267
-1.438 -1.209 3.267
-1.568 -1.338 3.624
-1.62 -1.403 3.81
-1.666 -1.465 3.99
-1.711 -1.528 4.17
-1.754 -1.591 4.353
-1.723 -1.588 4.354
-1.689 -1.583 4.349
-1.661 -1.582 4.356
-1.631 -1.58 4.359
-1.602 -1.579 4.363
-1.572 -1.576 4.364
-1.542 -1.574 4.367
-1.512 -1.571 4.368
-1.483 -1.569 4.37
-1.453 -1.566 4.369
-1.424 -1.565 4.372
-1.395 -1.563 4.374
-1.364 -1.559 4.369
-1.334 -1.556 4.368
-1.305 -1.554 4.37
-1.276 -1.552 4.37
-1.248 -1.55 4.372
-1.221 -1.551 4.379
-1.192 -1.548 4.378
-1.163 -1.545 4.374
-1.134 -1.543 4.374
-1.105 -1.54 4.371
-1.075 -1.535 4.364
-1.047 -1.533 4.361
-1.019 -1.532 4.364
-0.99 -1.528 4.358
-0.963 -1.527 4.359
-0.935 -1.525 4.36
-0.907 -1.523 4.358
-0.88 -1.521 4.355
-0.853 -1.52 4.357
-0.825 -1.517 4.353
-0.797 -1.514 4.348
-0.769 -1.513 4.347
-0.742 -1.511 4.344
-0.715 -1.508 4.341
-0.688 -1.507 4.339
-0.661 -1.506 4.342
-0.634 -1.504 4.339
-0.608 -1.503 4.337
-0.581 -1.503 4.339
-0.554 -1.5 4.333
-0.527 -1.498 4.33
-0.501 -1.496 4.327
-0.474 -1.495 4.325
-0.448 -1.492 4.319
-0.422 -1.492 4.32
-0.395 -1.49 4.318
-0.369 -1.489 4.317
-0.344 -1.49 4.32
-0.317 -1.489 4.318
-0.291 -1.487 4.314
-0.265 -1.486 4.313
-0.239 -1.486 4.311
-0.213 -1.484 4.306
-0.188 -1.484 4.308
-0.162 -1.485 4.31
-0.136 -1.484 4.31
-0.111 -1.483 4.307
-0.085 -1.482 4.304
-0.059 -1.48 4.298
-0.033 -1.479 4.296
-0.008 -1.479 4.293
0.017 -1.478 4.292
0.042 -1.478 4.291
0.068 -1.477 4.288
0.093 -1.477 4.287
0.119 -1.477 4.284
0.144 -1.477 4.283
0.17 -1.478 4.285
0.196 -1.478 4.286
0.221 -1.479 4.285
0.247 -1.479 4.286
0.273 -1.48 4.287
0.298 -1.478 4.279
0.323 -1.477 4.274
0.349 -1.477 4.272
0.374 -1.476 4.268
0.399 -1.475 4.262
0.425 -1.476 4.262
0.451 -1.477 4.263
0.476 -1.477 4.259
0.502 -1.478 4.259
0.528 -1.479 4.26
0.554 -1.48 4.26
0.579 -1.481 4.258
0.606 -1.482 4.259
0.631 -1.481 4.253
0.656 -1.481 4.25
0.682 -1.482 4.248
0.708 -1.483 4.246
0.733 -1.482 4.241
0.76 -1.485 4.243
0.786 -1.485 4.24
0.812 -1.486 4.239
0.838 -1.487 4.237
0.864 -1.488 4.235
0.891 -1.489 4.234
0.918 -1.491 4.235
0.944 -1.492 4.232
0.97 -1.493 4.228
0.997 -1.495 4.228
1.022 -1.495 4.223
1.048 -1.495 4.216
1.074 -1.495 4.213
1.102 -1.498 4.213
1.128 -1.498 4.209
1.155 -1.5 4.207
1.183 -1.503 4.208
1.209 -1.504 4.204
1.236 -1.505 4.201
1.264 -1.508 4.201
1.292 -1.51 4.199
1.318 -1.51 4.193
1.347 -1.513 4.194
1.374 -1.515 4.19
1.401 -1.516 4.187
1.43 -1.518 4.185
1.458 -1.521 4.184
1.485 -1.521 4.177
1.513 -1.524 4.175
1.54 -1.525 4.168
1.567 -1.526 4.162
1.596 -1.528 4.159
1.625 -1.531 4.158
1.652 -1.531 4.15
1.68 -1.533 4.145
1.707 -1.534 4.137
1.729 -1.53 4.116
1.751 -1.526 4.096
1.772 -1.522 4.075
1.791 -1.517 4.049
1.809 -1.51 4.019
1.829 -1.505 3.997
1.847 -1.499 3.97
0 0 0
0 0 0
0 0 0
0 0 0
0 0 0
0 0 0
0 0 0
1.664 -1.216 3.141
1.674 -1.208 3.111
1.679 -1.198 3.073
1.687 -1.189 3.04
1.69 -1.177 2.999
1.683 -1.158 2.942
1.678 -1.141 2.888
1.676 -1.127 2.842
1.674 -1.113 2.796
1.672 -1.099 2.751
-2.429 -1.585 4.152
-0.075 -0.051 0.118
-1.012 -0.677 1.776
-1.002 -0.678 1.785
-0.949 -0.65 1.715
-1.024 -0.71 1.882
-1.006 -0.707 1.879
-0.995 -0.708 1.887
-0.891 -0.642 1.714
-1.055 -0.77 2.066
-0.955 -0.706 1.899
-0.945 -0.708 1.908
-1.01 -0.767 2.076
-1.081 -0.832 2.258
-0.98 -0.765 2.08
-1.044 -0.826 2.255
-1.185 -0.951 2.603
-1.168 -0.951 2.61
-1.146 -0.947 2.606
-1.356 -1.136 3.138
-1.484 -1.263 3.498
-1.533 -1.324 3.676
-1.651 -1.449 4.032
-1.765 -1.574 4.391
-1.735 -1.571 4.394
-1.701 -1.566 4.388
-1.67 -1.564 4.39
-1.64 -1.561 4.391
-1.61 -1.559 4.394
-1.579 -1.556 4.393
-1.549 -1.554 4.397
-1.519 -1.551 4.397
-1.489 -1.548 4.397
-1.458 -1.545 4.394
-1.428 -1.542 4.394
-1.398 -1.54 4.394
-1.367 -1.535 4.388
-1.336 -1.532 4.385
-1.308 -1.53 4.388
-1.278 -1.527 4.384
-1.248 -1.524 4.381
-1.221 -1.524 4.387
-1.192 -1.521 4.385
-1.161 -1.516 4.377
-1.133 -1.515 4.38
-1.105 -1.513 4.379
-1.075 -1.508 4.371
-1.046 -1.505 4.368
-1.019 -1.504 4.37
-0.99 -1.501 4.364
-0.962 -1.499 4.363
-0.934 -1.497 4.363
-0.907 -1.496 4.363
-0.879 -1.493 4.359
-0.851 -1.492 4.36
-0.824 -1.49 4.358
-0.796 -1.487 4.354
-0.769 -1.486 4.353
-0.742 -1.485 4.353
-0.715 -1.483 4.351
-0.688 -1.481 4.348
-0.661 -1.48 4.349
-0.634 -1.478 4.345
-0.607 -1.476 4.341
-0.581 -1.475 4.341
-0.553 -1.472 4.336
-0.527 -1.471 4.335
-0.5 -1.469 4.332
-0.474 -1.468 4.33
-0.447 -1.465 4.324
-0.421 -1.465 4.324
-0.395 -1.463 4.32
-0.369 -1.462 4.32
-0.343 -1.464 4.326
-0.317 -1.462 4.322
-0.291 -1.46 4.317
-0.265 -1.46 4.317
-0.239 -1.458 4.314
-0.213 -1.456 4.308
-0.187 -1.456 4.31
-0.162 -1.457 4.313
-0.136 -1.458 4.314
-0.11 -1.456 4.311
-0.085 -1.455 4.307
-0.059 -1.453 4.301
-0.033 -1.453 4.299
-0.008 -1.452 4.296
0.017 -1.452 4.296
0.042 -1.451 4.294
0.068 -1.451 4.293
0.094 -1.451 4.292
0.119 -1.449 4.287
0.144 -1.449 4.283
0.17 -1.45 4.285
0.196 -1.45 4.286
0.221 -1.45 4.283
0.247 -1.451 4.284
0.272 -1.451 4.284
0.298 -1.451 4.28
0.323 -1.45 4.276
0.349 -1.451 4.276
0.374 -1.45 4.272
0.399 -1.449 4.268
0.425 -1.45 4.267
0.451 -1.451 4.268
0.476 -1.45 4.264
0.502 -1.451 4.263
0.528 -1.453 4.265
0.553 -1.453 4.263
0.579 -1.454 4.262
0.605 -1.455 4.261
0.63 -1.454 4.256
0.656 -1.454 4.254
0.682 -1.455 4.252
0.707 -1.455 4.247
0.732 -1.455 4.242
0.759 -1.457 4.247
0.785 -1.458 4.244
0.812 -1.46 4.244
0.838 -1.461 4.244
0.864 -1.462 4.241
0.89 -1.462 4.236
0.916 -1.463 4.236
0.942 -1.464 4.233
0.968 -1.465 4.229
0.995 -1.467 4.23
1.022 -1.469 4.23
1.048 -1.469 4.224
1.074 -1.47 4.221
1.102 -1.472 4.221
1.128 -1.473 4.218
1.155 -1.474 4.215
1.182 -1.476 4.215
1.209 -1.477 4.211
1.236 -1.478 4.206
1.263 -1.48 4.205
1.291 -1.482 4.203
1.317 -1.483 4.198
1.345 -1.485 4.196
1.372 -1.487 4.194
1.4 -1.489 4.192
1.428 -1.49 4.188
1.457 -1.493 4.189
1.484 -1.495 4.183
1.513 -1.497 4.182
1.54 -1.498 4.177
1.568 -1.5 4.172
1.596 -1.501 4.167
1.625 -1.505 4.167
1.651 -1.504 4.156
1.68 -1.506 4.152
1.707 -1.508 4.146
1.731 -1.506 4.131
1.754 -1.503 4.112
1.778 -1.501 4.097
1.8 -1.497 4.076
1.815 -1.489 4.042
1.834 -1.483 4.015
0 0 0
0 0 0
0 0 0
0 0 0
0 0 0
0 0 0
0 0 0
0 0 0
1.748 -1.255 3.307
1.674 -1.188 3.119
1.678 -1.176 3.078
1.683 -1.165 3.039
1.689 -1.156 3.004
1.683 -1.138 2.948
1.677 -1.121 2.893
1.675 -1.107 2.846
1.666 -1.088 2.788
1.697 -1.096 2.798
-0.022 -0.015 0.025
0 0 0
-0.573 -0.377 1.003
-0.569 -0.379 1.01
-0.537 -0.362 0.967
-0.6 -0.409 1.1
-0.586 -0.405 1.091
-0.578 -0.404 1.093
-0.479 -0.34 0.919
-0.648 -0.465 1.267
-0.551 -0.401 1.092
-0.543 -0.401 1.095
-0.614 -0.458 1.259
-0.687 -0.52 1.434
-0.589 -0.452 1.249
-0.658 -0.512 1.418
-0.801 -0.632 1.76
-0.866 -0.693 1.936
-0.925 -0.751 2.105
-1.137 -0.937 2.635
-1.344 -1.124 3.173
-1.469 -1.247 3.53
-1.585 -1.366 3.878
-1.7 -1.488 4.236
-1.74 -1.548 4.416
-1.705 -1.542 4.409
-1.674 -1.539 4.408
-1.644 -1.537 4.412
-1.613 -1.534 4.411
-1.581 -1.53 4.408
-1.551 -1.528 4.409
-1.52 -1.525 4.409
-1.49 -1.522 4.408
-1.458 -1.518 4.404
-1.428 -1.515 4.403
-1.398 -1.513 4.403
-1.367 -1.508 4.396
-1.336 -1.504 4.392
-1.308 -1.503 4.395
-1.277 -1.499 4.391
-1.247 -1.495 4.384
-1.219 -1.494 4.389
-1.19 -1.492 4.387
-1.16 -1.487 4.38
-1.131 -1.486 4.38
-1.103 -1.484 4.38
-1.074 -1.48 4.375
-1.045 -1.477 4.371
-1.017 -1.476 4.373
-0.988 -1.473 4.367
-0.961 -1.471 4.367
-0.933 -1.469 4.366
-0.906 -1.468 4.367
-0.878 -1.465 4.364
-0.851 -1.465 4.365
-0.824 -1.463 4.364
-0.796 -1.46 4.359
-0.768 -1.459 4.358
-0.741 -1.457 4.356
-0.714 -1.455 4.354
-0.687 -1.453 4.35
-0.66 -1.452 4.351
-0.633 -1.45 4.348
-0.606 -1.448 4.345
-0.579 -1.446 4.34
-0.552 -1.443 4.334
-0.526 -1.442 4.333
-0.499 -1.44 4.329
-0.473 -1.438 4.327
-0.447 -1.438 4.326
-0.421 -1.437 4.327
-0.394 -1.436 4.325
-0.368 -1.435 4.324
-0.343 -1.436 4.328
-0.317 -1.435 4.325
-0.29 -1.432 4.318
-0.264 -1.431 4.315
-0.239 -1.43 4.314
-0.213 -1.428 4.309
-0.187 -1.428 4.309
-0.161 -1.429 4.313
-0.136 -1.43 4.315
-0.11 -1.429 4.313
-0.084 -1.428 4.31
-0.059 -1.426 4.304
-0.033 -1.426 4.303
-0.007 -1.425 4.3
0.017 -1.424 4.298
0.043 -1.425 4.298
0.068 -1.425 4.3
0.094 -1.426 4.3
0.119 -1.425 4.297
0.145 -1.424 4.293
0.17 -1.424 4.293
0.196 -1.425 4.294
0.221 -1.424 4.29
0.247 -1.424 4.289
0.272 -1.425 4.289
0.298 -1.424 4.285
0.323 -1.423 4.279
0.348 -1.424 4.279
0.374 -1.423 4.275
0.399 -1.422 4.271
0.425 -1.423 4.271
0.451 -1.425 4.273
0.476 -1.424 4.27
0.502 -1.425 4.269
0.528 -1.426 4.27
0.553 -1.427 4.268
0.579 -1.428 4.268
0.605 -1.429 4.268
0.631 -1.429 4.265
0.656 -1.429 4.263
0.682 -1.43 4.262
0.707 -1.43 4.256
0.733 -1.429 4.25
0.76 -1.432 4.254
0.785 -1.432 4.251
0.812 -1.434 4.252
0.838 -1.435 4.252
0.864 -1.436 4.249
0.889 -1.435 4.241
0.916 -1.437 4.242
0.941 -1.436 4.235
0.967 -1.437 4.231
0.994 -1.438 4.23
1.021 -1.44 4.231
1.046 -1.44 4.224
1.073 -1.442 4.224
1.1 -1.444 4.223
1.127 -1.445 4.221
1.154 -1.447 4.218
1.181 -1.448 4.217
1.208 -1.45 4.214
1.234 -1.45 4.208
1.261 -1.451 4.205
1.289 -1.453 4.204
1.316 -1.455 4.2
1.343 -1.457 4.199
1.371 -1.459 4.197
1.4 -1.461 4.197
1.426 -1.462 4.191
1.455 -1.465 4.191
1.482 -1.466 4.184
1.511 -1.469 4.184
1.538 -1.469 4.178
1.566 -1.472 4.175
1.594 -1.474 4.171
1.623 -1.476 4.17
1.65 -1.477 4.161
1.679 -1.479 4.158
1.707 -1.481 4.154
1.733 -1.48 4.142
1.758 -1.479 4.129
1.785 -1.48 4.121
1.808 -1.478 4.103
1.823 -1.469 4.068
0 0 0
0 0 0
0 0 0
0 0 0
0 0 0
0 0 0
0 0 0
0 0 0
0 0 0
1.498 -1.057 2.84
1.677 -1.168 3.13
1.68 -1.157 3.088
1.684 -1.145 3.047
1.689 -1.135 3.01
1.688 -1.121 2.963
1.68 -1.103 2.905
1.678 -1.089 2.857
1.668 -1.071 2.798
1.67 -1.06 2.759
-0.104 -0.067 0.166
-0.071 -0.046 0.111
-0.2 -0.13 0.343
-0.195 -0.128 0.338
-0.18 -0.12 0.317
-0.259 -0.175 0.469
-0.248 -0.169 0.455
-0.243 -0.168 0.453
-0.147 -0.104 0.274
-0.232 -0.165 0.446
-0.138 -0.1 0.265
-0.134 -0.098 0.261
-0.209 -0.154 0.42
-0.286 -0.213 0.59
-0.193 -0.147 0.401
-0.265 -0.204 0.565
-0.413 -0.321 0.903
-0.482 -0.379 1.074
-0.547 -0.437 1.242
-0.838 -0.678 1.943
-1.122 -0.922 2.653
-1.324 -1.104 3.188
-1.515 -1.283 3.715
-1.701 -1.463 4.248
-1.742 -1.522 4.429
-1.708 -1.517 4.424
-1.676 -1.514 4.424
-1.645 -1.511 4.424
-1.614 -1.507 4.423
-1.582 -1.504 4.42
-1.551 -1.501 4.42
-1.519 -1.496 4.414
-1.489 -1.494 4.414
-1.457 -1.49 4.41
-1.426 -1.486 4.406
-1.397 -1.484 4.407
-1.365 -1.479 4.401
-1.335 -1.476 4.398
-1.306 -1.474 4.398
-1.276 -1.47 4.394
-1.245 -1.466 4.387
-1.217 -1.465 4.389
-1.187 -1.462 4.386
-1.157 -1.458 4.38
-1.129 -1.456 4.38
-1.101 -1.454 4.378
-1.072 -1.451 4.377
-1.043 -1.448 4.372
-1.016 -1.447 4.374
-0.987 -1.444 4.369
-0.959 -1.442 4.367
-0.931 -1.44 4.365
-0.904 -1.44 4.369
-0.876 -1.437 4.364
-0.849 -1.435 4.364
-0.822 -1.434 4.362
-0.794 -1.431 4.359
-0.767 -1.43 4.358
-0.74 -1.429 4.359
-0.714 -1.428 4.359
-0.687 -1.427 4.36
-0.66 -1.427 4.36
-0.634 -1.425 4.358
-0.606 -1.422 4.352
-0.579 -1.419 4.346
-0.552 -1.416 4.339
-0.525 -1.415 4.337
-0.498 -1.412 4.33
-0.472 -1.411 4.328
-0.446 -1.41 4.33
-0.42 -1.41 4.329
-0.394 -1.409 4.329
-0.368 -1.409 4.329
-0.342 -1.408 4.33
-0.316 -1.406 4.324
-0.29 -1.404 4.318
-0.264 -1.403 4.315
-0.238 -1.402 4.312
-0.212 -1.4 4.308
-0.186 -1.4 4.309
-0.161 -1.401 4.312
-0.135 -1.4 4.309
-0.11 -1.4 4.31
-0.084 -1.4 4.308
-0.058 -1.398 4.304
-0.033 -1.398 4.304
-0.007 -1.399 4.306
0.017 -1.399 4.306
0.043 -1.399 4.304
0.068 -1.4 4.306
0.094 -1.4 4.307
0.119 -1.398 4.301
0.145 -1.396 4.293
0.17 -1.397 4.293
0.196 -1.397 4.294
0.221 -1.396 4.289
0.246 -1.396 4.288
0.272 -1.397 4.289
0.297 -1.396 4.284
0.322 -1.395 4.279
0.348 -1.396 4.281
0.374 -1.396 4.279
0.399 -1.396 4.277
0.425 -1.398 4.279
0.451 -1.399 4.281
0.476 -1.398 4.276
0.502 -1.399 4.274
0.527 -1.399 4.272
0.553 -1.399 4.269
0.578 -1.4 4.269
0.605 -1.402 4.271
0.63 -1.402 4.269
0.656 -1.403 4.269
0.682 -1.404 4.267
0.708 -1.404 4.262
0.733 -1.403 4.256
0.76 -1.406 4.26
0.785 -1.406 4.257
0.812 -1.408 4.258
0.838 -1.409 4.258
0.864 -1.41 4.256
0.889 -1.409 4.246
0.916 -1.41 4.247
0.941 -1.409 4.238
0.967 -1.41 4.235
0.993 -1.411 4.234
1.02 -1.413 4.234
1.046 -1.413 4.228
1.073 -1.416 4.231
1.1 -1.417 4.228
1.126 -1.418 4.225
1.153 -1.42 4.223
1.18 -1.421 4.22
1.206 -1.421 4.215
1.232 -1.422 4.209
1.259 -1.423 4.206
1.287 -1.425 4.205
1.313 -1.426 4.2
1.341 -1.428 4.2
1.37 -1.431 4.199
1.398 -1.433 4.198
1.424 -1.434 4.193
1.453 -1.437 4.193
1.48 -1.437 4.186
1.508 -1.44 4.185
1.536 -1.441 4.181
1.564 -1.443 4.178
1.592 -1.445 4.174
1.622 -1.448 4.173
1.648 -1.449 4.165
1.678 -1.451 4.163
1.708 -1.455 4.163
1.734 -1.454 4.152
1.76 -1.455 4.143
1.79 -1.458 4.141
1.815 -1.457 4.128
0 0 0
0 0 0
0 0 0
0 0 0
0 0 0
0 0 0
0 0 0
0 0 0
0 0 0
1.02 -0.717 1.965
1.493 -1.035 2.836
1.677 -1.147 3.136
1.682 -1.137 3.098
1.686 -1.126 3.058
1.691 -1.116 3.021
1.692 -1.104 2.976
1.681 -1.084 2.913
1.678 -1.07 2.864
1.655 -1.043 2.783
1.668 -1.04 2.763
-0.091 -0.058 0.145
-0.131 -0.083 0.217
-0.123 -0.079 0.207
-0.115 -0.075 0.195
-0.105 -0.069 0.18
-0.097 -0.065 0.168
-0.086 -0.059 0.151
-0.08 -0.055 0.141
-0.074 -0.052 0.132
-0.071 -0.05 0.127
-0.064 -0.046 0.116
-0.058 -0.042 0.105
-0.051 -0.038 0.092
-0.047 -0.035 0.086
-0.038 -0.029 0.068
-0.031 -0.024 0.054
-0.102 -0.079 0.213
-0.251 -0.195 0.555
-0.396 -0.311 0.898
-0.688 -0.547 1.596
-1.048 -0.845 2.482
-1.324 -1.083 3.194
-1.516 -1.259 3.724
-1.7 -1.435 4.255
-1.74 -1.492 4.434
-1.707 -1.488 4.431
-1.675 -1.485 4.43
-1.644 -1.482 4.43
-1.613 -1.479 4.429
-1.582 -1.476 4.428
-1.551 -1.473 4.428
-1.519 -1.469 4.422
-1.488 -1.466 4.422
-1.457 -1.462 4.418
-1.426 -1.458 4.413
-1.396 -1.456 4.412
-1.365 -1.452 4.408
-1.334 -1.448 4.402
-1.304 -1.445 4.4
-1.275 -1.442 4.398
-1.243 -1.438 4.39
-1.215 -1.436 4.391
-1.187 -1.434 4.392
-1.158 -1.432 4.389
-1.129 -1.429 4.387
-1.101 -1.428 4.388
-1.073 -1.426 4.387
-1.043 -1.422 4.38
-1.015 -1.42 4.38
-0.987 -1.417 4.376
-0.958 -1.415 4.372
-0.93 -1.412 4.369
-0.904 -1.413 4.375
-0.876 -1.41 4.37
-0.848 -1.408 4.367
-0.821 -1.406 4.366
-0.793 -1.404 4.364
-0.766 -1.403 4.363
-0.74 -1.403 4.365
-0.714 -1.403 4.37
-0.687 -1.402 4.369
-0.661 -1.401 4.37
-0.633 -1.399 4.366
-0.606 -1.396 4.358
-0.578 -1.391 4.347
-0.551 -1.388 4.34
-0.525 -1.387 4.339
-0.497 -1.384 4.33
-0.471 -1.383 4.33
-0.445 -1.383 4.331
-0.419 -1.382 4.329
-0.393 -1.38 4.325
-0.367 -1.38 4.326
-0.341 -1.379 4.326
-0.315 -1.378 4.322
-0.289 -1.376 4.318
-0.263 -1.375 4.317
-0.237 -1.374 4.313
-0.212 -1.373 4.312
-0.186 -1.372 4.31
-0.161 -1.373 4.311
-0.135 -1.371 4.306
-0.109 -1.371 4.307
-0.084 -1.37 4.303
-0.058 -1.369 4.301
-0.033 -1.37 4.303
-0.007 -1.372 4.31
0.017 -1.372 4.309
0.043 -1.372 4.308
0.068 -1.373 4.31
0.094 -1.373 4.31
0.119 -1.372 4.305
0.145 -1.371 4.3
0.17 -1.37 4.298
0.196 -1.371 4.298
0.221 -1.369 4.293
0.246 -1.368 4.288
0.272 -1.369 4.287
0.297 -1.369 4.286
0.322 -1.368 4.281
0.348 -1.37 4.286
0.374 -1.37 4.284
0.399 -1.37 4.282
0.425 -1.372 4.284
0.451 -1.373 4.287
0.476 -1.372 4.279
0.502 -1.373 4.279
0.527 -1.373 4.277
0.552 -1.372 4.272
0.578 -1.374 4.274
0.605 -1.376 4.277
0.63 -1.376 4.275
0.656 -1.378 4.275
0.683 -1.379 4.277
0.708 -1.379 4.272
0.733 -1.378 4.267
0.76 -1.381 4.271
0.787 -1.382 4.271
0.813 -1.384 4.272
0.84 -1.386 4.273
0.866 -1.386 4.269
0.888 -1.381 4.249
0.915 -1.383 4.247
0.939 -1.381 4.239
0.965 -1.381 4.234
0.991 -1.382 4.231
1.019 -1.385 4.235
1.044 -1.386 4.23
1.072 -1.389 4.233
1.099 -1.389 4.23
1.126 -1.391 4.229
1.153 -1.393 4.228
1.179 -1.394 4.225
1.205 -1.394 4.218
1.231 -1.395 4.213
1.258 -1.396 4.21
1.285 -1.397 4.207
1.312 -1.398 4.203
1.34 -1.401 4.203
1.368 -1.403 4.202
1.396 -1.405 4.201
1.424 -1.407 4.198
1.452 -1.409 4.197
1.479 -1.41 4.192
1.508 -1.413 4.19
1.535 -1.414 4.186
1.562 -1.415 4.18
1.591 -1.418 4.178
1.62 -1.42 4.175
1.646 -1.42 4.167
1.675 -1.422 4.163
1.705 -1.426 4.165
1.731 -1.426 4.154
1.758 -1.426 4.145
1.788 -1.429 4.143
1.816 -1.431 4.137
0 0 0
0 0 0
0 0 0
0 0 0
0 0 0
0 0 0
0 0 0
0 0 0
0 0 0
0 0 0
1.407 -0.957 2.677
1.665 -1.119 3.121
1.675 -1.112 3.092
1.68 -1.102 3.053
1.688 -1.094 3.02
1.692 -1.083 2.982
1.683 -1.065 2.922
1.677 -1.05 2.868
1.695 -1.048 2.855
1.684 -1.031 2.796
-0.207 -0.127 0.346
-0.178 -0.11 0.3
-0.144 -0.091 0.244
-0.132 -0.084 0.225
-0.12 -0.078 0.207
-0.111 -0.073 0.195
-0.099 -0.066 0.174
-0.087 -0.059 0.155
-0.08 -0.055 0.143
-0.074 -0.052 0.134
-0.065 -0.046 0.118
-0.058 -0.042 0.106
-0.052 -0.038 0.095
-0.047 -0.035 0.087
-0.039 -0.03 0.071
-0.112 -0.083 0.232
-0.261 -0.195 0.568
-0.485 -0.368 1.085
-0.703 -0.54 1.607
-0.991 -0.772 2.308
-1.271 -1.005 3.018
-1.47 -1.18 3.553
-1.586 -1.293 3.904
-1.698 -1.407 4.258
-1.738 -1.463 4.437
-1.706 -1.459 4.435
-1.674 -1.456 4.435
-1.644 -1.454 4.438
-1.612 -1.451 4.436
-1.582 -1.448 4.436
-1.551 -1.445 4.435
-1.518 -1.44 4.428
-1.488 -1.438 4.428
-1.455 -1.433 4.421
-1.424 -1.429 4.416
-1.394 -1.427 4.416
-1.364 -1.424 4.413
-1.332 -1.419 4.405
-1.303 -1.417 4.404
-1.274 -1.414 4.403
-1.242 -1.409 4.393
-1.214 -1.408 4.394
-1.186 -1.406 4.396
-1.157 -1.404 4.394
-1.128 -1.401 4.39
-1.1 -1.4 4.394
-1.072 -1.399 4.393
-1.042 -1.394 4.385
-1.014 -1.392 4.384
-0.986 -1.39 4.381
-0.958 -1.387 4.377
-0.93 -1.385 4.375
-0.904 -1.386 4.383
-0.876 -1.383 4.377
-0.848 -1.381 4.373
-0.82 -1.378 4.369
-0.793 -1.377 4.366
-0.765 -1.374 4.362
-0.739 -1.374 4.365
-0.713 -1.375 4.371
-0.687 -1.375 4.374
-0.66 -1.373 4.372
-0.633 -1.372 4.37
-0.606 -1.369 4.364
-0.578 -1.365 4.352
-0.55 -1.362 4.345
-0.524 -1.362 4.347
-0.497 -1.358 4.336
-0.471 -1.356 4.333
-0.444 -1.355 4.33
-0.418 -1.354 4.329
-0.392 -1.351 4.322
-0.366 -1.351 4.323
-0.34 -1.351 4.323
-0.314 -1.349 4.321
-0.288 -1.347 4.315
-0.263 -1.347 4.316
-0.237 -1.347 4.314
-0.211 -1.345 4.309
-0.185 -1.344 4.306
-0.16 -1.343 4.305
-0.134 -1.341 4.299
-0.109 -1.341 4.298
-0.083 -1.341 4.298
-0.058 -1.341 4.297
-0.032 -1.342 4.303
-0.007 -1.347 4.316
0.017 -1.346 4.315
0.043 -1.345 4.311
0.069 -1.349 4.323
0.094 -1.349 4.32
0.12 -1.346 4.311
0.145 -1.344 4.302
0.17 -1.344 4.302
0.196 -1.343 4.298
0.221 -1.342 4.293
0.246 -1.34 4.286
0.271 -1.34 4.284
0.297 -1.343 4.29
0.322 -1.342 4.286
0.349 -1.346 4.297
0.374 -1.347 4.297
0.4 -1.347 4.297
0.426 -1.348 4.296
0.452 -1.35 4.3
0.477 -1.348 4.291
0.502 -1.349 4.292
0.528 -1.35 4.293
0.553 -1.347 4.281
0.579 -1.348 4.281
0.604 -1.348 4.277
0.629 -1.348 4.272
0.655 -1.348 4.27
0.682 -1.351 4.276
0.707 -1.35 4.268
0.731 -1.349 4.261
0.76 -1.355 4.276
0.786 -1.356 4.275
0.812 -1.357 4.274
0.84 -1.36 4.279
0.866 -1.361 4.278
0.886 -1.352 4.244
0.913 -1.354 4.245
0.939 -1.354 4.242
0.964 -1.355 4.238
0.99 -1.356 4.235
1.018 -1.359 4.239
1.044 -1.359 4.234
1.071 -1.361 4.236
1.097 -1.362 4.231
1.124 -1.363 4.228
1.151 -1.365 4.228
1.178 -1.366 4.225
1.203 -1.365 4.217
1.23 -1.367 4.214
1.256 -1.368 4.211
1.283 -1.369 4.208
1.31 -1.37 4.204
1.338 -1.373 4.204
1.367 -1.375 4.204
1.395 -1.377 4.203
1.421 -1.378 4.199
1.45 -1.381 4.199
1.478 -1.383 4.196
1.505 -1.384 4.191
1.532 -1.385 4.185
1.56 -1.387 4.182
1.588 -1.389 4.178
1.616 -1.39 4.172
1.643 -1.391 4.167
1.672 -1.394 4.165
1.702 -1.397 4.164
1.729 -1.397 4.156
1.757 -1.399 4.15
1.787 -1.402 4.149
1.815 -1.403 4.142
0 0 0
0 0 0
0 0 0
0 0 0
0 0 0
0 0 0
0 0 0
0 0 0
0 0 0
0 0 0
0 0 0
1.659 -1.094 3.116
1.674 -1.09 3.096
1.679 -1.081 3.058
1.684 -1.071 3.02
1.688 -1.061 2.982
1.681 -1.045 2.925
1.674 -1.028 2.868
1.646 -0.999 2.778
1.667 -1.001 2.773
-0.193 -0.116 0.322
-0.185 -0.113 0.312
-0.157 -0.097 0.268
-0.144 -0.09 0.248
-0.13 -0.083 0.227
-0.119 -0.077 0.21
-0.108 -0.07 0.192
-0.094 -0.062 0.168
-0.087 -0.058 0.157
-0.077 -0.052 0.14
-0.067 -0.046 0.122
-0.058 -0.041 0.105
-0.052 -0.038 0.096
-0.126 -0.09 0.255
-0.119 -0.086 0.244
-0.189 -0.138 0.402
-0.338 -0.248 0.741
-0.638 -0.474 1.434
-0.855 -0.644 1.96
-1.141 -0.872 2.665
-1.419 -1.101 3.378
-1.615 -1.272 3.914
-1.658 -1.326 4.09
-1.697 -1.379 4.263
-1.735 -1.433 4.439
-1.702 -1.429 4.435
-1.67 -1.425 4.434
-1.64 -1.423 4.434
-1.61 -1.421 4.437
-1.579 -1.418 4.438
-1.548 -1.415 4.435
-1.516 -1.411 4.43
-1.485 -1.408 4.428
-1.453 -1.404 4.422
-1.422 -1.4 4.418
-1.393 -1.399 4.421
-1.363 -1.396 4.419
-1.332 -1.392 4.413
-1.302 -1.389 4.41
-1.274 -1.387 4.411
-1.242 -1.382 4.4
-1.213 -1.38 4.399
-1.185 -1.379 4.401
-1.157 -1.378 4.403
-1.127 -1.373 4.395
-1.1 -1.373 4.399
-1.072 -1.372 4.401
-1.042 -1.368 4.391
-1.014 -1.366 4.39
-0.986 -1.363 4.386
-0.957 -1.36 4.382
-0.929 -1.359 4.381
-0.904 -1.359 4.388
-0.875 -1.356 4.381
-0.848 -1.355 4.38
-0.819 -1.351 4.373
-0.792 -1.349 4.369
-0.764 -1.347 4.365
-0.738 -1.348 4.371
-0.712 -1.348 4.375
-0.687 -1.35 4.384
-0.66 -1.349 4.384
-0.634 -1.348 4.384
-0.605 -1.343 4.37
-0.577 -1.338 4.356
-0.549 -1.333 4.343
-0.523 -1.331 4.339
-0.495 -1.327 4.326
-0.469 -1.326 4.327
-0.443 -1.326 4.326
-0.417 -1.325 4.327
-0.391 -1.324 4.323
-0.366 -1.323 4.324
-0.34 -1.322 4.322
-0.314 -1.321 4.319
-0.288 -1.319 4.313
-0.262 -1.319 4.314
-0.236 -1.319 4.314
-0.211 -1.317 4.309
-0.185 -1.316 4.306
-0.16 -1.316 4.307
-0.134 -1.314 4.299
-0.108 -1.313 4.297
-0.083 -1.313 4.297
-0.058 -1.313 4.298
-0.032 -1.313 4.297
0 0 0
0 0 0
0 0 0
0 0 0
0 0 0
0 0 0
0 0 0
0 0 0
0 0 0
0 0 0
0 0 0
0 0 0
0 0 0
0 0 0
0 0 0
0 0 0
0 0 0
0 0 0
0 0 0
0 0 0
0 0 0
0 0 0
0 0 0
0 0 0
0 0 0
0 0 0
0 0 0
0 0 0
0 0 0
0 0 0
0 0 0
0 0 0
0 0 0
0 0 0
0 0 0
0.887 -1.327 4.253
0.912 -1.327 4.249
0.938 -1.328 4.245
0.963 -1.328 4.24
0.989 -1.328 4.235
1.015 -1.328 4.232
1.041 -1.329 4.229
1.069 -1.332 4.231
1.094 -1.332 4.225
1.12 -1.333 4.222
1.149 -1.336 4.226
1.175 -1.337 4.224
1.201 -1.337 4.215
1.228 -1.338 4.214
1.255 -1.34 4.212
1.281 -1.34 4.207
1.308 -1.342 4.204
1.337 -1.345 4.206
1.365 -1.347 4.205
1.393 -1.35 4.206
1.421 -1.351 4.203
1.448 -1.353 4.2
1.476 -1.354 4.196
1.502 -1.355 4.189
1.529 -1.356 4.183
1.557 -1.357 4.179
1.585 -1.36 4.178
1.612 -1.36 4.17
1.64 -1.362 4.166
1.669 -1.364 4.164
1.698 -1.367 4.162
1.725 -1.367 4.153
1.753 -1.369 4.148
1.781 -1.371 4.143
1.809 -1.372 4.137
0 0 0
0 0 0
0 0 0
0 0 0
0 0 0
0 0 0
0 0 0
0 0 0
0 0 0
0 0 0
0 0 0
1.656 -1.071 3.116
1.673 -1.069 3.1
1.679 -1.06 3.063
1.682 -1.05 3.023
1.688 -1.041 2.987
1.682 -1.025 2.932
1.675 -1.009 2.876
1.651 -0.984 2.793
1.672 -0.985 2.786
-0.179 -0.106 0.299
-0.204 -0.122 0.347
-0.159 -0.096 0.272
-0.142 -0.087 0.245
-0.126 -0.078 0.22
-0.115 -0.072 0.202
-0.106 -0.068 0.188
-0.091 -0.059 0.164
-0.084 -0.055 0.151
-0.074 -0.05 0.135
-0.065 -0.044 0.118
-0.054 -0.038 0.099
-0.049 -0.034 0.088
-0.122 -0.085 0.247
-0.115 -0.081 0.235
-0.185 -0.132 0.394
-0.414 -0.297 0.911
-0.714 -0.52 1.61
-0.93 -0.687 2.137
-1.29 -0.966 3.021
-1.565 -1.19 3.732
-1.685 -1.301 4.091
-1.727 -1.354 4.269
-1.767 -1.408 4.447
-1.734 -1.404 4.444
-1.701 -1.4 4.441
-1.669 -1.396 4.439
-1.638 -1.394 4.438
-1.607 -1.391 4.438
-1.577 -1.389 4.439
-1.546 -1.386 4.437
-1.514 -1.382 4.432
-1.483 -1.379 4.431
-1.452 -1.375 4.427
-1.422 -1.373 4.425
-1.393 -1.372 4.429
-1.364 -1.37 4.43
-1.332 -1.365 4.421
-1.302 -1.362 4.416
-1.274 -1.361 4.42
-1.242 -1.356 4.409
-1.214 -1.354 4.409
-1.186 -1.353 4.413
-1.159 -1.353 4.416
-1.128 -1.348 4.406
-1.1 -1.347 4.409
-1.072 -1.346 4.409
-1.041 -1.34 4.394
-1.013 -1.337 4.391
-0.984 -1.335 4.388
-0.955 -1.332 4.382
-0.927 -1.329 4.378
-0.902 -1.331 4.389
-0.873 -1.327 4.379
-0.845 -1.324 4.373
-0.815 -1.319 4.359
-0.79 -1.32 4.368
-0.761 -1.316 4.357
-0.739 -1.322 4.379
0 0 0
0 0 0
0 0 0
0 0 0
0 0 0
0 0 0
0 0 0
0 0 0
0 0 0
0 0 0
-0.441 -1.294 4.314
-0.415 -1.294 4.314
-0.39 -1.293 4.314
-0.364 -1.294 4.319
-0.339 -1.295 4.322
-0.313 -1.294 4.319
-0.287 -1.293 4.316
-0.262 -1.293 4.319
-0.236 -1.293 4.318
-0.21 -1.291 4.313
-0.185 -1.29 4.311
-0.159 -1.29 4.31
-0.134 -1.287 4.3
-0.108 -1.285 4.293
-0.083 -1.284 4.29
-0.057 -1.283 4.287
-0.032 -1.28 4.276
0 0 0
0 0 0
0 0 0
0 0 0
0 0 0
0 0 0
0 0 0
0 0 0
0 0 0
0 0 0
0 0 0
0 0 0
0 0 0
0 0 0
0 0 0
0 0 0
0 0 0
0 0 0
0 0 0
0 0 0
0 0 0
0 0 0
0 0 0
0 0 0
0 0 0
0 0 0
0 0 0
0 0 0
0 0 0
0 0 0
0 0 0
0 0 0
0 0 0
0 0 0
0 0 0
0.885 -1.298 4.249
0.91 -1.298 4.245
0.936 -1.3 4.245
