 -0.382 0.124 1.049
 -0.384 0.127 1.073
 -0.384 0.129 1.094
 -0.382 0.131 1.109
 -0.379 0.132 1.123
 -0.375 0.133 1.134
 -0.371 0.134 1.145
 -0.368 0.135 1.157
 -0.364 0.136 1.168
 -0.36 0.137 1.181
 -0.355 0.138 1.191
 -0.35 0.139 1.199
 -0.345 0.14 1.207
 -0.34 0.141 1.216
 -0.334 0.141 1.223
 -0.328 0.142 1.229
 -0.321 0.142 1.234
 -0.315 0.142 1.238
 -0.307 0.142 1.236
 -0.297 0.141 1.23
 -0.288 0.14 1.221
 -0.278 0.138 1.21
 -0.267 0.136 1.195
 -0.257 0.135 1.181
 -0.247 0.133 1.171
 -0.239 0.132 1.164
 -0.231 0.132 1.161
 -0.224 0.131 1.159
 -0.217 0.131 1.16
 -0.211 0.132 1.162
 -0.204 0.132 1.165
 -0.198 0.132 1.168
 -0.191 0.132 1.172
 -0.185 0.132 1.174
 -0.178 0.133 1.178
 -0.172 0.133 1.183
 -0.166 0.134 1.19
 -0.16 0.135 1.2
 -0.156 0.137 1.218
 -0.151 0.14 1.243
 -0.148 0.143 1.273
 -0.143 0.146 1.304
 -0.139 0.149 1.332
 -0.133 0.151 1.349
 -0.125 0.152 1.354
 -0.117 0.151 1.351
 -0.108 0.15 1.338
 -0.099 0.148 1.321
 -0.09 0.145 1.297
 -0.081 0.142 1.269
 -0.072 0.138 1.24
 -0.063 0.135 1.216
 -0.055 0.133 1.198
 -0.048 0.132 1.19
 -0.041 0.132 1.187
 -0.034 0.132 1.189
 -0.028 0.133 1.196
 -0.021 0.134 1.209
 -0.014 0.136 1.222
 -0.007 0.137 1.237
 0 0.139 1.256
 0.006 0.141 1.273
 0.014 0.142 1.283
 0.021 0.143 1.287
 0.029 0.143 1.286
 0.036 0.142 1.28
 0.043 0.142 1.276
 0.051 0.142 1.278
 0.059 0.143 1.293
 0.068 0.146 1.319
 0.077 0.15 1.354
 0.088 0.155 1.4
 0.1 0.161 1.453
 0.112 0.167 1.505
 0.124 0.172 1.546
 0.136 0.175 1.573
 0.146 0.176 1.581
 0.154 0.176 1.578
 0.163 0.175 1.571
 0.171 0.174 1.564
 0.18 0.173 1.558
 0.188 0.173 1.554
 0.197 0.172 1.547
 0.204 0.171 1.532
 0.21 0.169 1.514
 0.216 0.166 1.492
 0.22 0.163 1.463
 0.223 0.159 1.426
 0.225 0.155 1.388
 0.226 0.15 1.344
 0.228 0.146 1.311
 0.229 0.142 1.273
 0.233 0.14 1.252
 0.235 0.137 1.225
 0.226 0.127 1.141
 0.221 0.121 1.084
 0.21 0.111 1
 0.208 0.107 0.959
 0.205 0.103 0.921
 0.187 0.091 0.816
 0.159 0.075 0.675
 0.143 0.066 0.593
 0.126 0.056 0.51
 0.107 0.046 0.421
 0.098 0.041 0.377
 0.098 0.04 0.367
 0.099 0.04 0.363
 0.1 0.039 0.356
 0.1 0.038 0.35
 0.101 0.038 0.345
 0.101 0.037 0.337
 0.101 0.036 0.33
 0.101 0.035 0.323
 0.101 0.035 0.317
 0.102 0.034 0.314
 0.103 0.034 0.31
 0.105 0.034 0.31
 0.109 0.034 0.314
 0.111 0.035 0.314
 0.114 0.035 0.317
 0.118 0.036 0.322
 0.122 0.036 0.326
 0.123 0.036 0.325
 0.129 0.037 0.333
 0.132 0.037 0.336
 0.135 0.038 0.336
 0.137 0.038 0.336
 0.143 0.039 0.344
 0.144 0.038 0.341
 0.148 0.039 0.345
 0.155 0.04 0.354
 0.161 0.041 0.363
 0.162 0.041 0.358
 0.167 0.042 0.365
 0.172 0.042 0.369
 0.177 0.043 0.373
 0.181 0.043 0.375
 0.19 0.045 0.389
 0.193 0.045 0.39
 0.202 0.047 0.4
 0.205 0.047 0.4
 0.248 0.056 0.478
 0.311 0.07 0.593
 0.348 0.078 0.655
 0.367 0.081 0.679
 0.374 0.082 0.683
 0.387 0.084 0.695
 0.396 0.085 0.702
 0.387 0.082 0.675
 0.389 0.081 0.668
 -0.364 0.086 0.649
 -0.369 0.088 0.667
 -0.37 0.09 0.681
 -0.374 0.092 0.699
 -0.378 0.094 0.716
 -0.381 0.096 0.733
 -0.382 0.097 0.746
 -0.381 0.098 0.757
 -0.38 0.099 0.766
 -0.378 0.1 0.774
 -0.375 0.101 0.78
 -0.372 0.101 0.786
 -0.369 0.102 0.792
 -0.365 0.102 0.797
 -0.362 0.102 0.803
 -0.359 0.103 0.81
 -0.356 0.104 0.818
 -0.355 0.105 0.828
 -0.355 0.106 0.842
 -0.355 0.108 0.858
 -0.357 0.111 0.879
 -0.361 0.113 0.904
 -0.367 0.117 0.934
 -0.373 0.121 0.967
 -0.379 0.125 1
 -0.384 0.129 1.033
 -0.388 0.133 1.065
 -0.39 0.136 1.091
 -0.391 0.138 1.113
 -0.389 0.14 1.131
 -0.387 0.142 1.145
 -0.383 0.143 1.157
 -0.379 0.144 1.169
 -0.375 0.145 1.181
 -0.371 0.146 1.192
 -0.367 0.148 1.205
 -0.363 0.149 1.215
 -0.358 0.15 1.225
 -0.352 0.15 1.232
 -0.347 0.151 1.241
 -0.341 0.152 1.249
 -0.335 0.152 1.255
 -0.328 0.153 1.26
 -0.321 0.153 1.263
 -0.313 0.153 1.262
 -0.304 0.152 1.257
 -0.294 0.151 1.249
 -0.284 0.149 1.239
 -0.274 0.147 1.225
 -0.263 0.145 1.212
 -0.254 0.144 1.202
 -0.245 0.143 1.195
 -0.237 0.142 1.192
 -0.23 0.142 1.19
 -0.223 0.142 1.19
 -0.216 0.142 1.192
 -0.209 0.142 1.195
 -0.203 0.142 1.197
 -0.196 0.143 1.201
 -0.19 0.143 1.205
 -0.183 0.144 1.21
 -0.177 0.144 1.216
 -0.171 0.145 1.225
 -0.165 0.146 1.235
 -0.16 0.148 1.255
 -0.156 0.151 1.279
 -0.152 0.154 1.307
 -0.147 0.158 1.336
 -0.142 0.161 1.362
 -0.135 0.162 1.377
 -0.128 0.163 1.384
 -0.12 0.163 1.382
 -0.111 0.162 1.372
 -0.102 0.16 1.356
 -0.092 0.157 1.334
 -0.083 0.154 1.307
 -0.074 0.15 1.279
 -0.065 0.147 1.254
 -0.057 0.145 1.235
 -0.049 0.144 1.225
 -0.042 0.143 1.22
 -0.035 0.143 1.221
 -0.028 0.144 1.227
 -0.021 0.145 1.239
 -0.014 0.146 1.25
 -0.007 0.148 1.263
 0 0.15 1.281
 0.007 0.151 1.295
 0.014 0.153 1.305
 0.022 0.153 1.309
 0.029 0.153 1.31
 0.037 0.153 1.307
 0.044 0.152 1.305
 0.052 0.153 1.311
 0.061 0.155 1.327
 0.07 0.158 1.354
 0.079 0.162 1.388
 0.09 0.167 1.432
 0.102 0.173 1.478
 0.114 0.178 1.523
 0.125 0.182 1.557
 0.136 0.185 1.579
 0.146 0.186 1.584
 0.155 0.185 1.58
 0.163 0.184 1.573
 0.172 0.183 1.565
 0.18 0.183 1.558
 0.188 0.182 1.553
 0.197 0.181 1.546
 0.204 0.18 1.533
 0.21 0.178 1.515
 0.216 0.175 1.492
 0.221 0.172 1.465
 0.224 0.168 1.432
 0.226 0.163 1.392
 0.229 0.159 1.358
 0.23 0.155 1.32
 0.232 0.151 1.289
 0.235 0.148 1.26
 0.238 0.146 1.24
 0.233 0.138 1.174
 0.23 0.132 1.125
 0 0 0
 0 0 0
 0.208 0.11 0.934
 0.195 0.1 0.853
 0.167 0.083 0.709
 0.146 0.071 0.607
 0.128 0.06 0.518
 0.107 0.049 0.422
 0.098 0.043 0.375
 0.099 0.043 0.37
 0.1 0.042 0.366
 0.102 0.042 0.365
 0.104 0.042 0.363
 0.105 0.041 0.358
 0.104 0.04 0.348
 0.105 0.039 0.342
 0.104 0.038 0.333
 0.103 0.037 0.323
 0.104 0.037 0.319
 0.105 0.036 0.314
 0.107 0.036 0.314
 0.11 0.037 0.319
 0.113 0.037 0.321
 0.117 0.038 0.324
 0.121 0.039 0.329
 0.125 0.039 0.333
 0.126 0.039 0.33
 0.13 0.039 0.335
 0.132 0.04 0.336
 0.134 0.039 0.333
 0.135 0.039 0.331
 0.142 0.041 0.341
 0.143 0.04 0.338
 0.149 0.041 0.346
 0.157 0.043 0.358
 0.164 0.044 0.369
 0.162 0.043 0.358
 0.167 0.044 0.365
 0.17 0.044 0.364
 0.174 0.045 0.368
 0.176 0.044 0.366
 0 0 0
 0 0 0
 0 0 0
 0 0 0
 0 0 0
 0.344 0.082 0.656
 0.358 0.085 0.672
 0.365 0.085 0.675
 0.372 0.086 0.679
 0.381 0.087 0.684
 0.391 0.088 0.692
 0.393 0.088 0.685
 0.388 0.085 0.667
 -0.356 0.088 0.634
 -0.363 0.091 0.656
 -0.367 0.093 0.674
 -0.372 0.096 0.693
 -0.375 0.098 0.711
 -0.378 0.1 0.727
 -0.379 0.101 0.741
 -0.379 0.103 0.753
 -0.378 0.104 0.763
 -0.376 0.105 0.77
 -0.374 0.105 0.777
 -0.37 0.106 0.783
 -0.368 0.106 0.789
 -0.364 0.107 0.794
 -0.361 0.107 0.8
 -0.358 0.108 0.807
 -0.356 0.109 0.816
 -0.354 0.11 0.827
 -0.355 0.112 0.841
 -0.356 0.114 0.859
 -0.359 0.116 0.881
 -0.363 0.12 0.909
 -0.37 0.124 0.941
 -0.376 0.128 0.976
 -0.383 0.133 1.012
 -0.389 0.137 1.046
 -0.394 0.141 1.08
 -0.397 0.145 1.109
 -0.397 0.147 1.132
 -0.396 0.15 1.151
 -0.394 0.151 1.167
 -0.39 0.153 1.179
 -0.386 0.154 1.19
 -0.382 0.155 1.203
 -0.378 0.156 1.214
 -0.374 0.158 1.227
 -0.369 0.159 1.237
 -0.364 0.16 1.247
 -0.359 0.161 1.255
 -0.353 0.162 1.263
 -0.347 0.162 1.271
 -0.341 0.163 1.277
 -0.334 0.163 1.281
 -0.327 0.163 1.285
 -0.318 0.163 1.284
 -0.309 0.162 1.279
 -0.3 0.161 1.272
 -0.29 0.16 1.262
 -0.279 0.158 1.249
 -0.269 0.156 1.238
 -0.26 0.155 1.228
 -0.251 0.154 1.223
 -0.243 0.153 1.219
 -0.235 0.153 1.218
 -0.228 0.153 1.218
 -0.221 0.153 1.22
 -0.214 0.153 1.221
 -0.207 0.153 1.224
 -0.201 0.153 1.228
 -0.194 0.154 1.233
 -0.188 0.154 1.239
 -0.181 0.155 1.247
 -0.175 0.156 1.255
 -0.169 0.157 1.265
 -0.164 0.159 1.282
 -0.159 0.162 1.305
 -0.154 0.165 1.33
 -0.149 0.168 1.357
 -0.144 0.171 1.382
 -0.137 0.173 1.397
 -0.13 0.174 1.404
 -0.122 0.174 1.404
 -0.113 0.173 1.397
 -0.104 0.171 1.384
 -0.094 0.168 1.364
 -0.085 0.165 1.341
 -0.076 0.162 1.315
 -0.067 0.159 1.29
 -0.059 0.156 1.27
 -0.051 0.155 1.26
 -0.043 0.154 1.254
 -0.036 0.154 1.254
 -0.029 0.155 1.26
 -0.022 0.156 1.271
 -0.015 0.157 1.282
 -0.007 0.159 1.293
 0 0.161 1.309
 0.007 0.162 1.322
 0.015 0.163 1.33
 0.022 0.164 1.334
 0.03 0.164 1.336
 0.038 0.164 1.334
 0.046 0.164 1.336
 0.054 0.165 1.344
 0.062 0.167 1.362
 0.072 0.17 1.388
 0.082 0.175 1.422
 0.092 0.18 1.462
 0.104 0.185 1.502
 0.115 0.189 1.539
 0.126 0.193 1.566
 0.137 0.195 1.583
 0.146 0.195 1.587
 0.155 0.195 1.582
 0.164 0.194 1.575
 0.172 0.193 1.566
 0.18 0.192 1.559
 0.188 0.191 1.551
 0.196 0.19 1.542
 0.203 0.188 1.528
 0.21 0.186 1.513
 0.216 0.184 1.492
 0.221 0.181 1.466
 0.225 0.177 1.435
 0.227 0.172 1.399
 0.23 0.168 1.363
 0.23 0.163 1.321
 0.234 0.16 1.295
 0.236 0.156 1.268
 0.24 0.154 1.246
 0.243 0.151 1.225
 0 0 0
 0 0 0
 0 0 0
 0 0 0
 0.21 0.113 0.916
 0.193 0.101 0.821
 0.154 0.078 0.638
 0.125 0.062 0.505
 0.107 0.051 0.419
 0.1 0.047 0.384
 0.103 0.047 0.384
 0.104 0.046 0.38
 0.106 0.046 0.379
 0.108 0.046 0.378
 0.107 0.045 0.366
 0.106 0.043 0.354
 0.106 0.042 0.346
 0.105 0.041 0.334
 0.103 0.039 0.323
 0.105 0.039 0.32
 0.105 0.039 0.316
 0.108 0.039 0.318
 0.113 0.04 0.325
 0.115 0.04 0.326
 0.119 0.041 0.332
 0.125 0.042 0.341
 0.129 0.043 0.345
 0.132 0.043 0.347
 0.137 0.044 0.353
 0.139 0.044 0.352
 0.139 0.043 0.346
 0.14 0.043 0.343
 0.143 0.043 0.343
 0.144 0.043 0.34
 0.15 0.044 0.349
 0.158 0.046 0.362
 0.166 0.047 0.373
 0.164 0.046 0.363
 0.169 0.047 0.368
 0.171 0.047 0.367
 0 0 0
 0 0 0
 0 0 0
 0 0 0
 0 0 0
 0 0 0
 0 0 0
 0.326 0.082 0.621
 0.347 0.086 0.651
 0.358 0.088 0.662
 0.368 0.089 0.67
 0.377 0.09 0.676
 0.39 0.093 0.69
 0.408 0.096 0.711
 0.409 0.095 0.702
 -0.355 0.092 0.631
 -0.361 0.095 0.652
 -0.365 0.097 0.669
 -0.369 0.099 0.687
 -0.372 0.102 0.704
 -0.375 0.104 0.721
 -0.377 0.105 0.735
 -0.377 0.107 0.748
 -0.377 0.108 0.758
 -0.375 0.109 0.766
 -0.372 0.11 0.773
 -0.369 0.11 0.779
 -0.366 0.111 0.786
 -0.363 0.111 0.791
 -0.359 0.112 0.797
 -0.357 0.113 0.804
 -0.355 0.114 0.814
 -0.354 0.115 0.825
 -0.354 0.117 0.839
 -0.356 0.119 0.859
 -0.36 0.122 0.883
 -0.365 0.126 0.911
 -0.372 0.13 0.946
 -0.38 0.135 0.984
 -0.387 0.14 1.022
 -0.394 0.145 1.058
 -0.399 0.15 1.094
 -0.402 0.154 1.124
 -0.403 0.157 1.148
 -0.402 0.159 1.168
 -0.4 0.161 1.185
 -0.396 0.162 1.197
 -0.392 0.164 1.209
 -0.389 0.165 1.222
 -0.384 0.166 1.233
 -0.38 0.168 1.245
 -0.375 0.169 1.256
 -0.37 0.17 1.265
 -0.364 0.171 1.273
 -0.358 0.172 1.281
 -0.352 0.172 1.288
 -0.345 0.173 1.294
 -0.338 0.173 1.298
 -0.331 0.173 1.302
 -0.323 0.173 1.302
 -0.314 0.172 1.298
 -0.305 0.171 1.291
 -0.295 0.17 1.283
 -0.284 0.168 1.272
 -0.274 0.166 1.26
 -0.265 0.165 1.252
 -0.256 0.164 1.247
 -0.247 0.163 1.241
 -0.24 0.163 1.24
 -0.232 0.163 1.239
 -0.225 0.163 1.24
 -0.218 0.163 1.242
 -0.211 0.163 1.245
 -0.204 0.163 1.248
 -0.198 0.164 1.255
 -0.191 0.165 1.262
 -0.185 0.166 1.271
 -0.179 0.167 1.28
 -0.172 0.168 1.29
 -0.167 0.17 1.305
 -0.161 0.172 1.325
 -0.156 0.175 1.347
 -0.151 0.178 1.372
 -0.145 0.181 1.394
 -0.139 0.183 1.41
 -0.131 0.184 1.419
 -0.123 0.184 1.42
 -0.114 0.183 1.414
 -0.105 0.182 1.404
 -0.096 0.179 1.386
 -0.087 0.177 1.366
 -0.077 0.173 1.342
 -0.068 0.171 1.321
 -0.06 0.168 1.302
 -0.052 0.167 1.293
 -0.044 0.166 1.288
 -0.037 0.166 1.289
 -0.03 0.167 1.295
 -0.022 0.168 1.305
 -0.015 0.169 1.315
 -0.007 0.171 1.325
 0 0.172 1.339
 0.007 0.174 1.35
 0.015 0.175 1.358
 0.023 0.175 1.362
 0.031 0.176 1.365
 0.039 0.175 1.363
 0.047 0.176 1.367
 0.055 0.177 1.375
 0.064 0.179 1.393
 0.073 0.182 1.418
 0.083 0.186 1.449
 0.094 0.191 1.484
 0.105 0.196 1.519
 0.116 0.199 1.549
 0.127 0.202 1.571
 0.137 0.204 1.583
 0.146 0.204 1.586
 0.155 0.204 1.58
 0.164 0.203 1.574
 0.172 0.202 1.564
 0.18 0.201 1.556
 0.188 0.2 1.548
 0.196 0.198 1.538
 0.203 0.196 1.523
 0.21 0.195 1.51
 0.216 0.192 1.488
 0.221 0.189 1.464
 0.225 0.185 1.434
 0.228 0.181 1.4
 0.231 0.177 1.366
 0.231 0.171 1.325
 0.235 0.168 1.3
 0.238 0.165 1.274
 0.241 0.162 1.251
 0.241 0.157 1.211
 0.242 0.153 1.181
 0.224 0.138 1.065
 0.215 0.128 0.989
 0.22 0.128 0.988
 0.221 0.125 0.964
 0.195 0.107 0.828
 0.123 0.065 0.509
 0.097 0.05 0.39
 0.1 0.05 0.391
 0.104 0.051 0.398
 0.105 0.05 0.392
 0.107 0.05 0.389
 0.109 0.05 0.389
 0.111 0.05 0.387
 0.108 0.047 0.369
 0.107 0.046 0.357
 0.107 0.045 0.348
 0.105 0.043 0.336
 0.103 0.041 0.323
 0.104 0.041 0.319
 0.106 0.041 0.316
 0.109 0.041 0.32
 0.114 0.042 0.328
 0.118 0.043 0.333
 0.122 0.044 0.34
 0.13 0.046 0.354
 0.135 0.047 0.362
 0.14 0.048 0.367
 0.144 0.049 0.373
 0.148 0.049 0.376
 0.145 0.047 0.361
 0.144 0.046 0.352
 0.143 0.045 0.343
 0.144 0.045 0.339
 0 0 0
 0 0 0
 0 0 0
 0 0 0
 0 0 0
 0 0 0
 0 0 0
 0 0 0
 0 0 0
 0 0 0
 0 0 0
 0 0 0
 0.259 0.068 0.498
 0.294 0.077 0.559
 0.329 0.086 0.617
 0.353 0.091 0.651
 0.368 0.094 0.669
 0.381 0.096 0.682
 0.397 0.099 0.701
 0.421 0.104 0.733
 0.41 0.1 0.704
 -0.353 0.096 0.626
 -0.357 0.098 0.645
 -0.361 0.1 0.662
 -0.366 0.103 0.68
 -0.369 0.105 0.697
 -0.372 0.107 0.714
 -0.374 0.109 0.729
 -0.375 0.111 0.742
 -0.374 0.112 0.753
 -0.373 0.113 0.762
 -0.37 0.114 0.769
 -0.367 0.115 0.775
 -0.365 0.115 0.782
 -0.361 0.116 0.788
 -0.358 0.116 0.794
 -0.356 0.117 0.802
 -0.354 0.118 0.812
 -0.354 0.12 0.823
 -0.354 0.122 0.839
 -0.356 0.125 0.859
 -0.36 0.128 0.884
 -0.366 0.132 0.915
 -0.374 0.137 0.951
 -0.382 0.143 0.99
 -0.391 0.148 1.031
 -0.397 0.153 1.068
 -0.404 0.158 1.106
 -0.407 0.162 1.136
 -0.409 0.166 1.163
 -0.408 0.168 1.183
 -0.406 0.171 1.202
 -0.402 0.172 1.214
 -0.398 0.174 1.225
 -0.394 0.175 1.238
 -0.389 0.176 1.249
 -0.385 0.178 1.26
 -0.38 0.179 1.27
 -0.374 0.18 1.28
 -0.368 0.181 1.288
 -0.362 0.181 1.295
 -0.356 0.182 1.301
 -0.349 0.182 1.307
 -0.342 0.183 1.311
 -0.335 0.183 1.315
 -0.327 0.183 1.316
 -0.318 0.182 1.313
 -0.308 0.181 1.307
 -0.299 0.18 1.3
 -0.288 0.178 1.289
 -0.278 0.177 1.279
 -0.269 0.175 1.271
 -0.26 0.174 1.266
 -0.252 0.174 1.262
 -0.244 0.173 1.26
 -0.236 0.173 1.259
 -0.228 0.173 1.259
 -0.221 0.173 1.261
 -0.214 0.173 1.264
 -0.207 0.173 1.268
 -0.201 0.174 1.275
 -0.194 0.175 1.282
 -0.187 0.176 1.288
 -0.181 0.177 1.297
 -0.175 0.178 1.306
 -0.168 0.179 1.318
 -0.163 0.182 1.337
 -0.158 0.185 1.359
 -0.152 0.188 1.382
 -0.146 0.191 1.404
 -0.14 0.193 1.422
 -0.132 0.194 1.43
 -0.124 0.194 1.432
 -0.115 0.193 1.427
 -0.106 0.192 1.418
 -0.097 0.19 1.403
 -0.088 0.187 1.385
 -0.079 0.184 1.364
 -0.07 0.182 1.347
 -0.061 0.179 1.33
 -0.053 0.178 1.322
 -0.045 0.178 1.319
 -0.038 0.178 1.321
 -0.03 0.179 1.325
 -0.023 0.18 1.335
 -0.015 0.181 1.344
 -0.007 0.182 1.353
 0 0.184 1.366
 0.007 0.185 1.376
 0.015 0.186 1.384
 0.023 0.187 1.388
 0.032 0.187 1.391
 0.04 0.187 1.39
 0.048 0.187 1.393
 0.056 0.189 1.402
 0.065 0.191 1.419
 0.074 0.194 1.441
 0.084 0.198 1.469
 0.095 0.202 1.5
 0.106 0.206 1.529
 0.116 0.209 1.554
 0.127 0.212 1.572
 0.137 0.213 1.582
 0.146 0.213 1.583
 0.155 0.213 1.578
 0.164 0.212 1.572
 0.172 0.211 1.562
 0.18 0.209 1.553
 0.188 0.208 1.545
 0.195 0.207 1.532
 0.202 0.205 1.518
 0.209 0.203 1.504
 0.215 0.2 1.483
 0.22 0.197 1.46
 0.225 0.194 1.435
 0.228 0.189 1.4
 0.23 0.184 1.365
 0.232 0.179 1.327
 0.235 0.176 1.302
 0.238 0.172 1.272
 0.241 0.169 1.252
 0.243 0.165 1.221
 0.242 0.16 1.18
 0.221 0.142 1.047
 0.209 0.13 0.961
 0.214 0.13 0.959
 0.215 0.127 0.938
 0.2 0.115 0.848
 0.145 0.081 0.599
 0.107 0.058 0.431
 0.11 0.058 0.432
 0.113 0.058 0.433
 0.113 0.057 0.424
 0.113 0.055 0.412
 0.115 0.055 0.408
 0.115 0.054 0.401
 0.112 0.051 0.38
 0.11 0.049 0.367
 0.11 0.048 0.357
 0.107 0.046 0.342
 0.105 0.044 0.328
 0.106 0.043 0.323
 0.107 0.043 0.321
 0.11 0.044 0.324
 0.116 0.045 0.333
 0.121 0.046 0.341
 0.125 0.047 0.347
 0.133 0.05 0.363
 0.139 0.051 0.372
 0.144 0.052 0.379
 0.148 0.052 0.381
 0.154 0.054 0.39
 0.152 0.052 0.377
 0.149 0.05 0.365
 0.146 0.048 0.35
 0 0 0
 0 0 0
 0.159 0.05 0.363
 0.161 0.05 0.362
 0 0 0
 0 0 0
 0 0 0
 0 0 0
 0 0 0
 0 0 0
 0 0 0
 0.232 0.066 0.46
 0.252 0.071 0.493
 0.259 0.072 0.499
 0.281 0.077 0.533
 0.314 0.085 0.587
 0.342 0.092 0.631
 0.362 0.096 0.658
 0.38 0.1 0.68
 0.398 0.104 0.704
 0.407 0.105 0.709
 0.411 0.105 0.705
 -0.353 0.1 0.627
 -0.358 0.103 0.646
 -0.359 0.104 0.657
 -0.363 0.106 0.674
 -0.366 0.109 0.691
 -0.369 0.111 0.709
 -0.372 0.113 0.724
 -0.373 0.115 0.737
 -0.372 0.116 0.748
 -0.371 0.118 0.757
 -0.369 0.118 0.765
 -0.365 0.119 0.77
 -0.362 0.119 0.776
 -0.36 0.12 0.783
 -0.356 0.121 0.789
 -0.354 0.122 0.797
 -0.353 0.123 0.807
 -0.352 0.125 0.82
 -0.353 0.127 0.835
 -0.356 0.13 0.857
 -0.361 0.133 0.884
 -0.367 0.138 0.916
 -0.375 0.143 0.954
 -0.384 0.149 0.995
 -0.393 0.155 1.037
 -0.4 0.161 1.075
 -0.407 0.166 1.114
 -0.411 0.171 1.147
 -0.413 0.175 1.174
 -0.412 0.178 1.196
 -0.411 0.18 1.214
 -0.407 0.182 1.227
 -0.402 0.183 1.238
 -0.398 0.184 1.249
 -0.393 0.186 1.26
 -0.388 0.187 1.271
 -0.383 0.188 1.281
 -0.378 0.189 1.291
 -0.372 0.19 1.299
 -0.365 0.191 1.306
 -0.358 0.191 1.311
 -0.352 0.192 1.317
 -0.345 0.192 1.321
 -0.337 0.192 1.325
 -0.329 0.192 1.327
 -0.321 0.192 1.325
 -0.311 0.191 1.32
 -0.302 0.19 1.313
 -0.292 0.188 1.303
 -0.281 0.186 1.293
 -0.272 0.185 1.286
 -0.263 0.184 1.28
 -0.255 0.183 1.276
 -0.246 0.183 1.274
 -0.239 0.182 1.273
 -0.231 0.182 1.273
 -0.223 0.182 1.274
 -0.216 0.182 1.276
 -0.209 0.183 1.281
 -0.203 0.184 1.287
 -0.196 0.184 1.295
 -0.189 0.185 1.302
 -0.183 0.186 1.31
 -0.176 0.187 1.319
 -0.17 0.189 1.33
 -0.164 0.191 1.346
 -0.159 0.194 1.368
 -0.153 0.197 1.39
 -0.147 0.2 1.412
 -0.141 0.202 1.429
 -0.133 0.204 1.438
 -0.125 0.204 1.44
 -0.116 0.203 1.436
 -0.107 0.202 1.428
 -0.098 0.2 1.414
 -0.089 0.197 1.399
 -0.08 0.195 1.381
 -0.071 0.192 1.365
 -0.062 0.19 1.351
 -0.054 0.189 1.343
 -0.046 0.189 1.341
 -0.038 0.189 1.344
 -0.031 0.19 1.349
 -0.023 0.191 1.359
 -0.015 0.192 1.368
 -0.008 0.194 1.378
 0 0.195 1.388
 0.008 0.196 1.397
 0.016 0.197 1.405
 0.024 0.198 1.409
 0.032 0.198 1.412
 0.04 0.198 1.413
 0.049 0.199 1.418
 0.057 0.2 1.426
 0.066 0.202 1.441
 0.076 0.205 1.46
 0.085 0.208 1.483
 0.096 0.212 1.509
 0.106 0.216 1.535
 0.117 0.218 1.554
 0.127 0.221 1.571
 0.137 0.222 1.579
 0.146 0.222 1.579
 0.155 0.221 1.574
 0.163 0.221 1.567
 0.171 0.219 1.556
 0.179 0.218 1.547
 0.187 0.217 1.538
 0.195 0.215 1.526
 0.202 0.213 1.511
 0.209 0.211 1.497
 0.214 0.208 1.477
 0.22 0.205 1.453
 0.225 0.202 1.43
 0.227 0.197 1.395
 0.229 0.192 1.358
 0.23 0.185 1.312
 0.233 0.182 1.29
 0.232 0.175 1.242
 0.235 0.172 1.217
 0.236 0.168 1.186
 0.235 0.162 1.146
 0.219 0.147 1.036
 0.214 0.139 0.984
 0.22 0.139 0.983
 0.221 0.136 0.963
 0.193 0.116 0.818
 0.133 0.077 0.55
 0.116 0.065 0.465
 0.116 0.064 0.457
 0.118 0.064 0.452
 0.115 0.061 0.431
 0.114 0.059 0.417
 0.115 0.058 0.411
 0.115 0.056 0.399
 0.111 0.053 0.379
 0.11 0.051 0.365
 0.109 0.05 0.355
 0.107 0.048 0.34
 0.105 0.046 0.328
 0.106 0.046 0.325
 0.109 0.046 0.326
 0.112 0.046 0.328
 0.117 0.048 0.337
 0.123 0.049 0.347
 0.127 0.05 0.352
 0.135 0.053 0.368
 0.141 0.054 0.377
 0.146 0.055 0.384
 0.148 0.055 0.381
 0.153 0.056 0.388
 0.151 0.054 0.375
 0.152 0.054 0.371
 0.146 0.051 0.35
 0 0 0
 0 0 0
 0.165 0.055 0.376
 0.168 0.055 0.376
 0.171 0.055 0.378
 0.181 0.058 0.393
 0.178 0.056 0.381
 0.207 0.065 0.436
 0 0 0
 0 0 0
 0.219 0.066 0.441
 0.24 0.071 0.476
 0.251 0.074 0.489
 0.258 0.075 0.497
 0.276 0.079 0.524
 0.306 0.087 0.572
 0.333 0.094 0.614
 0.357 0.099 0.648
 0.378 0.104 0.676
 0.396 0.108 0.698
 0.411 0.111 0.715
 0.415 0.11 0.711
 -0.349 0.103 0.618
 -0.352 0.105 0.634
 -0.356 0.108 0.652
 -0.36 0.11 0.668
 -0.363 0.112 0.686
 -0.367 0.115 0.703
 -0.369 0.117 0.717
 -0.37 0.119 0.731
 -0.369 0.12 0.742
 -0.368 0.121 0.751
 -0.366 0.122 0.759
 -0.363 0.123 0.765
 -0.36 0.124 0.771
 -0.358 0.124 0.778
 -0.355 0.125 0.785
 -0.353 0.126 0.793
 -0.351 0.128 0.803
 -0.351 0.129 0.816
 -0.352 0.131 0.832
 -0.355 0.135 0.854
 -0.36 0.139 0.882
 -0.367 0.144 0.916
 -0.376 0.15 0.956
 -0.386 0.156 0.999
 -0.395 0.163 1.042
 -0.403 0.169 1.082
 -0.41 0.174 1.121
 -0.414 0.179 1.154
 -0.416 0.183 1.182
 -0.415 0.186 1.204
 -0.414 0.189 1.223
 -0.41 0.191 1.236
 -0.405 0.192 1.247
 -0.401 0.193 1.258
 -0.396 0.195 1.27
 -0.391 0.196 1.28
 -0.386 0.197 1.29
 -0.38 0.198 1.3
 -0.374 0.199 1.307
 -0.368 0.2 1.313
 -0.361 0.2 1.319
 -0.354 0.201 1.325
 -0.347 0.201 1.33
 -0.34 0.202 1.334
 -0.332 0.202 1.336
 -0.323 0.201 1.335
 -0.314 0.2 1.33
 -0.304 0.199 1.323
 -0.294 0.197 1.313
 -0.284 0.196 1.302
 -0.274 0.194 1.295
 -0.265 0.193 1.289
 -0.257 0.192 1.286
 -0.248 0.192 1.284
 -0.241 0.192 1.285
 -0.233 0.192 1.286
 -0.226 0.192 1.287
 -0.219 0.192 1.29
 -0.212 0.192 1.295
 -0.205 0.193 1.302
 -0.198 0.194 1.309
 -0.191 0.195 1.315
 -0.185 0.196 1.323
 -0.178 0.197 1.332
 -0.171 0.198 1.341
 -0.165 0.201 1.357
 -0.16 0.204 1.377
 -0.154 0.206 1.397
 -0.148 0.209 1.418
 -0.141 0.212 1.436
 -0.134 0.213 1.444
 -0.125 0.213 1.447
 -0.117 0.213 1.445
 -0.108 0.211 1.436
 -0.098 0.209 1.423
 -0.089 0.207 1.411
 -0.08 0.205 1.396
 -0.072 0.203 1.382
 -0.063 0.201 1.37
 -0.055 0.2 1.363
 -0.047 0.2 1.362
 -0.039 0.2 1.364
 -0.031 0.201 1.369
 -0.023 0.202 1.379
 -0.016 0.203 1.388
 -0.008 0.205 1.397
 0 0.206 1.408
 0.008 0.207 1.416
 0.016 0.208 1.423
 0.024 0.209 1.428
 0.033 0.209 1.43
 0.041 0.21 1.431
 0.049 0.21 1.435
 0.058 0.211 1.443
 0.067 0.213 1.456
 0.076 0.216 1.473
 0.086 0.219 1.495
 0.096 0.222 1.518
 0.107 0.226 1.54
 0.117 0.228 1.557
 0.127 0.23 1.571
 0.137 0.231 1.578
 0.146 0.231 1.577
 0.155 0.23 1.572
 0.163 0.23 1.566
 0.171 0.228 1.555
 0.179 0.227 1.545
 0.187 0.225 1.535
 0.194 0.223 1.521
 0.201 0.221 1.504
 0.208 0.219 1.491
 0.214 0.216 1.469
 0.218 0.212 1.444
 0.223 0.208 1.417
 0.226 0.203 1.383
 0.227 0.197 1.341
 0.227 0.191 1.299
 0.231 0.188 1.274
 0.232 0.182 1.238
 0.235 0.179 1.216
 0.236 0.174 1.184
 0.235 0.168 1.143
 0.214 0.149 1.011
 0.214 0.145 0.983
 0.22 0.145 0.982
 0.221 0.142 0.962
 0.188 0.117 0.796
 0.136 0.082 0.561
 0.126 0.074 0.507
 0.126 0.073 0.494
 0.128 0.072 0.491
 0.122 0.067 0.457
 0.121 0.065 0.441
 0.12 0.062 0.425
 0.117 0.06 0.408
 0.112 0.056 0.379
 0.111 0.054 0.368
 0.109 0.052 0.355
 0.107 0.05 0.34
 0.105 0.048 0.329
 0.106 0.048 0.325
 0.109 0.048 0.325
 0.113 0.049 0.331
 0.118 0.05 0.34
 0.124 0.052 0.351
 0.13 0.053 0.359
 0.138 0.056 0.374
 0.142 0.057 0.38
 0.147 0.058 0.386
 0.148 0.057 0.382
 0.154 0.059 0.39
 0.156 0.059 0.389
 0.161 0.06 0.394
 0.163 0.059 0.391
 0.169 0.061 0.4
 0.173 0.061 0.402
 0.165 0.057 0.377
 0.169 0.058 0.378
 0.172 0.058 0.379
 0.181 0.06 0.393
 0.182 0.06 0.389
 0.201 0.065 0.424
 0.211 0.068 0.437
 0.215 0.068 0.438
 0.222 0.07 0.446
 0.238 0.074 0.472
 0.251 0.077 0.49
 0.26 0.078 0.499
 0.274 0.082 0.519
 0.301 0.089 0.562
 0.327 0.096 0.602
 0.35 0.101 0.635
 0.373 0.107 0.667
 0.392 0.111 0.691
 0.411 0.115 0.714
 0.412 0.114 0.705
 -0.351 0.107 0.621
 -0.35 0.108 0.629
 -0.354 0.111 0.647
 -0.358 0.114 0.663
 -0.361 0.116 0.68
 -0.364 0.119 0.697
 -0.366 0.121 0.712
 -0.367 0.123 0.725
 -0.367 0.124 0.736
 -0.366 0.125 0.745
 -0.364 0.126 0.754
 -0.361 0.127 0.76
 -0.358 0.128 0.765
 -0.356 0.129 0.773
 -0.353 0.13 0.78
 -0.351 0.13 0.788
 -0.349 0.132 0.798
 -0.349 0.134 0.811
 -0.35 0.136 0.827
 -0.353 0.139 0.85
 -0.359 0.144 0.88
 -0.368 0.15 0.916
 -0.377 0.156 0.956
 -0.387 0.163 1.001
 -0.396 0.17 1.044
 -0.404 0.176 1.085
 -0.411 0.182 1.124
 -0.416 0.187 1.158
 -0.418 0.191 1.186
 -0.418 0.195 1.209
 -0.416 0.197 1.228
 -0.412 0.199 1.242
 -0.407 0.201 1.252
 -0.403 0.202 1.264
 -0.398 0.204 1.276
 -0.393 0.205 1.285
 -0.388 0.206 1.295
 -0.382 0.207 1.306
 -0.376 0.208 1.313
 -0.369 0.209 1.318
 -0.363 0.209 1.325
 -0.356 0.21 1.331
 -0.349 0.21 1.335
 -0.341 0.211 1.338
 -0.333 0.211 1.34
 -0.325 0.21 1.339
 -0.315 0.209 1.334
 -0.305 0.208 1.328
 -0.296 0.206 1.32
 -0.285 0.204 1.309
 -0.276 0.203 1.302
 -0.267 0.202 1.297
 -0.259 0.202 1.295
 -0.25 0.201 1.293
 -0.243 0.201 1.296
 -0.235 0.201 1.297
 -0.228 0.201 1.299
 -0.221 0.201 1.301
 -0.213 0.202 1.306
 -0.207 0.203 1.311
 -0.2 0.204 1.318
 -0.193 0.204 1.322
 -0.186 0.205 1.331
 -0.179 0.206 1.339
 -0.172 0.208 1.349
 -0.166 0.21 1.363
 -0.16 0.213 1.383
 -0.154 0.215 1.401
 -0.148 0.218 1.421
 -0.142 0.221 1.439
 -0.134 0.222 1.449
 -0.126 0.222 1.451
 -0.117 0.222 1.449
 -0.108 0.221 1.442
 -0.099 0.219 1.43
 -0.09 0.217 1.418
 -0.081 0.215 1.406
 -0.072 0.213 1.394
 -0.064 0.211 1.385
 -0.055 0.211 1.379
 -0.047 0.21 1.378
 -0.039 0.21 1.38
 -0.032 0.211 1.384
 -0.024 0.212 1.392
 -0.016 0.214 1.401
 -0.008 0.215 1.41
 0 0.216 1.421
 0.008 0.218 1.429
 0.016 0.219 1.437
 0.025 0.22 1.442
 0.033 0.22 1.443
 0.041 0.22 1.445
 0.05 0.221 1.449
 0.059 0.222 1.455
 0.068 0.223 1.467
 0.077 0.226 1.482
 0.087 0.228 1.5
 0.097 0.232 1.52
 0.107 0.234 1.539
 0.117 0.237 1.554
 0.127 0.239 1.566
 0.137 0.24 1.573
 0.146 0.24 1.571
 0.154 0.239 1.567
 0.163 0.238 1.559
 0.17 0.236 1.547
 0.178 0.235 1.537
 0.186 0.233 1.527
 0.193 0.231 1.512
 0.2 0.229 1.497
 0.207 0.226 1.482
 0.212 0.223 1.459
 0.217 0.219 1.433
 0.221 0.214 1.403
 0.223 0.209 1.366
 0.224 0.203 1.325
 0.225 0.197 1.284
 0.227 0.192 1.252
 0.227 0.185 1.21
 0.229 0.182 1.186
 0.229 0.176 1.151
 0.226 0.169 1.101
 0.211 0.153 0.998
 0.208 0.147 0.957
 0.214 0.147 0.956
 0.204 0.136 0.886
 0.176 0.114 0.743
 0.139 0.087 0.571
 0.133 0.082 0.535
 0.135 0.081 0.528
 0.133 0.078 0.508
 0.126 0.072 0.471
 0.125 0.069 0.454
 0.123 0.067 0.438
 0.118 0.063 0.412
 0.114 0.06 0.389
 0.113 0.058 0.375
 0.111 0.055 0.362
 0.109 0.053 0.346
 0.108 0.052 0.338
 0.109 0.051 0.333
 0.112 0.051 0.335
 0.117 0.053 0.342
 0.122 0.054 0.351
 0.128 0.056 0.362
 0.132 0.057 0.366
 0.138 0.058 0.376
 0.142 0.059 0.379
 0.146 0.06 0.383
 0.146 0.059 0.375
 0.152 0.06 0.384
 0.156 0.061 0.388
 0.161 0.062 0.392
 0.164 0.062 0.393
 0.17 0.064 0.402
 0.174 0.064 0.403
 0.171 0.062 0.389
 0.174 0.062 0.39
 0.176 0.062 0.387
 0.184 0.064 0.4
 0.186 0.064 0.398
 0.202 0.068 0.425
 0.212 0.071 0.44
 0.217 0.072 0.443
 0.224 0.073 0.45
 0.239 0.077 0.473
 0.251 0.08 0.489
 0.261 0.082 0.502
 0.276 0.086 0.521
 0.3 0.093 0.56
 0.325 0.099 0.597
 0.348 0.105 0.63
 0.371 0.111 0.662
 0.387 0.114 0.682
 0.399 0.116 0.692
 0.403 0.116 0.689
 -0.348 0.11 0.615
 -0.345 0.111 0.621
 -0.352 0.115 0.642
 -0.355 0.117 0.658
 -0.358 0.12 0.674
 -0.361 0.122 0.691
 -0.363 0.124 0.705
 -0.364 0.126 0.718
 -0.364 0.128 0.729
 -0.363 0.129 0.739
 -0.361 0.13 0.747
 -0.359 0.131 0.754
 -0.356 0.132 0.76
 -0.353 0.133 0.767
 -0.351 0.134 0.774
 -0.349 0.135 0.782
 -0.347 0.136 0.792
 -0.347 0.138 0.806
 -0.348 0.14 0.822
 -0.352 0.144 0.846
 -0.358 0.149 0.876
 -0.367 0.155 0.914
 -0.376 0.162 0.955
 -0.387 0.169 0.999
 -0.396 0.176 1.042
 -0.405 0.183 1.085
 -0.411 0.189 1.123
 -0.416 0.195 1.159
 -0.419 0.199 1.189
 -0.419 0.203 1.213
 -0.418 0.206 1.232
 -0.414 0.208 1.246
 -0.409 0.209 1.257
 -0.405 0.211 1.268
 -0.4 0.212 1.28
 -0.395 0.213 1.29
 -0.389 0.215 1.299
 -0.384 0.216 1.309
 -0.377 0.217 1.317
 -0.37 0.217 1.321
 -0.363 0.218 1.327
 -0.357 0.219 1.333
 -0.349 0.219 1.337
 -0.342 0.219 1.34
 -0.334 0.219 1.342
 -0.326 0.219 1.342
 -0.316 0.218 1.339
 -0.307 0.217 1.332
 -0.297 0.215 1.326
 -0.287 0.214 1.316
 -0.277 0.212 1.308
 -0.268 0.211 1.303
 -0.26 0.211 1.303
 -0.252 0.21 1.302
 -0.245 0.21 1.305
 -0.237 0.211 1.307
 -0.23 0.211 1.31
 -0.222 0.211 1.312
 -0.215 0.211 1.315
 -0.208 0.212 1.321
 -0.201 0.213 1.328
 -0.194 0.213 1.33
 -0.187 0.214 1.338
 -0.18 0.215 1.346
 -0.173 0.216 1.354
 -0.167 0.218 1.366
 -0.161 0.221 1.386
 -0.155 0.224 1.405
 -0.149 0.227 1.425
 -0.142 0.23 1.442
 -0.134 0.231 1.452
 -0.126 0.232 1.456
 -0.118 0.231 1.454
 -0.109 0.23 1.447
 -0.099 0.228 1.436
 -0.09 0.227 1.426
 -0.081 0.225 1.415
 -0.073 0.223 1.405
 -0.064 0.221 1.396
 -0.056 0.22 1.39
 -0.048 0.22 1.388
 -0.04 0.22 1.389
 -0.032 0.221 1.392
 -0.024 0.222 1.4
 -0.016 0.223 1.409
 -0.008 0.225 1.42
 0 0.226 1.43
 0.008 0.228 1.439
 0.016 0.229 1.445
 0.025 0.229 1.45
 0.033 0.23 1.452
 0.042 0.23 1.454
 0.05 0.231 1.458
 0.059 0.232 1.464
 0.068 0.233 1.473
 0.077 0.235 1.487
 0.087 0.238 1.503
 0.097 0.241 1.521
 0.107 0.243 1.537
 0.117 0.245 1.55
 0.127 0.247 1.561
 0.136 0.248 1.566
 0.145 0.248 1.565
 0.154 0.247 1.559
 0.162 0.246 1.551
 0.17 0.244 1.539
 0.177 0.242 1.527
 0.185 0.24 1.515
 0.192 0.238 1.5
 0.199 0.236 1.484
 0.205 0.233 1.469
 0.211 0.23 1.447
 0.215 0.225 1.419
 0.219 0.221 1.389
 0.221 0.215 1.351
 0.222 0.208 1.311
 0.223 0.202 1.269
 0.223 0.196 1.229
 0.221 0.188 1.181
 0.223 0.184 1.155
 0.223 0.178 1.118
 0.218 0.169 1.061
 0.205 0.155 0.971
 0.191 0.14 0.878
 0.196 0.14 0.877
 0.193 0.134 0.84
 0.178 0.12 0.754
 0.15 0.098 0.616
 0.138 0.088 0.553
 0.138 0.086 0.542
 0.137 0.083 0.523
 0.129 0.077 0.482
 0.127 0.073 0.461
 0.125 0.071 0.445
 0.121 0.067 0.422
 0.118 0.064 0.4
 0.117 0.062 0.387
 0.114 0.059 0.371
 0.112 0.057 0.357
 0.112 0.056 0.349
 0.113 0.055 0.344
 0.116 0.055 0.346
 0.12 0.057 0.353
 0.126 0.058 0.363
 0.131 0.06 0.37
 0.136 0.061 0.376
 0.139 0.061 0.378
 0.141 0.061 0.376
 0.144 0.061 0.376
 0.145 0.061 0.372
 0.148 0.061 0.374
 0.152 0.062 0.377
 0.158 0.063 0.386
 0.162 0.064 0.388
 0.166 0.064 0.391
 0.17 0.065 0.395
 0.171 0.064 0.389
 0.175 0.065 0.392
 0.176 0.064 0.387
 0.181 0.065 0.393
 0.185 0.066 0.395
 0.203 0.071 0.425
 0.211 0.073 0.437
 0.217 0.075 0.443
 0.227 0.077 0.454
 0.241 0.081 0.475
 0.249 0.082 0.484
 0.259 0.085 0.497
 0.275 0.089 0.519
 0.298 0.095 0.555
 0.321 0.102 0.589
 0.344 0.108 0.622
 0.367 0.114 0.654
 0.383 0.117 0.673
 0.405 0.123 0.701
 0.392 0.117 0.669
 -0.34 0.112 0.601
 -0.347 0.116 0.622
 -0.35 0.118 0.637
 -0.353 0.121 0.653
 -0.356 0.123 0.669
 -0.359 0.126 0.685
 -0.361 0.128 0.699
 -0.361 0.13 0.711
 -0.361 0.132 0.723
 -0.36 0.133 0.733
 -0.358 0.134 0.741
 -0.356 0.135 0.748
 -0.353 0.136 0.754
 -0.351 0.136 0.761
 -0.348 0.137 0.768
 -0.346 0.138 0.776
 -0.344 0.14 0.785
 -0.344 0.142 0.798
 -0.346 0.145 0.816
 -0.35 0.148 0.839
 -0.356 0.154 0.87
 -0.366 0.16 0.91
 -0.375 0.167 0.951
 -0.386 0.175 0.996
 -0.395 0.182 1.04
 -0.404 0.189 1.083
 -0.411 0.196 1.121
 -0.416 0.201 1.157
 -0.418 0.206 1.187
 -0.419 0.21 1.212
 -0.418 0.213 1.232
 -0.414 0.215 1.246
 -0.41 0.217 1.258
 -0.405 0.219 1.27
 -0.401 0.22 1.282
 -0.395 0.222 1.291
 -0.39 0.223 1.302
 -0.384 0.224 1.31
 -0.378 0.225 1.317
 -0.371 0.225 1.322
 -0.364 0.226 1.328
 -0.357 0.227 1.334
 -0.35 0.227 1.338
 -0.342 0.227 1.341
 -0.334 0.227 1.343
 -0.326 0.227 1.343
 -0.317 0.226 1.34
 -0.307 0.225 1.335
 -0.298 0.224 1.329
 -0.288 0.222 1.321
 -0.278 0.221 1.313
 -0.269 0.22 1.308
 -0.261 0.219 1.307
 -0.253 0.219 1.307
 -0.246 0.219 1.309
 -0.238 0.219 1.312
 -0.231 0.22 1.315
 -0.223 0.22 1.317
 -0.216 0.22 1.32
 -0.209 0.221 1.327
 -0.202 0.222 1.333
 -0.195 0.222 1.336
 -0.188 0.223 1.342
 -0.181 0.224 1.35
 -0.174 0.225 1.358
 -0.167 0.227 1.369
 -0.161 0.23 1.387
 -0.155 0.233 1.406
 -0.149 0.236 1.424
 -0.142 0.238 1.44
 -0.134 0.24 1.451
 -0.126 0.24 1.455
 -0.118 0.24 1.454
 -0.109 0.239 1.449
 -0.1 0.238 1.441
 -0.091 0.236 1.431
 -0.082 0.234 1.422
 -0.073 0.233 1.413
 -0.065 0.231 1.405
 -0.056 0.23 1.399
 -0.048 0.23 1.396
 -0.04 0.23 1.396
 -0.032 0.23 1.399
 -0.024 0.231 1.406
 -0.016 0.232 1.415
 -0.008 0.234 1.426
 0 0.236 1.437
 0.008 0.237 1.446
 0.017 0.238 1.452
 0.025 0.239 1.457
 0.034 0.239 1.458
 0.042 0.24 1.46
 0.051 0.24 1.463
 0.059 0.241 1.469
 0.068 0.242 1.476
 0.077 0.244 1.489
 0.087 0.247 1.503
 0.097 0.249 1.519
 0.107 0.252 1.533
 0.116 0.254 1.545
 0.126 0.255 1.555
 0.136 0.256 1.559
 0.145 0.256 1.557
 0.153 0.255 1.551
 0.161 0.254 1.542
 0.169 0.252 1.529
 0.176 0.25 1.517
 0.184 0.247 1.503
 0.19 0.245 1.488
 0.197 0.242 1.47
 0.203 0.239 1.454
 0.209 0.236 1.431
 0.213 0.231 1.404
 0.216 0.226 1.373
 0.219 0.22 1.336
 0.219 0.214 1.294
 0.219 0.206 1.245
 0.219 0.199 1.206
 0.217 0.191 1.158
 0.217 0.185 1.122
 0.216 0.179 1.082
 0.215 0.173 1.045
 0.205 0.16 0.969
 0.191 0.145 0.875
 0.186 0.137 0.83
 0.179 0.129 0.778
 0.168 0.117 0.71
 0.151 0.103 0.621
 0.143 0.095 0.572
 0.14 0.091 0.548
 0.138 0.087 0.525
 0.13 0.08 0.483
 0.128 0.077 0.464
 0.126 0.074 0.446
 0.123 0.071 0.427
 0.119 0.067 0.404
 0.118 0.065 0.392
 0.116 0.062 0.375
 0.114 0.06 0.364
 0.114 0.059 0.356
 0.116 0.059 0.354
 0.119 0.059 0.355
 0.124 0.06 0.362
 0.129 0.062 0.369
 0.132 0.062 0.371
 0.137 0.064 0.379
 0.14 0.064 0.381
 0.142 0.064 0.378
 0.146 0.064 0.381
 0.151 0.066 0.388
 0.154 0.066 0.387
 0.158 0.067 0.391
 0.163 0.068 0.397
 0.165 0.067 0.394
 0.163 0.066 0.384
 0.167 0.066 0.387
 0.17 0.066 0.386
 0.178 0.069 0.399
 0.184 0.07 0.405
 0.19 0.071 0.412
 0.193 0.072 0.412
 0.205 0.075 0.43
 0.211 0.076 0.436
 0.215 0.077 0.437
 0.223 0.079 0.447
 0.236 0.082 0.466
 0.244 0.084 0.474
 0.256 0.087 0.491
 0.273 0.092 0.516
 0.296 0.098 0.55
 0.316 0.104 0.579
 0.338 0.11 0.61
 0.359 0.115 0.64
 0.374 0.119 0.657
 0.393 0.124 0.68
 0.379 0.118 0.645
 -0.339 0.116 0.599
 -0.346 0.119 0.62
 -0.347 0.121 0.631
 -0.35 0.124 0.647
 -0.353 0.126 0.663
 -0.356 0.129 0.679
 -0.358 0.131 0.694
 -0.358 0.133 0.705
 -0.359 0.135 0.718
 -0.358 0.137 0.727
 -0.356 0.138 0.735
 -0.354 0.139 0.742
 -0.351 0.14 0.748
 -0.348 0.14 0.754
 -0.345 0.141 0.76
 -0.343 0.142 0.769
 -0.342 0.143 0.778
 -0.342 0.146 0.791
 -0.344 0.149 0.81
 -0.348 0.153 0.834
 -0.355 0.158 0.866
 -0.364 0.165 0.905
 -0.374 0.172 0.947
 -0.384 0.18 0.99
 -0.394 0.188 1.035
 -0.403 0.195 1.078
 -0.409 0.202 1.116
 -0.414 0.208 1.151
 -0.417 0.213 1.182
 -0.418 0.217 1.208
 -0.417 0.22 1.227
 -0.413 0.222 1.243
 -0.41 0.225 1.256
 -0.405 0.226 1.269
 -0.401 0.228 1.281
 -0.396 0.23 1.291
 -0.39 0.231 1.301
 -0.384 0.232 1.31
 -0.378 0.233 1.316
 -0.371 0.233 1.321
 -0.364 0.234 1.327
 -0.357 0.235 1.333
 -0.35 0.235 1.337
 -0.342 0.236 1.341
 -0.334 0.235 1.342
 -0.326 0.235 1.342
 -0.317 0.234 1.339
 -0.308 0.233 1.335
 -0.298 0.232 1.33
 -0.289 0.231 1.323
 -0.279 0.229 1.316
 -0.27 0.228 1.312
 -0.262 0.228 1.31
 -0.254 0.227 1.31
 -0.247 0.228 1.313
 -0.239 0.228 1.317
 -0.232 0.228 1.319
 -0.224 0.228 1.322
 -0.217 0.229 1.324
 -0.21 0.23 1.33
 -0.203 0.23 1.335
 -0.195 0.23 1.338
 -0.188 0.232 1.346
 -0.181 0.233 1.354
 -0.174 0.234 1.36
 -0.167 0.235 1.371
 -0.161 0.238 1.389
 -0.155 0.241 1.405
 -0.148 0.244 1.422
 -0.142 0.246 1.439
 -0.134 0.248 1.45
 -0.126 0.249 1.454
 -0.118 0.249 1.455
 -0.109 0.248 1.45
 -0.1 0.246 1.442
 -0.091 0.245 1.434
 -0.082 0.243 1.426
 -0.073 0.242 1.418
 -0.065 0.241 1.412
 -0.056 0.24 1.407
 -0.048 0.239 1.404
 -0.04 0.239 1.403
 -0.032 0.239 1.404
 -0.024 0.24 1.41
 -0.016 0.241 1.417
 -0.008 0.243 1.429
 0 0.245 1.439
 0.008 0.247 1.449
 0.017 0.248 1.455
 0.025 0.248 1.46
 0.034 0.249 1.462
 0.042 0.249 1.463
 0.051 0.249 1.464
 0.059 0.25 1.469
 0.068 0.251 1.476
 0.077 0.253 1.486
 0.087 0.255 1.5
 0.097 0.258 1.516
 0.106 0.26 1.528
 0.116 0.262 1.538
 0.126 0.263 1.545
 0.135 0.263 1.547
 0.144 0.263 1.545
 0.152 0.262 1.539
 0.16 0.261 1.53
 0.168 0.259 1.519
 0.175 0.257 1.508
 0.182 0.254 1.492
 0.189 0.251 1.474
 0.195 0.248 1.455
 0.201 0.245 1.436
 0.206 0.241 1.409
 0.21 0.236 1.382
 0.213 0.231 1.35
 0.215 0.224 1.313
 0.215 0.217 1.27
 0.215 0.21 1.227
 0.216 0.204 1.189
 0.216 0.197 1.151
 0.214 0.19 1.107
 0.212 0.182 1.06
 0.21 0.175 1.019
 0.201 0.163 0.948
 0.187 0.147 0.856
 0.181 0.138 0.807
 0.177 0.132 0.766
 0.169 0.122 0.712
 0.154 0.109 0.632
 0.145 0.1 0.582
 0.141 0.095 0.552
 0.137 0.09 0.521
 0.131 0.083 0.486
 0.129 0.08 0.467
 0.127 0.078 0.451
 0.125 0.075 0.435
 0.122 0.071 0.414
 0.122 0.069 0.403
 0.119 0.066 0.385
 0.117 0.064 0.373
 0.117 0.063 0.364
 0.12 0.063 0.364
 0.122 0.063 0.364
 0.128 0.065 0.374
 0.133 0.066 0.381
 0.135 0.066 0.379
 0.138 0.067 0.382
 0.14 0.066 0.38
 0.141 0.066 0.375
 0.145 0.067 0.379
 0.151 0.068 0.387
 0.153 0.068 0.386
 0.158 0.069 0.392
 0.164 0.07 0.398
 0.166 0.07 0.398
 0.166 0.069 0.39
 0.17 0.07 0.393
 0.172 0.07 0.39
 0.178 0.071 0.398
 0.182 0.072 0.401
 0.185 0.072 0.401
 0.189 0.073 0.403
 0.199 0.075 0.417
 0.204 0.076 0.42
 0.208 0.077 0.422
 0.219 0.08 0.438
 0.229 0.083 0.452
 0.241 0.086 0.467
 0.253 0.089 0.484
 0.272 0.095 0.512
 0.292 0.101 0.543
 0.311 0.106 0.57
 0.33 0.111 0.596
 0.35 0.117 0.623
 0.364 0.12 0.639
 0.392 0.128 0.678
 0.388 0.125 0.66
 -0.335 0.118 0.591
 -0.345 0.123 0.618
 -0.344 0.124 0.626
 -0.347 0.127 0.641
 -0.35 0.13 0.657
 -0.353 0.132 0.673
 -0.355 0.135 0.687
 -0.355 0.137 0.698
 -0.356 0.139 0.711
 -0.355 0.14 0.72
 -0.353 0.141 0.728
 -0.351 0.142 0.735
 -0.348 0.143 0.741
 -0.345 0.144 0.747
 -0.342 0.144 0.752
 -0.34 0.145 0.76
 -0.338 0.147 0.769
 -0.338 0.149 0.782
 -0.34 0.152 0.801
 -0.345 0.157 0.825
 -0.351 0.162 0.857
 -0.361 0.169 0.896
 -0.371 0.177 0.939
 -0.382 0.185 0.983
 -0.392 0.193 1.029
 -0.401 0.201 1.072
 -0.408 0.208 1.111
 -0.412 0.214 1.144
 -0.415 0.219 1.175
 -0.416 0.223 1.2
 -0.415 0.227 1.22
 -0.412 0.229 1.237
 -0.409 0.232 1.253
 -0.405 0.234 1.266
 -0.4 0.236 1.278
 -0.395 0.237 1.289
 -0.39 0.239 1.299
 -0.384 0.24 1.307
 -0.377 0.241 1.314
 -0.371 0.241 1.32
 -0.364 0.242 1.326
 -0.357 0.243 1.332
 -0.35 0.243 1.335
 -0.342 0.243 1.338
 -0.334 0.243 1.34
 -0.326 0.243 1.341
 -0.317 0.242 1.338
 -0.308 0.242 1.335
 -0.299 0.24 1.331
 -0.289 0.239 1.324
 -0.28 0.237 1.318
 -0.271 0.236 1.314
 -0.262 0.236 1.311
 -0.254 0.236 1.312
 -0.247 0.236 1.314
 -0.24 0.236 1.317
 -0.232 0.236 1.32
 -0.225 0.237 1.323
 -0.217 0.237 1.325
 -0.21 0.238 1.33
 -0.203 0.238 1.335
 -0.195 0.238 1.337
 -0.188 0.239 1.343
 -0.181 0.24 1.351
 -0.174 0.241 1.357
 -0.167 0.243 1.367
 -0.161 0.246 1.383
 -0.154 0.249 1.401
 -0.148 0.251 1.416
 -0.141 0.254 1.433
 -0.134 0.256 1.444
 -0.126 0.257 1.45
 -0.117 0.257 1.451
 -0.109 0.256 1.448
 -0.1 0.255 1.441
 -0.091 0.253 1.433
 -0.082 0.252 1.425
 -0.073 0.25 1.418
 -0.065 0.249 1.413
 -0.057 0.248 1.407
 -0.048 0.248 1.406
 -0.04 0.248 1.404
 -0.032 0.248 1.405
 -0.024 0.248 1.41
 -0.016 0.25 1.417
 -0.008 0.251 1.426
 0 0.253 1.437
 0.008 0.255 1.447
 0.017 0.256 1.454
 0.025 0.257 1.458
 0.034 0.257 1.46
 0.042 0.257 1.462
 0.051 0.258 1.463
 0.059 0.258 1.466
 0.068 0.259 1.472
 0.077 0.261 1.481
 0.087 0.263 1.493
 0.096 0.265 1.507
 0.106 0.268 1.519
 0.115 0.269 1.526
 0.125 0.27 1.532
 0.134 0.27 1.532
 0.142 0.269 1.529
 0.151 0.269 1.523
 0.159 0.267 1.516
 0.166 0.266 1.505
 0.174 0.264 1.495
 0.181 0.261 1.479
 0.187 0.258 1.461
 0.193 0.254 1.439
 0.199 0.251 1.419
 0.203 0.246 1.39
 0.207 0.241 1.361
 0.21 0.235 1.327
 0.211 0.228 1.29
 0.211 0.22 1.245
 0.211 0.213 1.201
 0.21 0.205 1.157
 0.209 0.197 1.111
 0.206 0.188 1.06
 0.201 0.179 1.007
 0.199 0.172 0.967
 0.197 0.165 0.93
 0.185 0.15 0.845
 0.178 0.141 0.793
 0.172 0.132 0.744
 0.166 0.124 0.7
 0.154 0.113 0.634
 0.146 0.104 0.584
 0.14 0.097 0.546
 0.134 0.091 0.509
 0.129 0.085 0.479
 0.127 0.082 0.461
 0.126 0.079 0.445
 0.124 0.077 0.429
 0.123 0.074 0.417
 0.122 0.072 0.404
 0.12 0.07 0.389
 0.12 0.068 0.382
 0.122 0.068 0.378
 0.124 0.068 0.378
 0.127 0.068 0.379
 0.132 0.07 0.387
 0.136 0.07 0.39
 0.137 0.069 0.384
 0.139 0.07 0.385
 0.141 0.069 0.383
 0.141 0.068 0.375
 0.145 0.069 0.378
 0.151 0.071 0.388
 0.152 0.07 0.381
 0.155 0.07 0.383
 0.161 0.072 0.39
 0.165 0.073 0.395
 0.164 0.071 0.385
 0.17 0.073 0.394
 0.174 0.073 0.395
 0.179 0.074 0.4
 0.184 0.075 0.405
 0.188 0.076 0.407
 0.191 0.076 0.406
 0.199 0.078 0.416
 0.201 0.078 0.415
 0.203 0.078 0.412
 0.214 0.081 0.428
 0.225 0.084 0.442
 0.235 0.087 0.456
 0.25 0.091 0.478
 0.27 0.097 0.508
 0.289 0.103 0.536
 0.309 0.109 0.564
 0.328 0.114 0.59
 0.346 0.119 0.614
 0.358 0.122 0.627
 0.385 0.13 0.664
 0.399 0.133 0.679
 -0.331 0.121 0.583
 -0.339 0.125 0.606
 -0.341 0.127 0.62
 -0.344 0.13 0.635
 -0.347 0.133 0.651
 -0.35 0.135 0.666
 -0.352 0.138 0.68
 -0.352 0.14 0.691
 -0.353 0.142 0.704
 -0.352 0.144 0.714
 -0.35 0.145 0.722
 -0.348 0.146 0.728
 -0.345 0.147 0.734
 -0.341 0.147 0.738
 -0.338 0.148 0.744
 -0.336 0.149 0.751
 -0.335 0.15 0.76
 -0.335 0.152 0.774
 -0.338 0.156 0.794
 -0.341 0.16 0.817
 -0.348 0.166 0.847
 -0.357 0.173 0.885
 -0.367 0.181 0.928
 -0.377 0.189 0.971
 -0.388 0.198 1.017
 -0.397 0.206 1.061
 -0.404 0.213 1.099
 -0.408 0.219 1.132
 -0.411 0.224 1.163
 -0.412 0.229 1.19
 -0.412 0.233 1.212
 -0.41 0.236 1.23
 -0.407 0.238 1.247
 -0.404 0.241 1.262
 -0.399 0.243 1.274
 -0.395 0.245 1.286
 -0.389 0.246 1.296
 -0.383 0.247 1.304
 -0.377 0.248 1.311
 -0.37 0.249 1.317
 -0.363 0.25 1.323
 -0.357 0.25 1.329
 -0.349 0.251 1.332
 -0.342 0.251 1.337
 -0.334 0.251 1.339
 -0.326 0.251 1.34
 -0.317 0.25 1.338
 -0.308 0.25 1.336
 -0.299 0.249 1.331
 -0.289 0.247 1.324
 -0.28 0.245 1.317
 -0.271 0.244 1.313
 -0.262 0.243 1.31
 -0.254 0.243 1.309
 -0.247 0.243 1.313
 -0.24 0.244 1.316
 -0.232 0.244 1.32
 -0.225 0.245 1.324
 -0.217 0.245 1.326
 -0.21 0.246 1.33
 -0.203 0.246 1.334
 -0.195 0.246 1.336
 -0.188 0.247 1.34
 -0.181 0.248 1.347
 -0.173 0.249 1.352
 -0.166 0.25 1.362
 -0.16 0.253 1.376
 -0.154 0.256 1.394
 -0.147 0.258 1.409
 -0.14 0.261 1.425
 -0.133 0.263 1.436
 -0.125 0.264 1.443
 -0.117 0.264 1.444
 -0.108 0.264 1.441
 -0.099 0.262 1.435
 -0.091 0.261 1.428
 -0.082 0.26 1.421
 -0.073 0.258 1.415
 -0.065 0.257 1.41
 -0.056 0.256 1.405
 -0.048 0.256 1.404
 -0.04 0.256 1.402
 -0.032 0.256 1.403
 -0.024 0.256 1.407
 -0.016 0.258 1.415
 -0.007 0.259 1.424
 0 0.261 1.434
 0.008 0.263 1.444
 0.017 0.264 1.451
 0.025 0.265 1.455
 0.034 0.265 1.458
 0.042 0.266 1.459
 0.051 0.266 1.459
 0.059 0.266 1.46
 0.068 0.267 1.466
 0.077 0.268 1.474
 0.086 0.27 1.483
 0.096 0.272 1.496
 0.105 0.274 1.507
 0.114 0.275 1.512
 0.124 0.276 1.517
 0.132 0.276 1.516
 0.141 0.275 1.511
 0.149 0.274 1.505
 0.157 0.273 1.498
 0.165 0.271 1.488
 0.173 0.27 1.48
 0.18 0.268 1.466
 0.186 0.264 1.448
 0.191 0.26 1.425
 0.197 0.256 1.403
 0.2 0.25 1.37
 0.204 0.245 1.339
 0.206 0.238 1.301
 0.207 0.231 1.261
 0.206 0.222 1.21
 0.205 0.214 1.166
 0.205 0.207 1.127
 0.202 0.197 1.076
 0.198 0.187 1.02
 0.193 0.176 0.962
 0.188 0.167 0.911
 0.188 0.163 0.886
 0.18 0.152 0.825
 0.175 0.143 0.777
 0.169 0.134 0.731
 0.164 0.127 0.69
 0.155 0.117 0.635
 0.144 0.106 0.577
 0.136 0.098 0.53
 0.133 0.093 0.504
 0.129 0.088 0.478
 0.127 0.085 0.46
 0.125 0.082 0.444
 0.125 0.08 0.434
 0.123 0.077 0.417
 0.122 0.075 0.405
 0.121 0.072 0.391
 0.122 0.072 0.387
 0.123 0.071 0.383
 0.127 0.072 0.385
 0.129 0.072 0.385
 0.134 0.073 0.39
 0.137 0.073 0.393
 0.138 0.072 0.387
 0.14 0.072 0.386
 0.143 0.073 0.387
 0.143 0.071 0.38
 0.145 0.071 0.377
 0.152 0.074 0.39
 0.152 0.072 0.381
 0.154 0.072 0.381
 0.159 0.073 0.386
 0.165 0.075 0.394
 0.163 0.073 0.382
 0.169 0.074 0.389
 0.171 0.074 0.389
 0.178 0.076 0.396
 0.182 0.077 0.399
 0.186 0.077 0.401
 0.189 0.078 0.402
 0.197 0.08 0.411
 0.198 0.079 0.407
 0.2 0.079 0.404
 0.211 0.082 0.42
 0.221 0.085 0.434
 0.232 0.088 0.449
 0.247 0.093 0.471
 0.266 0.099 0.499
 0.285 0.105 0.528
 0.304 0.111 0.554
 0.321 0.116 0.577
 0.339 0.121 0.601
 0.353 0.124 0.617
 0.355 0.124 0.612
 0.371 0.128 0.629
 -0.33 0.124 0.581
 -0.333 0.126 0.594
 -0.338 0.13 0.614
 -0.342 0.133 0.63
 -0.345 0.136 0.645
 -0.347 0.139 0.66
 -0.349 0.141 0.674
 -0.349 0.143 0.685
 -0.349 0.145 0.696
 -0.349 0.147 0.706
 -0.347 0.148 0.714
 -0.345 0.149 0.72
 -0.342 0.15 0.726
 -0.338 0.15 0.73
 -0.335 0.151 0.736
 -0.333 0.152 0.742
 -0.331 0.153 0.751
 -0.331 0.156 0.764
 -0.334 0.159 0.784
 -0.337 0.163 0.806
 -0.344 0.169 0.836
 -0.352 0.176 0.873
 -0.363 0.185 0.917
 -0.374 0.193 0.961
 -0.385 0.202 1.009
 -0.394 0.21 1.051
 -0.401 0.218 1.09
 -0.405 0.224 1.122
 -0.407 0.229 1.151
 -0.409 0.234 1.178
 -0.409 0.238 1.202
 -0.408 0.242 1.222
 -0.406 0.245 1.24
 -0.402 0.248 1.256
 -0.398 0.25 1.269
 -0.394 0.252 1.281
 -0.388 0.253 1.292
 -0.383 0.255 1.301
 -0.376 0.256 1.308
 -0.37 0.257 1.315
 -0.363 0.257 1.32
 -0.356 0.258 1.326
 -0.349 0.259 1.33
 -0.342 0.259 1.335
 -0.334 0.259 1.336
 -0.325 0.259 1.336
 -0.316 0.258 1.334
 -0.307 0.257 1.331
 -0.298 0.256 1.326
 -0.289 0.254 1.32
 -0.279 0.253 1.314
 -0.27 0.252 1.31
 -0.262 0.251 1.307
 -0.254 0.25 1.305
 -0.246 0.251 1.308
 -0.239 0.251 1.311
 -0.231 0.251 1.315
 -0.224 0.252 1.319
 -0.217 0.252 1.322
 -0.209 0.253 1.325
 -0.202 0.253 1.328
 -0.194 0.253 1.331
 -0.187 0.254 1.335
 -0.18 0.254 1.338
 -0.172 0.255 1.344
 -0.166 0.257 1.354
 -0.159 0.259 1.368
 -0.153 0.262 1.383
 -0.146 0.265 1.399
 -0.14 0.268 1.415
 -0.132 0.269 1.423
 -0.124 0.27 1.429
 -0.116 0.27 1.429
 -0.107 0.27 1.428
 -0.099 0.269 1.423
 -0.09 0.268 1.418
 -0.082 0.267 1.415
 -0.073 0.266 1.411
 -0.065 0.265 1.406
 -0.056 0.264 1.402
 -0.048 0.264 1.401
 -0.04 0.263 1.399
 -0.032 0.264 1.4
 -0.024 0.264 1.405
 -0.016 0.266 1.412
 -0.007 0.267 1.42
 0 0.269 1.429
 0.008 0.271 1.439
 0.017 0.272 1.446
 0.025 0.273 1.451
 0.034 0.273 1.453
 0.042 0.273 1.454
 0.051 0.273 1.453
 0.059 0.273 1.453
 0.068 0.274 1.458
 0.077 0.275 1.465
 0.086 0.277 1.473
 0.095 0.279 1.484
 0.104 0.281 1.494
 0.113 0.282 1.499
 0.122 0.283 1.503
 0.131 0.282 1.501
 0.14 0.282 1.497
 0.148 0.28 1.489
 0.156 0.279 1.483
 0.163 0.278 1.474
 0.171 0.276 1.466
 0.178 0.274 1.453
 0.185 0.271 1.437
 0.19 0.267 1.413
 0.195 0.262 1.386
 0.197 0.254 1.347
 0.199 0.247 1.309
 0.201 0.24 1.268
 0.2 0.231 1.22
 0.199 0.221 1.171
 0.199 0.213 1.127
 0.199 0.207 1.095
 0.197 0.198 1.048
 0.192 0.187 0.988
 0.185 0.175 0.924
 0.179 0.164 0.868
 0.18 0.161 0.848
 0.176 0.153 0.806
 0.169 0.143 0.753
 0.163 0.133 0.703
 0.158 0.127 0.667
 0.152 0.119 0.624
 0.143 0.109 0.571
 0.135 0.1 0.528
 0.132 0.096 0.503
 0.128 0.091 0.476
 0.127 0.087 0.459
 0.125 0.084 0.443
 0.125 0.083 0.433
 0.123 0.079 0.416
 0.123 0.078 0.406
 0.122 0.075 0.394
 0.123 0.075 0.39
 0.124 0.074 0.384
 0.127 0.074 0.385
 0.129 0.074 0.385
 0.134 0.075 0.39
 0.137 0.076 0.391
 0.138 0.075 0.389
 0.141 0.075 0.389
 0.145 0.076 0.391
 0.145 0.075 0.384
 0.147 0.074 0.382
 0.153 0.076 0.391
 0.152 0.075 0.381
 0.155 0.075 0.383
 0.16 0.076 0.387
 0.166 0.078 0.395
 0.163 0.075 0.383
 0.168 0.077 0.387
 0.17 0.076 0.386
 0.176 0.078 0.393
 0.182 0.079 0.398
 0.188 0.081 0.404
 0.192 0.082 0.407
 0.195 0.082 0.407
 0.197 0.081 0.404
 0.199 0.081 0.402
 0.209 0.084 0.416
 0.218 0.087 0.428
 0.231 0.091 0.447
 0.247 0.096 0.471
 0.265 0.102 0.497
 0.283 0.108 0.523
 0.301 0.113 0.548
 0.317 0.118 0.569
 0.332 0.122 0.588
 0.345 0.126 0.602
 0.364 0.131 0.627
 0.357 0.127 0.605
 -0.326 0.126 0.572
 -0.331 0.13 0.59
 -0.334 0.133 0.606
 -0.338 0.136 0.622
 -0.341 0.139 0.637
 -0.343 0.142 0.652
 -0.345 0.144 0.666
 -0.346 0.146 0.677
 -0.346 0.148 0.688
 -0.345 0.15 0.698
 -0.344 0.151 0.706
 -0.341 0.152 0.712
 -0.338 0.153 0.717
 -0.335 0.153 0.722
 -0.332 0.154 0.728
 -0.329 0.155 0.734
 -0.328 0.156 0.743
 -0.328 0.159 0.755
 -0.33 0.162 0.775
 -0.334 0.166 0.796
 -0.34 0.172 0.826
 -0.349 0.18 0.862
 -0.359 0.188 0.906
 -0.37 0.197 0.95
 -0.381 0.206 0.996
 -0.39 0.214 1.039
 -0.397 0.222 1.077
 -0.401 0.228 1.11
 -0.404 0.234 1.14
 -0.406 0.239 1.168
 -0.406 0.244 1.193
 -0.406 0.248 1.216
 -0.404 0.251 1.234
 -0.401 0.254 1.25
 -0.396 0.256 1.262
 -0.392 0.259 1.275
 -0.387 0.26 1.285
 -0.381 0.262 1.295
 -0.375 0.263 1.302
 -0.369 0.264 1.31
 -0.362 0.265 1.315
 -0.355 0.265 1.321
 -0.348 0.266 1.324
 -0.34 0.266 1.328
 -0.332 0.266 1.33
 -0.324 0.266 1.331
 -0.315 0.265 1.329
 -0.307 0.264 1.327
 -0.298 0.263 1.324
 -0.288 0.262 1.318
 -0.279 0.26 1.311
 -0.27 0.259 1.307
 -0.261 0.258 1.303
 -0.253 0.258 1.301
 -0.246 0.258 1.305
 -0.238 0.258 1.307
 -0.231 0.259 1.311
 -0.224 0.259 1.315
 -0.216 0.259 1.318
 -0.209 0.26 1.319
 -0.201 0.26 1.322
 -0.194 0.26 1.324
 -0.186 0.261 1.328
 -0.179 0.261 1.331
 -0.172 0.262 1.337
 -0.165 0.264 1.347
 -0.158 0.266 1.359
 -0.152 0.268 1.372
 -0.145 0.271 1.388
 -0.138 0.274 1.402
 -0.131 0.275 1.41
 -0.123 0.276 1.415
 -0.115 0.276 1.417
 -0.107 0.276 1.416
 -0.098 0.275 1.411
 -0.089 0.274 1.409
 -0.081 0.274 1.405
 -0.073 0.273 1.402
 -0.064 0.272 1.399
 -0.056 0.272 1.396
 -0.048 0.271 1.396
 -0.04 0.271 1.395
 -0.032 0.271 1.396
 -0.024 0.272 1.401
 -0.016 0.273 1.406
 -0.007 0.274 1.413
 0 0.276 1.422
 0.008 0.278 1.431
 0.017 0.279 1.438
 0.025 0.28 1.443
 0.034 0.281 1.447
 0.042 0.281 1.448
 0.05 0.281 1.447
