 0.2 0.175 1.571
 0.208 0.175 1.568
 0.217 0.174 1.562
 0.225 0.173 1.555
 0.233 0.173 1.55
 0.241 0.172 1.542
 0.249 0.171 1.533
 0.256 0.17 1.52
 0.262 0.168 1.504
 0.268 0.166 1.486
 0.273 0.164 1.464
 0.275 0.16 1.432
 0.276 0.156 1.394
 0.277 0.152 1.356
 0.276 0.147 1.313
 0.276 0.143 1.276
 0.277 0.14 1.246
 0.276 0.135 1.209
 0.278 0.132 1.182
 0.284 0.132 1.178
 0 0 0
 0 0 0
 0.232 0.1 0.894
 0.207 0.087 0.776
 0.211 0.087 0.775
 0.183 0.073 0.658
 0.145 0.056 0.509
 0.12 0.045 0.41
 0.112 0.041 0.373
 0.112 0.04 0.367
 0.111 0.039 0.355
 0.11 0.038 0.345
 0.113 0.038 0.346
 0.114 0.038 0.343
 0.115 0.037 0.339
 0.117 0.037 0.338
 0.118 0.037 0.335
 0.118 0.036 0.328
 0.118 0.036 0.322
 0.118 0.035 0.315
 0.118 0.034 0.311
 0.119 0.034 0.307
 0.121 0.034 0.307
 0.125 0.035 0.31
 0.131 0.036 0.32
 0.135 0.036 0.325
 0.141 0.037 0.333
 0.144 0.038 0.336
 0.149 0.038 0.34
 0.151 0.039 0.34
 0.155 0.039 0.342
 0.158 0.039 0.345
 0.161 0.039 0.346
 0.163 0.039 0.343
 0.165 0.039 0.341
 0.168 0.039 0.344
 0.174 0.04 0.349
 0.179 0.041 0.354
 0.184 0.042 0.358
 0.192 0.043 0.369
 0.195 0.043 0.37
 0.197 0.043 0.368
 0.203 0.044 0.372
 0.215 0.046 0.39
 0.228 0.048 0.407
 0.252 0.053 0.444
 0 0 0
 0 0 0
 -0.313 0.073 0.555
 -0.319 0.076 0.576
 -0.328 0.079 0.601
 -0.334 0.082 0.623
 -0.34 0.084 0.642
 -0.343 0.086 0.659
 -0.346 0.088 0.675
 -0.349 0.09 0.692
 -0.352 0.092 0.709
 -0.355 0.094 0.726
 -0.357 0.096 0.742
 -0.358 0.097 0.756
 -0.357 0.098 0.766
 -0.355 0.099 0.775
 -0.353 0.1 0.783
 -0.35 0.1 0.79
 -0.347 0.101 0.795
 -0.343 0.101 0.801
 -0.34 0.102 0.807
 -0.337 0.102 0.812
 -0.334 0.103 0.819
 -0.331 0.104 0.826
 -0.329 0.105 0.836
 -0.327 0.106 0.847
 -0.327 0.107 0.862
 -0.328 0.11 0.88
 -0.33 0.112 0.904
 -0.334 0.115 0.931
 -0.337 0.119 0.959
 -0.341 0.122 0.99
 -0.345 0.126 1.02
 -0.348 0.129 1.05
 -0.35 0.133 1.078
 -0.351 0.136 1.103
 -0.35 0.138 1.125
 -0.348 0.14 1.142
 -0.345 0.141 1.157
 -0.342 0.143 1.169
 -0.338 0.144 1.182
 -0.333 0.145 1.193
 -0.329 0.146 1.205
 -0.325 0.148 1.216
 -0.319 0.149 1.225
 -0.314 0.149 1.233
 -0.308 0.15 1.242
 -0.302 0.151 1.25
 -0.296 0.151 1.256
 -0.29 0.152 1.263
 -0.283 0.153 1.268
 -0.276 0.152 1.27
 -0.268 0.152 1.268
 -0.259 0.151 1.263
 -0.25 0.15 1.254
 -0.24 0.148 1.241
 -0.23 0.147 1.228
 -0.221 0.145 1.217
 -0.212 0.144 1.207
 -0.203 0.143 1.201
 -0.196 0.142 1.199
 -0.189 0.142 1.199
 -0.181 0.142 1.198
 -0.175 0.142 1.199
 -0.168 0.142 1.202
 -0.161 0.143 1.208
 -0.155 0.143 1.212
 -0.148 0.144 1.217
 -0.142 0.144 1.221
 -0.135 0.145 1.23
 -0.129 0.145 1.234
 -0.123 0.147 1.245
 -0.117 0.149 1.262
 -0.111 0.151 1.285
 -0.106 0.154 1.307
 -0.1 0.157 1.333
 -0.094 0.159 1.355
 -0.087 0.161 1.369
 -0.079 0.161 1.373
 -0.071 0.161 1.369
 -0.062 0.159 1.356
 -0.054 0.157 1.339
 -0.045 0.154 1.315
 -0.037 0.151 1.29
 -0.029 0.148 1.265
 -0.021 0.146 1.244
 -0.014 0.144 1.228
 -0.007 0.143 1.219
 0 0.142 1.216
 0.006 0.143 1.22
 0.013 0.143 1.228
 0.021 0.145 1.239
 0.028 0.146 1.251
 0.036 0.148 1.265
 0.044 0.15 1.28
 0.051 0.151 1.293
 0.059 0.152 1.301
 0.067 0.152 1.305
 0.075 0.153 1.307
 0.082 0.153 1.306
 0.09 0.153 1.307
 0.098 0.154 1.318
 0.107 0.156 1.336
 0.118 0.16 1.365
 0.129 0.164 1.402
 0.142 0.169 1.447
 0.155 0.175 1.491
 0.168 0.179 1.53
 0.18 0.183 1.558
 0.191 0.184 1.572
 0.2 0.185 1.576
 0.209 0.184 1.572
 0.217 0.184 1.565
 0.225 0.183 1.557
 0.234 0.182 1.551
 0.242 0.181 1.543
 0.249 0.18 1.533
 0.256 0.179 1.52
 0.262 0.177 1.503
 0.268 0.175 1.484
 0.272 0.172 1.461
 0.275 0.168 1.43
 0.277 0.164 1.395
 0.278 0.16 1.36
 0.279 0.156 1.326
 0.279 0.152 1.289
 0.281 0.149 1.264
 0.279 0.144 1.22
 0.278 0.14 1.184
 0.283 0.138 1.172
 0 0 0
 0 0 0
 0 0 0
 0 0 0
 0 0 0
 0 0 0
 0.152 0.062 0.53
 0.126 0.05 0.431
 0.114 0.044 0.381
 0.114 0.043 0.373
 0.113 0.042 0.362
 0.112 0.041 0.35
 0.115 0.041 0.353
 0.116 0.041 0.349
 0.117 0.04 0.344
 0.119 0.04 0.343
 0.12 0.04 0.34
 0.119 0.039 0.332
 0.119 0.038 0.324
 0.118 0.037 0.316
 0.118 0.036 0.31
 0.119 0.036 0.307
 0.122 0.036 0.31
 0.127 0.037 0.317
 0.134 0.039 0.327
 0.138 0.039 0.331
 0.143 0.04 0.338
 0.145 0.04 0.337
 0.146 0.04 0.334
 0.148 0.04 0.332
 0.153 0.041 0.339
 0.156 0.041 0.339
 0.16 0.041 0.343
 0.162 0.041 0.342
 0.163 0.041 0.338
 0.164 0.041 0.334
 0.172 0.042 0.345
 0.174 0.042 0.345
 0.177 0.042 0.345
 0.186 0.044 0.357
 0.19 0.044 0.36
 0 0 0
 0 0 0
 0 0 0
 0 0 0
 0 0 0
 0 0 0
 0 0 0
 -0.309 0.076 0.548
 -0.316 0.079 0.569
 -0.326 0.082 0.597
 -0.332 0.085 0.618
 -0.337 0.088 0.638
 -0.341 0.09 0.655
 -0.343 0.092 0.67
 -0.347 0.094 0.687
 -0.35 0.096 0.704
 -0.352 0.098 0.721
 -0.354 0.1 0.736
 -0.356 0.101 0.751
 -0.355 0.102 0.762
 -0.353 0.103 0.771
 -0.351 0.104 0.779
 -0.349 0.105 0.786
 -0.346 0.106 0.792
 -0.342 0.106 0.798
 -0.339 0.107 0.804
 -0.336 0.107 0.81
 -0.333 0.108 0.817
 -0.33 0.109 0.824
 -0.328 0.11 0.835
 -0.327 0.111 0.846
 -0.327 0.113 0.862
 -0.328 0.115 0.882
 -0.331 0.118 0.906
 -0.335 0.122 0.935
 -0.34 0.126 0.966
 -0.345 0.13 1
 -0.349 0.134 1.033
 -0.353 0.138 1.066
 -0.356 0.142 1.096
 -0.357 0.145 1.123
 -0.357 0.148 1.146
 -0.355 0.15 1.164
 -0.352 0.151 1.179
 -0.348 0.153 1.192
 -0.345 0.154 1.205
 -0.34 0.155 1.217
 -0.336 0.157 1.228
 -0.331 0.158 1.239
 -0.325 0.159 1.248
 -0.319 0.16 1.256
 -0.314 0.16 1.264
 -0.308 0.161 1.273
 -0.302 0.162 1.28
 -0.295 0.162 1.285
 -0.288 0.163 1.29
 -0.281 0.163 1.291
 -0.272 0.162 1.29
 -0.264 0.162 1.285
 -0.254 0.16 1.277
 -0.245 0.159 1.266
 -0.235 0.157 1.255
 -0.225 0.156 1.244
 -0.216 0.154 1.235
 -0.208 0.154 1.23
 -0.2 0.153 1.227
 -0.193 0.153 1.227
 -0.186 0.153 1.225
 -0.178 0.153 1.227
 -0.172 0.153 1.23
 -0.165 0.154 1.236
 -0.158 0.154 1.239
 -0.152 0.154 1.244
 -0.145 0.155 1.249
 -0.138 0.156 1.257
 -0.132 0.156 1.261
 -0.125 0.157 1.273
 -0.119 0.159 1.289
 -0.114 0.162 1.31
 -0.108 0.164 1.33
 -0.102 0.167 1.354
 -0.095 0.17 1.374
 -0.088 0.171 1.388
 -0.08 0.172 1.394
 -0.072 0.172 1.392
 -0.064 0.17 1.383
 -0.055 0.168 1.368
 -0.046 0.166 1.347
 -0.038 0.163 1.325
 -0.03 0.16 1.302
 -0.022 0.157 1.281
 -0.014 0.155 1.265
 -0.007 0.154 1.254
 0 0.153 1.25
 0.006 0.154 1.252
 0.014 0.155 1.26
 0.021 0.156 1.269
 0.029 0.157 1.282
 0.037 0.159 1.295
 0.045 0.16 1.308
 0.053 0.162 1.319
 0.061 0.163 1.327
 0.069 0.163 1.331
 0.076 0.164 1.333
 0.084 0.164 1.334
 0.092 0.164 1.337
 0.101 0.166 1.349
 0.11 0.168 1.369
 0.121 0.172 1.398
 0.132 0.176 1.434
 0.144 0.181 1.473
 0.157 0.186 1.511
 0.169 0.19 1.543
 0.181 0.193 1.565
 0.191 0.194 1.575
 0.201 0.194 1.577
 0.209 0.194 1.573
 0.218 0.193 1.565
 0.226 0.192 1.558
 0.234 0.191 1.551
 0.242 0.19 1.542
 0.249 0.189 1.531
 0.256 0.187 1.518
 0.262 0.185 1.501
 0.267 0.183 1.481
 0.271 0.18 1.456
 0.274 0.176 1.423
 0.276 0.172 1.39
 0.277 0.168 1.355
 0.278 0.164 1.322
 0.28 0.16 1.293
 0.281 0.156 1.262
 0.282 0.153 1.233
 0.284 0.15 1.209
 0 0 0
 0 0 0
 0 0 0
 0 0 0
 0 0 0
 0 0 0
 0 0 0
 0 0 0
 0 0 0
 0.114 0.046 0.379
 0.117 0.047 0.383
 0.116 0.046 0.372
 0.116 0.045 0.364
 0.119 0.045 0.364
 0.12 0.044 0.36
 0.119 0.043 0.35
 0.121 0.043 0.348
 0.121 0.042 0.342
 0.12 0.041 0.333
 0.12 0.04 0.326
 0.119 0.039 0.318
 0.119 0.038 0.311
 0.12 0.038 0.309
 0.123 0.039 0.312
 0.129 0.04 0.321
 0.135 0.041 0.331
 0.14 0.042 0.337
 0.145 0.043 0.343
 0.147 0.043 0.342
 0.148 0.043 0.338
 0.151 0.043 0.338
 0.162 0.045 0.359
 0.168 0.046 0.365
 0.172 0.047 0.368
 0.176 0.047 0.371
 0.181 0.048 0.375
 0.17 0.044 0.347
 0.178 0.046 0.357
 0.185 0.047 0.366
 0 0 0
 0 0 0
 0 0 0
 0 0 0
 0 0 0
 0 0 0
 0 0 0
 0 0 0
 0 0 0
 0 0 0
 -0.307 0.079 0.544
 -0.316 0.083 0.569
 -0.324 0.086 0.592
 -0.33 0.089 0.613
 -0.335 0.091 0.632
 -0.338 0.093 0.649
 -0.341 0.095 0.664
 -0.344 0.097 0.681
 -0.347 0.099 0.698
 -0.35 0.102 0.715
 -0.352 0.104 0.731
 -0.353 0.105 0.746
 -0.353 0.107 0.757
 -0.352 0.108 0.767
 -0.35 0.109 0.775
 -0.347 0.109 0.782
 -0.344 0.11 0.789
 -0.341 0.111 0.795
 -0.338 0.111 0.801
 -0.335 0.112 0.807
 -0.332 0.113 0.814
 -0.329 0.113 0.822
 -0.328 0.115 0.833
 -0.327 0.116 0.845
 -0.327 0.118 0.862
 -0.329 0.121 0.883
 -0.333 0.124 0.909
 -0.337 0.128 0.939
 -0.342 0.132 0.972
 -0.348 0.137 1.008
 -0.353 0.142 1.044
 -0.358 0.146 1.079
 -0.361 0.15 1.111
 -0.363 0.154 1.14
 -0.363 0.157 1.164
 -0.361 0.159 1.184
 -0.358 0.161 1.199
 -0.354 0.163 1.212
 -0.35 0.164 1.224
 -0.345 0.165 1.235
 -0.341 0.167 1.246
 -0.335 0.168 1.257
 -0.33 0.169 1.266
 -0.324 0.17 1.274
 -0.318 0.17 1.282
 -0.312 0.171 1.29
 -0.306 0.172 1.297
 -0.299 0.172 1.303
 -0.292 0.173 1.307
 -0.284 0.173 1.308
 -0.276 0.173 1.308
 -0.268 0.172 1.304
 -0.258 0.171 1.297
 -0.249 0.169 1.287
 -0.239 0.168 1.277
 -0.23 0.166 1.267
 -0.221 0.165 1.259
 -0.212 0.164 1.253
 -0.204 0.163 1.25
 -0.197 0.163 1.25
 -0.189 0.163 1.248
 -0.182 0.163 1.248
 -0.174 0.163 1.25
 -0.168 0.163 1.255
 -0.161 0.163 1.257
 -0.154 0.164 1.262
 -0.147 0.165 1.267
 -0.141 0.166 1.276
 -0.134 0.166 1.281
 -0.127 0.168 1.293
 -0.121 0.17 1.31
 -0.115 0.172 1.33
 -0.109 0.174 1.347
 -0.103 0.177 1.37
 -0.096 0.18 1.389
 -0.089 0.181 1.403
 -0.081 0.182 1.409
 -0.073 0.182 1.408
 -0.064 0.181 1.402
 -0.056 0.179 1.389
 -0.047 0.177 1.371
 -0.039 0.174 1.352
 -0.03 0.172 1.332
 -0.022 0.169 1.313
 -0.015 0.167 1.298
 -0.007 0.166 1.289
 0 0.165 1.284
 0.007 0.166 1.287
 0.014 0.166 1.294
 0.022 0.168 1.304
 0.03 0.169 1.315
 0.038 0.171 1.326
 0.046 0.172 1.337
 0.054 0.173 1.347
 0.062 0.174 1.355
 0.07 0.175 1.359
 0.078 0.175 1.361
 0.086 0.175 1.363
 0.094 0.176 1.367
 0.103 0.177 1.379
 0.113 0.18 1.399
 0.123 0.184 1.426
 0.135 0.188 1.459
 0.147 0.192 1.494
 0.159 0.197 1.526
 0.17 0.2 1.552
 0.182 0.202 1.57
 0.192 0.203 1.577
 0.201 0.204 1.577
 0.21 0.203 1.573
 0.218 0.202 1.565
 0.226 0.201 1.558
 0.234 0.2 1.55
 0.241 0.199 1.54
 0.249 0.198 1.53
 0.256 0.196 1.515
 0.262 0.194 1.498
 0.267 0.191 1.479
 0.271 0.188 1.455
 0.274 0.184 1.42
 0.275 0.18 1.386
 0.277 0.176 1.354
 0.279 0.172 1.322
 0.281 0.168 1.295
 0.281 0.164 1.262
 0.285 0.162 1.244
 0.288 0.159 1.223
 0.295 0.159 1.223
 0.255 0.134 1.029
 0 0 0
 0 0 0
 0.231 0.113 0.866
 0.236 0.113 0.865
 0 0 0
 0 0 0
 0 0 0
 0.115 0.049 0.383
 0.119 0.05 0.39
 0.119 0.049 0.379
 0.121 0.049 0.377
 0.122 0.048 0.375
 0.123 0.048 0.369
 0.121 0.046 0.357
 0.123 0.046 0.354
 0.122 0.045 0.346
 0.12 0.043 0.334
 0.119 0.042 0.325
 0.119 0.041 0.318
 0.119 0.04 0.312
 0.121 0.04 0.311
 0.125 0.041 0.317
 0.132 0.043 0.329
 0.138 0.044 0.337
 0.144 0.045 0.346
 0.148 0.046 0.349
 0.15 0.046 0.348
 0.152 0.046 0.347
 0.155 0.046 0.349
 0.167 0.049 0.37
 0.175 0.051 0.381
 0.182 0.052 0.389
 0.186 0.053 0.392
 0.2 0.056 0.415
 0 0 0
 0 0 0
 0 0 0
 0 0 0
 0 0 0
 0 0 0
 0 0 0
 0 0 0
 0 0 0
 0 0 0
 0 0 0
 0 0 0
 0 0 0
 -0.305 0.082 0.54
 -0.313 0.086 0.564
 -0.321 0.089 0.587
 -0.327 0.092 0.607
 -0.332 0.094 0.627
 -0.336 0.097 0.643
 -0.338 0.099 0.659
 -0.342 0.101 0.676
 -0.345 0.103 0.693
 -0.347 0.105 0.709
 -0.35 0.107 0.725
 -0.351 0.109 0.74
 -0.351 0.111 0.751
 -0.35 0.112 0.761
 -0.348 0.113 0.77
 -0.345 0.114 0.777
 -0.343 0.114 0.785
 -0.34 0.115 0.791
 -0.337 0.116 0.797
 -0.334 0.116 0.804
 -0.331 0.117 0.811
 -0.329 0.118 0.82
 -0.327 0.12 0.831
 -0.327 0.121 0.844
 -0.328 0.124 0.862
 -0.33 0.127 0.885
 -0.334 0.13 0.912
 -0.339 0.135 0.945
 -0.345 0.139 0.98
 -0.351 0.145 1.017
 -0.357 0.15 1.054
 -0.362 0.155 1.092
 -0.366 0.159 1.125
 -0.368 0.163 1.155
 -0.368 0.166 1.18
 -0.367 0.169 1.2
 -0.363 0.171 1.215
 -0.359 0.172 1.228
 -0.355 0.174 1.241
 -0.35 0.175 1.251
 -0.345 0.176 1.262
 -0.34 0.178 1.273
 -0.334 0.179 1.282
 -0.329 0.18 1.291
 -0.322 0.18 1.298
 -0.316 0.181 1.305
 -0.309 0.182 1.311
 -0.302 0.182 1.316
 -0.295 0.182 1.319
 -0.287 0.182 1.321
 -0.279 0.182 1.321
 -0.27 0.182 1.317
 -0.261 0.18 1.311
 -0.252 0.179 1.303
 -0.242 0.177 1.293
 -0.233 0.176 1.285
 -0.224 0.175 1.278
 -0.216 0.174 1.273
 -0.207 0.174 1.27
 -0.2 0.173 1.269
 -0.192 0.173 1.267
 -0.184 0.173 1.266
 -0.177 0.173 1.267
 -0.17 0.173 1.271
 -0.163 0.173 1.273
 -0.156 0.174 1.278
 -0.149 0.174 1.283
 -0.142 0.175 1.292
 -0.135 0.176 1.299
 -0.129 0.178 1.31
 -0.123 0.179 1.325
 -0.116 0.182 1.343
 -0.11 0.184 1.359
 -0.103 0.187 1.378
 -0.097 0.189 1.397
 -0.089 0.191 1.411
 -0.082 0.192 1.419
 -0.074 0.192 1.421
 -0.065 0.191 1.416
 -0.056 0.19 1.405
 -0.048 0.187 1.39
 -0.039 0.185 1.373
 -0.031 0.183 1.356
 -0.023 0.18 1.339
 -0.015 0.179 1.327
 -0.007 0.177 1.318
 0 0.177 1.315
 0.007 0.177 1.318
 0.015 0.178 1.326
 0.023 0.18 1.334
 0.03 0.181 1.345
 0.039 0.182 1.354
 0.047 0.184 1.365
 0.055 0.185 1.373
 0.063 0.186 1.38
 0.071 0.186 1.384
 0.08 0.187 1.387
 0.088 0.187 1.388
 0.096 0.187 1.393
 0.105 0.189 1.405
 0.115 0.192 1.424
 0.125 0.195 1.449
 0.137 0.199 1.479
 0.148 0.203 1.509
 0.16 0.207 1.537
 0.171 0.21 1.557
 0.182 0.212 1.571
 0.192 0.213 1.576
 0.201 0.213 1.576
 0.21 0.212 1.571
 0.218 0.211 1.564
 0.226 0.21 1.556
 0.234 0.209 1.547
 0.241 0.208 1.537
 0.249 0.206 1.527
 0.255 0.205 1.512
 0.261 0.202 1.495
 0.267 0.2 1.476
 0.271 0.197 1.453
 0.273 0.192 1.419
 0.275 0.188 1.384
 0.278 0.184 1.357
 0.278 0.179 1.32
 0.279 0.175 1.285
 0.279 0.17 1.249
 0.281 0.166 1.225
 0.282 0.163 1.2
 0.283 0.16 1.172
 0.259 0.142 1.044
 0.241 0.129 0.948
 0.232 0.121 0.892
 0.226 0.116 0.849
 0.212 0.106 0.776
 0.159 0.077 0.569
 0.156 0.074 0.544
 0.138 0.064 0.472
 0.127 0.057 0.423
 0.127 0.056 0.413
 0.126 0.054 0.402
 0.126 0.053 0.395
 0.129 0.053 0.395
 0.128 0.052 0.383
 0.125 0.05 0.367
 0.125 0.049 0.36
 0.123 0.047 0.348
 0.12 0.045 0.334
 0.119 0.044 0.323
 0.119 0.043 0.316
 0.119 0.042 0.312
 0.122 0.043 0.314
 0.128 0.044 0.322
 0.136 0.046 0.337
 0.142 0.048 0.346
 0.149 0.049 0.357
 0.153 0.05 0.361
 0.156 0.05 0.363
 0.159 0.05 0.362
 0.163 0.051 0.367
 0.178 0.055 0.393
 0.185 0.057 0.402
 0.19 0.057 0.407
 0.189 0.056 0.398
 0.198 0.058 0.411
 0 0 0
 0 0 0
 0 0 0
 0 0 0
 0 0 0
 0 0 0
 0 0 0
 0 0 0
 0 0 0
 0.271 0.071 0.484
 0.284 0.073 0.499
 0 0 0
 0 0 0
 -0.304 0.086 0.538
 -0.311 0.089 0.559
 -0.319 0.092 0.582
 -0.325 0.095 0.602
 -0.33 0.098 0.621
 -0.333 0.1 0.638
 -0.336 0.102 0.653
 -0.338 0.104 0.669
 -0.342 0.107 0.686
 -0.344 0.109 0.702
 -0.347 0.111 0.718
 -0.348 0.113 0.733
 -0.348 0.115 0.746
 -0.347 0.116 0.756
 -0.346 0.117 0.765
 -0.343 0.118 0.772
 -0.341 0.119 0.779
 -0.338 0.119 0.785
 -0.335 0.12 0.791
 -0.332 0.121 0.798
 -0.329 0.122 0.806
 -0.327 0.123 0.815
 -0.326 0.124 0.827
 -0.326 0.126 0.841
 -0.327 0.129 0.86
 -0.33 0.132 0.884
 -0.335 0.136 0.914
 -0.34 0.141 0.947
 -0.347 0.146 0.984
 -0.354 0.152 1.024
 -0.36 0.157 1.062
 -0.366 0.163 1.101
 -0.369 0.168 1.136
 -0.372 0.172 1.167
 -0.372 0.176 1.193
 -0.371 0.178 1.213
 -0.367 0.18 1.229
 -0.363 0.182 1.242
 -0.359 0.183 1.253
 -0.354 0.185 1.264
 -0.348 0.186 1.274
 -0.343 0.187 1.284
 -0.337 0.188 1.293
 -0.331 0.189 1.301
 -0.325 0.19 1.309
 -0.319 0.191 1.316
 -0.312 0.191 1.321
 -0.305 0.192 1.326
 -0.297 0.192 1.329
 -0.29 0.192 1.331
 -0.281 0.192 1.331
 -0.273 0.191 1.328
 -0.264 0.19 1.323
 -0.254 0.189 1.315
 -0.245 0.187 1.307
 -0.236 0.186 1.299
 -0.227 0.185 1.293
 -0.218 0.184 1.288
 -0.21 0.183 1.285
 -0.202 0.183 1.282
 -0.194 0.182 1.28
 -0.186 0.182 1.28
 -0.179 0.182 1.281
 -0.172 0.182 1.284
 -0.165 0.183 1.287
 -0.157 0.183 1.29
 -0.15 0.184 1.295
 -0.144 0.185 1.304
 -0.137 0.186 1.311
 -0.13 0.187 1.322
 -0.124 0.189 1.337
 -0.117 0.192 1.355
 -0.111 0.193 1.369
 -0.104 0.196 1.388
 -0.097 0.198 1.405
 -0.09 0.2 1.42
 -0.082 0.201 1.427
 -0.074 0.202 1.431
 -0.066 0.201 1.427
 -0.057 0.2 1.417
 -0.048 0.198 1.404
 -0.04 0.195 1.389
 -0.031 0.193 1.373
 -0.023 0.191 1.358
 -0.015 0.19 1.348
 -0.007 0.188 1.341
 0 0.188 1.339
 0.007 0.189 1.342
 0.015 0.19 1.35
 0.023 0.191 1.359
 0.031 0.192 1.37
 0.039 0.194 1.38
 0.048 0.195 1.389
 0.056 0.196 1.397
 0.064 0.197 1.403
 0.073 0.198 1.407
 0.081 0.198 1.409
 0.089 0.198 1.41
 0.098 0.199 1.415
 0.107 0.2 1.424
 0.117 0.203 1.443
 0.127 0.206 1.466
 0.138 0.21 1.492
 0.149 0.213 1.518
 0.161 0.217 1.542
 0.171 0.219 1.559
 0.182 0.221 1.57
 0.192 0.222 1.574
 0.201 0.222 1.573
 0.209 0.221 1.568
 0.217 0.22 1.559
 0.225 0.219 1.551
 0.233 0.217 1.541
 0.24 0.216 1.531
 0.248 0.214 1.519
 0.254 0.212 1.504
 0.26 0.21 1.487
 0.265 0.207 1.467
 0.269 0.204 1.441
 0.271 0.199 1.406
 0.273 0.195 1.375
 0.276 0.191 1.347
 0.277 0.186 1.312
 0.279 0.182 1.285
 0.279 0.177 1.25
 0.28 0.173 1.222
 0.282 0.17 1.196
 0.272 0.16 1.126
 0.254 0.146 1.025
 0.238 0.133 0.937
 0.232 0.127 0.892
 0.221 0.118 0.83
 0.201 0.104 0.734
 0.163 0.082 0.582
 0.158 0.078 0.551
 0.145 0.07 0.495
 0.131 0.062 0.438
 0.128 0.059 0.419
 0.128 0.058 0.407
 0.128 0.057 0.401
 0.13 0.056 0.397
 0.129 0.055 0.387
 0.126 0.052 0.37
 0.126 0.051 0.362
 0.123 0.049 0.348
 0.12 0.047 0.333
 0.119 0.046 0.322
 0.119 0.045 0.316
 0.12 0.045 0.314
 0.124 0.045 0.318
 0.131 0.047 0.33
 0.139 0.05 0.345
 0.143 0.05 0.35
 0.15 0.052 0.36
 0.157 0.054 0.371
 0.159 0.054 0.369
 0.162 0.054 0.371
 0.169 0.055 0.379
 0.182 0.059 0.401
 0.18 0.057 0.39
 0.186 0.059 0.398
 0.185 0.058 0.39
 0.198 0.061 0.41
 0 0 0
 0 0 0
 0 0 0
 0 0 0
 0 0 0
 0 0 0
 0.266 0.075 0.497
 0.26 0.073 0.478
 0.27 0.074 0.488
 0.274 0.075 0.489
 0.285 0.077 0.501
 0.303 0.081 0.525
 0.311 0.082 0.531
 -0.304 0.089 0.537
 -0.309 0.092 0.555
 -0.317 0.095 0.578
 -0.322 0.098 0.597
 -0.327 0.101 0.616
 -0.331 0.103 0.633
 -0.333 0.106 0.648
 -0.336 0.108 0.663
 -0.339 0.11 0.68
 -0.342 0.112 0.696
 -0.344 0.115 0.712
 -0.346 0.117 0.727
 -0.347 0.119 0.741
 -0.346 0.12 0.751
 -0.344 0.121 0.76
 -0.342 0.122 0.768
 -0.339 0.123 0.775
 -0.336 0.124 0.78
 -0.333 0.124 0.787
 -0.33 0.125 0.794
 -0.328 0.126 0.801
 -0.326 0.127 0.811
 -0.325 0.129 0.823
 -0.325 0.131 0.839
 -0.327 0.134 0.859
 -0.33 0.138 0.884
 -0.335 0.142 0.914
 -0.341 0.147 0.95
 -0.349 0.153 0.989
 -0.356 0.159 1.03
 -0.363 0.165 1.07
 -0.369 0.171 1.11
 -0.373 0.176 1.145
 -0.375 0.181 1.176
 -0.375 0.184 1.202
 -0.374 0.187 1.223
 -0.371 0.189 1.239
 -0.367 0.191 1.252
 -0.362 0.193 1.263
 -0.357 0.194 1.273
 -0.351 0.195 1.282
 -0.345 0.196 1.292
 -0.339 0.197 1.301
 -0.334 0.198 1.309
 -0.327 0.199 1.317
 -0.321 0.2 1.324
 -0.314 0.2 1.329
 -0.307 0.201 1.334
 -0.299 0.201 1.336
 -0.291 0.201 1.338
 -0.283 0.201 1.338
 -0.274 0.2 1.336
 -0.265 0.199 1.33
 -0.256 0.198 1.324
 -0.247 0.197 1.317
 -0.237 0.195 1.309
 -0.228 0.194 1.302
 -0.22 0.193 1.296
 -0.211 0.192 1.292
 -0.203 0.192 1.29
 -0.195 0.191 1.289
 -0.188 0.191 1.29
 -0.18 0.191 1.292
 -0.173 0.192 1.296
 -0.166 0.192 1.299
 -0.159 0.193 1.302
 -0.152 0.193 1.307
 -0.145 0.194 1.316
 -0.138 0.195 1.323
 -0.131 0.197 1.335
 -0.125 0.199 1.348
 -0.118 0.201 1.364
 -0.111 0.203 1.378
 -0.105 0.205 1.395
 -0.098 0.208 1.412
 -0.09 0.21 1.426
 -0.082 0.211 1.433
 -0.074 0.211 1.438
 -0.066 0.211 1.436
 -0.057 0.209 1.427
 -0.049 0.208 1.415
 -0.04 0.205 1.401
 -0.032 0.203 1.388
 -0.023 0.202 1.375
 -0.015 0.2 1.366
 -0.007 0.199 1.361
 0 0.199 1.36
 0.007 0.199 1.362
 0.015 0.2 1.369
 0.023 0.202 1.378
 0.032 0.203 1.388
 0.04 0.205 1.398
 0.048 0.206 1.409
 0.057 0.207 1.415
 0.065 0.208 1.422
 0.074 0.209 1.425
 0.082 0.209 1.427
 0.091 0.209 1.428
 0.099 0.21 1.433
 0.108 0.211 1.441
 0.118 0.213 1.458
 0.128 0.216 1.478
 0.139 0.22 1.501
 0.15 0.223 1.523
 0.161 0.226 1.544
 0.172 0.228 1.558
 0.182 0.23 1.567
 0.191 0.23 1.571
 0.2 0.23 1.569
 0.209 0.229 1.562
 0.217 0.228 1.556
 0.225 0.227 1.547
 0.232 0.226 1.535
 0.24 0.224 1.526
 0.247 0.223 1.514
 0.253 0.22 1.498
 0.259 0.218 1.481
 0.265 0.215 1.462
 0.268 0.211 1.434
 0.27 0.206 1.4
 0.272 0.201 1.364
 0.273 0.197 1.333
 0.273 0.191 1.29
 0.275 0.187 1.265
 0.275 0.182 1.232
 0.275 0.177 1.198
 0.278 0.175 1.18
 0.268 0.164 1.108
 0.257 0.153 1.036
 0.246 0.143 0.968
 0.234 0.133 0.897
 0.223 0.124 0.833
 0.192 0.104 0.701
 0.162 0.085 0.577
 0.158 0.081 0.549
 0.145 0.073 0.495
 0.136 0.067 0.454
 0.135 0.065 0.439
 0.132 0.062 0.421
 0.131 0.061 0.409
 0.132 0.06 0.402
 0.13 0.058 0.39
 0.127 0.055 0.372
 0.126 0.054 0.361
 0.122 0.051 0.344
 0.12 0.049 0.332
 0.118 0.048 0.321
 0.119 0.047 0.316
 0.122 0.047 0.318
 0.127 0.049 0.325
 0.134 0.051 0.338
 0.141 0.052 0.349
 0.146 0.053 0.355
 0.151 0.055 0.361
 0.156 0.056 0.368
 0.159 0.056 0.369
 0.164 0.057 0.374
 0.169 0.058 0.379
 0.179 0.06 0.395
 0.18 0.06 0.392
 0.184 0.061 0.394
 0.189 0.061 0.397
 0.201 0.064 0.415
 0.201 0.063 0.409
 0.203 0.063 0.408
 0.217 0.067 0.428
 0.22 0.067 0.428
 0.234 0.07 0.449
 0.24 0.071 0.453
 0.255 0.075 0.475
 0.257 0.075 0.471
 0.269 0.077 0.486
 0.276 0.078 0.491
 0.286 0.08 0.502
 0.308 0.086 0.534
 0.308 0.085 0.525
 -0.305 0.093 0.538
 -0.307 0.095 0.55
 -0.314 0.098 0.573
 -0.32 0.101 0.592
 -0.325 0.104 0.61
 -0.328 0.107 0.627
 -0.331 0.109 0.642
 -0.334 0.111 0.658
 -0.337 0.114 0.674
 -0.339 0.116 0.69
 -0.341 0.118 0.706
 -0.343 0.12 0.72
 -0.344 0.123 0.735
 -0.343 0.124 0.745
 -0.342 0.125 0.754
 -0.34 0.126 0.762
 -0.337 0.127 0.769
 -0.334 0.128 0.775
 -0.331 0.128 0.782
 -0.328 0.129 0.788
 -0.326 0.13 0.796
 -0.324 0.132 0.807
 -0.323 0.133 0.819
 -0.324 0.136 0.834
 -0.325 0.139 0.854
 -0.329 0.143 0.881
 -0.335 0.147 0.912
 -0.341 0.153 0.949
 -0.349 0.159 0.989
 -0.357 0.166 1.032
 -0.364 0.172 1.072
 -0.37 0.178 1.112
 -0.374 0.184 1.149
 -0.377 0.189 1.181
 -0.377 0.192 1.207
 -0.376 0.196 1.229
 -0.373 0.198 1.245
 -0.369 0.2 1.259
 -0.364 0.201 1.27
 -0.359 0.203 1.28
 -0.353 0.204 1.289
 -0.347 0.205 1.299
 -0.341 0.206 1.307
 -0.335 0.207 1.316
 -0.329 0.208 1.323
 -0.322 0.209 1.33
 -0.315 0.209 1.334
 -0.308 0.21 1.34
 -0.301 0.21 1.342
 -0.293 0.21 1.344
 -0.284 0.21 1.344
 -0.276 0.209 1.343
 -0.267 0.208 1.337
 -0.258 0.207 1.331
 -0.248 0.206 1.324
 -0.239 0.204 1.317
 -0.23 0.203 1.31
 -0.221 0.202 1.306
 -0.213 0.201 1.302
 -0.205 0.201 1.3
 -0.197 0.201 1.299
 -0.189 0.2 1.3
 -0.182 0.201 1.302
 -0.175 0.201 1.307
 -0.168 0.202 1.31
 -0.16 0.202 1.315
 -0.153 0.203 1.319
 -0.146 0.204 1.327
 -0.139 0.205 1.334
 -0.132 0.206 1.343
 -0.125 0.208 1.355
 -0.119 0.21 1.371
 -0.112 0.212 1.384
 -0.105 0.214 1.401
 -0.098 0.217 1.417
 -0.091 0.219 1.432
 -0.083 0.22 1.44
 -0.075 0.221 1.444
 -0.066 0.22 1.442
 -0.058 0.219 1.435
 -0.049 0.217 1.423
 -0.04 0.215 1.41
 -0.032 0.213 1.398
 -0.024 0.212 1.388
 -0.015 0.21 1.38
 -0.007 0.21 1.377
 0 0.21 1.377
 0.008 0.21 1.379
 0.016 0.211 1.385
 0.024 0.212 1.394
 0.032 0.213 1.402
 0.04 0.215 1.412
 0.049 0.217 1.422
 0.058 0.218 1.429
 0.066 0.219 1.435
 0.075 0.219 1.44
 0.083 0.22 1.442
 0.092 0.22 1.443
 0.1 0.221 1.448
 0.109 0.222 1.455
 0.119 0.224 1.468
 0.129 0.226 1.485
 0.139 0.229 1.506
 0.15 0.233 1.525
 0.161 0.235 1.543
 0.171 0.237 1.554
 0.181 0.238 1.562
 0.191 0.239 1.564
 0.2 0.239 1.562
 0.208 0.238 1.556
 0.216 0.237 1.55
 0.224 0.236 1.54
 0.231 0.234 1.528
 0.239 0.232 1.517
 0.246 0.23 1.505
 0.252 0.228 1.488
 0.258 0.225 1.471
 0.263 0.223 1.452
 0.267 0.218 1.424
 0.269 0.214 1.392
 0.27 0.208 1.355
 0.27 0.202 1.316
 0.269 0.195 1.271
 0.271 0.192 1.247
 0.269 0.185 1.203
 0.267 0.179 1.161
 0.269 0.176 1.141
 0.263 0.167 1.085
 0.255 0.158 1.026
 0.249 0.151 0.978
 0.23 0.136 0.882
 0.213 0.123 0.798
 0.18 0.101 0.657
 0.165 0.091 0.59
 0.161 0.086 0.56
 0.152 0.08 0.517
 0.143 0.073 0.477
 0.139 0.07 0.453
 0.137 0.067 0.436
 0.135 0.065 0.421
 0.134 0.063 0.41
 0.132 0.061 0.395
 0.129 0.058 0.377
 0.127 0.056 0.364
 0.123 0.054 0.347
 0.121 0.052 0.335
 0.12 0.05 0.325
 0.121 0.05 0.322
 0.124 0.05 0.325
 0.129 0.052 0.332
 0.138 0.055 0.349
 0.145 0.056 0.359
 0.15 0.057 0.365
 0.155 0.059 0.371
 0.16 0.06 0.377
 0.16 0.059 0.371
 0.165 0.06 0.376
 0.172 0.061 0.385
 0.176 0.062 0.388
 0.181 0.063 0.393
 0.188 0.064 0.402
 0.193 0.065 0.405
 0.197 0.066 0.407
 0.205 0.068 0.418
 0.206 0.067 0.413
 0.217 0.07 0.427
 0.219 0.07 0.426
 0.229 0.072 0.439
 0.233 0.072 0.439
 0.243 0.074 0.451
 0.249 0.075 0.456
 0.263 0.079 0.474
 0.274 0.081 0.487
 0.287 0.084 0.504
 0.275 0.079 0.475
 0.32 0.092 0.545
 -0.301 0.095 0.531
 -0.303 0.097 0.543
 -0.312 0.101 0.567
 -0.317 0.104 0.586
 -0.322 0.107 0.605
 -0.326 0.11 0.622
 -0.329 0.112 0.637
 -0.331 0.115 0.652
 -0.334 0.117 0.668
 -0.336 0.119 0.683
 -0.338 0.122 0.699
 -0.34 0.124 0.713
 -0.341 0.126 0.728
 -0.34 0.128 0.738
 -0.339 0.129 0.748
 -0.337 0.13 0.756
 -0.334 0.131 0.763
 -0.331 0.131 0.768
 -0.329 0.132 0.776
 -0.326 0.133 0.782
 -0.323 0.134 0.789
 -0.322 0.136 0.8
 -0.321 0.137 0.813
 -0.321 0.14 0.828
 -0.324 0.143 0.849
 -0.328 0.148 0.877
 -0.334 0.153 0.909
 -0.341 0.159 0.947
 -0.349 0.165 0.988
 -0.357 0.172 1.031
 -0.364 0.179 1.072
 -0.37 0.185 1.113
 -0.375 0.191 1.15
 -0.378 0.196 1.183
 -0.378 0.2 1.209
 -0.377 0.204 1.232
 -0.374 0.206 1.248
 -0.37 0.208 1.262
 -0.365 0.21 1.274
 -0.36 0.211 1.285
 -0.354 0.212 1.294
 -0.349 0.214 1.304
 -0.343 0.215 1.311
 -0.336 0.216 1.319
 -0.33 0.216 1.326
 -0.323 0.217 1.332
 -0.316 0.218 1.336
 -0.309 0.218 1.343
 -0.301 0.219 1.346
 -0.294 0.219 1.348
 -0.285 0.218 1.348
 -0.277 0.218 1.347
 -0.268 0.217 1.341
 -0.259 0.216 1.336
 -0.249 0.214 1.33
 -0.24 0.213 1.324
 -0.231 0.212 1.318
 -0.223 0.211 1.313
 -0.214 0.21 1.309
 -0.206 0.21 1.309
 -0.198 0.21 1.307
 -0.191 0.21 1.308
 -0.183 0.21 1.312
 -0.176 0.211 1.316
 -0.169 0.211 1.319
 -0.162 0.212 1.325
 -0.154 0.212 1.33
 -0.147 0.213 1.336
 -0.14 0.214 1.343
 -0.133 0.215 1.351
 -0.126 0.217 1.361
 -0.119 0.219 1.376
 -0.112 0.221 1.389
 -0.105 0.223 1.405
 -0.098 0.226 1.421
 -0.091 0.228 1.435
 -0.083 0.229 1.444
 -0.075 0.23 1.449
 -0.066 0.23 1.447
 -0.058 0.228 1.44
 -0.049 0.227 1.43
 -0.04 0.225 1.418
 -0.032 0.223 1.407
 -0.024 0.221 1.398
 -0.016 0.22 1.391
 -0.007 0.22 1.388
 0 0.22 1.389
 0.008 0.22 1.39
 0.016 0.221 1.395
 0.024 0.222 1.402
 0.032 0.223 1.41
 0.041 0.225 1.419
 0.049 0.226 1.431
 0.058 0.227 1.438
 0.067 0.228 1.444
 0.075 0.229 1.449
 0.084 0.23 1.451
 0.092 0.23 1.453
 0.101 0.231 1.458
 0.11 0.232 1.464
 0.12 0.234 1.476
 0.13 0.236 1.491
 0.14 0.239 1.508
 0.15 0.242 1.525
 0.161 0.244 1.541
 0.171 0.246 1.552
 0.181 0.247 1.557
 0.19 0.247 1.559
 0.199 0.247 1.557
 0.207 0.246 1.549
 0.215 0.245 1.542
 0.223 0.243 1.532
 0.23 0.241 1.518
 0.237 0.24 1.507
 0.244 0.238 1.495
 0.25 0.235 1.478
 0.256 0.232 1.459
 0.261 0.229 1.44
 0.264 0.225 1.411
 0.267 0.22 1.38
 0.267 0.214 1.339
 0.267 0.207 1.298
 0.264 0.199 1.248
 0.264 0.194 1.211
 0.261 0.187 1.168
 0.259 0.18 1.126
 0.262 0.177 1.107
 0.253 0.167 1.045
 0.25 0.161 1.005
 0.249 0.157 0.977
 0.228 0.14 0.872
 0.218 0.131 0.814
 0.189 0.11 0.689
 0.173 0.099 0.616
 0.167 0.093 0.581
 0.155 0.085 0.528
 0.148 0.079 0.492
 0.144 0.075 0.47
 0.141 0.072 0.451
 0.139 0.07 0.434
 0.138 0.068 0.421
 0.134 0.065 0.402
 0.131 0.062 0.384
 0.128 0.059 0.368
 0.124 0.056 0.349
 0.123 0.055 0.339
 0.122 0.053 0.331
 0.123 0.053 0.328
 0.127 0.054 0.331
 0.133 0.055 0.34
 0.141 0.058 0.356
 0.146 0.059 0.362
 0.152 0.061 0.37
 0.155 0.061 0.372
 0.16 0.062 0.376
 0.159 0.061 0.368
 0.164 0.061 0.372
 0.168 0.062 0.375
 0.175 0.064 0.385
 0.181 0.065 0.393
 0.191 0.068 0.407
 0.193 0.068 0.405
 0.201 0.07 0.415
 0.207 0.071 0.421
 0.209 0.071 0.418
 0.214 0.071 0.422
 0.22 0.072 0.426
 0.229 0.075 0.439
 0.232 0.075 0.437
 0.24 0.076 0.445
 0.248 0.078 0.453
 0.26 0.081 0.468
 0.268 0.082 0.476
 0.282 0.086 0.494
 0.298 0.09 0.514
 0.318 0.095 0.541
 -0.296 0.097 0.521
 -0.304 0.101 0.545
 -0.309 0.104 0.562
 -0.314 0.107 0.581
 -0.319 0.11 0.599
 -0.323 0.113 0.616
 -0.326 0.115 0.632
 -0.329 0.118 0.646
 -0.331 0.12 0.662
 -0.333 0.123 0.677
 -0.336 0.125 0.693
 -0.337 0.128 0.707
 -0.338 0.13 0.722
 -0.337 0.131 0.732
 -0.337 0.133 0.742
 -0.334 0.134 0.749
 -0.332 0.135 0.756
 -0.329 0.135 0.762
 -0.326 0.136 0.769
 -0.323 0.137 0.775
 -0.321 0.138 0.782
 -0.319 0.139 0.792
 -0.318 0.141 0.804
 -0.318 0.143 0.819
 -0.321 0.147 0.841
 -0.326 0.152 0.869
 -0.331 0.157 0.902
 -0.339 0.163 0.94
 -0.348 0.171 0.984
 -0.356 0.178 1.027
 -0.363 0.185 1.07
 -0.37 0.192 1.111
 -0.375 0.198 1.149
 -0.377 0.203 1.181
 -0.378 0.208 1.209
 -0.377 0.211 1.231
 -0.374 0.214 1.249
 -0.371 0.216 1.264
 -0.366 0.218 1.276
 -0.361 0.219 1.287
 -0.355 0.221 1.296
 -0.349 0.222 1.305
 -0.343 0.223 1.312
 -0.337 0.224 1.319
 -0.33 0.225 1.326
 -0.323 0.225 1.332
 -0.316 0.226 1.337
 -0.31 0.227 1.344
 -0.302 0.227 1.347
 -0.294 0.227 1.349
 -0.286 0.227 1.35
 -0.278 0.227 1.35
 -0.268 0.225 1.344
 -0.26 0.224 1.34
 -0.25 0.223 1.334
 -0.241 0.222 1.329
 -0.232 0.221 1.323
 -0.224 0.22 1.318
 -0.215 0.219 1.315
 -0.207 0.219 1.315
 -0.199 0.219 1.314
 -0.192 0.219 1.315
 -0.185 0.219 1.32
 -0.177 0.22 1.325
 -0.17 0.22 1.326
 -0.163 0.221 1.332
 -0.155 0.221 1.336
 -0.148 0.222 1.342
 -0.141 0.223 1.347
 -0.134 0.224 1.355
 -0.127 0.226 1.366
 -0.12 0.228 1.38
 -0.113 0.23 1.394
 -0.106 0.232 1.409
 -0.099 0.235 1.425
 -0.091 0.237 1.438
 -0.083 0.238 1.446
 -0.075 0.239 1.45
 -0.067 0.239 1.449
 -0.058 0.238 1.444
 -0.049 0.236 1.435
 -0.041 0.234 1.424
 -0.032 0.233 1.415
 -0.024 0.231 1.407
 -0.016 0.23 1.401
 -0.007 0.23 1.399
 0 0.23 1.399
 0.008 0.23 1.4
 0.016 0.23 1.403
 0.024 0.231 1.409
 0.032 0.232 1.415
 0.041 0.234 1.424
 0.05 0.235 1.435
 0.058 0.237 1.442
 0.067 0.238 1.448
 0.076 0.239 1.454
 0.084 0.239 1.456
 0.093 0.239 1.458
 0.102 0.24 1.463
 0.111 0.241 1.469
 0.12 0.243 1.479
 0.13 0.245 1.492
 0.14 0.247 1.505
 0.15 0.25 1.52
 0.16 0.252 1.535
 0.17 0.254 1.544
 0.18 0.255 1.549
 0.19 0.255 1.551
 0.198 0.255 1.549
 0.206 0.254 1.541
 0.214 0.253 1.533
 0.222 0.251 1.521
 0.229 0.248 1.507
 0.236 0.247 1.494
 0.242 0.244 1.481
 0.248 0.242 1.463
 0.253 0.239 1.444
 0.258 0.235 1.423
 0.261 0.23 1.393
 0.264 0.226 1.364
 0.264 0.219 1.323
 0.264 0.212 1.281
 0.262 0.205 1.236
 0.263 0.2 1.205
 0.26 0.192 1.16
 0.258 0.186 1.121
 0.256 0.18 1.083
 0.24 0.165 0.991
 0.237 0.159 0.954
 0.239 0.156 0.938
 0.227 0.145 0.869
 0.217 0.135 0.809
 0.201 0.122 0.732
 0.185 0.11 0.659
 0.175 0.102 0.609
 0.164 0.093 0.556
 0.155 0.086 0.515
 0.149 0.081 0.485
 0.146 0.078 0.465
 0.143 0.074 0.446
 0.14 0.072 0.428
 0.137 0.069 0.41
 0.134 0.066 0.393
 0.13 0.062 0.373
 0.125 0.059 0.352
 0.124 0.057 0.341
 0.124 0.056 0.334
 0.126 0.056 0.335
 0.13 0.057 0.338
 0.137 0.059 0.35
 0.146 0.062 0.367
 0.149 0.063 0.37
 0.154 0.064 0.375
 0.157 0.064 0.377
 0.161 0.065 0.379
 0.161 0.064 0.371
 0.166 0.065 0.376
 0.171 0.066 0.383
 0.177 0.067 0.39
 0.184 0.069 0.398
 0.19 0.07 0.405
 0.194 0.071 0.406
 0.198 0.071 0.408
 0.205 0.073 0.416
 0.206 0.072 0.412
 0.213 0.074 0.42
 0.216 0.074 0.42
 0.225 0.076 0.43
 0.228 0.076 0.429
 0.236 0.078 0.438
 0.245 0.08 0.448
 0.258 0.083 0.464
 0.266 0.085 0.472
 0.282 0.089 0.493
 0.312 0.098 0.538
 0.323 0.1 0.549
 -0.294 0.1 0.517
 -0.297 0.102 0.531
 -0.307 0.107 0.557
 -0.312 0.11 0.576
 -0.317 0.113 0.594
 -0.321 0.116 0.611
 -0.324 0.119 0.627
 -0.327 0.121 0.642
 -0.33 0.124 0.658
 -0.331 0.126 0.672
 -0.333 0.129 0.688
 -0.335 0.131 0.701
 -0.336 0.133 0.715
 -0.335 0.135 0.725
 -0.334 0.136 0.735
 -0.332 0.137 0.743
 -0.33 0.138 0.75
 -0.327 0.139 0.757
 -0.324 0.14 0.764
 -0.322 0.141 0.77
 -0.318 0.142 0.776
 -0.317 0.143 0.785
 -0.315 0.145 0.796
 -0.315 0.147 0.81
 -0.317 0.151 0.831
 -0.322 0.155 0.86
 -0.329 0.161 0.894
 -0.337 0.168 0.933
 -0.346 0.176 0.979
 -0.354 0.183 1.022
 -0.362 0.191 1.066
 -0.369 0.198 1.107
 -0.374 0.205 1.145
 -0.377 0.21 1.178
 -0.378 0.215 1.206
 -0.376 0.218 1.228
 -0.374 0.221 1.246
 -0.37 0.224 1.261
 -0.366 0.225 1.274
 -0.361 0.227 1.286
 -0.355 0.229 1.295
 -0.35 0.23 1.305
 -0.343 0.231 1.312
 -0.337 0.232 1.32
 -0.331 0.233 1.327
 -0.324 0.234 1.333
 -0.317 0.234 1.337
 -0.31 0.235 1.344
 -0.302 0.235 1.346
 -0.294 0.235 1.349
 -0.286 0.235 1.351
 -0.278 0.235 1.351
 -0.269 0.234 1.346
 -0.26 0.233 1.343
 -0.251 0.232 1.337
 -0.242 0.231 1.332
 -0.233 0.229 1.326
 -0.224 0.228 1.321
 -0.216 0.227 1.317
 -0.208 0.227 1.318
 -0.2 0.227 1.316
 -0.192 0.227 1.318
 -0.185 0.228 1.324
 -0.178 0.228 1.328
 -0.17 0.229 1.33
 -0.163 0.229 1.337
 -0.156 0.23 1.341
 -0.148 0.231 1.346
 -0.141 0.231 1.351
 -0.134 0.233 1.359
 -0.127 0.234 1.369
 -0.12 0.236 1.381
 -0.113 0.238 1.394
 -0.106 0.241 1.408
 -0.099 0.243 1.424
 -0.091 0.245 1.436
 -0.083 0.247 1.445
 -0.075 0.247 1.449
 -0.067 0.247 1.449
 -0.058 0.246 1.445
 -0.049 0.245 1.437
 -0.041 0.243 1.427
 -0.032 0.242 1.418
 -0.024 0.24 1.412
 -0.016 0.239 1.406
 -0.007 0.239 1.405
 0 0.239 1.406
 0.008 0.239 1.407
 0.016 0.24 1.41
 0.024 0.241 1.415
 0.033 0.242 1.42
 0.041 0.243 1.427
 0.05 0.244 1.437
 0.058 0.246 1.444
 0.067 0.247 1.45
 0.076 0.248 1.455
 0.084 0.248 1.458
 0.093 0.248 1.46
 0.102 0.249 1.464
 0.111 0.25 1.469
 0.12 0.252 1.479
 0.13 0.254 1.489
 0.14 0.256 1.502
 0.15 0.258 1.515
 0.16 0.26 1.527
 0.17 0.261 1.534
 0.179 0.262 1.539
 0.188 0.263 1.539
 0.197 0.262 1.535
 0.205 0.261 1.527
 0.213 0.26 1.521
 0.22 0.257 1.507
 0.227 0.255 1.494
 0.234 0.253 1.482
 0.24 0.251 1.469
 0.246 0.248 1.449
 0.251 0.245 1.428
 0.256 0.241 1.407
 0.258 0.235 1.374
 0.26 0.23 1.343
 0.26 0.223 1.302
 0.259 0.216 1.258
 0.256 0.208 1.209
 0.256 0.202 1.173
 0.251 0.193 1.121
 0.247 0.185 1.073
 0.243 0.177 1.028
 0.234 0.166 0.965
 0.23 0.159 0.923
 0.228 0.154 0.892
 0.22 0.145 0.841
 0.214 0.138 0.799
 0.203 0.128 0.739
 0.186 0.115 0.663
 0.177 0.106 0.614
 0.164 0.096 0.558
 0.156 0.09 0.52
 0.15 0.085 0.489
 0.148 0.082 0.471
 0.146 0.079 0.454
 0.144 0.076 0.439
 0.141 0.073 0.421
 0.138 0.07 0.405
 0.132 0.066 0.38
 0.128 0.063 0.359
 0.126 0.06 0.347
 0.126 0.059 0.34
 0.129 0.06 0.344
 0.133 0.061 0.347
 0.14 0.063 0.36
 0.149 0.066 0.374
 0.152 0.066 0.377
 0.157 0.067 0.382
 0.163 0.069 0.39
 0.164 0.069 0.386
 0.165 0.068 0.382
 0.17 0.069 0.387
 0.175 0.07 0.391
 0.178 0.07 0.392
 0.187 0.073 0.405
 0.191 0.073 0.407
 0.195 0.074 0.409
 0.197 0.074 0.407
 0.204 0.075 0.414
 0.205 0.074 0.409
 0.209 0.075 0.412
 0.212 0.075 0.411
 0.217 0.076 0.414
 0.22 0.076 0.414
 0.227 0.078 0.42
 0.238 0.08 0.434
 0.251 0.084 0.451
 0.263 0.087 0.467
 0.28 0.092 0.489
 0.273 0.088 0.47
 0.32 0.103 0.544
 -0.294 0.103 0.517
 -0.297 0.106 0.53
 -0.305 0.11 0.552
 -0.309 0.113 0.57
 -0.314 0.116 0.588
 -0.318 0.119 0.605
 -0.322 0.122 0.621
 -0.324 0.124 0.636
 -0.327 0.127 0.652
 -0.329 0.13 0.666
 -0.33 0.132 0.681
 -0.332 0.134 0.694
 -0.332 0.136 0.707
 -0.332 0.138 0.718
 -0.331 0.14 0.728
 -0.33 0.141 0.737
 -0.327 0.142 0.744
 -0.325 0.143 0.751
 -0.322 0.144 0.757
 -0.319 0.145 0.763
 -0.315 0.145 0.768
 -0.314 0.147 0.777
 -0.311 0.148 0.785
 -0.311 0.15 0.799
 -0.314 0.154 0.821
 -0.319 0.159 0.85
 -0.325 0.165 0.883
 -0.334 0.172 0.924
 -0.343 0.18 0.969
 -0.352 0.188 1.013
 -0.36 0.196 1.058
 -0.367 0.204 1.1
 -0.372 0.21 1.138
 -0.374 0.216 1.17
 -0.375 0.221 1.198
 -0.374 0.224 1.219
 -0.372 0.227 1.237
 -0.369 0.23 1.255
 -0.365 0.232 1.269
 -0.36 0.234 1.282
 -0.355 0.236 1.293
 -0.349 0.238 1.303
 -0.343 0.239 1.311
 -0.337 0.24 1.319
 -0.33 0.241 1.325
 -0.324 0.241 1.332
 -0.317 0.242 1.337
 -0.31 0.243 1.343
 -0.302 0.243 1.346
 -0.295 0.243 1.349
 -0.287 0.243 1.35
 -0.278 0.243 1.351
 -0.269 0.242 1.347
 -0.26 0.241 1.343
 -0.251 0.24 1.338
 -0.243 0.239 1.334
 -0.234 0.238 1.328
 -0.225 0.237 1.322
 -0.216 0.236 1.32
 -0.208 0.236 1.32
 -0.2 0.235 1.318
 -0.193 0.235 1.32
 -0.185 0.236 1.325
 -0.178 0.236 1.329
 -0.171 0.237 1.331
 -0.163 0.238 1.338
 -0.156 0.238 1.34
 -0.148 0.239 1.344
 -0.141 0.239 1.349
 -0.134 0.24 1.357
 -0.127 0.242 1.367
 -0.12 0.244 1.379
 -0.113 0.247 1.393
 -0.106 0.249 1.406
 -0.098 0.251 1.421
 -0.091 0.253 1.431
 -0.083 0.255 1.441
 -0.075 0.255 1.445
 -0.066 0.255 1.446
 -0.058 0.255 1.442
 -0.049 0.253 1.436
 -0.041 0.252 1.427
 -0.032 0.25 1.419
 -0.024 0.249 1.413
 -0.016 0.248 1.409
 -0.007 0.248 1.408
 0 0.248 1.409
 0.008 0.248 1.41
 0.016 0.249 1.412
 0.024 0.249 1.416
 0.033 0.25 1.421
 0.041 0.251 1.427
 0.05 0.253 1.435
 0.058 0.254 1.443
 0.067 0.255 1.449
 0.076 0.256 1.454
 0.084 0.257 1.457
 0.093 0.257 1.459
 0.102 0.257 1.462
 0.111 0.258 1.468
 0.12 0.26 1.476
 0.129 0.262 1.485
 0.139 0.264 1.498
 0.149 0.266 1.51
 0.159 0.268 1.52
 0.169 0.269 1.525
 0.178 0.27 1.528
 0.187 0.269 1.526
 0.195 0.269 1.521
 0.203 0.267 1.514
 0.211 0.266 1.506
 0.218 0.264 1.494
 0.225 0.262 1.481
 0.232 0.26 1.469
 0.238 0.257 1.453
 0.244 0.254 1.434
 0.248 0.25 1.41
 0.252 0.245 1.384
 0.253 0.239 1.348
 0.255 0.233 1.314
 0.255 0.226 1.272
 0.253 0.218 1.227
 0.25 0.21 1.179
 0.249 0.203 1.139
 0.244 0.193 1.085
 0.238 0.184 1.033
 0.235 0.177 0.992
 0.226 0.166 0.929
 0.22 0.158 0.883
 0.216 0.151 0.844
 0.212 0.144 0.808
 0.208 0.138 0.773
 0.199 0.13 0.724
 0.185 0.118 0.658
 0.176 0.11 0.612
 0.165 0.101 0.561
 0.157 0.093 0.522
 0.151 0.088 0.491
 0.15 0.086 0.477
 0.148 0.083 0.462
 0.146 0.08 0.447
 0.143 0.077 0.428
 0.141 0.074 0.413
 0.135 0.07 0.387
 0.131 0.067 0.369
 0.129 0.064 0.355
 0.129 0.063 0.349
 0.133 0.064 0.352
 0.137 0.065 0.357
 0.143 0.067 0.367
 0.151 0.069 0.38
 0.155 0.07 0.383
 0.159 0.071 0.386
 0.166 0.073 0.396
 0.167 0.072 0.391
 0.166 0.071 0.383
 0.17 0.071 0.387
 0.174 0.072 0.389
 0.177 0.072 0.388
 0.185 0.074 0.4
 0.19 0.076 0.404
 0.192 0.075 0.401
 0.195 0.075 0.401
 0.201 0.077 0.407
 0.202 0.076 0.403
 0.206 0.076 0.404
 0.21 0.077 0.405
 0.213 0.077 0.406
 0.214 0.077 0.402
 0.22 0.078 0.406
 0.231 0.081 0.42
 0.243 0.084 0.437
 0.259 0.088 0.457
 0.277 0.094 0.483
 0.282 0.094 0.484
 0.304 0.101 0.515
 -0.296 0.107 0.52
 -0.299 0.11 0.534
 -0.302 0.112 0.548
 -0.307 0.116 0.565
 -0.312 0.119 0.583
 -0.315 0.122 0.599
 -0.319 0.125 0.615
 -0.322 0.127 0.63
 -0.324 0.13 0.645
 -0.326 0.133 0.659
 -0.328 0.135 0.674
 -0.329 0.138 0.688
 -0.33 0.14 0.7
 -0.329 0.141 0.711
 -0.328 0.143 0.721
 -0.327 0.144 0.73
 -0.325 0.146 0.737
 -0.322 0.147 0.744
 -0.319 0.147 0.75
 -0.316 0.148 0.756
 -0.313 0.149 0.76
 -0.31 0.15 0.767
 -0.308 0.151 0.776
 -0.308 0.154 0.791
 -0.311 0.157 0.812
 -0.315 0.163 0.84
 -0.322 0.169 0.874
 -0.331 0.176 0.915
 -0.34 0.185 0.959
 -0.348 0.192 1.002
 -0.357 0.201 1.048
 -0.364 0.209 1.09
 -0.369 0.216 1.127
 -0.372 0.221 1.16
 -0.373 0.226 1.189
 -0.372 0.23 1.21
 -0.369 0.233 1.229
 -0.367 0.236 1.247
 -0.363 0.239 1.263
 -0.359 0.241 1.276
 -0.354 0.243 1.288
 -0.349 0.245 1.299
 -0.343 0.246 1.307
 -0.337 0.247 1.316
 -0.33 0.248 1.324
 -0.324 0.249 1.33
 -0.316 0.25 1.335
 -0.31 0.251 1.341
 -0.302 0.251 1.344
 -0.294 0.251 1.347
 -0.286 0.251 1.349
 -0.278 0.251 1.348
 -0.269 0.25 1.346
 -0.261 0.249 1.343
 -0.251 0.248 1.337
 -0.242 0.247 1.332
 -0.233 0.246 1.327
 -0.224 0.244 1.321
 -0.216 0.243 1.318
 -0.208 0.243 1.318
 -0.2 0.243 1.316
 -0.193 0.243 1.319
 -0.185 0.243 1.322
 -0.178 0.244 1.325
 -0.17 0.244 1.327
 -0.163 0.245 1.333
 -0.155 0.245 1.336
 -0.148 0.246 1.341
 -0.141 0.247 1.347
 -0.134 0.248 1.354
 -0.127 0.25 1.364
 -0.119 0.252 1.375
 -0.112 0.254 1.387
 -0.105 0.256 1.399
 -0.098 0.258 1.414
 -0.09 0.26 1.423
 -0.083 0.262 1.433
 -0.075 0.263 1.439
 -0.066 0.263 1.442
 -0.058 0.262 1.438
 -0.049 0.261 1.432
 -0.041 0.26 1.424
 -0.032 0.258 1.416
 -0.024 0.257 1.41
 -0.016 0.256 1.405
 -0.007 0.256 1.405
 0 0.256 1.407
 0.008 0.256 1.408
 0.016 0.257 1.411
 0.024 0.258 1.415
 0.033 0.258 1.419
 0.041 0.259 1.425
 0.05 0.261 1.432
 0.058 0.262 1.439
 0.067 0.263 1.445
 0.076 0.264 1.45
 0.084 0.264 1.452
 0.093 0.265 1.454
 0.102 0.265 1.458
 0.11 0.266 1.462
 0.12 0.268 1.469
 0.129 0.269 1.477
 0.138 0.271 1.488
 0.148 0.273 1.498
 0.158 0.275 1.506
 0.167 0.276 1.512
 0.177 0.276 1.515
 0.185 0.276 1.514
 0.193 0.275 1.507
 0.201 0.274 1.498
 0.209 0.272 1.488
 0.216 0.27 1.476
 0.223 0.268 1.464
 0.23 0.266 1.453
 0.236 0.263 1.437
 0.241 0.26 1.418
 0.245 0.255 1.392
 0.248 0.25 1.361
 0.249 0.242 1.322
 0.249 0.235 1.282
 0.248 0.227 1.237
 0.246 0.219 1.192
 0.243 0.21 1.142
 0.242 0.204 1.106
 0.238 0.195 1.058
 0.232 0.185 1.004
 0.226 0.176 0.955
 0.218 0.165 0.895
 0.212 0.157 0.85
 0.208 0.15 0.814
 0.206 0.145 0.786
 0.203 0.14 0.756
 0.197 0.132 0.715
 0.184 0.121 0.652
 0.175 0.113 0.608
 0.163 0.103 0.553
 0.156 0.096 0.516
 0.151 0.091 0.489
 0.151 0.089 0.478
 0.148 0.085 0.459
 0.148 0.084 0.449
 0.144 0.08 0.431
 0.142 0.078 0.416
 0.136 0.073 0.39
 0.134 0.07 0.375
 0.132 0.068 0.363
 0.133 0.067 0.358
 0.136 0.068 0.359
 0.14 0.068 0.364
 0.146 0.07 0.373
 0.152 0.072 0.381
 0.155 0.073 0.383
 0.16 0.074 0.388
 0.166 0.075 0.395
 0.167 0.075 0.392
 0.168 0.074 0.388
 0.173 0.075 0.393
 0.175 0.075 0.39
 0.177 0.075 0.388
 0.184 0.076 0.396
 0.187 0.077 0.397
 0.189 0.076 0.394
 0.192 0.077 0.394
 0.198 0.078 0.401
 0.2 0.078 0.398
 0.204 0.078 0.399
 0.208 0.079 0.401
 0.212 0.08 0.403
 0.215 0.08 0.403
 0.221 0.081 0.408
 0.23 0.083 0.418
 0.242 0.086 0.433
 0.255 0.09 0.45
 0.272 0.095 0.473
 0.286 0.099 0.492
 0.322 0.111 0.546
 -0.293 0.109 0.513
 -0.295 0.112 0.526
 -0.3 0.115 0.543
 -0.304 0.118 0.559
 -0.309 0.121 0.576
 -0.312 0.125 0.592
 -0.316 0.128 0.609
 -0.319 0.13 0.624
 -0.321 0.133 0.639
 -0.323 0.136 0.654
 -0.325 0.138 0.668
 -0.326 0.141 0.681
 -0.327 0.143 0.693
 -0.326 0.145 0.704
 -0.325 0.146 0.713
 -0.324 0.148 0.723
 -0.322 0.149 0.73
 -0.319 0.15 0.736
 -0.316 0.15 0.741
 -0.313 0.151 0.746
 -0.309 0.152 0.75
 -0.307 0.153 0.758
 -0.305 0.154 0.767
 -0.305 0.157 0.782
 -0.308 0.161 0.803
 -0.312 0.166 0.83
 -0.319 0.172 0.864
 -0.327 0.18 0.905
 -0.336 0.188 0.948
 -0.345 0.197 0.992
 -0.354 0.206 1.038
 -0.361 0.214 1.081
 -0.366 0.221 1.117
 -0.369 0.227 1.149
 -0.37 0.232 1.178
 -0.369 0.236 1.199
 -0.367 0.239 1.22
 -0.365 0.243 1.24
 -0.362 0.246 1.256
 -0.357 0.248 1.269
 -0.353 0.25 1.282
 -0.348 0.252 1.294
 -0.342 0.253 1.302
 -0.336 0.255 1.312
 -0.33 0.256 1.321
 -0.323 0.257 1.327
 -0.316 0.258 1.333
 -0.309 0.258 1.338
 -0.302 0.259 1.341
 -0.294 0.259 1.344
 -0.286 0.259 1.346
 -0.278 0.259 1.346
 -0.269 0.258 1.344
 -0.26 0.257 1.341
 -0.251 0.256 1.334
 -0.242 0.254 1.329
 -0.233 0.253 1.323
 -0.224 0.252 1.317
 -0.216 0.251 1.314
 -0.208 0.25 1.314
 -0.2 0.25 1.312
 -0.192 0.25 1.315
 -0.185 0.251 1.318
 -0.177 0.251 1.321
 -0.17 0.251 1.324
 -0.162 0.252 1.328
 -0.155 0.252 1.33
 -0.148 0.253 1.335
 -0.14 0.254 1.339
 -0.133 0.255 1.345
 -0.126 0.256 1.354
 -0.119 0.258 1.363
 -0.111 0.26 1.375
 -0.104 0.262 1.387
 -0.097 0.264 1.401
 -0.09 0.266 1.411
 -0.082 0.268 1.422
 -0.074 0.269 1.427
 -0.066 0.269 1.43
 -0.057 0.269 1.426
 -0.049 0.268 1.423
 -0.04 0.266 1.415
 -0.032 0.265 1.409
 -0.024 0.264 1.403
 -0.015 0.264 1.401
 -0.007 0.263 1.4
 0 0.264 1.403
 0.008 0.264 1.406
 0.016 0.265 1.41
 0.024 0.266 1.414
 0.033 0.267 1.418
 0.041 0.267 1.423
 0.05 0.269 1.428
 0.058 0.27 1.435
 0.067 0.271 1.441
 0.076 0.272 1.446
 0.084 0.272 1.449
 0.093 0.273 1.45
 0.101 0.273 1.453
 0.11 0.274 1.456
 0.119 0.275 1.461
 0.128 0.276 1.468
 0.138 0.278 1.477
 0.147 0.28 1.485
 0.157 0.281 1.492
 0.166 0.282 1.497
 0.175 0.283 1.5
 0.184 0.282 1.497
 0.191 0.281 1.488
 0.199 0.279 1.479
 0.206 0.277 1.469
 0.213 0.275 1.457
 0.22 0.274 1.448
 0.227 0.272 1.438
 0.234 0.269 1.422
 0.239 0.265 1.401
 0.242 0.26 1.374
 0.244 0.253 1.338
 0.243 0.245 1.292
 0.242 0.236 1.246
 0.24 0.227 1.197
 0.237 0.218 1.148
 0.234 0.209 1.099
 0.233 0.203 1.067
 0.229 0.194 1.018
 0.224 0.184 0.967
 0.218 0.175 0.92
 0.212 0.166 0.868
 0.209 0.159 0.834
 0.204 0.152 0.798
 0.2 0.146 0.763
 0.197 0.14 0.733
 0.189 0.131 0.687
 0.178 0.121 0.632
 0.169 0.112 0.587
 0.161 0.105 0.547
 0.155 0.098 0.512
 0.15 0.093 0.486
 0.149 0.091 0.474
 0.147 0.088 0.456
 0.146 0.086 0.445
 0.145 0.083 0.432
 0.142 0.08 0.416
 0.137 0.076 0.392
 0.137 0.074 0.383
 0.135 0.072 0.37
 0.135 0.071 0.364
 0.138 0.071 0.367
 0.143 0.072 0.371
 0.147 0.073 0.376
 0.153 0.075 0.383
 0.157 0.076 0.386
 0.16 0.076 0.389
 0.167 0.079 0.399
 0.17 0.078 0.398
 0.171 0.078 0.394
 0.175 0.079 0.397
 0.178 0.079 0.396
 0.177 0.077 0.388
 0.183 0.079 0.395
 0.185 0.078 0.391
 0.187 0.078 0.391
 0.19 0.078 0.389
 0.195 0.079 0.393
 0.197 0.079 0.392
 0.203 0.081 0.398
 0.206 0.081 0.398
 0.21 0.081 0.398
 0.214 0.082 0.4
 0.221 0.083 0.406
 0.228 0.085 0.414
 0.24 0.089 0.43
 0.255 0.093 0.45
 0.272 0.098 0.472
 0.316 0.113 0.542
 0.31 0.11 0.525
 -0.291 0.112 0.509
 -0.294 0.115 0.523
 -0.298 0.118 0.539
 -0.302 0.121 0.554
 -0.306 0.124 0.57
 -0.31 0.127 0.586
 -0.313 0.13 0.602
 -0.316 0.133 0.618
 -0.318 0.136 0.632
 -0.32 0.139 0.646
 -0.322 0.141 0.66
 -0.323 0.143 0.673
 -0.323 0.146 0.685
 -0.323 0.148 0.696
 -0.322 0.149 0.706
 -0.321 0.151 0.715
 -0.319 0.152 0.722
 -0.316 0.153 0.728
 -0.313 0.153 0.733
 -0.31 0.154 0.738
 -0.306 0.155 0.742
 -0.303 0.156 0.749
 -0.302 0.158 0.759
 -0.302 0.16 0.774
 -0.305 0.164 0.795
 -0.309 0.169 0.821
 -0.316 0.176 0.855
 -0.324 0.184 0.894
 -0.333 0.192 0.937
 -0.342 0.201 0.981
 -0.351 0.21 1.028
 -0.358 0.218 1.07
 -0.363 0.226 1.107
 -0.366 0.232 1.14
 -0.367 0.237 1.167
 -0.366 0.241 1.189
 -0.365 0.245 1.211
 -0.363 0.249 1.231
 -0.36 0.252 1.248
 -0.356 0.254 1.263
 -0.351 0.257 1.276
 -0.346 0.259 1.289
 -0.341 0.26 1.298
 -0.335 0.262 1.308
 -0.329 0.263 1.317
 -0.323 0.265 1.325
 -0.316 0.265 1.33
 -0.309 0.266 1.335
 -0.301 0.266 1.337
 -0.293 0.266 1.338
 -0.285 0.266 1.339
 -0.276 0.265 1.338
 -0.268 0.265 1.337
 -0.259 0.264 1.334
 -0.25 0.263 1.329
 -0.241 0.262 1.324
 -0.232 0.26 1.319
 -0.223 0.259 1.312
 -0.215 0.258 1.308
 -0.207 0.257 1.307
 -0.199 0.257 1.306
 -0.191 0.257 1.31
 -0.184 0.258 1.313
 -0.177 0.258 1.315
 -0.169 0.258 1.318
 -0.162 0.259 1.321
 -0.154 0.259 1.324
 -0.147 0.26 1.328
 -0.139 0.26 1.332
 -0.132 0.261 1.336
 -0.125 0.262 1.344
 -0.118 0.264 1.351
 -0.11 0.265 1.361
 -0.103 0.268 1.373
 -0.096 0.27 1.386
 -0.089 0.272 1.396
 -0.081 0.274 1.408
 -0.073 0.275 1.414
 -0.065 0.276 1.417
 -0.057 0.275 1.415
 -0.048 0.274 1.412
 -0.04 0.273 1.405
 -0.032 0.272 1.4
 -0.024 0.271 1.395
 -0.015 0.271 1.393
 -0.007 0.271 1.394
 0 0.271 1.397
 0.008 0.272 1.399
 0.016 0.272 1.404
 0.024 0.273 1.408
 0.033 0.274 1.411
 0.041 0.275 1.417
 0.05 0.276 1.423
 0.058 0.277 1.43
 0.067 0.279 1.436
 0.075 0.28 1.441
 0.084 0.28 1.444
 0.092 0.28 1.445
 0.101 0.281 1.447
 0.11 0.281 1.449
 0.119 0.282 1.454
 0.127 0.283 1.458
 0.137 0.285 1.468
 0.146 0.287 1.475
 0.155 0.288 1.479
 0.165 0.288 1.483
 0.174 0.289 1.485
 0.182 0.288 1.481
 0.189 0.286 1.472
 0.197 0.285 1.461
 0.204 0.283 1.451
 0.211 0.281 1.439
 0.218 0.279 1.429
 0.225 0.277 1.42
 0.231 0.274 1.406
 0.236 0.27 1.384
 0.239 0.265 1.356
 0.24 0.257 1.317
 0.239 0.248 1.266
 0.236 0.238 1.213
 0.233 0.228 1.162
 0.229 0.217 1.106
 0.225 0.207 1.056
 0.224 0.201 1.023
 0.22 0.192 0.979
 0.215 0.182 0.928
 0.211 0.175 0.889
 0.207 0.167 0.849
 0.203 0.16 0.812
 0.197 0.151 0.767
 0.192 0.144 0.73
 0.188 0.138 0.699
 0.18 0.129 0.651
 0.17 0.119 0.601
 0.163 0.112 0.565
 0.157 0.105 0.532
 0.151 0.099 0.499
 0.148 0.095 0.48
 0.149 0.093 0.471
 0.145 0.09 0.451
 0.145 0.087 0.44
 0.144 0.085 0.429
 0.142 0.083 0.414
 0.138 0.079 0.394
 0.138 0.077 0.388
 0.136 0.075 0.374
 0.136 0.074 0.368
 0.139 0.074 0.368
 0.143 0.075 0.372
 0.147 0.076 0.376
 0.153 0.078 0.384
 0.157 0.079 0.388
 0.16 0.079 0.388
 0.166 0.08 0.395
 0.168 0.08 0.394
 0.17 0.08 0.391
 0.174 0.08 0.393
 0.176 0.08 0.391
 0.177 0.08 0.387
 0.182 0.081 0.392
 0.184 0.081 0.39
 0.186 0.08 0.388
 0.189 0.081 0.388
 0.194 0.081 0.391
 0.197 0.082 0.39
 0.202 0.083 0.394
 0.204 0.083 0.393
 0.208 0.083 0.394
 0.213 0.084 0.398
 0.22 0.086 0.406
 0.229 0.088 0.415
 0.242 0.092 0.432
 0.258 0.097 0.454
 0.273 0.102 0.475
 0.272 0.1 0.465
 0.312 0.114 0.527
 -0.288 0.114 0.503
 -0.291 0.117 0.517
 -0.295 0.12 0.532
 -0.299 0.123 0.547
 -0.303 0.126 0.563
 -0.306 0.13 0.579
 -0.31 0.133 0.595
 -0.312 0.136 0.609
 -0.314 0.138 0.624
 -0.316 0.141 0.638
 -0.318 0.144 0.651
 -0.319 0.146 0.665
 -0.32 0.149 0.677
 -0.32 0.151 0.689
 -0.319 0.152 0.699
 -0.318 0.154 0.707
 -0.316 0.155 0.714
 -0.312 0.156 0.719
 -0.309 0.156 0.723
 -0.306 0.157 0.728
 -0.302 0.157 0.732
 -0.3 0.159 0.739
