 1.84 -1.537 3.66
 1.846 -1.523 3.614
 1.849 -1.506 3.563
 1.852 -1.49 3.513
 1.835 -1.457 3.426
 1.789 -1.404 3.288
 1.763 -1.366 3.189
 1.765 -1.351 3.144
 1.773 -1.341 3.109
 1.777 -1.328 3.069
 1.771 -1.309 3.013
 1.77 -1.293 2.966
 1.761 -1.272 2.906
 1.759 -1.256 2.859
 -2.282 -1.621 3.852
 -2.243 -1.612 3.844
 -2.229 -1.622 3.88
 -2.203 -1.622 3.893
 -2.175 -1.62 3.902
 -2.147 -1.62 3.912
 -2.117 -1.617 3.919
 -2.093 -1.619 3.935
 -2.064 -1.617 3.942
 -2.037 -1.617 3.953
 -2.01 -1.617 3.965
 -1.984 -1.617 3.975
 -1.958 -1.617 3.988
 -1.934 -1.619 4.004
 -1.908 -1.62 4.017
 -1.882 -1.62 4.028
 -1.86 -1.624 4.048
 -1.832 -1.623 4.056
 -1.804 -1.622 4.063
 -1.776 -1.62 4.068
 -1.746 -1.617 4.07
 -1.715 -1.613 4.069
 -1.686 -1.611 4.073
 -1.66 -1.611 4.083
 -1.633 -1.61 4.091
 -1.607 -1.611 4.1
 -1.582 -1.612 4.111
 -1.555 -1.611 4.119
 -1.527 -1.609 4.122
 -1.501 -1.61 4.131
 -1.475 -1.61 4.141
 -1.447 -1.608 4.142
 -1.42 -1.607 4.148
 -1.393 -1.607 4.154
 -1.367 -1.607 4.162
 -1.341 -1.607 4.168
 -1.315 -1.607 4.177
 -1.29 -1.608 4.186
 -1.264 -1.609 4.195
 -1.235 -1.606 4.193
 -1.207 -1.603 4.193
 -1.18 -1.602 4.195
 -1.152 -1.6 4.196
 -1.125 -1.599 4.198
 -1.099 -1.598 4.202
 -1.073 -1.598 4.208
 -1.045 -1.596 4.207
 -1.018 -1.594 4.208
 -0.992 -1.594 4.211
 -0.966 -1.593 4.214
 -0.939 -1.593 4.217
 -0.915 -1.595 4.227
 -0.888 -1.594 4.23
 -0.861 -1.592 4.23
 -0.836 -1.593 4.237
 -0.809 -1.591 4.235
 -0.783 -1.59 4.236
 -0.757 -1.59 4.24
 -0.731 -1.591 4.246
 -0.705 -1.59 4.245
 -0.679 -1.59 4.249
 -0.652 -1.588 4.246
 -0.626 -1.587 4.248
 -0.6 -1.585 4.246
 -0.574 -1.586 4.25
 -0.548 -1.584 4.248
 -0.523 -1.586 4.255
 -0.496 -1.584 4.251
 -0.47 -1.583 4.251
 -0.445 -1.583 4.254
 -0.419 -1.584 4.259
 -0.393 -1.583 4.256
 -0.367 -1.583 4.257
 -0.342 -1.583 4.259
 -0.316 -1.582 4.257
 -0.29 -1.582 4.259
 -0.265 -1.582 4.261
 -0.239 -1.582 4.262
 -0.213 -1.582 4.261
 -0.188 -1.581 4.261
 -0.162 -1.58 4.258
 -0.136 -1.578 4.253
 -0.111 -1.58 4.258
 -0.085 -1.58 4.259
 -0.06 -1.579 4.257
 -0.034 -1.58 4.259
 -0.008 -1.58 4.258
 0.016 -1.578 4.253
 0.042 -1.577 4.248
 0.067 -1.577 4.248
 0.093 -1.576 4.246
 0.118 -1.577 4.248
 0.144 -1.577 4.246
 0.169 -1.578 4.247
 0.195 -1.578 4.248
 0.22 -1.579 4.248
 0.246 -1.578 4.245
 0.271 -1.579 4.245
 0.297 -1.578 4.241
 0.322 -1.578 4.24
 0.348 -1.579 4.24
 0.374 -1.58 4.239
 0.399 -1.58 4.238
 0.425 -1.582 4.24
 0.451 -1.583 4.24
 0.476 -1.581 4.233
 0.502 -1.583 4.236
 0.528 -1.584 4.234
 0.553 -1.584 4.231
 0.579 -1.584 4.229
 0.605 -1.586 4.231
 0.631 -1.586 4.227
 0.657 -1.586 4.224
 0.682 -1.587 4.221
 0.708 -1.587 4.217
 0.734 -1.588 4.216
 0.76 -1.588 4.212
 0.785 -1.588 4.209
 0.811 -1.588 4.205
 0.838 -1.591 4.206
 0.863 -1.591 4.201
 0.889 -1.591 4.199
 0.916 -1.593 4.198
 0.943 -1.596 4.2
 0.969 -1.597 4.197
 0.996 -1.598 4.195
 1.023 -1.6 4.194
 1.049 -1.601 4.19
 1.075 -1.601 4.186
 1.103 -1.604 4.187
 1.129 -1.605 4.184
 1.156 -1.606 4.179
 1.183 -1.608 4.178
 1.211 -1.61 4.177
 1.237 -1.611 4.172
 1.265 -1.613 4.171
 1.293 -1.616 4.171
 1.319 -1.617 4.165
 1.344 -1.616 4.155
 1.37 -1.615 4.146
 1.396 -1.616 4.14
 1.422 -1.616 4.131
 1.45 -1.619 4.129
 1.477 -1.619 4.123
 1.505 -1.622 4.12
 1.532 -1.623 4.113
 1.559 -1.623 4.106
 1.584 -1.623 4.096
 1.612 -1.625 4.091
 1.637 -1.624 4.079
 1.663 -1.624 4.069
 1.691 -1.625 4.063
 1.717 -1.625 4.054
 1.743 -1.625 4.043
 1.765 -1.622 4.025
 1.786 -1.617 4.001
 1.804 -1.611 3.975
 1.816 -1.599 3.934
 1.826 -1.585 3.89
 1.835 -1.571 3.844
 1.842 -1.556 3.797
 1.844 -1.537 3.739
 1.849 -1.52 3.687
 1.856 -1.506 3.642
 1.861 -1.491 3.594
 1.863 -1.474 3.541
 0 0 0
 1.782 -1.376 3.283
 1.755 -1.338 3.182
 1.765 -1.33 3.151
 1.772 -1.319 3.115
 1.777 -1.308 3.077
 1.775 -1.29 3.026
 1.774 -1.275 2.979
 1.78 -1.265 2.945
 1.777 -1.249 2.896
 -2.332 -1.63 3.947
 -2.259 -1.597 3.882
 -2.259 -1.616 3.941
 -2.232 -1.616 3.954
 -2.203 -1.615 3.963
 -2.175 -1.614 3.975
 -2.148 -1.614 3.985
 -2.122 -1.615 4.001
 -2.093 -1.613 4.009
 -2.066 -1.613 4.019
 -2.037 -1.612 4.028
 -2.009 -1.611 4.037
 -1.983 -1.611 4.049
 -1.958 -1.612 4.063
 -1.933 -1.614 4.078
 -1.905 -1.614 4.088
 -1.883 -1.617 4.108
 -1.856 -1.617 4.118
 -1.829 -1.618 4.13
 -1.801 -1.617 4.137
 -1.773 -1.615 4.143
 -1.741 -1.611 4.141
 -1.713 -1.609 4.146
 -1.685 -1.608 4.153
 -1.657 -1.607 4.159
 -1.631 -1.608 4.169
 -1.605 -1.608 4.18
 -1.577 -1.607 4.185
 -1.548 -1.605 4.189
 -1.522 -1.605 4.197
 -1.495 -1.605 4.205
 -1.466 -1.603 4.206
 -1.439 -1.603 4.214
 -1.411 -1.601 4.217
 -1.384 -1.6 4.222
 -1.356 -1.599 4.225
 -1.329 -1.599 4.232
 -1.302 -1.598 4.236
 -1.276 -1.598 4.243
 -1.247 -1.595 4.243
 -1.219 -1.593 4.243
 -1.192 -1.592 4.247
 -1.164 -1.591 4.249
 -1.137 -1.589 4.25
 -1.11 -1.588 4.254
 -1.084 -1.589 4.261
 -1.056 -1.585 4.257
 -1.028 -1.584 4.258
 -1.001 -1.583 4.26
 -0.974 -1.582 4.262
 -0.947 -1.58 4.262
 -0.922 -1.581 4.269
 -0.895 -1.58 4.271
 -0.868 -1.578 4.271
 -0.841 -1.577 4.272
 -0.814 -1.575 4.27
 -0.787 -1.574 4.269
 -0.761 -1.573 4.273
 -0.735 -1.574 4.277
 -0.709 -1.573 4.279
 -0.682 -1.572 4.278
 -0.655 -1.57 4.275
 -0.629 -1.568 4.275
 -0.602 -1.566 4.273
 -0.577 -1.567 4.276
 -0.551 -1.567 4.279
 -0.525 -1.568 4.284
 -0.499 -1.566 4.282
 -0.472 -1.565 4.279
 -0.446 -1.564 4.28
 -0.421 -1.564 4.281
 -0.394 -1.562 4.279
 -0.369 -1.562 4.281
 -0.343 -1.563 4.283
 -0.317 -1.562 4.282
 -0.291 -1.562 4.282
 -0.266 -1.562 4.284
 -0.24 -1.561 4.284
 -0.214 -1.561 4.284
 -0.188 -1.561 4.283
 -0.162 -1.56 4.282
 -0.137 -1.558 4.277
 -0.111 -1.559 4.28
 -0.085 -1.558 4.278
 -0.06 -1.558 4.277
 -0.034 -1.558 4.277
 -0.008 -1.559 4.278
 0.016 -1.558 4.276
 0.042 -1.558 4.275
 0.068 -1.557 4.272
 0.093 -1.556 4.269
 0.119 -1.556 4.268
 0.144 -1.555 4.265
 0.17 -1.556 4.265
 0.195 -1.556 4.266
 0.221 -1.557 4.266
 0.247 -1.557 4.264
 0.272 -1.557 4.264
 0.298 -1.557 4.263
 0.323 -1.557 4.26
 0.349 -1.557 4.258
 0.375 -1.558 4.257
 0.4 -1.557 4.253
 0.426 -1.558 4.253
 0.452 -1.559 4.253
 0.477 -1.559 4.251
 0.504 -1.562 4.256
 0.53 -1.563 4.257
 0.555 -1.563 4.254
 0.581 -1.564 4.252
 0.607 -1.565 4.251
 0.632 -1.563 4.242
 0.658 -1.563 4.24
 0.684 -1.564 4.238
 0.71 -1.564 4.235
 0.736 -1.567 4.237
 0.763 -1.569 4.239
 0.789 -1.57 4.236
 0.815 -1.57 4.233
 0.841 -1.571 4.233
 0.867 -1.571 4.227
 0.893 -1.571 4.222
 0.919 -1.573 4.221
 0.946 -1.575 4.222
 0.973 -1.576 4.22
 1 -1.578 4.22
 1.028 -1.581 4.222
 1.054 -1.583 4.22
 1.081 -1.584 4.218
 1.109 -1.587 4.219
 1.136 -1.588 4.216
 1.162 -1.588 4.209
 1.189 -1.59 4.207
 1.216 -1.591 4.205
 1.244 -1.593 4.203
 1.271 -1.595 4.2
 1.3 -1.599 4.204
 1.327 -1.6 4.198
 1.354 -1.6 4.192
 1.379 -1.6 4.182
 1.406 -1.6 4.175
 1.432 -1.6 4.167
 1.462 -1.604 4.17
 1.489 -1.605 4.164
 1.517 -1.608 4.162
 1.545 -1.61 4.158
 1.573 -1.612 4.153
 1.599 -1.611 4.142
 1.627 -1.613 4.138
 1.653 -1.613 4.128
 1.679 -1.613 4.118
 1.707 -1.614 4.111
 1.733 -1.614 4.101
 1.758 -1.613 4.088
 1.781 -1.609 4.068
 1.798 -1.602 4.038
 1.815 -1.594 4.007
 1.827 -1.582 3.967
 1.837 -1.568 3.921
 1.843 -1.552 3.87
 1.853 -1.539 3.826
 1.855 -1.521 3.77
 1.857 -1.502 3.712
 1.867 -1.491 3.673
 1.878 -1.481 3.636
 0 0 0
 0 0 0
 0 0 0
 1.751 -1.313 3.182
 1.764 -1.308 3.158
 1.772 -1.298 3.123
 1.778 -1.287 3.085
 1.777 -1.271 3.037
 1.779 -1.258 2.994
 1.761 -1.231 2.92
 1.781 -1.231 2.909
 -2.358 -1.62 4.001
 -2.346 -1.631 4.042
 -2.292 -1.613 4.009
 -2.265 -1.613 4.022
 -2.237 -1.612 4.034
 -2.205 -1.609 4.039
 -2.179 -1.61 4.053
 -2.152 -1.611 4.067
 -2.123 -1.609 4.075
 -2.094 -1.608 4.084
 -2.067 -1.608 4.097
 -2.038 -1.607 4.105
 -2.012 -1.608 4.118
 -1.986 -1.609 4.132
 -1.96 -1.61 4.146
 -1.932 -1.609 4.155
 -1.907 -1.611 4.17
 -1.878 -1.61 4.179
 -1.852 -1.61 4.19
 -1.824 -1.61 4.199
 -1.795 -1.609 4.205
 -1.765 -1.606 4.208
 -1.736 -1.604 4.212
 -1.707 -1.603 4.218
 -1.676 -1.599 4.218
 -1.649 -1.599 4.227
 -1.622 -1.598 4.234
 -1.593 -1.597 4.24
 -1.565 -1.596 4.244
 -1.539 -1.597 4.255
 -1.511 -1.596 4.26
 -1.482 -1.594 4.263
 -1.454 -1.592 4.265
 -1.424 -1.589 4.265
 -1.396 -1.587 4.268
 -1.368 -1.586 4.271
 -1.34 -1.585 4.277
 -1.313 -1.584 4.28
 -1.285 -1.583 4.284
 -1.257 -1.581 4.284
 -1.228 -1.578 4.284
 -1.201 -1.577 4.287
 -1.173 -1.576 4.29
 -1.146 -1.575 4.292
 -1.118 -1.574 4.295
 -1.092 -1.575 4.303
 -1.063 -1.571 4.298
 -1.036 -1.57 4.299
 -1.008 -1.567 4.298
 -0.98 -1.565 4.297
 -0.952 -1.562 4.293
 -0.926 -1.562 4.298
 -0.898 -1.56 4.297
 -0.871 -1.559 4.297
 -0.844 -1.557 4.295
 -0.817 -1.555 4.294
 -0.79 -1.553 4.294
 -0.763 -1.552 4.295
 -0.737 -1.552 4.298
 -0.711 -1.552 4.3
 -0.684 -1.551 4.3
 -0.657 -1.548 4.296
 -0.631 -1.547 4.296
 -0.604 -1.545 4.294
 -0.578 -1.545 4.295
 -0.552 -1.544 4.295
 -0.526 -1.544 4.299
 -0.5 -1.544 4.3
 -0.473 -1.542 4.297
 -0.447 -1.542 4.298
 -0.421 -1.541 4.296
 -0.395 -1.539 4.293
 -0.369 -1.537 4.29
 -0.343 -1.537 4.29
 -0.317 -1.536 4.291
 -0.291 -1.536 4.292
 -0.265 -1.536 4.292
 -0.24 -1.536 4.292
 -0.214 -1.536 4.292
 -0.188 -1.534 4.288
 -0.162 -1.534 4.288
 -0.136 -1.533 4.286
 -0.111 -1.534 4.289
 -0.085 -1.534 4.288
 -0.06 -1.535 4.293
 -0.034 -1.534 4.291
 -0.008 -1.535 4.291
 0.017 -1.533 4.287
 0.042 -1.533 4.285
 0.068 -1.531 4.279
 0.093 -1.53 4.277
 0.119 -1.53 4.275
 0.144 -1.53 4.273
 0.17 -1.53 4.272
 0.195 -1.53 4.272
 0.221 -1.53 4.271
 0.247 -1.53 4.269
 0.272 -1.531 4.271
 0.298 -1.532 4.272
 0.324 -1.534 4.274
 0.35 -1.534 4.273
 0.375 -1.534 4.27
 0.401 -1.533 4.266
 0.426 -1.534 4.265
 0.452 -1.534 4.263
 0.478 -1.534 4.261
 0.504 -1.537 4.265
 0.53 -1.538 4.265
 0.555 -1.537 4.259
 0.581 -1.538 4.258
 0.607 -1.539 4.258
 0.633 -1.538 4.252
 0.659 -1.539 4.252
 0.685 -1.541 4.254
 0.711 -1.541 4.251
 0.737 -1.543 4.251
 0.764 -1.545 4.252
 0.79 -1.546 4.25
 0.816 -1.547 4.248
 0.843 -1.548 4.247
 0.869 -1.549 4.245
 0.894 -1.548 4.237
 0.921 -1.55 4.237
 0.948 -1.551 4.236
 0.975 -1.553 4.236
 1.002 -1.555 4.236
 1.03 -1.559 4.239
 1.056 -1.559 4.236
 1.084 -1.562 4.236
 1.112 -1.565 4.238
 1.139 -1.567 4.237
 1.166 -1.568 4.233
 1.194 -1.57 4.233
 1.221 -1.571 4.229
 1.248 -1.573 4.227
 1.276 -1.575 4.225
 1.305 -1.578 4.226
 1.332 -1.579 4.223
 1.361 -1.582 4.221
 1.387 -1.582 4.215
 1.414 -1.583 4.209
 1.441 -1.584 4.202
 1.471 -1.588 4.204
 1.498 -1.589 4.199
 1.528 -1.592 4.198
 1.556 -1.595 4.196
 1.585 -1.597 4.194
 1.612 -1.597 4.184
 1.64 -1.598 4.178
 1.666 -1.598 4.168
 1.692 -1.598 4.158
 1.719 -1.599 4.15
 1.746 -1.599 4.14
 1.77 -1.597 4.124
 1.791 -1.592 4.102
 1.808 -1.584 4.07
 1.824 -1.575 4.036
 1.836 -1.563 3.994
 1.846 -1.55 3.95
 1.853 -1.535 3.9
 1.863 -1.522 3.855
 1.866 -1.504 3.8
 1.867 -1.486 3.742
 1.88 -1.476 3.706
 0 0 0
 0 0 0
 0 0 0
 0 0 0
 1.75 -1.291 3.188
 1.766 -1.287 3.167
 1.772 -1.277 3.131
 1.779 -1.267 3.096
 1.783 -1.255 3.056
 1.788 -1.243 3.017
 1.77 -1.218 2.943
 1.794 -1.22 2.939
 -2.375 -1.604 4.04
 -2.342 -1.601 4.044
 -1.857 -1.285 3.254
 -1.832 -1.283 3.26
 -1.808 -1.282 3.266
 -1.781 -1.278 3.268
 -1.758 -1.278 3.277
 -1.736 -1.278 3.286
 -1.801 -1.342 3.463
 -1.862 -1.406 3.639
 -1.925 -1.472 3.822
 -1.981 -1.535 3.998
 -1.955 -1.536 4.011
 -1.929 -1.536 4.022
 -1.902 -1.536 4.033
 -1.874 -1.535 4.04
 -1.849 -1.536 4.054
 -1.899 -1.601 4.235
 -1.873 -1.601 4.247
 -1.845 -1.601 4.257
 -1.815 -1.599 4.262
 -1.785 -1.597 4.266
 -1.755 -1.594 4.268
 -1.725 -1.592 4.271
 -1.694 -1.589 4.272
 -1.667 -1.589 4.281
 -1.637 -1.587 4.285
 -1.609 -1.586 4.29
 -1.58 -1.584 4.294
 -1.552 -1.584 4.302
 -1.522 -1.581 4.302
 -1.494 -1.579 4.306
 -1.464 -1.577 4.306
 -1.434 -1.574 4.305
 -1.405 -1.572 4.307
 -1.377 -1.57 4.31
 -1.349 -1.569 4.313
 -1.321 -1.567 4.316
 -1.293 -1.566 4.318
 -1.264 -1.563 4.318
 -1.236 -1.562 4.32
 -1.207 -1.56 4.321
 -1.179 -1.557 4.319
 -1.151 -1.556 4.322
 -1.123 -1.554 4.322
 -1.095 -1.552 4.322
 -1.066 -1.549 4.318
 -1.039 -1.548 4.32
 -1.01 -1.545 4.317
 -0.982 -1.542 4.313
 -0.954 -1.539 4.311
 -0.927 -1.538 4.313
 -0.9 -1.536 4.312
 -0.873 -1.535 4.313
 -0.846 -1.534 4.314
 -0.819 -1.532 4.313
 -0.792 -1.531 4.313
 -0.765 -1.529 4.311
 -0.738 -1.528 4.31
 -0.711 -1.527 4.311
 -0.685 -1.526 4.312
 -0.657 -1.523 4.307
 -0.631 -1.522 4.307
 -0.605 -1.521 4.307
 -0.578 -1.519 4.305
 -0.552 -1.518 4.304
 -0.526 -1.518 4.306
 -0.499 -1.517 4.305
 -0.473 -1.516 4.304
 -0.447 -1.515 4.303
 -0.421 -1.513 4.3
 -0.394 -1.512 4.298
 -0.368 -1.511 4.296
 -0.342 -1.51 4.296
 -0.317 -1.51 4.297
 -0.291 -1.51 4.297
 -0.265 -1.509 4.297
 -0.239 -1.509 4.298
 -0.214 -1.509 4.298
 -0.188 -1.507 4.292
 -0.162 -1.507 4.293
 -0.136 -1.507 4.292
 -0.111 -1.507 4.295
 -0.085 -1.506 4.291
 -0.059 -1.508 4.296
 -0.034 -1.506 4.292
 -0.008 -1.506 4.291
 0.017 -1.505 4.287
 0.042 -1.505 4.287
 0.068 -1.503 4.281
 0.093 -1.503 4.28
 0.119 -1.504 4.281
 0.144 -1.503 4.278
 0.17 -1.504 4.278
 0.196 -1.503 4.276
 0.221 -1.504 4.277
 0.247 -1.504 4.275
 0.273 -1.506 4.278
 0.298 -1.507 4.279
 0.324 -1.509 4.283
 0.35 -1.509 4.282
 0.376 -1.509 4.279
 0.401 -1.508 4.276
 0.427 -1.508 4.273
 0.452 -1.509 4.273
 0.478 -1.51 4.272
 0.504 -1.511 4.274
 0.53 -1.512 4.273
 0.556 -1.511 4.268
 0.581 -1.512 4.266
 0.607 -1.512 4.265
 0.633 -1.512 4.26
 0.659 -1.513 4.26
 0.685 -1.515 4.262
 0.711 -1.516 4.258
 0.737 -1.517 4.257
 0.764 -1.518 4.258
 0.79 -1.519 4.256
 0.816 -1.52 4.254
 0.842 -1.521 4.252
 0.869 -1.523 4.252
 0.894 -1.521 4.244
 0.921 -1.523 4.242
 0.948 -1.525 4.243
 0.975 -1.527 4.243
 1.002 -1.529 4.243
 1.03 -1.533 4.248
 1.057 -1.534 4.246
 1.085 -1.536 4.247
 1.113 -1.539 4.248
 1.14 -1.541 4.247
 1.167 -1.543 4.245
 1.195 -1.544 4.243
 1.222 -1.545 4.239
 1.25 -1.548 4.24
 1.278 -1.55 4.238
 1.306 -1.553 4.238
 1.334 -1.555 4.237
 1.362 -1.557 4.235
 1.39 -1.559 4.231
 1.417 -1.56 4.226
 1.445 -1.562 4.223
 1.475 -1.565 4.224
 1.503 -1.567 4.221
 1.532 -1.57 4.22
 1.562 -1.573 4.22
 1.591 -1.576 4.217
 1.618 -1.576 4.209
 1.647 -1.578 4.205
 1.674 -1.579 4.197
 1.7 -1.579 4.187
 1.728 -1.58 4.18
 1.755 -1.58 4.17
 1.777 -1.576 4.148
 1.798 -1.571 4.125
 1.814 -1.562 4.091
 1.826 -1.551 4.05
 1.838 -1.539 4.008
 1.851 -1.528 3.969
 1.858 -1.513 3.917
 1.87 -1.502 3.879
 1.878 -1.489 3.833
 1.876 -1.468 3.767
 0 0 0
 0 0 0
 0 0 0
 0 0 0
 0 0 0
 1.75 -1.27 3.196
 1.769 -1.268 3.181
 1.774 -1.257 3.142
 1.782 -1.247 3.107
 1.79 -1.238 3.074
 1.795 -1.228 3.037
 1.761 -1.191 2.934
 1.829 -1.223 3.003
 -2.395 -1.59 4.084
 -2.392 -1.607 4.141
 -1.416 -0.963 2.484
 -1.397 -0.962 2.488
 -1.375 -0.959 2.487
 -1.355 -0.956 2.488
 -1.337 -0.955 2.493
 -1.319 -0.954 2.499
 -1.389 -1.018 2.674
 -1.542 -1.144 3.017
 -1.608 -1.209 3.199
 -1.668 -1.271 3.372
 -1.729 -1.335 3.554
 -1.787 -1.399 3.733
 -1.762 -1.398 3.742
 -1.735 -1.396 3.747
 -1.789 -1.461 3.931
 -1.839 -1.523 4.109
 -1.813 -1.524 4.121
 -1.786 -1.524 4.13
 -1.831 -1.585 4.308
 -1.8 -1.583 4.312
 -1.769 -1.58 4.313
 -1.738 -1.577 4.313
 -1.707 -1.573 4.313
 -1.678 -1.573 4.32
 -1.649 -1.571 4.324
 -1.62 -1.569 4.328
 -1.59 -1.567 4.332
 -1.562 -1.566 4.337
 -1.531 -1.563 4.336
 -1.502 -1.561 4.338
 -1.472 -1.558 4.338
 -1.441 -1.554 4.336
 -1.412 -1.552 4.336
 -1.383 -1.55 4.337
 -1.354 -1.548 4.338
 -1.325 -1.545 4.338
 -1.296 -1.543 4.339
 -1.267 -1.541 4.339
 -1.239 -1.539 4.34
 -1.21 -1.536 4.339
 -1.181 -1.533 4.336
 -1.153 -1.532 4.337
 -1.124 -1.529 4.334
 -1.096 -1.527 4.334
 -1.067 -1.524 4.331
 -1.039 -1.522 4.331
 -1.01 -1.518 4.325
 -0.982 -1.515 4.321
 -0.953 -1.512 4.316
 -0.926 -1.51 4.317
 -0.899 -1.509 4.318
 -0.872 -1.509 4.32
 -0.845 -1.507 4.319
 -0.818 -1.505 4.317
 -0.791 -1.504 4.318
 -0.764 -1.501 4.314
 -0.737 -1.5 4.313
 -0.71 -1.499 4.314
 -0.684 -1.498 4.315
 -0.657 -1.496 4.312
 -0.631 -1.496 4.314
 -0.604 -1.495 4.313
 -0.578 -1.494 4.313
 -0.552 -1.493 4.314
 -0.526 -1.492 4.314
 -0.499 -1.491 4.312
 -0.473 -1.489 4.309
 -0.446 -1.488 4.307
 -0.42 -1.485 4.3
 -0.394 -1.484 4.299
 -0.368 -1.483 4.297
 -0.342 -1.482 4.298
 -0.316 -1.483 4.299
 -0.291 -1.483 4.302
 -0.265 -1.482 4.299
 -0.239 -1.482 4.299
 -0.213 -1.481 4.298
 -0.187 -1.479 4.293
 -0.162 -1.479 4.294
 -0.136 -1.48 4.296
 -0.11 -1.479 4.295
 -0.085 -1.478 4.293
 -0.059 -1.48 4.298
 -0.033 -1.479 4.294
 -0.008 -1.478 4.291
 0.017 -1.477 4.289
 0.042 -1.477 4.289
 0.068 -1.475 4.281
 0.093 -1.475 4.28
 0.119 -1.476 4.282
 0.144 -1.475 4.278
 0.17 -1.476 4.279
 0.195 -1.476 4.279
 0.221 -1.477 4.28
 0.247 -1.477 4.279
 0.272 -1.479 4.282
 0.298 -1.48 4.284
 0.324 -1.481 4.285
 0.35 -1.481 4.283
 0.375 -1.481 4.281
 0.401 -1.48 4.276
 0.426 -1.479 4.271
 0.452 -1.48 4.27
 0.477 -1.481 4.271
 0.503 -1.482 4.272
 0.529 -1.483 4.27
 0.555 -1.483 4.268
 0.581 -1.484 4.267
 0.606 -1.484 4.265
 0.632 -1.485 4.263
 0.658 -1.486 4.263
 0.684 -1.487 4.263
 0.71 -1.487 4.26
 0.736 -1.488 4.258
 0.763 -1.49 4.258
 0.789 -1.491 4.258
 0.816 -1.493 4.257
 0.842 -1.494 4.257
 0.869 -1.496 4.257
 0.894 -1.495 4.25
 0.921 -1.496 4.249
 0.947 -1.498 4.248
 0.974 -1.499 4.246
 1.001 -1.501 4.246
 1.03 -1.505 4.253
 1.057 -1.507 4.252
 1.085 -1.51 4.253
 1.112 -1.512 4.254
 1.14 -1.514 4.254
 1.166 -1.515 4.249
 1.194 -1.516 4.247
 1.22 -1.517 4.241
 1.248 -1.52 4.242
 1.277 -1.522 4.242
 1.305 -1.526 4.244
 1.334 -1.529 4.245
 1.363 -1.531 4.244
 1.39 -1.532 4.24
 1.417 -1.533 4.235
 1.445 -1.535 4.231
 1.474 -1.538 4.231
 1.504 -1.541 4.231
 1.533 -1.544 4.231
 1.564 -1.548 4.232
 1.593 -1.551 4.231
 1.621 -1.552 4.225
 1.649 -1.554 4.221
 1.677 -1.555 4.214
 1.704 -1.555 4.204
 1.731 -1.555 4.195
 1.758 -1.556 4.186
 1.781 -1.553 4.166
 1.802 -1.548 4.144
 1.818 -1.539 4.11
 1.833 -1.529 4.072
 1.843 -1.517 4.028
 1.859 -1.508 3.994
 1.866 -1.494 3.944
 1.88 -1.484 3.908
 1.888 -1.471 3.861
 0 0 0
 0 0 0
 0 0 0
 0 0 0
 0 0 0
 0 0 0
 1.743 -1.243 3.189
 1.767 -1.245 3.184
 1.775 -1.236 3.151
 1.785 -1.228 3.119
 1.797 -1.222 3.094
 1.805 -1.213 3.06
 1.837 -1.221 3.068
 0 0 0
 -0.05 -0.034 0.073
 -0.067 -0.045 0.103
 -0.972 -0.65 1.706
 -0.957 -0.648 1.705
 -0.941 -0.645 1.701
 -0.927 -0.643 1.703
 -0.913 -0.641 1.703
 -0.899 -0.639 1.703
 -0.974 -0.702 1.877
 -1.131 -0.825 2.215
 -1.202 -0.888 2.392
 -1.266 -0.948 2.562
 -1.331 -1.01 2.739
 -1.474 -1.134 3.085
 -1.533 -1.196 3.263
 -1.59 -1.257 3.44
 -1.724 -1.383 3.794
 -1.852 -1.507 4.147
 -1.824 -1.507 4.156
 -1.796 -1.506 4.163
 -1.841 -1.566 4.341
 -1.81 -1.564 4.345
 -1.779 -1.561 4.345
 -1.747 -1.557 4.346
 -1.715 -1.554 4.345
 -1.685 -1.552 4.348
 -1.654 -1.548 4.348
 -1.624 -1.546 4.35
 -1.594 -1.544 4.352
 -1.564 -1.541 4.353
 -1.534 -1.538 4.353
 -1.504 -1.536 4.354
 -1.474 -1.533 4.354
 -1.444 -1.531 4.354
 -1.415 -1.528 4.354
 -1.385 -1.526 4.354
 -1.355 -1.522 4.351
 -1.326 -1.519 4.349
 -1.296 -1.516 4.346
 -1.267 -1.513 4.346
 -1.238 -1.511 4.345
 -1.21 -1.51 4.347
 -1.18 -1.506 4.343
 -1.152 -1.505 4.344
 -1.123 -1.502 4.341
 -1.095 -1.499 4.339
 -1.067 -1.497 4.338
 -1.038 -1.494 4.336
 -1.01 -1.491 4.331
 -0.982 -1.489 4.328
 -0.953 -1.486 4.326
 -0.926 -1.484 4.323
 -0.898 -1.482 4.322
 -0.871 -1.481 4.324
 -0.844 -1.479 4.323
 -0.817 -1.478 4.322
 -0.791 -1.477 4.324
 -0.764 -1.475 4.323
 -0.737 -1.474 4.322
 -0.71 -1.473 4.322
 -0.683 -1.472 4.321
 -0.657 -1.47 4.319
 -0.63 -1.469 4.32
 -0.604 -1.468 4.319
 -0.577 -1.467 4.318
 -0.552 -1.467 4.322
 -0.525 -1.465 4.318
 -0.499 -1.464 4.317
 -0.472 -1.462 4.313
 -0.446 -1.461 4.31
 -0.419 -1.457 4.302
 -0.393 -1.456 4.299
 -0.367 -1.455 4.298
 -0.341 -1.455 4.301
 -0.316 -1.456 4.305
 -0.29 -1.457 4.307
 -0.264 -1.456 4.305
 -0.239 -1.455 4.305
 -0.213 -1.454 4.303
 -0.187 -1.452 4.296
 -0.161 -1.451 4.296
 -0.136 -1.453 4.299
 -0.11 -1.452 4.297
 -0.084 -1.451 4.294
 -0.059 -1.452 4.299
 -0.033 -1.451 4.296
 -0.008 -1.45 4.292
 0.017 -1.449 4.29
 0.042 -1.45 4.289
 0.068 -1.447 4.282
 0.093 -1.447 4.282
 0.119 -1.448 4.282
 0.144 -1.448 4.28
 0.17 -1.449 4.282
 0.195 -1.449 4.282
 0.221 -1.449 4.28
 0.246 -1.449 4.281
 0.272 -1.451 4.282
 0.298 -1.452 4.284
 0.324 -1.453 4.285
 0.349 -1.454 4.286
 0.375 -1.454 4.283
 0.4 -1.453 4.279
 0.425 -1.452 4.273
 0.451 -1.452 4.273
 0.477 -1.454 4.275
 0.503 -1.455 4.275
 0.529 -1.456 4.274
 0.555 -1.457 4.273
 0.58 -1.456 4.27
 0.606 -1.456 4.267
 0.632 -1.457 4.265
 0.657 -1.458 4.263
 0.683 -1.458 4.261
 0.71 -1.46 4.262
 0.736 -1.461 4.263
 0.762 -1.462 4.26
 0.789 -1.464 4.263
 0.815 -1.465 4.261
 0.841 -1.466 4.259
 0.868 -1.468 4.259
 0.894 -1.468 4.256
 0.92 -1.47 4.254
 0.947 -1.472 4.255
 0.974 -1.473 4.255
 1.001 -1.475 4.253
 1.03 -1.479 4.26
 1.056 -1.48 4.257
 1.084 -1.483 4.259
 1.111 -1.485 4.258
 1.139 -1.487 4.258
 1.166 -1.488 4.254
 1.193 -1.49 4.253
 1.22 -1.49 4.248
 1.248 -1.493 4.25
 1.277 -1.496 4.25
 1.304 -1.498 4.248
 1.333 -1.501 4.249
 1.361 -1.503 4.247
 1.389 -1.504 4.243
 1.416 -1.505 4.237
 1.444 -1.507 4.236
 1.473 -1.509 4.234
 1.502 -1.513 4.234
 1.532 -1.516 4.234
 1.562 -1.52 4.236
 1.592 -1.523 4.235
 1.62 -1.524 4.23
 1.649 -1.526 4.227
 1.677 -1.528 4.222
 1.705 -1.529 4.214
 1.732 -1.53 4.207
 1.76 -1.531 4.2
 1.781 -1.526 4.175
 1.804 -1.523 4.157
 1.822 -1.515 4.126
 1.836 -1.506 4.088
 1.85 -1.496 4.05
 1.871 -1.492 4.029
 1.88 -1.478 3.981
 1.898 -1.472 3.954
 0 0 0
 0 0 0
 0 0 0
 0 0 0
 0 0 0
 0 0 0
 0 0 0
 1.257 -0.881 2.303
 1.618 -1.121 2.922
 1.787 -1.222 3.178
 1.797 -1.215 3.148
 1.811 -1.21 3.125
 1.821 -1.203 3.095
 0 0 0
 0 0 0
 -0.058 -0.039 0.087
 -0.085 -0.056 0.135
 -0.53 -0.349 0.925
 -0.519 -0.346 0.92
 -0.506 -0.342 0.912
 -0.496 -0.339 0.907
 -0.486 -0.336 0.903
 -0.475 -0.332 0.896
 -0.553 -0.392 1.062
 -0.714 -0.512 1.397
 -0.79 -0.574 1.571
 -0.859 -0.632 1.737
 -1.012 -0.755 2.083
 -1.24 -0.937 2.598
 -1.302 -0.997 2.774
 -1.44 -1.119 3.122
 -1.654 -1.303 3.648
 -1.782 -1.424 3.998
 -1.754 -1.423 4.003
 -1.802 -1.483 4.184
 -1.845 -1.542 4.361
 -1.815 -1.54 4.366
 -1.783 -1.537 4.366
 -1.752 -1.534 4.367
 -1.72 -1.53 4.365
 -1.688 -1.527 4.364
 -1.657 -1.523 4.363
 -1.627 -1.521 4.365
 -1.595 -1.518 4.363
 -1.565 -1.514 4.363
 -1.533 -1.511 4.36
 -1.503 -1.508 4.359
 -1.472 -1.504 4.357
 -1.443 -1.503 4.359
 -1.414 -1.5 4.36
 -1.385 -1.498 4.361
 -1.354 -1.494 4.357
 -1.325 -1.491 4.354
 -1.295 -1.488 4.352
 -1.265 -1.485 4.35
 -1.236 -1.483 4.348
 -1.208 -1.481 4.35
 -1.179 -1.478 4.347
 -1.15 -1.475 4.345
 -1.122 -1.473 4.343
 -1.093 -1.47 4.341
 -1.065 -1.468 4.338
 -1.037 -1.466 4.339
 -1.009 -1.464 4.337
 -0.981 -1.462 4.335
 -0.953 -1.459 4.331
 -0.925 -1.457 4.329
 -0.897 -1.454 4.324
 -0.87 -1.453 4.327
 -0.843 -1.452 4.327
 -0.817 -1.451 4.329
 -0.79 -1.45 4.328
 -0.763 -1.448 4.326
 -0.736 -1.446 4.324
 -0.709 -1.444 4.321
 -0.682 -1.443 4.32
 -0.656 -1.443 4.323
 -0.63 -1.442 4.323
 -0.603 -1.44 4.321
 -0.577 -1.439 4.321
 -0.551 -1.439 4.322
 -0.524 -1.437 4.318
 -0.498 -1.436 4.316
 -0.471 -1.435 4.315
 -0.445 -1.433 4.312
 -0.419 -1.43 4.306
 -0.393 -1.429 4.304
 -0.367 -1.429 4.305
 -0.341 -1.429 4.307
 -0.316 -1.429 4.309
 -0.29 -1.429 4.309
 -0.264 -1.428 4.306
 -0.238 -1.427 4.305
 -0.212 -1.426 4.303
 -0.187 -1.425 4.3
 -0.161 -1.425 4.299
 -0.135 -1.425 4.301
 -0.11 -1.424 4.297
 -0.084 -1.423 4.295
 -0.059 -1.423 4.296
 -0.033 -1.422 4.292
 -0.007 -1.421 4.288
 0.017 -1.42 4.286
 0.042 -1.419 4.282
 0.068 -1.418 4.278
 0.093 -1.419 4.28
 0.119 -1.419 4.281
 0.144 -1.42 4.282
 0.17 -1.423 4.289
 0.195 -1.422 4.285
 0.221 -1.421 4.279
 0.246 -1.421 4.278
 0.272 -1.421 4.279
 0.297 -1.422 4.279
 0.323 -1.424 4.284
 0.349 -1.426 4.288
 0.375 -1.427 4.288
 0.4 -1.427 4.286
 0.426 -1.427 4.283
 0.452 -1.428 4.282
 0.478 -1.429 4.284
 0.503 -1.43 4.283
 0.529 -1.43 4.281
 0.555 -1.43 4.279
 0.58 -1.429 4.273
 0.605 -1.429 4.268
 0.631 -1.43 4.268
 0.657 -1.43 4.265
 0.682 -1.43 4.262
 0.709 -1.433 4.267
 0.736 -1.435 4.268
 0.762 -1.436 4.266
 0.788 -1.438 4.267
 0.815 -1.439 4.267
 0.841 -1.44 4.265
 0.867 -1.441 4.262
 0.893 -1.441 4.258
 0.919 -1.442 4.256
 0.946 -1.444 4.256
 0.973 -1.445 4.256
 1 -1.447 4.255
 1.029 -1.451 4.262
 1.055 -1.452 4.259
 1.083 -1.455 4.262
 1.11 -1.457 4.262
 1.138 -1.459 4.261
 1.165 -1.46 4.258
 1.193 -1.463 4.26
 1.22 -1.464 4.255
 1.248 -1.466 4.255
 1.276 -1.469 4.256
 1.303 -1.47 4.252
 1.332 -1.472 4.252
 1.359 -1.474 4.249
 1.387 -1.476 4.246
 1.414 -1.477 4.241
 1.443 -1.48 4.241
 1.472 -1.482 4.239
 1.502 -1.485 4.241
 1.531 -1.488 4.239
 1.561 -1.491 4.24
 1.59 -1.494 4.24
 1.619 -1.496 4.236
 1.648 -1.499 4.233
 1.677 -1.5 4.228
 1.705 -1.502 4.222
 1.732 -1.503 4.215
 1.76 -1.504 4.207
 1.781 -1.499 4.184
 1.805 -1.497 4.168
 1.826 -1.492 4.143
 1.841 -1.483 4.107
 1.855 -1.473 4.069
 1.876 -1.469 4.048
 1.881 -1.453 3.992
 0 0 0
 0 0 0
 0 0 0
 0 0 0
 0 0 0
 0.06 -0.047 0.11
 0.061 -0.047 0.109
 0.062 -0.047 0.109
 1.02 -0.703 1.871
 1.585 -1.079 2.869
 1.79 -1.203 3.191
 1.804 -1.198 3.167
 1.822 -1.196 3.151
 1.7 -1.104 2.895
 0 0 0
 0 0 0
 -0.091 -0.058 0.143
 -0.113 -0.074 0.186
 -0.078 -0.051 0.125
 -0.07 -0.047 0.114
 -0.062 -0.043 0.101
 -0.057 -0.04 0.094
 -0.05 -0.035 0.082
 -0.044 -0.031 0.071
 -0.127 -0.09 0.235
 -0.291 -0.206 0.564
 -0.371 -0.265 0.733
 -0.444 -0.322 0.895
 -0.684 -0.501 1.407
 -0.916 -0.68 1.921
 -1.064 -0.801 2.27
 -1.286 -0.981 2.792
 -1.582 -1.224 3.495
 -1.711 -1.343 3.847
 -1.759 -1.401 4.022
 -1.805 -1.459 4.2
 -1.848 -1.517 4.377
 -1.816 -1.513 4.376
 -1.784 -1.51 4.376
 -1.752 -1.507 4.377
 -1.721 -1.503 4.376
 -1.688 -1.499 4.373
 -1.657 -1.496 4.372
 -1.626 -1.493 4.373
 -1.595 -1.49 4.371
 -1.564 -1.486 4.369
 -1.532 -1.482 4.365
 -1.501 -1.479 4.363
 -1.471 -1.476 4.362
 -1.442 -1.474 4.364
 -1.412 -1.472 4.364
 -1.383 -1.47 4.365
 -1.353 -1.466 4.361
 -1.323 -1.463 4.358
 -1.294 -1.461 4.358
 -1.265 -1.458 4.355
 -1.236 -1.456 4.356
 -1.208 -1.454 4.357
 -1.179 -1.451 4.354
 -1.149 -1.447 4.349
 -1.12 -1.445 4.346
 -1.091 -1.441 4.339
 -1.063 -1.439 4.338
 -1.035 -1.437 4.336
 -1.007 -1.435 4.337
 -0.98 -1.434 4.338
 -0.953 -1.433 4.339
 -0.925 -1.43 4.335
 -0.898 -1.429 4.335
 -0.871 -1.428 4.337
 -0.844 -1.426 4.336
 -0.817 -1.425 4.335
 -0.79 -1.423 4.334
 -0.762 -1.421 4.332
 -0.735 -1.419 4.329
 -0.708 -1.418 4.327
 -0.682 -1.416 4.326
 -0.656 -1.416 4.329
 -0.629 -1.416 4.33
 -0.603 -1.414 4.327
 -0.576 -1.413 4.326
 -0.55 -1.413 4.328
 -0.524 -1.411 4.324
 -0.497 -1.408 4.319
 -0.471 -1.408 4.319
 -0.445 -1.406 4.316
 -0.418 -1.404 4.31
 -0.392 -1.402 4.307
 -0.367 -1.403 4.311
 -0.341 -1.403 4.313
 -0.315 -1.403 4.314
 -0.289 -1.403 4.314
 -0.264 -1.401 4.311
 -0.238 -1.401 4.31
 -0.212 -1.4 4.307
 -0.186 -1.398 4.303
 -0.161 -1.397 4.3
 -0.135 -1.398 4.302
 -0.109 -1.396 4.298
 -0.084 -1.395 4.295
 -0.058 -1.395 4.295
 -0.033 -1.395 4.293
 -0.007 -1.393 4.287
 0.017 -1.392 4.285
 0.043 -1.391 4.282
 0.068 -1.391 4.28
 0.093 -1.393 4.284
 0.119 -1.393 4.286
 0.144 -1.395 4.289
 0.17 -1.398 4.297
 0.196 -1.397 4.293
 0.221 -1.395 4.286
 0.246 -1.395 4.285
 0.272 -1.396 4.285
 0.297 -1.396 4.285
 0.323 -1.398 4.288
 0.349 -1.4 4.293
 0.375 -1.401 4.294
 0.401 -1.401 4.293
 0.426 -1.401 4.289
 0.452 -1.402 4.288
 0.478 -1.404 4.292
 0.503 -1.404 4.289
 0.529 -1.403 4.285
 0.555 -1.404 4.285
 0.58 -1.404 4.28
 0.605 -1.403 4.274
 0.631 -1.404 4.274
 0.657 -1.405 4.272
 0.682 -1.404 4.266
 0.709 -1.407 4.273
 0.736 -1.409 4.276
 0.762 -1.41 4.273
 0.789 -1.412 4.275
 0.815 -1.413 4.273
 0.841 -1.414 4.273
 0.867 -1.415 4.269
 0.893 -1.415 4.266
 0.919 -1.415 4.261
 0.946 -1.418 4.265
 0.972 -1.418 4.26
 0.999 -1.419 4.258
 1.027 -1.422 4.261
 1.053 -1.424 4.259
 1.081 -1.426 4.26
 1.108 -1.428 4.26
 1.136 -1.43 4.26
 1.163 -1.431 4.258
 1.191 -1.434 4.26
 1.218 -1.435 4.255
 1.246 -1.438 4.256
 1.274 -1.44 4.256
 1.301 -1.441 4.251
 1.329 -1.443 4.251
 1.356 -1.444 4.247
 1.384 -1.445 4.243
 1.412 -1.447 4.24
 1.442 -1.451 4.243
 1.47 -1.453 4.242
 1.501 -1.458 4.246
 1.53 -1.461 4.246
 1.559 -1.463 4.244
 1.588 -1.465 4.241
 1.617 -1.467 4.238
 1.645 -1.469 4.232
 1.673 -1.471 4.228
 1.702 -1.472 4.223
 1.73 -1.473 4.217
 1.759 -1.476 4.213
 1.782 -1.472 4.193
 1.806 -1.471 4.178
 1.828 -1.467 4.157
 1.845 -1.459 4.124
 1.858 -1.449 4.084
 1.882 -1.447 4.068
 0 0 0
 0 0 0
 0 0 0
 0 0 0
 0 0 0
 0.117 -0.086 0.223
 0.106 -0.078 0.199
 0.098 -0.071 0.18
 0.085 -0.062 0.153
 0.798 -0.541 1.466
 1.575 -1.052 2.855
 1.808 -1.193 3.23
 1.821 -1.188 3.204
 1.842 -1.187 3.192
 1.509 -0.962 2.574
 0 0 0
 0 0 0
 -0.141 -0.088 0.23
 -0.103 -0.066 0.168
 -0.092 -0.06 0.151
 -0.085 -0.056 0.141
 -0.078 -0.052 0.13
 -0.07 -0.047 0.117
 -0.061 -0.042 0.102
 -0.054 -0.037 0.09
 -0.046 -0.033 0.077
 -0.123 -0.086 0.231
 -0.204 -0.144 0.397
 -0.194 -0.138 0.383
 -0.435 -0.314 0.893
 -0.754 -0.55 1.582
 -0.984 -0.727 2.103
 -1.207 -0.905 2.626
 -1.583 -1.202 3.505
 -1.712 -1.319 3.857
 -1.759 -1.376 4.032
 -1.806 -1.433 4.21
 -1.849 -1.489 4.387
 -1.816 -1.485 4.385
 -1.784 -1.482 4.385
 -1.752 -1.479 4.385
 -1.72 -1.475 4.383
 -1.686 -1.47 4.377
 -1.656 -1.468 4.378
 -1.624 -1.464 4.376
 -1.593 -1.461 4.374
 -1.562 -1.458 4.373
 -1.531 -1.454 4.371
 -1.499 -1.45 4.365
 -1.469 -1.447 4.364
 -1.44 -1.445 4.365
 -1.41 -1.442 4.364
 -1.381 -1.441 4.367
 -1.352 -1.438 4.365
 -1.321 -1.434 4.361
 -1.293 -1.432 4.361
 -1.262 -1.428 4.355
 -1.233 -1.425 4.352
 -1.206 -1.425 4.357
 -1.178 -1.423 4.358
 -1.148 -1.42 4.352
 -1.12 -1.418 4.354
 -1.091 -1.415 4.35
 -1.062 -1.412 4.345
 -1.034 -1.41 4.342
 -1.007 -1.408 4.343
 -0.98 -1.407 4.344
 -0.953 -1.406 4.346
 -0.924 -1.404 4.342
 -0.897 -1.402 4.341
 -0.87 -1.401 4.343
 -0.843 -1.399 4.34
 -0.816 -1.398 4.34
 -0.789 -1.396 4.337
 -0.761 -1.394 4.334
 -0.735 -1.392 4.333
 -0.708 -1.391 4.332
 -0.681 -1.389 4.328
 -0.655 -1.39 4.334
 -0.629 -1.389 4.336
 -0.602 -1.386 4.328
 -0.576 -1.385 4.329
 -0.55 -1.386 4.332
 -0.523 -1.384 4.328
 -0.496 -1.381 4.323
 -0.471 -1.381 4.324
 -0.444 -1.38 4.321
 -0.418 -1.378 4.316
 -0.391 -1.374 4.307
 -0.366 -1.376 4.313
 -0.34 -1.375 4.311
 -0.314 -1.374 4.312
 -0.289 -1.374 4.31
 -0.263 -1.374 4.312
 -0.237 -1.373 4.31
 -0.212 -1.373 4.309
 -0.186 -1.371 4.306
 -0.16 -1.371 4.304
 -0.135 -1.371 4.306
 -0.109 -1.369 4.3
 -0.084 -1.369 4.299
 -0.058 -1.369 4.299
 -0.033 -1.369 4.299
 -0.007 -1.367 4.292
 0.017 -1.366 4.291
 0.043 -1.365 4.285
 0.068 -1.365 4.285
 0.094 -1.367 4.289
 0.119 -1.367 4.288
 0.145 -1.368 4.293
 0.17 -1.372 4.303
 0.196 -1.37 4.296
 0.221 -1.368 4.288
 0.246 -1.369 4.289
 0.272 -1.368 4.286
 0.297 -1.369 4.286
 0.323 -1.371 4.289
 0.349 -1.373 4.294
 0.375 -1.374 4.295
 0.4 -1.374 4.295
 0.426 -1.374 4.291
 0.451 -1.374 4.289
 0.477 -1.376 4.294
 0.503 -1.377 4.293
 0.529 -1.377 4.29
 0.555 -1.378 4.291
 0.58 -1.378 4.286
 0.605 -1.377 4.28
 0.631 -1.377 4.278
 0.657 -1.378 4.276
 0.682 -1.377 4.269
 0.709 -1.381 4.278
 0.736 -1.383 4.282
 0.762 -1.384 4.28
 0.789 -1.386 4.282
 0.815 -1.387 4.279
 0.841 -1.388 4.28
 0.867 -1.388 4.274
 0.893 -1.39 4.274
 0.919 -1.389 4.268
 0.946 -1.391 4.268
 0.971 -1.39 4.262
 0.998 -1.392 4.26
 1.025 -1.394 4.26
 1.051 -1.395 4.257
 1.079 -1.398 4.261
 1.107 -1.4 4.261
 1.134 -1.401 4.26
 1.161 -1.403 4.258
 1.189 -1.405 4.259
 1.216 -1.406 4.255
 1.243 -1.408 4.253
 1.271 -1.41 4.254
 1.298 -1.411 4.249
 1.326 -1.413 4.249
 1.353 -1.415 4.245
 1.382 -1.417 4.245
 1.41 -1.419 4.243
 1.441 -1.424 4.248
 1.469 -1.426 4.247
 1.499 -1.429 4.248
 1.528 -1.432 4.248
 1.557 -1.434 4.246
 1.585 -1.436 4.242
 1.614 -1.438 4.239
 1.643 -1.44 4.236
 1.671 -1.442 4.23
 1.699 -1.443 4.225
 1.728 -1.445 4.219
 1.76 -1.449 4.223
 1.784 -1.447 4.206
 1.811 -1.448 4.197
 1.836 -1.447 4.183
 1.862 -1.446 4.171
 1.869 -1.431 4.116
 0 0 0
 0 0 0
 0 0 0
 0 0 0
 0 0 0
 0 0 0
 0.12 -0.087 0.23
 0.111 -0.08 0.209
 0.105 -0.075 0.193
 0.096 -0.068 0.173
 0.571 -0.381 1.049
 1.509 -0.99 2.742
 1.824 -1.182 3.266
 1.846 -1.182 3.254
 1.867 -1.181 3.242
 1.317 -0.825 2.251
 0 0 0
 0.475 -0.293 0.783
 -0.117 -0.072 0.189
 -0.097 -0.061 0.157
 -0.101 -0.064 0.167
 -0.091 -0.059 0.152
 -0.083 -0.054 0.14
 -0.074 -0.049 0.125
 -0.064 -0.043 0.108
 -0.055 -0.038 0.094
 -0.136 -0.092 0.252
 -0.125 -0.086 0.234
 -0.203 -0.14 0.396
 -0.192 -0.135 0.382
 -0.35 -0.248 0.717
 -0.589 -0.422 1.235
 -0.903 -0.655 1.932
 -1.208 -0.888 2.632
 -1.583 -1.18 3.513
 -1.791 -1.354 4.043
 -1.835 -1.408 4.215
 -1.879 -1.463 4.391
 -1.846 -1.46 4.39
 -1.813 -1.455 4.387
 -1.781 -1.452 4.387
 -1.75 -1.449 4.388
 -1.718 -1.446 4.387
 -1.685 -1.441 4.381
 -1.654 -1.439 4.383
 -1.623 -1.436 4.382
 -1.592 -1.432 4.379
 -1.561 -1.429 4.379
 -1.53 -1.426 4.376
 -1.498 -1.422 4.37
 -1.467 -1.418 4.368
 -1.438 -1.416 4.369
 -1.409 -1.414 4.369
 -1.381 -1.413 4.373
 -1.352 -1.411 4.373
 -1.322 -1.408 4.37
 -1.293 -1.405 4.369
 -1.261 -1.4 4.36
 -1.232 -1.398 4.357
 -1.205 -1.397 4.361
 -1.177 -1.396 4.363
 -1.147 -1.392 4.356
 -1.12 -1.391 4.36
 -1.091 -1.388 4.356
 -1.061 -1.384 4.349
 -1.034 -1.383 4.348
 -1.007 -1.382 4.35
 -0.98 -1.381 4.353
 -0.953 -1.381 4.356
 -0.925 -1.378 4.351
 -0.897 -1.376 4.349
 -0.87 -1.375 4.351
 -0.843 -1.373 4.348
 -0.816 -1.372 4.347
 -0.788 -1.369 4.343
 -0.761 -1.368 4.341
 -0.734 -1.366 4.339
 -0.708 -1.365 4.338
 -0.68 -1.362 4.332
 -0.655 -1.363 4.34
 -0.628 -1.361 4.336
 -0.601 -1.358 4.328
 -0.574 -1.357 4.327
 -0.549 -1.358 4.333
 -0.522 -1.356 4.328
 -0.496 -1.354 4.325
 -0.47 -1.355 4.328
 -0.444 -1.353 4.325
 -0.418 -1.352 4.323
 -0.391 -1.347 4.309
 -0.365 -1.348 4.315
 -0.34 -1.348 4.314
 -0.314 -1.348 4.315
 -0.288 -1.346 4.311
 -0.263 -1.347 4.314
 -0.237 -1.345 4.31
 -0.211 -1.345 4.309
 -0.186 -1.344 4.307
 -0.16 -1.343 4.305
 -0.134 -1.343 4.306
 -0.109 -1.342 4.303
 -0.083 -1.343 4.305
 -0.058 -1.343 4.303
 -0.032 -1.343 4.304
 -0.007 -1.341 4.298
 0.017 -1.341 4.296
 0.043 -1.337 4.284
 0.068 -1.338 4.288
 0.094 -1.341 4.294
 0.119 -1.341 4.295
 0.145 -1.344 4.304
 0.171 -1.348 4.315
 0.196 -1.344 4.301
 0.221 -1.341 4.29
 0.246 -1.341 4.288
 0.271 -1.339 4.281
 0.296 -1.34 4.281
 0.323 -1.343 4.289
 0.349 -1.345 4.295
 0.374 -1.347 4.298
 0.4 -1.349 4.301
 0.426 -1.349 4.301
 0.452 -1.35 4.3
 0.478 -1.352 4.306
 0.504 -1.353 4.306
 0.53 -1.353 4.303
 0.555 -1.353 4.3
 0.58 -1.352 4.292
 0.605 -1.35 4.282
 0.63 -1.35 4.279
 0.656 -1.35 4.277
 0.681 -1.349 4.269
 0.709 -1.355 4.285
 0.736 -1.358 4.29
 0.763 -1.36 4.292
 0.79 -1.362 4.294
 0.816 -1.362 4.291
 0.842 -1.363 4.287
 0.867 -1.362 4.282
 0.893 -1.363 4.277
 0.918 -1.361 4.268
 0.944 -1.363 4.268
 0.97 -1.363 4.264
 0.997 -1.364 4.261
 1.023 -1.366 4.261
 1.05 -1.366 4.257
 1.078 -1.369 4.261
 1.105 -1.371 4.26
 1.132 -1.373 4.26
 1.159 -1.375 4.259
 1.188 -1.377 4.261
 1.214 -1.378 4.256
 1.241 -1.379 4.254
 1.268 -1.381 4.251
 1.295 -1.381 4.245
 1.323 -1.383 4.245
 1.351 -1.385 4.243
 1.38 -1.389 4.246
 1.408 -1.391 4.245
 1.439 -1.396 4.251
 1.468 -1.398 4.251
 1.497 -1.401 4.249
 1.525 -1.403 4.247
 1.554 -1.405 4.245
 1.582 -1.406 4.241
 1.611 -1.408 4.237
 1.64 -1.411 4.235
 1.668 -1.412 4.231
 1.697 -1.414 4.227
 1.726 -1.416 4.222
 1.758 -1.421 4.226
 1.783 -1.419 4.211
 1.811 -1.421 4.205
 1.839 -1.422 4.198
 1.868 -1.424 4.193
 0 0 0
 0 0 0
 0 0 0
 0 0 0
 0 0 0
 0 0 0
 0 0 0
 0.12 -0.086 0.231
 0.111 -0.079 0.209
 0.105 -0.073 0.194
 0.096 -0.066 0.173
 0.377 -0.248 0.692
 1.381 -0.89 2.514
 0 0 0
 0 0 0
 0 0 0
 1.182 -0.727 2.024
 0 0 0
 0.433 -0.263 0.715
 -0.116 -0.07 0.189
 -0.119 -0.073 0.197
 -0.104 -0.065 0.174
 -0.095 -0.06 0.159
 -0.085 -0.054 0.143
 -0.074 -0.048 0.125
 -0.062 -0.041 0.105
 -0.052 -0.035 0.087
 -0.131 -0.087 0.244
 -0.122 -0.083 0.231
 -0.286 -0.194 0.565
 -0.358 -0.246 0.724
 -0.515 -0.357 1.063
 -0.751 -0.527 1.582
 -1.063 -0.756 2.281
 -1.285 -0.927 2.807
 -1.581 -1.156 3.516
 -1.788 -1.326 4.046
 -1.834 -1.38 4.22
 -1.877 -1.434 4.396
 -1.845 -1.43 4.395
 -1.811 -1.426 4.391
 -1.78 -1.423 4.392
 -1.748 -1.42 4.392
 -1.717 -1.417 4.391
 -1.684 -1.413 4.388
 -1.653 -1.41 4.388
 -1.621 -1.407 4.384
 -1.59 -1.403 4.382
 -1.559 -1.401 4.382
 -1.527 -1.396 4.374
 -1.495 -1.392 4.369
 -1.464 -1.388 4.366
 -1.435 -1.386 4.368
 -1.405 -1.384 4.366
 -1.379 -1.384 4.375
 -1.351 -1.383 4.378
 -1.321 -1.381 4.377
 -1.292 -1.378 4.375
 -1.26 -1.373 4.365
 -1.23 -1.369 4.36
 -1.203 -1.369 4.363
 -1.176 -1.368 4.367
 -1.146 -1.365 4.362
 -1.12 -1.365 4.367
 -1.091 -1.362 4.363
 -1.06 -1.357 4.352
 -1.032 -1.355 4.35
 -1.005 -1.354 4.352
 -0.979 -1.354 4.359
 -0.953 -1.354 4.362
 -0.924 -1.351 4.356
 -0.897 -1.35 4.358
 -0.871 -1.35 4.36
 -0.842 -1.346 4.351
 -0.815 -1.345 4.352
 -0.787 -1.342 4.345
 -0.76 -1.34 4.342
 -0.733 -1.337 4.337
 -0.706 -1.336 4.338
 -0.679 -1.333 4.331
 -0.655 -1.338 4.348
 -0.627 -1.334 4.337
 -0.599 -1.329 4.324
 -0.573 -1.328 4.325
 -0.547 -1.328 4.325
 -0.521 -1.326 4.323
 -0.494 -1.325 4.32
 -0.47 -1.328 4.331
 -0.443 -1.326 4.326
 -0.418 -1.329 4.338
 -0.39 -1.32 4.312
 -0.365 -1.322 4.319
 -0.339 -1.32 4.313
 -0.313 -1.319 4.311
 -0.287 -1.317 4.307
 -0.262 -1.318 4.309
 -0.236 -1.316 4.304
 -0.211 -1.317 4.308
 -0.185 -1.317 4.309
 -0.16 -1.316 4.307
 -0.134 -1.316 4.307
 -0.109 -1.316 4.307
 -0.083 -1.315 4.304
 -0.058 -1.315 4.303
 -0.032 -1.315 4.305
 -0.007 -1.314 4.298
 0.018 -1.312 4.294
 0.043 -1.307 4.275
 0.068 -1.308 4.278
 0.093 -1.31 4.285
 0.119 -1.312 4.289
 0.145 -1.317 4.305
 0.171 -1.322 4.322
 0.195 -1.316 4.299
 0.22 -1.313 4.287
 0.245 -1.311 4.281
 0.27 -1.311 4.277
 0.296 -1.311 4.277
 0.322 -1.316 4.29
 0.348 -1.319 4.298
 0.375 -1.322 4.306
 0.401 -1.323 4.308
 0.427 -1.325 4.313
 0.453 -1.327 4.316
 0.479 -1.33 4.322
 0.506 -1.331 4.324
 0.531 -1.33 4.318
 0.556 -1.329 4.31
 0.58 -1.326 4.297
 0.604 -1.322 4.283
 0.629 -1.321 4.274
 0.655 -1.322 4.275
 0.679 -1.32 4.266
 0.71 -1.33 4.293
 0.737 -1.332 4.297
 0.765 -1.336 4.306
 0.79 -1.337 4.303
 0.817 -1.339 4.305
 0.843 -1.338 4.299
 0.868 -1.338 4.293
 0.893 -1.337 4.285
 0.917 -1.334 4.27
 0.942 -1.333 4.262
 0.968 -1.334 4.259
 0.995 -1.336 4.26
 1.022 -1.337 4.26
 1.048 -1.338 4.257
 1.077 -1.342 4.264
 1.104 -1.344 4.264
 1.131 -1.345 4.262
 1.158 -1.347 4.26
 1.185 -1.348 4.259
 1.211 -1.349 4.253
 1.238 -1.35 4.251
 1.266 -1.351 4.248
 1.293 -1.353 4.245
 1.322 -1.356 4.248
 1.349 -1.358 4.246
 1.379 -1.361 4.249
 1.408 -1.364 4.25
 1.438 -1.368 4.254
 1.467 -1.37 4.254
 1.496 -1.373 4.253
 1.523 -1.374 4.249
 1.552 -1.376 4.247
 1.58 -1.377 4.241
 1.608 -1.379 4.236
 1.636 -1.381 4.233
 1.665 -1.383 4.229
 1.693 -1.384 4.223
 1.722 -1.386 4.219
 1.754 -1.391 4.224
 1.782 -1.392 4.216
 1.81 -1.393 4.21
 1.841 -1.396 4.209
 1.875 -1.402 4.215
 0 0 0
 0 0 0
 0 0 0
 0 0 0
 0 0 0
 0 0 0
 0 0 0
 0.139 -0.097 0.268
 0.141 -0.097 0.267
 0.138 -0.093 0.256
 0.132 -0.088 0.242
 0 0 0
 0 0 0
 0 0 0
 0 0 0
 0 0 0
 0.82 -0.496 1.404
 0 0 0
 0 0 0
 -0.11 -0.066 0.178
 -0.103 -0.062 0.169
 -0.102 -0.063 0.171
 -0.091 -0.056 0.152
 -0.08 -0.05 0.135
 -0.067 -0.043 0.113
 -0.057 -0.037 0.095
 -0.047 -0.031 0.078
 -0.216 -0.14 0.411
 -0.206 -0.135 0.398
 -0.456 -0.302 0.911
 -0.61 -0.409 1.243
 -0.764 -0.519 1.585
 -0.915 -0.63 1.935
 -1.305 -0.91 2.81
 -1.444 -1.021 3.163
 -1.66 -1.19 3.698
 -1.866 -1.357 4.231
 -1.91 -1.409 4.403
 -1.877 -1.406 4.402
 -1.843 -1.402 4.4
 -1.81 -1.397 4.396
 -1.777 -1.394 4.395
 -1.746 -1.391 4.394
 -1.713 -1.387 4.392
 -1.682 -1.384 4.39
 -1.651 -1.381 4.39
 -1.618 -1.377 4.385
 -1.588 -1.375 4.386
 -1.558 -1.372 4.385
 -1.525 -1.367 4.377
 -1.493 -1.363 4.372
 -1.463 -1.361 4.371
 -1.433 -1.358 4.37
 -1.404 -1.356 4.371
 -1.379 -1.357 4.382
 -1.351 -1.357 4.386
 -1.322 -1.354 4.385
 -1.292 -1.352 4.383
 -1.26 -1.346 4.371
 -1.229 -1.342 4.364
 -1.203 -1.342 4.371
 -1.177 -1.343 4.379
 -1.148 -1.34 4.376
 -1.122 -1.341 4.382
 -1.092 -1.338 4.377
 -1.06 -1.33 4.359
 -1.03 -1.325 4.347
 -1.003 -1.325 4.351
 -0.977 -1.325 4.356
 -0.953 -1.329 4.372
 -0.924 -1.325 4.363
 -0.9 -1.328 4.377
 -0.745 -1.132 3.733
 -0.72 -1.129 3.726
 -0.695 -1.125 3.716
 -0.672 -1.124 3.715
 -0.626 -1.083 3.581
 0 0 0
 0 0 0
 0 0 0
 0 0 0
 0 0 0
 0 0 0
 0 0 0
 0 0 0
 0 0 0
 0 0 0
 0 0 0
 0 0 0
 0 0 0
 -0.387 -1.285 4.286
 -0.363 -1.29 4.303
 -0.338 -1.289 4.304
 -0.312 -1.289 4.305
 -0.287 -1.29 4.307
 -0.261 -1.291 4.311
 -0.236 -1.289 4.306
 -0.21 -1.29 4.31
 -0.185 -1.29 4.312
 -0.159 -1.29 4.31
 -0.134 -1.29 4.311
 -0.108 -1.29 4.312
 -0.083 -1.289 4.309
 -0.058 -1.289 4.308
 -0.032 -1.29 4.31
 -0.007 -1.289 4.307
 0.018 -1.29 4.31
 0 0 0
 0 0 0
 0 0 0
 0 0 0
 0 0 0
 0 0 0
 0 0 0
 0 0 0
 0 0 0
 0 0 0
 0 0 0
 0 0 0
 0 0 0
 0 0 0
 0 0 0
 0 0 0
 0 0 0
 0 0 0
 0 0 0
 0 0 0
 0 0 0
 0 0 0
 0 0 0
 0 0 0
 0 0 0
 0 0 0
 0 0 0
 0 0 0
 0 0 0
 0 0 0
 0 0 0
 0 0 0
 0 0 0
 0 0 0
 0 0 0
 0.942 -1.307 4.268
 0.968 -1.308 4.265
 0.995 -1.309 4.265
 1.021 -1.31 4.262
 1.047 -1.311 4.26
 1.075 -1.314 4.263
 1.102 -1.315 4.262
 1.129 -1.317 4.261
 1.156 -1.318 4.259
 1.182 -1.319 4.254
 1.209 -1.32 4.253
 1.236 -1.321 4.25
 1.263 -1.322 4.246
 1.29 -1.324 4.244
 1.32 -1.328 4.249
 1.347 -1.329 4.245
 1.377 -1.333 4.249
 1.406 -1.336 4.251
 1.435 -1.339 4.254
 1.464 -1.342 4.254
 1.492 -1.343 4.249
 1.521 -1.345 4.248
 1.55 -1.348 4.247
 1.577 -1.349 4.242
 1.605 -1.35 4.237
 1.634 -1.352 4.235
 1.662 -1.353 4.229
 1.69 -1.355 4.223
 1.719 -1.357 4.219
 1.752 -1.362 4.226
 1.78 -1.364 4.221
 1.811 -1.366 4.218
 1.843 -1.371 4.221
 1.882 -1.38 4.239
 0 0 0
 0 0 0
 0 0 0
 0 0 0
 0 0 0
 0 0 0
 0 0 0
 0.16 -0.109 0.311
 0.162 -0.109 0.309
 0 0 0
 0 0 0
 0 0 0
 0 0 0
 0 0 0
 0 0 0
 0 0 0
 0.815 -0.483 1.398
 0 0 0
 0 0 0
 -0.112 -0.065 0.182
 -0.102 -0.061 0.168
 -0.1 -0.06 0.167
 -0.089 -0.054 0.15
 -0.078 -0.048 0.131
 -0.065 -0.041 0.109
 -0.055 -0.035 0.092
 -0.044 -0.029 0.073
 -0.211 -0.134 0.403
 -0.289 -0.186 0.565
 -0.537 -0.348 1.078
 -0.775 -0.509 1.587
 -0.928 -0.617 1.933
 -1.16 -0.782 2.46
 -1.464 -1.001 3.16
 -1.602 -1.11 3.515
 -1.734 -1.218 3.871
 -1.94 -1.382 4.406
 -1.906 -1.379 4.404
 -1.873 -1.375 4.402
 -1.839 -1.37 4.396
 -1.806 -1.367 4.396
 -1.774 -1.363 4.394
 -1.743 -1.361 4.394
 -1.711 -1.358 4.394
 -1.68 -1.355 4.393
 -1.649 -1.352 4.393
 -1.617 -1.348 4.389
 -1.587 -1.346 4.389
 -1.556 -1.343 4.387
 -1.524 -1.339 4.381
 -1.492 -1.335 4.376
 -1.462 -1.332 4.375
 -1.431 -1.329 4.371
 -1.402 -1.327 4.372
 -1.376 -1.328 4.382
 -1.349 -1.328 4.389
 -1.32 -1.326 4.388
 -1.292 -1.325 4.39
 -1.257 -1.316 4.369
 -1.225 -1.311 4.356
 -1.201 -1.313 4.371
 -1.176 -1.315 4.382
 0 0 0
 0 0 0
 0 0 0
 0 0 0
 0 0 0
 0 0 0
 0 0 0
 0 0 0
 0 0 0
 0 0 0
 0 0 0
 0 0 0
 0 0 0
 0 0 0
 0 0 0
 0 0 0
 0 0 0
 0 0 0
 0 0 0
 0 0 0
 0 0 0
 0 0 0
 0 0 0
 0 0 0
 0 0 0
 0 0 0
 0 0 0
 0 0 0
 -0.387 -1.258 4.288
 -0.362 -1.262 4.302
 -0.337 -1.261 4.301
 -0.311 -1.261 4.302
 -0.286 -1.262 4.305
 -0.261 -1.263 4.309
 -0.235 -1.261 4.304
 -0.21 -1.263 4.311
 -0.185 -1.264 4.315
 -0.159 -1.263 4.311
 -0.134 -1.263 4.311
 -0.108 -1.263 4.313
 -0.083 -1.263 4.311
 -0.057 -1.262 4.308
 -0.032 -1.263 4.313
 -0.007 -1.264 4.314
 0.018 -1.266 4.322
 0 0 0
 0 0 0
 0 0 0
 0 0 0
 0 0 0
 0 0 0
 0 0 0
 0 0 0
 0 0 0
 0 0 0
 0 0 0
 0 0 0
 0 0 0
 0 0 0
 0 0 0
 0 0 0
 0 0 0
 0 0 0
 0 0 0
 0 0 0
 0 0 0
 0 0 0
 0 0 0
 0 0 0
 0 0 0
 0 0 0
 0 0 0
 0 0 0
 0 0 0
 0 0 0
 0 0 0
 0 0 0
 0 0 0
 0 0 0
 0 0 0
 0.94 -1.279 4.268
 0.967 -1.28 4.266
 0.993 -1.282 4.266
 1.02 -1.283 4.266
 1.046 -1.284 4.262
 1.074 -1.286 4.265
 1.101 -1.288 4.264
 1.128 -1.289 4.263
 1.155 -1.291 4.261
 1.181 -1.292 4.257
 1.208 -1.293 4.254
 1.235 -1.294 4.252
 1.261 -1.295 4.247
 1.288 -1.296 4.244
 1.318 -1.3 4.25
 1.346 -1.302 4.249
 1.376 -1.306 4.253
 1.404 -1.307 4.252
 1.433 -1.31 4.253
 1.461 -1.312 4.251
 1.488 -1.313 4.245
 1.516 -1.315 4.243
 1.547 -1.319 4.247
 1.575 -1.32 4.243
 1.603 -1.321 4.237
 1.632 -1.324 4.236
 1.66 -1.325 4.23
 1.687 -1.326 4.224
 1.717 -1.328 4.221
 1.75 -1.334 4.228
 1.778 -1.335 4.223
 1.808 -1.338 4.221
 1.84 -1.341 4.221
 1.877 -1.349 4.234
 0 0 0
 0 0 0
 0 0 0
 0 0 0
 0 0 0
 0 0 0
 0 0 0
 0 0 0
 0 0 0
 0 0 0
 0 0 0
 0 0 0
 0 0 0
 0 0 0
 0 0 0
 0 0 0
 0 0 0
 0.457 -0.264 0.77
 0 0 0
 -0.122 -0.07 0.201
 -0.133 -0.077 0.223
 -0.094 -0.056 0.157
 -0.083 -0.05 0.139
 -0.071 -0.043 0.119
 -0.059 -0.036 0.097
 -0.05 -0.031 0.082
 -0.039 -0.025 0.062
 -0.208 -0.13 0.397
 -0.287 -0.181 0.562
 -0.535 -0.34 1.076
 -0.858 -0.552 1.762
 -1.093 -0.712 2.285
 -1.322 -0.873 2.811
 -1.624 -1.087 3.513
 -1.759 -1.194 3.87
 -1.805 -1.242 4.037
 -1.939 -1.354 4.413
 -1.905 -1.35 4.41
 -1.87 -1.345 4.402
 -1.833 -1.339 4.392
 -1.801 -1.336 4.392
 -1.769 -1.332 4.388
 -1.738 -1.33 4.391
 -1.708 -1.328 4.393
 -1.678 -1.326 4.395
 -1.646 -1.323 4.394
 -1.615 -1.32 4.392
 -1.585 -1.317 4.391
 -1.554 -1.314 4.389
 -1.521 -1.31 4.382
 -1.49 -1.306 4.378
 -1.46 -1.303 4.376
 -1.429 -1.3 4.373
 -1.4 -1.298 4.373
 -1.373 -1.299 4.38
 -1.345 -1.297 4.382
 -1.317 -1.296 4.385
 0 0 0
 0 0 0
 0 0 0
 0 0 0
 0 0 0
 0 0 0
 0 0 0
 0 0 0
 0 0 0
 0 0 0
 0 0 0
 0 0 0
 0 0 0
 0 0 0
 0 0 0
 0 0 0
 0 0 0
 0 0 0
 0 0 0
 0 0 0
 0 0 0
 0 0 0
 0 0 0
 0 0 0
 0 0 0
 0 0 0
 0 0 0
 0 0 0
 0 0 0
 0 0 0
 0 0 0
 0 0 0
 0 0 0
 -0.386 -1.233 4.293
 -0.361 -1.234 4.299
 -0.336 -1.234 4.301
 -0.311 -1.235 4.303
 -0.286 -1.235 4.308
 -0.26 -1.236 4.31
 -0.235 -1.235 4.307
 -0.209 -1.236 4.31
 -0.184 -1.236 4.314
 -0.159 -1.235 4.308
 -0.133 -1.235 4.308
 -0.108 -1.236 4.311
 -0.082 -1.236 4.311
 -0.057 -1.235 4.308
 -0.032 -1.236 4.313
 -0.006 -1.236 4.313
 0.018 -1.239 4.321
 0 0 0
 0 0 0
 0 0 0
 0 0 0
 0 0 0
 0 0 0
 0 0 0
 0 0 0
 0 0 0
 0 0 0
 0 0 0
 0 0 0
 0 0 0
 0 0 0
 0 0 0
 0 0 0
 0 0 0
 0 0 0
 0 0 0
 0 0 0
 0 0 0
 0 0 0
 0 0 0
 0 0 0
 0 0 0
 0 0 0
 0 0 0
 0 0 0
 0 0 0
 0 0 0
 0 0 0
 0 0 0
 0 0 0
 0 0 0
 0 0 0
 0.943 -1.257 4.287
 0.968 -1.256 4.277
 0.994 -1.256 4.273
 1.02 -1.257 4.271
 1.046 -1.257 4.266
 1.072 -1.258 4.264
 1.099 -1.26 4.263
 1.126 -1.261 4.262
 1.153 -1.263 4.26
 1.18 -1.264 4.258
 1.207 -1.265 4.256
 1.234 -1.267 4.255
 1.26 -1.267 4.249
 1.287 -1.268 4.245
 1.316 -1.272 4.249
 1.345 -1.274 4.25
 1.373 -1.276 4.249
 1.402 -1.279 4.251
 1.43 -1.281 4.25
 1.458 -1.282 4.247
 1.485 -1.283 4.242
 1.513 -1.286 4.24
 1.543 -1.289 4.242
 1.572 -1.291 4.241
 1.6 -1.292 4.236
 1.628 -1.294 4.233
 1.656 -1.295 4.228
 1.685 -1.297 4.224
 1.714 -1.299 4.221
 1.744 -1.302 4.22
 1.773 -1.304 4.216
 1.802 -1.306 4.212
 1.829 -1.307 4.204
 1.858 -1.308 4.198
 0 0 0
 0 0 0
 0 0 0
 0 0 0
 0 0 0
 0 0 0
 0 0 0
 0 0 0
 0 0 0
 0 0 0
 0 0 0
 0 0 0
 0 0 0
 0 0 0
 0 0 0
 0.44 -0.255 0.766
 0.445 -0.255 0.763
 0.449 -0.254 0.758
 0 0 0
 -0.103 -0.058 0.167
 -0.109 -0.062 0.181
 -0.091 -0.052 0.15
 -0.082 -0.048 0.137
 -0.069 -0.041 0.116
 -0.057 -0.035 0.095
 -0.048 -0.03 0.079
 -0.037 -0.023 0.059
 -0.117 -0.072 0.218
 -0.198 -0.123 0.384
 -0.533 -0.332 1.074
 -0.941 -0.593 1.937
 -1.259 -0.803 2.637
 -1.567 -1.013 3.339
 -1.865 -1.222 4.043
 -1.915 -1.273 4.222
 -1.88 -1.267 4.214
 -1.936 -1.324 4.413
 -1.901 -1.319 4.407
 -1.864 -1.313 4.397
 -1.828 -1.307 4.387
 -1.797 -1.305 4.389
 -1.766 -1.302 4.389
 -1.736 -1.301 4.393
 -1.705 -1.298 4.394
 -1.675 -1.296 4.394
 -1.643 -1.293 4.392
 -1.611 -1.289 4.388
 -1.581 -1.287 4.389
 -1.55 -1.284 4.386
 -1.519 -1.281 4.382
 -1.487 -1.277 4.378
 -1.457 -1.274 4.375
 -1.427 -1.272 4.373
 -1.399 -1.27 4.375
 -1.371 -1.27 4.38
 -1.343 -1.269 4.384
 -1.319 -1.271 4.398
 0 0 0
 0 0 0
 0 0 0
 0 0 0
 0 0 0
 0 0 0
 0 0 0
 0 0 0
 0 0 0
 0 0 0
 0 0 0
 0 0 0
 0 0 0
 0 0 0
 0 0 0
 0 0 0
 0 0 0
 0 0 0
 0 0 0
 0 0 0
 0 0 0
 0 0 0
 0 0 0
 0 0 0
 -0.19 -0.372 1.308
 -0.181 -0.37 1.302
 -0.173 -0.371 1.303
 -0.165 -0.37 1.3
 0 0 0
 0 0 0
 0 0 0
 0 0 0
 0 0 0
 -0.385 -1.204 4.288
 -0.361 -1.207 4.298
 -0.335 -1.207 4.3
 -0.31 -1.208 4.304
 -0.285 -1.209 4.308
 -0.26 -1.21 4.314
 -0.234 -1.209 4.31
 -0.209 -1.21 4.315
 -0.184 -1.21 4.315
 -0.158 -1.208 4.309
 -0.133 -1.207 4.308
 -0.108 -1.208 4.311
 -0.082 -1.207 4.307
 -0.057 -1.207 4.305
 -0.032 -1.208 4.309
 -0.006 -1.207 4.306
 0.018 -1.208 4.307
 0 0 0
 0 0 0
 0 0 0
 0 0 0
 0 0 0
 0 0 0
 0 0 0
 0 0 0
 0 0 0
 0 0 0
 0 0 0
 0 0 0
 0 0 0
 0 0 0
 0 0 0
 0 0 0
 0 0 0
 0 0 0
 0 0 0
 0 0 0
 0 0 0
 0 0 0
 0 0 0
 0 0 0
 0 0 0
 0 0 0
 0 0 0
 0 0 0
 0 0 0
 0 0 0
 0 0 0
 0 0 0
 0 0 0
 0 0 0
 0 0 0
 0.942 -1.229 4.284
 0.967 -1.228 4.277
 0.992 -1.228 4.273
 1.018 -1.229 4.268
 1.044 -1.229 4.264
 1.07 -1.23 4.261
 1.097 -1.231 4.259
 1.124 -1.233 4.259
 1.151 -1.235 4.259
 1.178 -1.236 4.259
 1.206 -1.238 4.257
 1.233 -1.24 4.258
 1.259 -1.24 4.252
 1.286 -1.241 4.249
