 0.474 -1.619 3.965
 0.506 -1.646 4.028
 0.521 -1.616 3.952
 0.546 -1.616 3.95
 0.573 -1.627 3.972
 0.601 -1.635 3.99
 0.62 -1.622 3.954
 0.643 -1.618 3.939
 0.669 -1.624 3.951
 0.703 -1.647 4.004
 0.723 -1.637 3.974
 0.747 -1.635 3.966
 0.771 -1.634 3.96
 0.799 -1.642 3.975
 0.825 -1.645 3.977
 0.839 -1.626 3.925
 0.869 -1.636 3.944
 0.891 -1.631 3.928
 0.911 -1.624 3.907
 0.939 -1.631 3.918
 0.968 -1.638 3.929
 0.991 -1.637 3.921
 1.009 -1.626 3.889
 1.046 -1.646 3.932
 1.073 -1.651 3.936
 1.089 -1.638 3.898
 1.12 -1.647 3.915
 1.149 -1.654 3.923
 1.166 -1.643 3.891
 1.187 -1.638 3.874
 1.226 -1.659 3.915
 1.24 -1.644 3.873
 1.274 -1.656 3.895
 1.287 -1.642 3.853
 1.311 -1.642 3.845
 1.345 -1.653 3.864
 1.365 -1.647 3.843
 1.401 -1.661 3.867
 1.409 -1.642 3.815
 1.424 -1.631 3.781
 1.442 -1.624 3.756
 1.478 -1.638 3.779
 1.5 -1.636 3.765
 1.536 -1.648 3.785
 1.565 -1.653 3.786
 1.596 -1.659 3.791
 1.59 -1.628 3.711
 1.633 -1.647 3.743
 1.648 -1.637 3.713
 1.661 -1.627 3.679
 1.707 -1.648 3.716
 1.717 -1.634 3.675
 1.737 -1.63 3.656
 1.768 -1.637 3.66
 1.802 -1.645 3.668
 1.82 -1.64 3.645
 1.859 -1.653 3.664
 1.871 -1.642 3.627
 1.851 -1.603 3.53
 1.874 -1.603 3.518
 1.859 -1.571 3.436
 1.868 -1.558 3.397
 1.865 -1.537 3.34
 1.825 -1.486 3.218
 1.869 -1.504 3.244
 1.862 -1.481 3.182
 1.858 -1.461 3.128
 1.851 -1.438 3.069
 1.85 -1.421 3.02
 1.82 -1.383 2.927
 -2.168 -1.641 3.62
 -2.13 -1.631 3.612
 -2.132 -1.652 3.67
 -2.096 -1.644 3.664
 -2.063 -1.637 3.662
 -2.015 -1.619 3.633
 -2.015 -1.64 3.69
 -1.977 -1.629 3.678
 -1.953 -1.63 3.692
 -1.937 -1.637 3.719
 -1.91 -1.636 3.727
 -1.885 -1.636 3.738
 -1.865 -1.641 3.76
 -1.838 -1.639 3.766
 -1.821 -1.646 3.794
 -1.789 -1.641 3.79
 -1.761 -1.638 3.793
 -1.735 -1.637 3.801
 -1.72 -1.647 3.835
 -1.659 -1.612 3.763
 -1.662 -1.64 3.837
 -1.628 -1.63 3.824
 -1.601 -1.629 3.829
 -1.577 -1.63 3.84
 -1.561 -1.639 3.871
 -1.52 -1.622 3.838
 -1.504 -1.632 3.87
 -1.475 -1.628 3.869
 -1.459 -1.637 3.899
 -1.433 -1.637 3.907
 -1.407 -1.635 3.911
 -1.39 -1.645 3.941
 -1.346 -1.622 3.894
 -1.345 -1.652 3.972
 -1.305 -1.634 3.935
 -1.283 -1.638 3.952
 -1.249 -1.626 3.93
 -1.238 -1.644 3.981
 -1.196 -1.621 3.931
 -1.194 -1.653 4.016
 -1.154 -1.632 3.969
 -1.131 -1.635 3.983
 -1.097 -1.621 3.956
 -1.077 -1.629 3.979
 -1.04 -1.61 3.938
 -1.02 -1.618 3.963
 -0.996 -1.618 3.97
 -0.978 -1.631 4.006
 -0.949 -1.624 3.993
 -0.926 -1.627 4.006
 -0.901 -1.625 4.007
 -0.876 -1.625 4.011
 -0.851 -1.625 4.014
 -0.819 -1.612 3.986
 -0.803 -1.628 4.031
 -0.779 -1.632 4.043
 -0.751 -1.625 4.03
 -0.725 -1.622 4.027
 -0.697 -1.614 4.011
 -0.677 -1.626 4.043
 -0.655 -1.632 4.062
 -0.628 -1.626 4.05
 -0.598 -1.612 4.016
 -0.578 -1.624 4.051
 -0.556 -1.635 4.08
 -0.536 -1.65 4.121
 -0.502 -1.619 4.045
 -0.478 -1.621 4.053
 -0.453 -1.621 4.053
 -0.425 -1.608 4.024
 -0.406 -1.631 4.083
 -0.377 -1.615 4.043
 -0.354 -1.622 4.065
 -0.332 -1.634 4.096
 -0.307 -1.632 4.093
 -0.28 -1.619 4.06
 -0.256 -1.627 4.081
 -0.232 -1.634 4.1
 -0.206 -1.621 4.069
 -0.183 -1.632 4.098
 -0.156 -1.615 4.055
 -0.132 -1.616 4.058
 -0.107 -1.614 4.053
 -0.082 -1.611 4.044
 -0.058 -1.633 4.1
 -0.033 -1.623 4.075
 -0.009 -1.627 4.085
 0.015 -1.631 4.094
 0.04 -1.633 4.1
 0.064 -1.61 4.041
 0.09 -1.641 4.119
 0.113 -1.621 4.067
 0.139 -1.635 4.102
 0.163 -1.626 4.078
 0.188 -1.624 4.071
 0.212 -1.626 4.075
 0.236 -1.617 4.051
 0.263 -1.636 4.098
 0.288 -1.634 4.092
 0.31 -1.62 4.053
 0.335 -1.621 4.055
 0.358 -1.615 4.036
 0.385 -1.625 4.061
 0.41 -1.627 4.061
 0.437 -1.636 4.082
 0.46 -1.631 4.068
 0.485 -1.632 4.066
 0.511 -1.636 4.073
 0.532 -1.625 4.043
 0.556 -1.623 4.036
 0.585 -1.635 4.063
 0.602 -1.613 4.004
 0.629 -1.621 4.02
 0.66 -1.637 4.057
 0.686 -1.64 4.06
 0.697 -1.608 3.976
 0.733 -1.633 4.035
 0.757 -1.631 4.025
 0.782 -1.632 4.023
 0.801 -1.621 3.992
 0.824 -1.618 3.98
 0.858 -1.636 4.018
 0.884 -1.639 4.02
 0.914 -1.649 4.04
 0.926 -1.625 3.978
 0.949 -1.623 3.967
 0.984 -1.641 4.005
 1.007 -1.638 3.992
 1.032 -1.638 3.987
 1.057 -1.638 3.981
 1.09 -1.652 4.007
 1.103 -1.634 3.957
 1.129 -1.636 3.956
 1.148 -1.628 3.93
 1.194 -1.657 3.995
 1.205 -1.638 3.942
 1.236 -1.646 3.955
 1.261 -1.646 3.947
 1.285 -1.645 3.936
 1.311 -1.647 3.934
 1.338 -1.65 3.933
 1.372 -1.66 3.95
 1.384 -1.645 3.905
 1.414 -1.651 3.912
 1.432 -1.644 3.885
 1.443 -1.629 3.841
 1.489 -1.652 3.887
 1.515 -1.653 3.881
 1.52 -1.632 3.823
 1.552 -1.64 3.832
 1.578 -1.641 3.825
 1.607 -1.646 3.827
 1.601 -1.614 3.744
 1.651 -1.64 3.795
 1.665 -1.63 3.761
 1.694 -1.634 3.761
 1.726 -1.641 3.767
 1.728 -1.62 3.707
 1.777 -1.642 3.748
 1.796 -1.637 3.726
 1.84 -1.655 3.756
 1.861 -1.652 3.737
 1.828 -1.601 3.611
 1.865 -1.612 3.625
 1.845 -1.575 3.529
 1.831 -1.543 3.446
 1.877 -1.562 3.478
 1.841 -1.513 3.357
 1.843 -1.497 3.309
 1.855 -1.488 3.28
 1.846 -1.463 3.213
 1.851 -1.45 3.172
 1.86 -1.44 3.139
 1.843 -1.41 3.063
 1.832 -1.386 3
 1.841 -1.378 2.97
 -2.207 -1.645 3.695
 -2.157 -1.627 3.667
 -2.14 -1.633 3.694
 -2.112 -1.631 3.703
 -2.087 -1.631 3.715
 -2.061 -1.631 3.726
 -2.036 -1.631 3.738
 -2.011 -1.632 3.751
 -1.986 -1.632 3.764
 -1.963 -1.634 3.779
 -1.938 -1.634 3.791
 -1.914 -1.636 3.807
 -1.888 -1.635 3.816
 -1.863 -1.636 3.829
 -1.838 -1.636 3.839
 -1.812 -1.636 3.848
 -1.785 -1.635 3.856
 -1.758 -1.633 3.861
 -1.732 -1.633 3.87
 -1.705 -1.632 3.878
 -1.679 -1.631 3.886
 -1.652 -1.629 3.891
 -1.628 -1.631 3.903
 -1.602 -1.63 3.911
 -1.575 -1.628 3.915
 -1.549 -1.628 3.922
 -1.524 -1.628 3.932
 -1.498 -1.628 3.94
 -1.472 -1.627 3.945
 -1.449 -1.63 3.96
 -1.424 -1.63 3.968
 -1.398 -1.63 3.974
 -1.372 -1.629 3.981
 -1.347 -1.629 3.988
 -1.32 -1.627 3.991
 -1.295 -1.628 3.999
 -1.27 -1.628 4.005
 -1.245 -1.628 4.013
 -1.218 -1.626 4.015
 -1.193 -1.626 4.021
 -1.167 -1.625 4.024
 -1.141 -1.624 4.029
 -1.114 -1.622 4.029
 -1.089 -1.623 4.036
 -1.064 -1.623 4.042
 -1.039 -1.623 4.048
 -1.014 -1.623 4.052
 -0.989 -1.623 4.059
 -0.963 -1.622 4.06
 -0.937 -1.621 4.063
 -0.912 -1.62 4.066
 -0.887 -1.621 4.071
 -0.861 -1.62 4.073
 -0.836 -1.62 4.078
 -0.811 -1.62 4.08
 -0.786 -1.62 4.085
 -0.76 -1.618 4.085
 -0.736 -1.62 4.093
 -0.711 -1.621 4.1
 -0.686 -1.622 4.103
 -0.66 -1.62 4.103
 -0.636 -1.621 4.109
 -0.61 -1.62 4.108
 -0.585 -1.622 4.116
 -0.561 -1.623 4.121
 -0.536 -1.625 4.128
 -0.511 -1.625 4.132
 -0.486 -1.624 4.131
 -0.46 -1.621 4.126
 -0.434 -1.619 4.123
 -0.409 -1.618 4.122
 -0.384 -1.618 4.124
 -0.359 -1.619 4.129
 -0.334 -1.619 4.129
 -0.309 -1.619 4.13
 -0.284 -1.618 4.13
 -0.259 -1.617 4.129
 -0.233 -1.617 4.128
 -0.209 -1.618 4.131
 -0.184 -1.618 4.134
 -0.159 -1.619 4.135
 -0.134 -1.619 4.137
 -0.109 -1.618 4.135
 -0.084 -1.618 4.134
 -0.059 -1.618 4.134
 -0.034 -1.619 4.137
 -0.009 -1.619 4.136
 0.015 -1.619 4.137
 0.04 -1.622 4.143
 0.065 -1.622 4.142
 0.09 -1.622 4.141
 0.115 -1.621 4.139
 0.14 -1.622 4.139
 0.165 -1.619 4.132
 0.19 -1.619 4.13
 0.215 -1.618 4.126
 0.24 -1.618 4.126
 0.265 -1.618 4.123
 0.29 -1.618 4.121
 0.315 -1.618 4.12
 0.339 -1.618 4.117
 0.364 -1.617 4.113
 0.389 -1.619 4.116
 0.415 -1.62 4.115
 0.44 -1.62 4.113
 0.465 -1.62 4.112
 0.49 -1.622 4.112
 0.514 -1.62 4.106
 0.539 -1.62 4.102
 0.564 -1.62 4.1
 0.589 -1.619 4.093
 0.614 -1.62 4.092
 0.639 -1.621 4.091
 0.664 -1.622 4.089
 0.69 -1.624 4.09
 0.716 -1.626 4.092
 0.741 -1.626 4.088
 0.767 -1.628 4.088
 0.793 -1.629 4.087
 0.817 -1.629 4.082
 0.842 -1.629 4.077
 0.868 -1.63 4.076
 0.893 -1.629 4.069
 0.918 -1.629 4.063
 0.943 -1.63 4.061
 0.969 -1.631 4.058
 0.993 -1.63 4.048
 1.019 -1.632 4.047
 1.045 -1.633 4.045
 1.07 -1.633 4.038
 1.095 -1.633 4.033
 1.122 -1.635 4.032
 1.146 -1.635 4.024
 1.17 -1.634 4.014
 1.197 -1.636 4.013
 1.222 -1.636 4.007
 1.248 -1.637 4.002
 1.274 -1.637 3.995
 1.3 -1.64 3.993
 1.326 -1.64 3.988
 1.353 -1.642 3.984
 1.379 -1.643 3.979
 1.404 -1.643 3.971
 1.427 -1.641 3.957
 1.45 -1.639 3.944
 1.474 -1.637 3.931
 1.498 -1.636 3.919
 1.523 -1.637 3.912
 1.55 -1.638 3.907
 1.575 -1.639 3.899
 1.599 -1.638 3.887
 1.624 -1.637 3.876
 1.648 -1.636 3.864
 1.672 -1.635 3.852
 1.696 -1.634 3.839
 1.721 -1.634 3.83
 1.745 -1.634 3.818
 1.768 -1.632 3.804
 1.793 -1.632 3.793
 1.817 -1.631 3.779
 1.835 -1.625 3.755
 1.85 -1.617 3.724
 1.862 -1.606 3.687
 1.868 -1.59 3.639
 1.87 -1.572 3.586
 1.872 -1.553 3.533
 1.874 -1.536 3.481
 1.875 -1.518 3.429
 1.869 -1.494 3.364
 1.852 -1.463 3.282
 1.845 -1.44 3.22
 1.842 -1.421 3.165
 1.845 -1.407 3.123
 1.846 -1.391 3.077
 1.845 -1.375 3.03
 1.832 -1.35 2.963
 -2.206 -1.618 3.704
 -2.184 -1.621 3.722
 -2.17 -1.63 3.756
 -2.142 -1.628 3.765
 -2.118 -1.63 3.78
 -2.093 -1.631 3.795
 -2.067 -1.63 3.805
 -2.042 -1.631 3.819
 -2.017 -1.632 3.832
 -1.991 -1.632 3.845
 -1.965 -1.632 3.856
 -1.94 -1.633 3.868
 -1.914 -1.632 3.878
 -1.888 -1.632 3.89
 -1.862 -1.632 3.9
 -1.836 -1.632 3.91
 -1.812 -1.633 3.923
 -1.784 -1.631 3.929
 -1.757 -1.631 3.937
 -1.73 -1.63 3.944
 -1.702 -1.627 3.948
 -1.673 -1.624 3.95
 -1.648 -1.625 3.961
 -1.622 -1.625 3.97
 -1.595 -1.624 3.976
 -1.57 -1.624 3.986
 -1.545 -1.626 3.997
 -1.519 -1.625 4.004
 -1.493 -1.625 4.011
 -1.468 -1.626 4.022
 -1.442 -1.625 4.028
 -1.416 -1.625 4.034
 -1.389 -1.624 4.039
 -1.364 -1.624 4.047
 -1.337 -1.623 4.052
 -1.312 -1.624 4.061
 -1.285 -1.622 4.064
 -1.26 -1.622 4.07
 -1.233 -1.62 4.073
 -1.207 -1.62 4.078
 -1.181 -1.619 4.083
 -1.155 -1.619 4.088
 -1.128 -1.617 4.088
 -1.103 -1.617 4.095
 -1.077 -1.617 4.1
 -1.051 -1.616 4.102
 -1.025 -1.616 4.108
 -1 -1.616 4.114
 -0.974 -1.615 4.116
 -0.948 -1.615 4.12
 -0.923 -1.615 4.124
 -0.897 -1.615 4.128
 -0.872 -1.615 4.133
 -0.846 -1.615 4.138
 -0.82 -1.614 4.138
 -0.795 -1.614 4.144
 -0.769 -1.613 4.143
 -0.744 -1.613 4.149
 -0.719 -1.614 4.154
 -0.693 -1.614 4.158
 -0.667 -1.612 4.155
 -0.642 -1.613 4.161
 -0.616 -1.612 4.161
 -0.591 -1.613 4.167
 -0.566 -1.613 4.169
 -0.541 -1.614 4.175
 -0.516 -1.615 4.178
 -0.49 -1.614 4.178
 -0.464 -1.612 4.175
 -0.438 -1.611 4.175
 -0.413 -1.609 4.173
 -0.388 -1.61 4.175
 -0.363 -1.611 4.18
 -0.337 -1.61 4.179
 -0.312 -1.609 4.179
 -0.287 -1.61 4.182
 -0.261 -1.609 4.18
 -0.236 -1.607 4.176
 -0.21 -1.608 4.179
 -0.185 -1.608 4.18
 -0.16 -1.607 4.179
 -0.135 -1.607 4.18
 -0.109 -1.607 4.18
 -0.084 -1.607 4.178
 -0.059 -1.607 4.179
 -0.034 -1.608 4.181
 -0.009 -1.607 4.179
 0.016 -1.607 4.178
 0.041 -1.609 4.183
 0.066 -1.608 4.18
 0.091 -1.609 4.181
 0.116 -1.609 4.181
 0.142 -1.61 4.184
 0.167 -1.61 4.181
 0.192 -1.61 4.18
 0.217 -1.609 4.177
 0.242 -1.609 4.176
 0.267 -1.608 4.17
 0.292 -1.607 4.166
 0.318 -1.607 4.165
 0.343 -1.608 4.165
 0.368 -1.608 4.162
 0.394 -1.61 4.166
 0.419 -1.611 4.167
 0.445 -1.612 4.167
 0.47 -1.611 4.162
 0.495 -1.613 4.163
 0.52 -1.613 4.159
 0.545 -1.612 4.154
 0.57 -1.612 4.15
 0.595 -1.612 4.147
 0.621 -1.613 4.147
 0.646 -1.613 4.144
 0.672 -1.614 4.142
 0.698 -1.616 4.143
 0.724 -1.618 4.144
 0.749 -1.617 4.138
 0.775 -1.619 4.139
 0.801 -1.62 4.138
 0.827 -1.621 4.135
 0.852 -1.621 4.13
 0.878 -1.622 4.128
 0.903 -1.622 4.123
 0.929 -1.623 4.12
 0.955 -1.624 4.117
 0.981 -1.625 4.115
 1.005 -1.624 4.107
 1.032 -1.626 4.105
 1.057 -1.627 4.101
 1.083 -1.627 4.095
 1.109 -1.627 4.09
 1.135 -1.629 4.087
 1.161 -1.629 4.083
 1.186 -1.629 4.075
 1.212 -1.63 4.07
 1.238 -1.631 4.065
 1.264 -1.632 4.061
 1.289 -1.632 4.053
 1.316 -1.634 4.051
 1.343 -1.635 4.046
 1.369 -1.637 4.043
 1.396 -1.638 4.038
 1.421 -1.638 4.029
 1.445 -1.636 4.017
 1.47 -1.635 4.006
 1.494 -1.634 3.994
 1.519 -1.633 3.984
 1.545 -1.634 3.976
 1.571 -1.635 3.97
 1.596 -1.634 3.959
 1.62 -1.633 3.946
 1.645 -1.633 3.936
 1.669 -1.632 3.924
 1.694 -1.631 3.912
 1.719 -1.631 3.901
 1.744 -1.631 3.89
 1.769 -1.63 3.879
 1.791 -1.628 3.862
 1.814 -1.626 3.846
 1.835 -1.622 3.827
 1.85 -1.613 3.795
 1.861 -1.601 3.754
 1.87 -1.588 3.713
 1.874 -1.57 3.66
 1.877 -1.553 3.607
 1.879 -1.535 3.556
 1.883 -1.519 3.506
 1.886 -1.503 3.457
 1.874 -1.475 3.381
 1.843 -1.434 3.275
 1.835 -1.41 3.211
 1.834 -1.393 3.16
 1.839 -1.38 3.12
 1.843 -1.368 3.081
 1.835 -1.346 3.02
 1.839 -1.334 2.983
 -2.249 -1.623 3.786
 -2.237 -1.634 3.824
 -2.2 -1.626 3.818
 -2.172 -1.625 3.828
 -2.146 -1.626 3.841
 -2.123 -1.627 3.858
 -2.096 -1.627 3.869
 -2.071 -1.628 3.883
 -2.044 -1.628 3.895
 -2.019 -1.628 3.908
 -1.992 -1.628 3.918
 -1.967 -1.629 3.932
 -1.94 -1.628 3.941
 -1.913 -1.628 3.952
 -1.887 -1.628 3.963
 -1.861 -1.628 3.973
 -1.834 -1.628 3.983
 -1.808 -1.628 3.993
 -1.782 -1.628 4.003
 -1.755 -1.627 4.01
 -1.727 -1.625 4.016
 -1.698 -1.623 4.019
 -1.671 -1.622 4.026
 -1.645 -1.622 4.035
 -1.616 -1.62 4.039
 -1.59 -1.62 4.047
 -1.565 -1.62 4.056
 -1.538 -1.619 4.063
 -1.511 -1.618 4.068
 -1.485 -1.619 4.078
 -1.459 -1.618 4.085
 -1.432 -1.618 4.091
 -1.406 -1.617 4.097
 -1.38 -1.617 4.105
 -1.354 -1.617 4.112
 -1.328 -1.617 4.118
 -1.301 -1.616 4.122
 -1.274 -1.615 4.127
 -1.247 -1.614 4.131
 -1.221 -1.613 4.135
 -1.195 -1.613 4.14
 -1.168 -1.612 4.144
 -1.141 -1.61 4.146
 -1.116 -1.612 4.155
 -1.09 -1.612 4.161
 -1.064 -1.61 4.162
 -1.038 -1.61 4.168
 -1.012 -1.61 4.172
 -0.984 -1.607 4.169
 -0.958 -1.606 4.173
 -0.932 -1.606 4.175
 -0.906 -1.606 4.18
 -0.881 -1.606 4.185
 -0.855 -1.606 4.189
 -0.828 -1.604 4.188
 -0.803 -1.605 4.194
 -0.776 -1.603 4.193
 -0.751 -1.603 4.197
 -0.725 -1.603 4.201
 -0.7 -1.603 4.204
 -0.673 -1.601 4.202
 -0.648 -1.602 4.207
 -0.621 -1.6 4.205
 -0.596 -1.6 4.209
 -0.57 -1.6 4.211
 -0.545 -1.601 4.216
 -0.519 -1.601 4.218
 -0.494 -1.601 4.22
 -0.468 -1.6 4.219
 -0.442 -1.599 4.219
 -0.416 -1.598 4.218
 -0.391 -1.597 4.218
 -0.365 -1.597 4.22
 -0.34 -1.597 4.221
 -0.314 -1.595 4.217
 -0.288 -1.596 4.22
 -0.263 -1.595 4.218
 -0.237 -1.593 4.214
 -0.212 -1.593 4.216
 -0.186 -1.594 4.219
 -0.161 -1.593 4.216
 -0.135 -1.594 4.219
 -0.11 -1.594 4.219
 -0.085 -1.593 4.218
 -0.059 -1.593 4.217
 -0.034 -1.594 4.219
 -0.009 -1.593 4.216
 0.016 -1.593 4.217
 0.041 -1.594 4.218
 0.067 -1.593 4.217
 0.092 -1.593 4.216
 0.117 -1.594 4.216
 0.143 -1.595 4.217
 0.168 -1.595 4.217
 0.194 -1.595 4.217
 0.219 -1.595 4.214
 0.244 -1.595 4.212
 0.269 -1.593 4.206
 0.295 -1.593 4.204
 0.32 -1.593 4.203
 0.346 -1.595 4.205
 0.371 -1.595 4.203
 0.397 -1.597 4.206
 0.422 -1.598 4.206
 0.448 -1.598 4.205
 0.473 -1.597 4.2
 0.499 -1.599 4.202
 0.524 -1.599 4.2
 0.549 -1.598 4.194
 0.575 -1.599 4.192
 0.6 -1.599 4.188
 0.626 -1.6 4.187
 0.651 -1.6 4.184
 0.678 -1.601 4.184
 0.704 -1.603 4.184
 0.73 -1.605 4.186
 0.755 -1.605 4.182
 0.782 -1.608 4.185
 0.809 -1.61 4.185
 0.834 -1.61 4.182
 0.86 -1.61 4.177
 0.886 -1.611 4.173
 0.911 -1.611 4.168
 0.937 -1.611 4.164
 0.963 -1.612 4.162
 0.989 -1.614 4.159
 1.015 -1.614 4.155
 1.041 -1.615 4.151
 1.066 -1.614 4.144
 1.093 -1.615 4.141
 1.119 -1.617 4.138
 1.146 -1.619 4.137
 1.172 -1.619 4.131
 1.198 -1.62 4.125
 1.224 -1.62 4.12
 1.25 -1.621 4.116
 1.277 -1.623 4.111
 1.303 -1.623 4.106
 1.33 -1.625 4.103
 1.357 -1.626 4.098
 1.385 -1.629 4.096
 1.411 -1.629 4.09
 1.437 -1.63 4.083
 1.463 -1.63 4.074
 1.488 -1.63 4.066
 1.513 -1.628 4.053
 1.539 -1.629 4.046
 1.566 -1.63 4.039
 1.593 -1.631 4.033
 1.618 -1.631 4.022
 1.643 -1.63 4.012
 1.668 -1.63 4.001
 1.694 -1.63 3.99
 1.718 -1.628 3.976
 1.743 -1.627 3.964
 1.767 -1.626 3.951
 1.791 -1.625 3.938
 1.812 -1.62 3.916
 1.832 -1.616 3.894
 1.85 -1.61 3.867
 1.862 -1.598 3.828
 1.87 -1.584 3.782
 1.879 -1.57 3.738
 1.885 -1.554 3.69
 1.889 -1.538 3.639
 1.893 -1.522 3.59
 1.899 -1.508 3.545
 1.904 -1.493 3.498
 1.888 -1.463 3.415
 1.84 -1.409 3.278
 1.825 -1.381 3.201
 1.828 -1.366 3.157
 1.837 -1.357 3.125
 1.844 -1.347 3.089
 1.836 -1.326 3.031
 1.831 -1.308 2.977
 -2.302 -1.635 3.886
 -2.247 -1.615 3.85
 -2.229 -1.622 3.88
 -2.202 -1.621 3.891
 -2.176 -1.621 3.904
 -2.153 -1.624 3.923
 -2.125 -1.623 3.933
 -2.098 -1.623 3.945
 -2.071 -1.623 3.956
 -2.045 -1.623 3.969
 -2.018 -1.623 3.979
 -1.993 -1.624 3.995
 -1.967 -1.624 4.006
 -1.94 -1.624 4.017
 -1.913 -1.624 4.027
 -1.885 -1.623 4.035
 -1.859 -1.623 4.045
 -1.832 -1.623 4.055
 -1.805 -1.623 4.065
 -1.778 -1.622 4.073
 -1.75 -1.621 4.08
 -1.721 -1.618 4.083
 -1.693 -1.617 4.09
 -1.666 -1.616 4.096
 -1.637 -1.614 4.099
 -1.61 -1.613 4.107
 -1.584 -1.614 4.117
 -1.557 -1.613 4.123
 -1.53 -1.613 4.131
 -1.504 -1.613 4.14
 -1.477 -1.612 4.145
 -1.449 -1.611 4.15
 -1.423 -1.61 4.156
 -1.395 -1.609 4.16
 -1.369 -1.609 4.167
 -1.343 -1.609 4.175
 -1.316 -1.608 4.179
 -1.288 -1.607 4.182
 -1.261 -1.606 4.186
 -1.234 -1.605 4.19
 -1.208 -1.604 4.195
 -1.181 -1.603 4.198
 -1.153 -1.601 4.198
 -1.127 -1.602 4.206
 -1.101 -1.601 4.21
 -1.073 -1.599 4.209
 -1.047 -1.599 4.214
 -1.021 -1.598 4.218
 -0.993 -1.595 4.214
 -0.966 -1.594 4.217
 -0.939 -1.592 4.217
 -0.913 -1.592 4.22
 -0.887 -1.591 4.223
 -0.861 -1.591 4.226
 -0.834 -1.589 4.225
 -0.808 -1.589 4.23
 -0.781 -1.587 4.227
 -0.755 -1.587 4.232
 -0.729 -1.587 4.235
 -0.704 -1.587 4.238
 -0.677 -1.585 4.237
 -0.651 -1.586 4.241
 -0.625 -1.584 4.24
 -0.599 -1.584 4.243
 -0.574 -1.584 4.245
 -0.548 -1.585 4.249
 -0.522 -1.584 4.251
 -0.496 -1.584 4.251
 -0.47 -1.582 4.249
 -0.444 -1.582 4.25
 -0.418 -1.58 4.247
 -0.392 -1.579 4.246
 -0.367 -1.579 4.247
 -0.341 -1.578 4.247
 -0.315 -1.577 4.244
 -0.29 -1.577 4.247
 -0.264 -1.577 4.248
 -0.238 -1.576 4.245
 -0.213 -1.576 4.246
 -0.187 -1.576 4.248
 -0.161 -1.574 4.243
 -0.136 -1.575 4.245
 -0.11 -1.575 4.244
 -0.085 -1.575 4.245
 -0.059 -1.574 4.243
 -0.034 -1.575 4.246
 -0.008 -1.575 4.244
 0.016 -1.575 4.244
 0.042 -1.575 4.244
 0.067 -1.575 4.243
 0.093 -1.575 4.242
 0.118 -1.575 4.242
 0.144 -1.575 4.242
 0.169 -1.576 4.243
 0.195 -1.576 4.243
 0.22 -1.576 4.24
 0.245 -1.575 4.237
 0.271 -1.575 4.234
 0.296 -1.575 4.231
 0.322 -1.575 4.23
 0.347 -1.576 4.232
 0.373 -1.576 4.23
 0.399 -1.578 4.232
 0.424 -1.579 4.232
 0.45 -1.58 4.234
 0.476 -1.58 4.231
 0.502 -1.582 4.232
 0.527 -1.583 4.231
 0.553 -1.581 4.225
 0.578 -1.581 4.221
 0.603 -1.58 4.216
 0.629 -1.582 4.215
 0.655 -1.582 4.213
 0.681 -1.584 4.215
 0.708 -1.586 4.215
 0.734 -1.589 4.219
 0.761 -1.59 4.219
 0.787 -1.591 4.218
 0.814 -1.594 4.219
 0.84 -1.594 4.215
 0.865 -1.594 4.21
 0.891 -1.594 4.205
 0.916 -1.594 4.2
 0.942 -1.595 4.197
 0.969 -1.596 4.195
 0.995 -1.597 4.191
 1.021 -1.598 4.189
 1.048 -1.599 4.187
 1.074 -1.599 4.18
 1.1 -1.6 4.177
 1.127 -1.602 4.176
 1.154 -1.604 4.174
 1.181 -1.605 4.17
 1.208 -1.606 4.167
 1.235 -1.608 4.164
 1.262 -1.61 4.162
 1.289 -1.612 4.16
 1.316 -1.613 4.154
 1.343 -1.614 4.151
 1.369 -1.615 4.144
 1.398 -1.617 4.143
 1.424 -1.618 4.136
 1.451 -1.619 4.131
 1.478 -1.62 4.124
 1.504 -1.621 4.118
 1.53 -1.62 4.108
 1.557 -1.621 4.101
 1.584 -1.623 4.096
 1.611 -1.624 4.09
 1.638 -1.625 4.082
 1.664 -1.624 4.071
 1.69 -1.624 4.061
 1.715 -1.624 4.049
 1.739 -1.622 4.035
 1.763 -1.62 4.02
 1.787 -1.618 4.004
 1.81 -1.615 3.986
 1.828 -1.609 3.96
 1.846 -1.602 3.931
 1.861 -1.593 3.899
 1.87 -1.579 3.853
 1.877 -1.564 3.805
 1.884 -1.549 3.758
 1.891 -1.535 3.712
 1.895 -1.518 3.66
 1.904 -1.507 3.62
 1.911 -1.493 3.576
 1.92 -1.481 3.536
 0 0 0
 1.828 -1.377 3.264
 1.808 -1.346 3.179
 1.823 -1.341 3.157
 1.834 -1.334 3.128
 1.843 -1.325 3.096
 1.838 -1.306 3.041
 1.841 -1.294 3.001
 -2.334 -1.631 3.951
 -2.287 -1.617 3.929
 -2.262 -1.619 3.947
 -2.234 -1.618 3.957
 -2.206 -1.617 3.969
 -2.183 -1.62 3.989
 -2.154 -1.618 3.997
 -2.126 -1.618 4.007
 -2.098 -1.617 4.018
 -2.072 -1.618 4.032
 -2.045 -1.618 4.043
 -2.02 -1.619 4.058
 -1.994 -1.62 4.071
 -1.966 -1.619 4.081
 -1.939 -1.619 4.091
 -1.91 -1.618 4.099
 -1.882 -1.617 4.107
 -1.854 -1.616 4.115
 -1.828 -1.616 4.126
 -1.8 -1.616 4.134
 -1.772 -1.615 4.141
 -1.743 -1.613 4.147
 -1.715 -1.612 4.154
 -1.686 -1.61 4.157
 -1.657 -1.607 4.16
 -1.629 -1.606 4.166
 -1.602 -1.606 4.173
 -1.573 -1.604 4.177
 -1.546 -1.603 4.183
 -1.519 -1.603 4.191
 -1.491 -1.601 4.195
 -1.463 -1.6 4.199
 -1.436 -1.6 4.206
 -1.409 -1.598 4.209
 -1.381 -1.597 4.215
 -1.356 -1.599 4.225
 -1.328 -1.597 4.228
 -1.3 -1.595 4.23
 -1.272 -1.594 4.233
 -1.245 -1.592 4.235
 -1.217 -1.591 4.237
 -1.189 -1.589 4.238
 -1.161 -1.586 4.236
 -1.135 -1.586 4.242
 -1.108 -1.585 4.245
 -1.08 -1.583 4.244
 -1.053 -1.582 4.249
 -1.027 -1.581 4.252
 -0.999 -1.578 4.249
 -0.972 -1.577 4.25
 -0.945 -1.576 4.25
 -0.918 -1.574 4.251
 -0.891 -1.573 4.253
 -0.865 -1.573 4.258
 -0.838 -1.571 4.255
 -0.811 -1.57 4.256
 -0.784 -1.568 4.255
 -0.759 -1.568 4.259
 -0.732 -1.567 4.26
 -0.706 -1.568 4.264
 -0.68 -1.566 4.264
 -0.654 -1.567 4.269
 -0.628 -1.565 4.266
 -0.601 -1.564 4.266
 -0.575 -1.563 4.265
 -0.549 -1.563 4.267
 -0.523 -1.561 4.266
 -0.497 -1.562 4.269
 -0.471 -1.56 4.266
 -0.445 -1.559 4.267
 -0.419 -1.557 4.264
 -0.393 -1.557 4.263
 -0.367 -1.556 4.263
 -0.341 -1.556 4.264
 -0.316 -1.555 4.262
 -0.29 -1.557 4.268
 -0.265 -1.556 4.268
 -0.239 -1.555 4.267
 -0.213 -1.555 4.266
 -0.187 -1.555 4.267
 -0.162 -1.553 4.261
 -0.136 -1.553 4.262
 -0.11 -1.552 4.26
 -0.085 -1.552 4.261
 -0.059 -1.552 4.26
 -0.034 -1.553 4.263
 -0.008 -1.552 4.261
 0.016 -1.553 4.263
 0.042 -1.553 4.262
 0.067 -1.552 4.259
 0.093 -1.551 4.256
 0.118 -1.552 4.256
 0.144 -1.551 4.255
 0.169 -1.552 4.254
 0.195 -1.553 4.255
 0.221 -1.553 4.255
 0.246 -1.552 4.252
 0.271 -1.552 4.25
 0.297 -1.552 4.249
 0.322 -1.553 4.248
 0.348 -1.554 4.249
 0.374 -1.554 4.247
 0.399 -1.555 4.247
 0.425 -1.556 4.247
 0.451 -1.557 4.248
 0.477 -1.557 4.246
 0.503 -1.559 4.248
 0.529 -1.56 4.248
 0.554 -1.56 4.244
 0.58 -1.56 4.24
 0.605 -1.559 4.236
 0.631 -1.56 4.235
 0.657 -1.561 4.234
 0.683 -1.563 4.235
 0.71 -1.564 4.235
 0.737 -1.567 4.239
 0.763 -1.569 4.239
 0.789 -1.57 4.237
 0.816 -1.572 4.239
 0.842 -1.573 4.238
 0.868 -1.574 4.234
 0.894 -1.573 4.228
 0.92 -1.574 4.224
 0.946 -1.574 4.22
 0.972 -1.575 4.218
 0.998 -1.576 4.213
 1.025 -1.577 4.212
 1.052 -1.579 4.211
 1.078 -1.58 4.206
 1.105 -1.582 4.205
 1.133 -1.584 4.205
 1.161 -1.586 4.205
 1.187 -1.587 4.201
 1.215 -1.59 4.2
 1.242 -1.591 4.196
 1.269 -1.593 4.194
 1.297 -1.596 4.194
 1.324 -1.597 4.189
 1.351 -1.598 4.184
 1.378 -1.599 4.18
 1.407 -1.601 4.178
 1.433 -1.602 4.172
 1.461 -1.603 4.167
 1.489 -1.605 4.164
 1.517 -1.607 4.16
 1.543 -1.608 4.153
 1.571 -1.609 4.146
 1.599 -1.611 4.142
 1.626 -1.612 4.135
 1.653 -1.613 4.128
 1.679 -1.613 4.118
 1.706 -1.614 4.11
 1.733 -1.614 4.101
 1.758 -1.612 4.086
 1.782 -1.61 4.071
 1.804 -1.607 4.053
 1.825 -1.603 4.03
 1.842 -1.595 3.999
 1.856 -1.584 3.962
 1.868 -1.573 3.921
 1.877 -1.559 3.876
 1.885 -1.545 3.829
 1.891 -1.53 3.781
 1.901 -1.518 3.739
 1.909 -1.505 3.697
 1.918 -1.493 3.655
 1.925 -1.479 3.61
 0 0 0
 0 0 0
 0 0 0
 1.804 -1.321 3.18
 1.82 -1.317 3.159
 1.834 -1.312 3.135
 1.843 -1.303 3.103
 1.861 -1.301 3.087
 1.855 -1.283 3.031
 -2.347 -1.613 3.982
 -2.328 -1.619 4.01
 -2.295 -1.615 4.014
 -2.267 -1.615 4.027
 -2.238 -1.614 4.037
 -2.213 -1.615 4.054
 -2.184 -1.614 4.063
 -2.155 -1.612 4.072
 -2.126 -1.612 4.082
 -2.099 -1.612 4.095
 -2.072 -1.612 4.106
 -2.046 -1.613 4.12
 -2.02 -1.614 4.135
 -1.991 -1.612 4.142
 -1.964 -1.613 4.154
 -1.934 -1.611 4.16
 -1.904 -1.609 4.165
 -1.876 -1.608 4.172
 -1.848 -1.607 4.181
 -1.819 -1.605 4.186
 -1.79 -1.604 4.194
 -1.761 -1.602 4.199
 -1.732 -1.601 4.204
 -1.704 -1.599 4.21
 -1.674 -1.597 4.213
 -1.646 -1.595 4.217
 -1.618 -1.595 4.224
 -1.589 -1.592 4.227
 -1.561 -1.591 4.232
 -1.533 -1.59 4.237
 -1.504 -1.588 4.239
 -1.475 -1.586 4.242
 -1.447 -1.585 4.246
 -1.418 -1.583 4.248
 -1.391 -1.582 4.253
 -1.364 -1.582 4.261
 -1.336 -1.58 4.262
 -1.308 -1.579 4.265
 -1.28 -1.577 4.268
 -1.252 -1.575 4.269
 -1.224 -1.573 4.27
 -1.197 -1.572 4.273
 -1.167 -1.569 4.269
 -1.14 -1.568 4.273
 -1.113 -1.566 4.273
 -1.084 -1.563 4.271
 -1.058 -1.562 4.275
 -1.031 -1.562 4.277
 -1.002 -1.559 4.274
 -0.975 -1.557 4.275
 -0.948 -1.556 4.276
 -0.921 -1.553 4.273
 -0.894 -1.552 4.275
 -0.868 -1.552 4.279
 -0.84 -1.55 4.278
 -0.814 -1.549 4.278
 -0.787 -1.547 4.277
 -0.76 -1.546 4.277
 -0.734 -1.545 4.277
 -0.707 -1.544 4.278
 -0.681 -1.543 4.279
 -0.655 -1.543 4.281
 -0.628 -1.541 4.28
 -0.602 -1.54 4.279
 -0.575 -1.538 4.277
 -0.549 -1.537 4.277
 -0.523 -1.536 4.277
 -0.497 -1.537 4.279
 -0.471 -1.536 4.279
 -0.445 -1.535 4.28
 -0.419 -1.534 4.278
 -0.393 -1.533 4.276
 -0.367 -1.531 4.273
 -0.341 -1.53 4.271
 -0.315 -1.529 4.271
 -0.29 -1.531 4.275
 -0.264 -1.53 4.276
 -0.239 -1.53 4.276
 -0.213 -1.529 4.274
 -0.187 -1.529 4.274
 -0.161 -1.527 4.268
 -0.136 -1.526 4.267
 -0.11 -1.525 4.265
 -0.085 -1.526 4.267
 -0.059 -1.526 4.267
 -0.034 -1.527 4.27
 -0.008 -1.527 4.269
 0.016 -1.527 4.269
 0.042 -1.526 4.267
 0.067 -1.525 4.263
 0.093 -1.524 4.259
 0.118 -1.525 4.26
 0.144 -1.525 4.261
 0.17 -1.526 4.262
 0.195 -1.527 4.263
 0.221 -1.528 4.265
 0.246 -1.527 4.26
 0.272 -1.527 4.258
 0.297 -1.527 4.257
 0.323 -1.528 4.257
 0.348 -1.528 4.256
 0.374 -1.528 4.255
 0.4 -1.529 4.255
 0.425 -1.53 4.254
 0.451 -1.531 4.254
 0.477 -1.532 4.255
 0.503 -1.533 4.256
 0.529 -1.534 4.256
 0.555 -1.535 4.254
 0.58 -1.535 4.252
 0.606 -1.535 4.249
 0.632 -1.536 4.247
 0.658 -1.537 4.246
 0.684 -1.538 4.246
 0.71 -1.539 4.244
 0.736 -1.54 4.244
 0.763 -1.543 4.246
 0.789 -1.544 4.246
 0.816 -1.546 4.246
 0.842 -1.547 4.245
 0.869 -1.549 4.244
 0.894 -1.548 4.238
 0.921 -1.549 4.235
 0.947 -1.55 4.232
 0.973 -1.551 4.23
 1 -1.552 4.226
 1.027 -1.554 4.227
 1.054 -1.556 4.225
 1.081 -1.557 4.224
 1.108 -1.56 4.224
 1.136 -1.562 4.226
 1.164 -1.565 4.226
 1.192 -1.567 4.225
 1.22 -1.57 4.226
 1.247 -1.571 4.222
 1.274 -1.573 4.22
 1.302 -1.575 4.217
 1.329 -1.576 4.212
 1.356 -1.577 4.207
 1.384 -1.578 4.204
 1.412 -1.581 4.203
 1.439 -1.582 4.198
 1.467 -1.584 4.195
 1.495 -1.586 4.191
 1.524 -1.588 4.189
 1.552 -1.59 4.184
 1.579 -1.591 4.178
 1.608 -1.593 4.174
 1.636 -1.595 4.17
 1.664 -1.597 4.164
 1.691 -1.597 4.155
 1.719 -1.598 4.148
 1.746 -1.599 4.14
 1.77 -1.597 4.125
 1.795 -1.596 4.11
 1.817 -1.592 4.09
 1.837 -1.586 4.064
 1.852 -1.577 4.029
 1.865 -1.566 3.99
 1.875 -1.553 3.945
 1.884 -1.54 3.901
 1.892 -1.525 3.853
 1.901 -1.512 3.809
 1.91 -1.5 3.767
 1.92 -1.488 3.725
 1.927 -1.475 3.681
 0 0 0
 0 0 0
 0 0 0
 0 0 0
 1.804 -1.299 3.187
 1.82 -1.296 3.167
 1.834 -1.29 3.143
 1.844 -1.282 3.112
 1.873 -1.288 3.114
 1.835 -1.248 3.005
 -2.383 -1.61 4.054
 -2.349 -1.606 4.056
 -2.327 -1.61 4.08
 -2.3 -1.61 4.095
 -2.27 -1.609 4.104
 -2.243 -1.609 4.117
 -2.213 -1.608 4.127
 -2.183 -1.606 4.136
 -2.153 -1.605 4.144
 -2.126 -1.605 4.156
 -2.097 -1.604 4.167
 -2.07 -1.605 4.18
 -2.042 -1.604 4.19
 -2.012 -1.602 4.196
 -1.984 -1.602 4.207
 -1.954 -1.6 4.212
 -1.923 -1.597 4.215
 -1.894 -1.596 4.222
 -1.865 -1.595 4.23
 -1.835 -1.592 4.234
 -1.807 -1.592 4.243
 -1.778 -1.59 4.248
 -1.748 -1.588 4.251
 -1.718 -1.586 4.255
 -1.688 -1.583 4.257
 -1.658 -1.581 4.259
 -1.629 -1.579 4.263
 -1.599 -1.576 4.264
 -1.57 -1.575 4.268
 -1.541 -1.573 4.271
 -1.512 -1.571 4.274
 -1.484 -1.569 4.276
 -1.456 -1.568 4.281
 -1.426 -1.565 4.281
 -1.398 -1.563 4.283
 -1.37 -1.562 4.288
 -1.341 -1.56 4.288
 -1.313 -1.558 4.29
 -1.285 -1.556 4.292
 -1.257 -1.555 4.294
 -1.228 -1.551 4.291
 -1.2 -1.55 4.293
 -1.17 -1.546 4.288
 -1.143 -1.544 4.29
 -1.115 -1.543 4.29
 -1.087 -1.541 4.29
 -1.06 -1.539 4.292
 -1.033 -1.538 4.294
 -1.004 -1.535 4.29
 -0.977 -1.533 4.29
 -0.949 -1.532 4.29
 -0.921 -1.529 4.286
 -0.894 -1.527 4.287
 -0.868 -1.527 4.289
 -0.841 -1.525 4.288
 -0.814 -1.523 4.287
 -0.787 -1.522 4.286
 -0.76 -1.52 4.286
 -0.733 -1.519 4.285
 -0.707 -1.517 4.285
 -0.681 -1.517 4.286
 -0.654 -1.516 4.287
 -0.628 -1.515 4.286
 -0.602 -1.514 4.286
 -0.575 -1.513 4.285
 -0.549 -1.512 4.287
 -0.523 -1.511 4.287
 -0.498 -1.512 4.29
 -0.471 -1.51 4.288
 -0.445 -1.509 4.286
 -0.419 -1.507 4.283
 -0.393 -1.506 4.281
 -0.367 -1.505 4.279
 -0.341 -1.504 4.279
 -0.315 -1.504 4.278
 -0.29 -1.504 4.28
 -0.264 -1.504 4.282
 -0.238 -1.504 4.283
 -0.213 -1.503 4.28
 -0.187 -1.502 4.279
 -0.161 -1.501 4.276
 -0.136 -1.5 4.275
 -0.11 -1.5 4.273
 -0.085 -1.5 4.275
 -0.059 -1.501 4.275
 -0.033 -1.501 4.276
 -0.008 -1.5 4.274
 0.017 -1.5 4.274
 0.042 -1.499 4.271
 0.068 -1.499 4.268
 0.093 -1.498 4.266
 0.119 -1.499 4.267
 0.144 -1.499 4.266
 0.17 -1.499 4.266
 0.195 -1.5 4.267
 0.221 -1.501 4.268
 0.246 -1.5 4.264
 0.272 -1.5 4.263
 0.297 -1.502 4.265
 0.323 -1.502 4.266
 0.349 -1.503 4.265
 0.374 -1.503 4.262
 0.4 -1.503 4.261
 0.425 -1.503 4.259
 0.451 -1.503 4.257
 0.477 -1.505 4.258
 0.503 -1.507 4.26
 0.529 -1.507 4.26
 0.554 -1.508 4.259
 0.58 -1.509 4.259
 0.606 -1.509 4.254
 0.632 -1.509 4.252
 0.658 -1.51 4.252
 0.684 -1.511 4.251
 0.71 -1.512 4.249
 0.736 -1.514 4.25
 0.763 -1.517 4.253
 0.79 -1.518 4.254
 0.816 -1.52 4.254
 0.842 -1.521 4.252
 0.869 -1.523 4.252
 0.895 -1.523 4.247
 0.921 -1.523 4.244
 0.947 -1.524 4.241
 0.974 -1.525 4.239
 1 -1.526 4.234
 1.027 -1.528 4.234
 1.054 -1.53 4.234
 1.081 -1.531 4.232
 1.109 -1.534 4.233
 1.136 -1.536 4.234
 1.164 -1.539 4.235
 1.191 -1.54 4.232
 1.22 -1.544 4.234
 1.248 -1.545 4.232
 1.275 -1.547 4.23
 1.303 -1.55 4.229
 1.331 -1.551 4.225
 1.358 -1.552 4.221
 1.386 -1.554 4.218
 1.414 -1.557 4.218
 1.441 -1.558 4.212
 1.471 -1.561 4.212
 1.499 -1.563 4.21
 1.528 -1.566 4.209
 1.557 -1.568 4.206
 1.586 -1.571 4.203
 1.614 -1.572 4.199
 1.643 -1.575 4.195
 1.671 -1.576 4.19
 1.699 -1.577 4.182
 1.726 -1.578 4.176
 1.754 -1.58 4.168
 1.78 -1.579 4.155
 1.803 -1.576 4.138
 1.825 -1.572 4.117
 1.844 -1.565 4.088
 1.858 -1.555 4.052
 1.871 -1.544 4.012
 1.882 -1.532 3.968
 1.891 -1.519 3.923
 1.9 -1.506 3.877
 1.907 -1.492 3.831
 1.922 -1.484 3.799
 1.932 -1.472 3.757
 0 0 0
 0 0 0
 0 0 0
 0 0 0
 0 0 0
 1.807 -1.28 3.2
 1.824 -1.277 3.182
 1.839 -1.272 3.159
 1.846 -1.263 3.124
 1.881 -1.272 3.135
 1.848 -1.236 3.034
 -2.401 -1.594 4.094
 -2.401 -1.613 4.157
 -2.359 -1.604 4.147
 -2.334 -1.606 4.165
 -2.302 -1.604 4.173
 -2.275 -1.604 4.187
 -2.244 -1.603 4.195
 -2.212 -1.6 4.201
 -2.181 -1.597 4.206
 -2.152 -1.596 4.217
 -2.122 -1.595 4.225
 -2.092 -1.594 4.234
 -2.063 -1.593 4.243
 -2.032 -1.591 4.249
 -2.002 -1.588 4.253
 -1.971 -1.586 4.258
 -1.939 -1.583 4.26
 -1.908 -1.58 4.263
 -1.877 -1.578 4.267
 -1.847 -1.575 4.27
 -1.817 -1.573 4.276
 -1.787 -1.571 4.28
 -1.757 -1.569 4.282
 -1.727 -1.567 4.287
 -1.697 -1.564 4.288
 -1.667 -1.562 4.29
 -1.637 -1.559 4.293
 -1.607 -1.557 4.294
 -1.577 -1.554 4.296
 -1.548 -1.552 4.298
 -1.518 -1.55 4.3
 -1.488 -1.547 4.299
 -1.46 -1.545 4.302
 -1.43 -1.542 4.301
 -1.4 -1.539 4.301
 -1.372 -1.538 4.303
 -1.343 -1.535 4.304
 -1.314 -1.532 4.301
 -1.285 -1.53 4.301
 -1.256 -1.528 4.302
 -1.228 -1.525 4.3
 -1.2 -1.523 4.301
 -1.171 -1.52 4.299
 -1.143 -1.519 4.3
 -1.115 -1.517 4.3
 -1.087 -1.514 4.298
 -1.059 -1.512 4.299
 -1.032 -1.512 4.302
 -1.005 -1.51 4.301
 -0.977 -1.508 4.3
 -0.95 -1.507 4.301
 -0.922 -1.503 4.296
 -0.894 -1.501 4.295
 -0.868 -1.5 4.296
 -0.84 -1.498 4.295
 -0.813 -1.496 4.292
 -0.787 -1.495 4.293
 -0.76 -1.494 4.293
 -0.733 -1.492 4.292
 -0.707 -1.491 4.292
 -0.68 -1.49 4.292
 -0.654 -1.489 4.293
 -0.627 -1.487 4.29
 -0.601 -1.487 4.29
 -0.575 -1.486 4.29
 -0.549 -1.486 4.292
 -0.523 -1.485 4.291
 -0.497 -1.485 4.294
 -0.471 -1.484 4.293
 -0.445 -1.482 4.29
 -0.418 -1.48 4.287
 -0.392 -1.479 4.284
 -0.366 -1.477 4.282
 -0.34 -1.476 4.28
 -0.315 -1.476 4.281
 -0.289 -1.477 4.283
 -0.264 -1.478 4.287
 -0.238 -1.478 4.288
 -0.212 -1.477 4.286
 -0.187 -1.476 4.284
 -0.161 -1.475 4.283
 -0.135 -1.474 4.281
 -0.11 -1.473 4.278
 -0.084 -1.474 4.28
 -0.059 -1.474 4.28
 -0.033 -1.473 4.278
 -0.008 -1.472 4.275
 0.017 -1.472 4.274
 0.042 -1.472 4.273
 0.068 -1.471 4.27
 0.093 -1.471 4.268
 0.119 -1.472 4.271
 0.144 -1.472 4.271
 0.17 -1.472 4.27
 0.195 -1.473 4.27
 0.221 -1.474 4.272
 0.246 -1.474 4.27
 0.272 -1.474 4.27
 0.297 -1.475 4.271
 0.323 -1.476 4.27
 0.348 -1.476 4.268
 0.374 -1.475 4.263
 0.399 -1.475 4.26
 0.425 -1.475 4.259
 0.45 -1.475 4.257
 0.476 -1.477 4.259
 0.502 -1.479 4.262
 0.528 -1.48 4.261
 0.554 -1.481 4.261
 0.58 -1.482 4.262
 0.606 -1.482 4.259
 0.631 -1.482 4.257
 0.657 -1.484 4.257
 0.683 -1.485 4.256
 0.709 -1.485 4.253
 0.735 -1.486 4.253
 0.762 -1.489 4.255
 0.789 -1.491 4.256
 0.815 -1.492 4.255
 0.842 -1.493 4.255
 0.868 -1.495 4.255
 0.894 -1.495 4.25
 0.92 -1.496 4.247
 0.946 -1.497 4.244
 0.973 -1.498 4.242
 0.999 -1.498 4.238
 1.026 -1.5 4.237
 1.053 -1.502 4.238
 1.081 -1.505 4.239
 1.108 -1.507 4.239
 1.137 -1.51 4.242
 1.165 -1.513 4.243
 1.192 -1.514 4.24
 1.22 -1.517 4.242
 1.248 -1.519 4.241
 1.275 -1.521 4.238
 1.304 -1.523 4.238
 1.33 -1.524 4.232
 1.357 -1.525 4.228
 1.385 -1.527 4.225
 1.414 -1.53 4.224
 1.441 -1.531 4.22
 1.471 -1.534 4.221
 1.5 -1.537 4.22
 1.529 -1.54 4.219
 1.558 -1.542 4.216
 1.586 -1.544 4.213
 1.615 -1.547 4.21
 1.644 -1.548 4.205
 1.672 -1.55 4.201
 1.701 -1.552 4.197
 1.73 -1.554 4.192
 1.758 -1.556 4.185
 1.785 -1.556 4.177
 1.81 -1.555 4.161
 1.831 -1.55 4.139
 1.849 -1.543 4.109
 1.864 -1.534 4.074
 1.877 -1.523 4.034
 1.889 -1.512 3.992
 1.9 -1.5 3.949
 1.91 -1.488 3.906
 1.918 -1.474 3.859
 1.934 -1.468 3.831
 0 0 0
 0 0 0
 0 0 0
 0 0 0
 0 0 0
 0 0 0
 1.808 -1.259 3.209
 1.825 -1.256 3.19
 1.839 -1.251 3.166
 1.847 -1.241 3.132
 1.847 -1.227 3.085
 1.86 -1.222 3.06
 -2.445 -1.595 4.179
 -2.425 -1.601 4.208
 -2.391 -1.597 4.212
 -2.364 -1.598 4.229
 -2.331 -1.595 4.234
 -2.3 -1.594 4.244
 -2.269 -1.592 4.252
 -2.236 -1.589 4.256
 -2.204 -1.586 4.26
 -2.174 -1.585 4.27
 -2.142 -1.582 4.275
 -2.111 -1.58 4.281
 -2.08 -1.578 4.288
 -2.047 -1.574 4.289
 -2.014 -1.57 4.289
 -1.982 -1.568 4.292
 -1.95 -1.564 4.293
 -1.917 -1.56 4.294
 -1.886 -1.557 4.296
 -1.855 -1.555 4.299
 -1.824 -1.552 4.302
 -1.793 -1.549 4.303
 -1.762 -1.546 4.304
 -1.732 -1.544 4.308
 -1.702 -1.541 4.31
 -1.67 -1.538 4.309
 -1.64 -1.535 4.31
 -1.609 -1.532 4.309
 -1.578 -1.528 4.308
 -1.548 -1.525 4.307
 -1.519 -1.523 4.31
 -1.489 -1.52 4.309
 -1.46 -1.518 4.31
 -1.43 -1.516 4.311
 -1.401 -1.513 4.31
 -1.372 -1.51 4.31
 -1.343 -1.509 4.312
 -1.313 -1.505 4.308
 -1.284 -1.502 4.306
 -1.255 -1.499 4.305
 -1.226 -1.496 4.303
 -1.197 -1.494 4.302
 -1.169 -1.492 4.301
 -1.141 -1.49 4.301
 -1.113 -1.488 4.301
 -1.085 -1.486 4.3
 -1.058 -1.484 4.302
 -1.031 -1.484 4.306
 -1.004 -1.483 4.306
 -0.977 -1.481 4.306
 -0.95 -1.48 4.308
 -0.922 -1.477 4.304
 -0.894 -1.475 4.303
 -0.867 -1.474 4.302
 -0.84 -1.472 4.302
 -0.813 -1.47 4.298
 -0.786 -1.468 4.299
 -0.759 -1.467 4.298
 -0.732 -1.465 4.296
 -0.706 -1.464 4.295
 -0.679 -1.463 4.295
 -0.653 -1.462 4.295
 -0.626 -1.459 4.291
 -0.6 -1.459 4.292
 -0.574 -1.458 4.291
 -0.548 -1.457 4.292
 -0.522 -1.456 4.29
 -0.496 -1.456 4.293
 -0.47 -1.456 4.294
 -0.444 -1.454 4.292
 -0.418 -1.453 4.29
 -0.392 -1.452 4.289
 -0.366 -1.452 4.289
 -0.34 -1.45 4.286
 -0.315 -1.45 4.287
 -0.289 -1.45 4.289
 -0.263 -1.451 4.291
 -0.238 -1.45 4.291
 -0.212 -1.45 4.289
 -0.186 -1.449 4.287
 -0.161 -1.448 4.286
 -0.135 -1.448 4.285
 -0.11 -1.447 4.283
 -0.084 -1.447 4.283
 -0.059 -1.447 4.283
 -0.033 -1.446 4.281
 -0.008 -1.445 4.278
 0.017 -1.445 4.277
 0.042 -1.444 4.274
 0.068 -1.444 4.271
 0.093 -1.443 4.269
 0.119 -1.444 4.272
 0.144 -1.444 4.271
 0.169 -1.445 4.271
 0.195 -1.445 4.271
 0.22 -1.446 4.273
 0.246 -1.446 4.27
 0.271 -1.446 4.27
 0.297 -1.448 4.271
 0.323 -1.448 4.27
 0.348 -1.448 4.268
 0.373 -1.447 4.265
 0.399 -1.447 4.262
 0.424 -1.448 4.262
 0.45 -1.448 4.261
 0.476 -1.45 4.262
 0.502 -1.452 4.265
 0.528 -1.453 4.265
 0.554 -1.453 4.264
 0.58 -1.455 4.265
 0.605 -1.455 4.261
 0.631 -1.455 4.258
 0.656 -1.456 4.257
 0.682 -1.457 4.256
 0.708 -1.457 4.254
 0.735 -1.459 4.255
 0.761 -1.461 4.257
 0.788 -1.464 4.26
 0.815 -1.465 4.26
 0.841 -1.466 4.259
 0.868 -1.468 4.258
 0.893 -1.468 4.254
 0.92 -1.469 4.252
 0.946 -1.47 4.249
 0.972 -1.471 4.247
 0.999 -1.471 4.244
 1.026 -1.473 4.243
 1.053 -1.475 4.243
 1.08 -1.478 4.244
 1.108 -1.48 4.244
 1.136 -1.483 4.246
 1.164 -1.485 4.248
 1.191 -1.487 4.246
 1.219 -1.489 4.245
 1.247 -1.492 4.245
 1.274 -1.493 4.241
 1.302 -1.495 4.24
 1.328 -1.495 4.234
 1.356 -1.497 4.231
 1.384 -1.499 4.229
 1.413 -1.502 4.229
 1.441 -1.504 4.227
 1.471 -1.507 4.228
 1.499 -1.51 4.226
 1.529 -1.513 4.227
 1.558 -1.515 4.224
 1.586 -1.517 4.22
 1.614 -1.519 4.216
 1.643 -1.521 4.213
 1.671 -1.522 4.206
 1.7 -1.525 4.204
 1.729 -1.527 4.2
 1.758 -1.529 4.194
 1.786 -1.53 4.188
 1.812 -1.53 4.176
 1.834 -1.526 4.154
 1.854 -1.52 4.128
 1.871 -1.513 4.097
 1.885 -1.503 4.058
 1.897 -1.492 4.017
 1.91 -1.482 3.979
 1.926 -1.474 3.948
 1.934 -1.461 3.9
 0 0 0
 0 0 0
 0 0 0
 0 0 0
 0 0 0
 0 0 0
 0 0 0
 1.912 -1.308 3.401
 1.819 -1.23 3.187
 1.833 -1.225 3.163
 1.843 -1.218 3.133
 1.875 -1.225 3.14
 1.835 -1.185 3.026
 -2.456 -1.574 4.209
 -2.486 -1.612 4.325
 -2.415 -1.584 4.264
 -2.386 -1.584 4.278
 -2.353 -1.582 4.285
 -2.319 -1.578 4.288
 -2.287 -1.576 4.296
 -2.253 -1.572 4.298
 -2.221 -1.57 4.304
 -2.188 -1.567 4.307
 -2.155 -1.563 4.31
 -2.121 -1.559 4.311
 -2.089 -1.557 4.316
 -2.055 -1.552 4.315
 -2.02 -1.547 4.311
 -1.988 -1.544 4.315
 -1.956 -1.541 4.316
 -1.923 -1.537 4.316
 -1.89 -1.533 4.315
 -1.859 -1.531 4.318
 -1.827 -1.527 4.317
 -1.795 -1.523 4.316
 -1.763 -1.52 4.316
 -1.733 -1.518 4.32
 -1.702 -1.515 4.321
 -1.672 -1.512 4.322
 -1.642 -1.509 4.323
 -1.61 -1.506 4.322
 -1.579 -1.502 4.318
 -1.548 -1.499 4.317
 -1.519 -1.496 4.318
 -1.488 -1.493 4.315
 -1.459 -1.49 4.316
 -1.429 -1.487 4.315
 -1.399 -1.484 4.313
 -1.369 -1.481 4.311
 -1.34 -1.479 4.312
 -1.311 -1.476 4.308
 -1.282 -1.473 4.308
 -1.253 -1.471 4.307
 -1.225 -1.469 4.307
 -1.196 -1.466 4.307
 -1.168 -1.464 4.306
 -1.14 -1.462 4.306
 -1.113 -1.461 4.308
 -1.084 -1.458 4.305
 -1.057 -1.457 4.305
 -1.03 -1.456 4.308
 -1.003 -1.455 4.309
 -0.976 -1.453 4.31
 -0.949 -1.453 4.312
 -0.921 -1.45 4.31
 -0.894 -1.449 4.309
 -0.867 -1.447 4.307
 -0.84 -1.445 4.307
 -0.812 -1.443 4.303
 -0.786 -1.442 4.304
 -0.759 -1.44 4.302
 -0.732 -1.438 4.3
 -0.705 -1.436 4.298
 -0.678 -1.435 4.295
 -0.652 -1.433 4.293
 -0.625 -1.431 4.292
 -0.599 -1.431 4.294
 -0.573 -1.43 4.293
 -0.547 -1.43 4.295
 -0.521 -1.43 4.296
 -0.495 -1.428 4.294
 -0.469 -1.428 4.294
 -0.443 -1.427 4.294
 -0.418 -1.427 4.295
 -0.391 -1.425 4.292
 -0.366 -1.426 4.296
 -0.34 -1.424 4.292
 -0.314 -1.425 4.294
 -0.289 -1.423 4.292
 -0.263 -1.423 4.293
 -0.237 -1.423 4.292
 -0.212 -1.422 4.289
 -0.186 -1.421 4.287
 -0.16 -1.421 4.287
 -0.135 -1.42 4.286
 -0.109 -1.419 4.283
 -0.084 -1.419 4.284
 -0.058 -1.419 4.283
 -0.033 -1.419 4.282
 -0.007 -1.418 4.28
 0.017 -1.418 4.28
 0.042 -1.417 4.275
 0.068 -1.417 4.274
 0.093 -1.417 4.273
 0.119 -1.418 4.275
 0.144 -1.418 4.276
 0.17 -1.419 4.278
 0.195 -1.42 4.278
 0.221 -1.42 4.278
 0.246 -1.419 4.273
 0.271 -1.418 4.269
 0.296 -1.418 4.267
 0.322 -1.418 4.265
 0.347 -1.419 4.264
 0.373 -1.419 4.264
 0.398 -1.42 4.263
 0.424 -1.421 4.264
 0.45 -1.421 4.263
 0.475 -1.422 4.264
 0.501 -1.424 4.267
 0.527 -1.425 4.267
 0.553 -1.426 4.267
 0.579 -1.428 4.27
 0.605 -1.428 4.267
 0.631 -1.429 4.265
 0.657 -1.43 4.266
 0.683 -1.431 4.264
 0.708 -1.431 4.261
 0.735 -1.433 4.261
 0.761 -1.434 4.262
 0.788 -1.437 4.265
 0.814 -1.438 4.264
 0.841 -1.439 4.263
 0.867 -1.44 4.26
 0.892 -1.44 4.255
 0.918 -1.44 4.251
 0.944 -1.441 4.249
 0.971 -1.442 4.248
 0.998 -1.444 4.246
 1.025 -1.446 4.246
 1.052 -1.448 4.247
 1.08 -1.45 4.248
 1.107 -1.452 4.247
 1.135 -1.455 4.249
 1.163 -1.458 4.251
 1.19 -1.459 4.249
 1.218 -1.461 4.248
 1.246 -1.464 4.248
 1.273 -1.465 4.245
 1.301 -1.467 4.243
 1.327 -1.468 4.238
 1.356 -1.47 4.237
 1.384 -1.472 4.235
 1.413 -1.475 4.236
 1.442 -1.478 4.236
 1.471 -1.481 4.238
 1.5 -1.483 4.235
 1.529 -1.486 4.234
 1.557 -1.487 4.229
 1.584 -1.489 4.224
 1.613 -1.491 4.22
 1.642 -1.493 4.218
 1.67 -1.495 4.212
 1.699 -1.497 4.209
 1.729 -1.5 4.207
 1.757 -1.501 4.201
 1.786 -1.503 4.196
 1.813 -1.503 4.185
 1.835 -1.499 4.164
 1.855 -1.494 4.139
 1.874 -1.489 4.112
 1.89 -1.48 4.078
 1.905 -1.472 4.043
 1.921 -1.464 4.01
 1.942 -1.461 3.989
 0 0 0
 0 0 0
 0 0 0
 0 0 0
 0 0 0
 0 0 0
 0 0 0
 0 0 0
 1.979 -1.33 3.528
 1.816 -1.206 3.188
 1.829 -1.201 3.163
 1.842 -1.195 3.137
 1.853 -1.189 3.11
 1.864 -1.183 3.081
 -2.525 -1.589 4.337
 -2.479 -1.579 4.323
 -2.432 -1.567 4.304
 -2.399 -1.564 4.311
 -2.365 -1.561 4.316
 -2.33 -1.557 4.318
 -2.295 -1.553 4.32
 -2.26 -1.549 4.321
 -2.227 -1.546 4.325
 -2.194 -1.543 4.329
 -2.159 -1.538 4.328
 -2.125 -1.534 4.329
 -2.093 -1.532 4.333
 -2.06 -1.528 4.335
 -2.024 -1.522 4.329
 -1.992 -1.52 4.333
 -1.96 -1.516 4.334
 -1.925 -1.511 4.33
 -1.891 -1.506 4.326
 -1.86 -1.504 4.33
 -1.827 -1.499 4.326
 -1.795 -1.496 4.325
 -1.763 -1.492 4.324
 -1.733 -1.49 4.328
 -1.701 -1.487 4.327
 -1.671 -1.484 4.328
 -1.64 -1.481 4.328
 -1.609 -1.477 4.326
 -1.577 -1.473 4.323
 -1.547 -1.47 4.322
 -1.518 -1.468 4.323
 -1.487 -1.465 4.322
 -1.458 -1.463 4.323
 -1.428 -1.46 4.322
 -1.397 -1.456 4.317
 -1.367 -1.453 4.314
 -1.338 -1.45 4.313
 -1.308 -1.446 4.308
 -1.279 -1.443 4.307
 -1.25 -1.441 4.306
 -1.222 -1.439 4.306
 -1.194 -1.437 4.306
 -1.166 -1.436 4.308
 -1.139 -1.434 4.308
 -1.111 -1.433 4.31
 -1.083 -1.43 4.308
 -1.055 -1.428 4.307
 -1.028 -1.427 4.308
 -1.001 -1.426 4.31
 -0.974 -1.425 4.31
 -0.947 -1.425 4.315
 -0.92 -1.423 4.314
 -0.894 -1.422 4.316
 -0.866 -1.42 4.313
 -0.839 -1.418 4.312
 -0.812 -1.416 4.309
 -0.785 -1.415 4.31
 -0.758 -1.413 4.307
 -0.731 -1.411 4.304
 -0.704 -1.409 4.302
 -0.677 -1.407 4.298
 -0.651 -1.405 4.295
 -0.624 -1.404 4.294
 -0.599 -1.404 4.298
 -0.573 -1.404 4.298
 -0.547 -1.404 4.301
 -0.521 -1.404 4.303
 -0.495 -1.402 4.3
 -0.469 -1.401 4.299
 -0.443 -1.4 4.298
 -0.417 -1.4 4.298
 -0.391 -1.398 4.296
 -0.365 -1.398 4.296
 -0.339 -1.396 4.292
 -0.314 -1.396 4.291
 -0.288 -1.395 4.289
 -0.262 -1.394 4.289
 -0.237 -1.394 4.29
 -0.211 -1.394 4.289
 -0.186 -1.393 4.288
 -0.16 -1.393 4.287
 -0.135 -1.393 4.287
 -0.109 -1.391 4.283
 -0.084 -1.392 4.285
 -0.058 -1.392 4.286
 -0.033 -1.392 4.285
 -0.007 -1.392 4.285
 0.017 -1.393 4.286
 0.043 -1.392 4.283
 0.068 -1.391 4.28
 0.093 -1.392 4.281
 0.119 -1.392 4.282
 0.144 -1.393 4.283
 0.17 -1.393 4.283
 0.195 -1.393 4.282
 0.221 -1.394 4.283
 0.246 -1.393 4.278
 0.271 -1.392 4.274
 0.296 -1.392 4.271
 0.322 -1.391 4.268
 0.347 -1.392 4.268
 0.373 -1.393 4.268
 0.398 -1.393 4.266
 0.424 -1.394 4.269
 0.449 -1.395 4.267
 0.475 -1.396 4.268
 0.501 -1.398 4.271
 0.527 -1.399 4.271
 0.553 -1.4 4.271
 0.579 -1.402 4.274
 0.605 -1.402 4.271
 0.63 -1.402 4.27
 0.657 -1.404 4.272
 0.683 -1.405 4.271
 0.709 -1.406 4.269
 0.735 -1.407 4.27
 0.761 -1.408 4.268
 0.788 -1.411 4.271
 0.814 -1.412 4.27
 0.84 -1.413 4.269
 0.866 -1.413 4.264
 0.892 -1.413 4.259
 0.917 -1.413 4.254
 0.944 -1.414 4.253
 0.97 -1.415 4.252
 0.997 -1.416 4.249
 1.024 -1.419 4.25
 1.051 -1.42 4.25
 1.078 -1.422 4.249
 1.105 -1.423 4.247
 1.133 -1.426 4.249
 1.161 -1.429 4.25
 1.188 -1.431 4.249
 1.216 -1.432 4.248
 1.244 -1.435 4.249
 1.271 -1.437 4.246
 1.299 -1.439 4.247
 1.326 -1.44 4.242
 1.355 -1.442 4.241
 1.383 -1.445 4.24
 1.412 -1.448 4.241
 1.44 -1.45 4.239
 1.47 -1.453 4.241
 1.499 -1.456 4.24
 1.527 -1.458 4.237
 1.555 -1.459 4.233
 1.583 -1.46 4.227
 1.611 -1.462 4.223
 1.64 -1.464 4.22
 1.669 -1.467 4.217
 1.698 -1.469 4.214
 1.728 -1.472 4.213
 1.757 -1.474 4.208
 1.786 -1.476 4.202
 1.812 -1.475 4.191
 1.835 -1.473 4.173
 1.857 -1.469 4.151
 1.877 -1.464 4.127
 1.895 -1.457 4.097
 1.914 -1.452 4.069
 1.931 -1.445 4.039
 0 0 0
 0 0 0
 0 0 0
 0 0 0
 0 0 0
 0 0 0
 0 0 0
 0 0 0
 0 0 0
 2.006 -1.323 3.584
 1.812 -1.182 3.187
 1.828 -1.179 3.168
 1.84 -1.173 3.142
 1.842 -1.16 3.097
 1.859 -1.158 3.08
 -2.493 -1.54 4.292
 -2.477 -1.548 4.329
 -2.445 -1.546 4.337
 -2.411 -1.543 4.342
 -2.374 -1.538 4.342
 -2.338 -1.534 4.343
 -2.303 -1.529 4.344
 -2.266 -1.524 4.341
 -2.23 -1.519 4.341
 -2.197 -1.516 4.343
 -2.16 -1.511 4.34
 -2.126 -1.507 4.34
 -2.094 -1.504 4.345
 -2.061 -1.5 4.345
 -2.025 -1.495 4.34
 -1.992 -1.492 4.342
 -1.958 -1.487 4.339
 -1.923 -1.482 4.335
 -1.889 -1.477 4.331
 -1.857 -1.474 4.331
 -1.824 -1.47 4.329
 -1.792 -1.466 4.327
 -1.76 -1.462 4.326
 -1.73 -1.46 4.33
 -1.699 -1.457 4.33
 -1.668 -1.454 4.329
 -1.638 -1.452 4.331
 -1.607 -1.449 4.33
 -1.575 -1.445 4.326
 -1.545 -1.442 4.325
 -1.515 -1.439 4.325
 -1.484 -1.435 4.322
 -1.455 -1.433 4.322
 -1.425 -1.43 4.321
 -1.395 -1.427 4.317
 -1.365 -1.424 4.315
 -1.336 -1.421 4.315
 -1.306 -1.418 4.311
 -1.278 -1.416 4.31
 -1.249 -1.413 4.309
 -1.221 -1.411 4.31
 -1.193 -1.409 4.309
 -1.165 -1.408 4.312
 -1.138 -1.407 4.313
 -1.11 -1.406 4.315
 -1.082 -1.403 4.313
 -1.054 -1.401 4.312
 -1.027 -1.4 4.312
 -1 -1.399 4.315
 -0.973 -1.398 4.316
 -0.947 -1.398 4.32
 -0.92 -1.396 4.319
 -0.893 -1.396 4.322
 -0.866 -1.393 4.319
 -0.839 -1.392 4.317
 -0.811 -1.39 4.315
 -0.785 -1.389 4.317
 -0.758 -1.387 4.314
 -0.731 -1.385 4.31
 -0.704 -1.383 4.308
 -0.677 -1.381 4.304
 -0.65 -1.379 4.3
 -0.624 -1.378 4.299
 -0.598 -1.378 4.304
 -0.572 -1.377 4.303
 -0.546 -1.377 4.305
 -0.521 -1.377 4.307
 -0.494 -1.375 4.302
 -0.468 -1.374 4.302
 -0.443 -1.374 4.304
 -0.417 -1.375 4.307
 -0.391 -1.373 4.303
 -0.365 -1.372 4.301
 -0.339 -1.37 4.296
 -0.313 -1.369 4.294
 -0.287 -1.368 4.291
 -0.262 -1.367 4.29
 -0.236 -1.367 4.291
 -0.211 -1.366 4.289
 -0.185 -1.366 4.289
 -0.16 -1.366 4.289
 -0.134 -1.366 4.289
 -0.109 -1.364 4.284
 -0.083 -1.364 4.285
 -0.058 -1.364 4.285
 -0.033 -1.364 4.285
 -0.007 -1.365 4.287
 0.017 -1.366 4.291
 0.043 -1.366 4.289
 0.068 -1.365 4.284
 0.093 -1.365 4.283
 0.119 -1.365 4.283
 0.144 -1.366 4.285
 0.17 -1.366 4.285
 0.195 -1.367 4.287
 0.221 -1.368 4.288
 0.246 -1.367 4.282
 0.271 -1.366 4.279
 0.296 -1.365 4.275
 0.321 -1.364 4.27
 0.347 -1.365 4.271
 0.373 -1.366 4.271
 0.398 -1.366 4.27
 0.424 -1.368 4.273
 0.45 -1.369 4.274
 0.475 -1.37 4.275
 0.501 -1.372 4.278
 0.527 -1.373 4.277
 0.553 -1.374 4.278
 0.579 -1.376 4.279
 0.605 -1.376 4.277
 0.631 -1.377 4.277
 0.657 -1.379 4.281
 0.683 -1.38 4.278
 0.709 -1.38 4.276
 0.735 -1.381 4.276
 0.761 -1.382 4.272
 0.787 -1.384 4.274
 0.814 -1.385 4.273
 0.84 -1.386 4.274
 0.866 -1.386 4.268
 0.891 -1.386 4.263
 0.917 -1.386 4.259
 0.943 -1.387 4.255
 0.969 -1.388 4.254
 0.996 -1.389 4.252
 1.023 -1.391 4.254
 1.05 -1.393 4.253
 1.077 -1.395 4.253
 1.105 -1.397 4.252
 1.132 -1.4 4.254
 1.16 -1.402 4.254
 1.187 -1.403 4.253
 1.214 -1.404 4.25
 1.242 -1.407 4.25
 1.27 -1.408 4.248
 1.298 -1.411 4.249
 1.325 -1.412 4.244
 1.354 -1.415 4.245
 1.381 -1.417 4.243
 1.41 -1.419 4.243
 1.439 -1.422 4.242
 1.468 -1.425 4.244
 1.497 -1.427 4.242
 1.526 -1.43 4.24
 1.554 -1.431 4.236
 1.581 -1.432 4.229
 1.61 -1.434 4.227
 1.639 -1.436 4.224
 1.668 -1.439 4.221
 1.697 -1.441 4.219
 1.727 -1.444 4.218
 1.756 -1.446 4.213
 1.785 -1.448 4.21
 1.813 -1.449 4.201
 1.837 -1.447 4.184
 1.862 -1.446 4.17
 1.885 -1.443 4.152
 1.901 -1.435 4.117
 1.918 -1.429 4.087
 0 0 0
 0 0 0
 0 0 0
 0 0 0
 0 0 0
 0 0 0
 0 0 0
 0 0 0
 0 0 0
 0 0 0
 2.045 -1.324 3.661
 1.807 -1.157 3.186
 1.824 -1.154 3.167
 1.838 -1.15 3.145
 1.855 -1.147 3.126
 1.88 -1.15 3.121
 -2.533 -1.535 4.369
 -2.47 -1.515 4.326
 -2.45 -1.52 4.355
 -2.414 -1.516 4.358
 -2.377 -1.511 4.357
 -2.339 -1.505 4.353
 -2.302 -1.5 4.351
 -2.264 -1.495 4.348
 -2.228 -1.49 4.346
 -2.194 -1.486 4.348
 -2.158 -1.481 4.344
 -2.123 -1.477 4.344
 -2.091 -1.474 4.348
 -2.057 -1.47 4.346
 -2.022 -1.465 4.343
 -1.989 -1.462 4.345
 -1.955 -1.457 4.342
 -1.921 -1.452 4.338
 -1.887 -1.448 4.334
 -1.855 -1.444 4.334
 -1.822 -1.44 4.331
 -1.79 -1.437 4.331
 -1.758 -1.433 4.329
 -1.728 -1.431 4.332
 -1.697 -1.428 4.333
 -1.666 -1.425 4.332
 -1.636 -1.423 4.333
 -1.604 -1.419 4.331
 -1.573 -1.416 4.329
 -1.543 -1.413 4.327
 -1.513 -1.41 4.326
 -1.482 -1.406 4.323
 -1.452 -1.404 4.323
 -1.422 -1.401 4.32
 -1.393 -1.398 4.318
 -1.363 -1.395 4.317
 -1.335 -1.393 4.318
 -1.305 -1.39 4.315
 -1.277 -1.388 4.316
 -1.248 -1.386 4.314
 -1.22 -1.384 4.315
 -1.192 -1.382 4.313
 -1.164 -1.381 4.317
 -1.136 -1.379 4.316
 -1.109 -1.378 4.319
 -1.081 -1.376 4.316
 -1.053 -1.374 4.315
 -1.026 -1.372 4.314
 -0.999 -1.371 4.317
 -0.972 -1.37 4.317
 -0.946 -1.37 4.322
 -0.919 -1.369 4.323
 -0.893 -1.369 4.328
 -0.865 -1.367 4.326
 -0.838 -1.366 4.325
 -0.811 -1.364 4.321
 -0.784 -1.362 4.321
 -0.757 -1.36 4.316
 -0.73 -1.358 4.312
 -0.703 -1.355 4.309
