 1.691 -1.631 3.753
 1.738 -1.652 3.793
 1.753 -1.643 3.761
 1.773 -1.638 3.74
 1.818 -1.657 3.772
 1.827 -1.643 3.728
 1.816 -1.612 3.646
 1.785 -1.563 3.525
 1.839 -1.59 3.575
 1.831 -1.563 3.502
 1.827 -1.539 3.438
 1.835 -1.527 3.4
 1.788 -1.469 3.26
 1.83 -1.486 3.286
 1.787 -1.434 3.159
 1.765 -1.4 3.073
 1.749 -1.37 2.997
 1.759 -1.362 2.969
 1.767 -1.353 2.938
 1.777 -1.345 2.91
 1.78 -1.333 2.872
 -2.209 -1.646 3.699
 -2.158 -1.627 3.668
 -2.129 -1.624 3.674
 -2.104 -1.624 3.687
 -2.08 -1.626 3.702
 -2.052 -1.624 3.71
 -2.029 -1.625 3.725
 -2.007 -1.628 3.743
 -1.982 -1.629 3.755
 -1.958 -1.63 3.77
 -1.933 -1.63 3.782
 -1.908 -1.63 3.793
 -1.879 -1.627 3.797
 -1.853 -1.627 3.807
 -1.827 -1.627 3.817
 -1.802 -1.627 3.828
 -1.779 -1.63 3.843
 -1.753 -1.629 3.851
 -1.725 -1.626 3.855
 -1.697 -1.624 3.859
 -1.671 -1.624 3.867
 -1.646 -1.624 3.877
 -1.619 -1.621 3.88
 -1.596 -1.624 3.896
 -1.571 -1.625 3.907
 -1.546 -1.625 3.916
 -1.519 -1.623 3.918
 -1.495 -1.624 3.93
 -1.466 -1.621 3.929
 -1.44 -1.62 3.935
 -1.415 -1.62 3.942
 -1.389 -1.619 3.949
 -1.364 -1.619 3.956
 -1.339 -1.619 3.963
 -1.313 -1.618 3.968
 -1.289 -1.619 3.978
 -1.264 -1.621 3.988
 -1.241 -1.623 4.001
 -1.217 -1.624 4.01
 -1.19 -1.623 4.013
 -1.162 -1.619 4.009
 -1.135 -1.616 4.008
 -1.108 -1.614 4.008
 -1.081 -1.611 4.006
 -1.058 -1.613 4.017
 -1.033 -1.614 4.025
 -1.009 -1.615 4.031
 -0.982 -1.612 4.029
 -0.957 -1.612 4.036
 -0.932 -1.612 4.039
 -0.906 -1.611 4.041
 -0.88 -1.609 4.041
 -0.856 -1.61 4.049
 -0.832 -1.612 4.057
 -0.806 -1.611 4.058
 -0.782 -1.612 4.065
 -0.757 -1.613 4.072
 -0.731 -1.611 4.069
 -0.705 -1.609 4.067
 -0.68 -1.608 4.07
 -0.655 -1.607 4.071
 -0.63 -1.608 4.076
 -0.607 -1.613 4.092
 -0.583 -1.615 4.098
 -0.558 -1.615 4.101
 -0.533 -1.616 4.107
 -0.508 -1.616 4.109
 -0.483 -1.616 4.112
 -0.458 -1.616 4.114
 -0.434 -1.617 4.119
 -0.408 -1.617 4.119
 -0.383 -1.616 4.119
 -0.358 -1.615 4.117
 -0.333 -1.616 4.122
 -0.308 -1.617 4.126
 -0.284 -1.619 4.131
 -0.259 -1.618 4.132
 -0.234 -1.619 4.133
 -0.209 -1.619 4.135
 -0.184 -1.617 4.131
 -0.158 -1.616 4.129
 -0.134 -1.618 4.133
 -0.109 -1.618 4.133
 -0.084 -1.617 4.132
 -0.059 -1.619 4.137
 -0.034 -1.62 4.139
 -0.009 -1.621 4.141
 0.015 -1.621 4.141
 0.04 -1.621 4.14
 0.065 -1.62 4.137
 0.09 -1.619 4.135
 0.115 -1.617 4.129
 0.14 -1.615 4.123
 0.165 -1.615 4.122
 0.19 -1.615 4.121
 0.214 -1.615 4.118
 0.239 -1.615 4.116
 0.264 -1.615 4.115
 0.289 -1.615 4.114
 0.314 -1.615 4.112
 0.339 -1.617 4.115
 0.364 -1.618 4.115
 0.39 -1.62 4.118
 0.415 -1.622 4.122
 0.44 -1.621 4.115
 0.464 -1.618 4.107
 0.49 -1.621 4.111
 0.515 -1.621 4.108
 0.538 -1.616 4.092
 0.563 -1.616 4.09
 0.588 -1.618 4.091
 0.613 -1.617 4.086
 0.639 -1.62 4.088
 0.665 -1.624 4.095
 0.692 -1.627 4.098
 0.717 -1.627 4.096
 0.741 -1.626 4.088
 0.765 -1.624 4.078
 0.79 -1.624 4.075
 0.814 -1.623 4.066
 0.84 -1.623 4.063
 0.865 -1.624 4.061
 0.891 -1.626 4.059
 0.917 -1.627 4.059
 0.943 -1.63 4.06
 0.968 -1.631 4.056
 0.995 -1.633 4.055
 1.02 -1.633 4.05
 1.044 -1.631 4.041
 1.069 -1.631 4.035
 1.095 -1.632 4.031
 1.119 -1.632 4.023
 1.145 -1.632 4.018
 1.172 -1.636 4.02
 1.198 -1.636 4.015
 1.223 -1.637 4.009
 1.25 -1.639 4.007
 1.278 -1.643 4.009
 1.302 -1.642 3.998
 1.33 -1.645 3.998
 1.356 -1.646 3.994
 1.382 -1.647 3.987
 1.403 -1.643 3.97
 1.428 -1.642 3.96
 1.452 -1.641 3.948
 1.476 -1.639 3.936
 1.5 -1.638 3.925
 1.524 -1.638 3.914
 1.548 -1.636 3.902
 1.571 -1.635 3.889
 1.594 -1.633 3.875
 1.618 -1.631 3.862
 1.643 -1.631 3.852
 1.669 -1.632 3.844
 1.694 -1.633 3.836
 1.721 -1.635 3.83
 1.748 -1.636 3.823
 1.772 -1.635 3.811
 1.79 -1.629 3.785
 1.805 -1.621 3.756
 1.815 -1.608 3.714
 1.821 -1.591 3.665
 1.824 -1.573 3.612
 1.831 -1.558 3.567
 1.834 -1.541 3.517
 1.835 -1.523 3.463
 1.83 -1.499 3.398
 1.807 -1.463 3.305
 1.785 -1.428 3.214
 1.775 -1.402 3.146
 1.775 -1.386 3.098
 1.774 -1.369 3.048
 1.769 -1.349 2.994
 1.768 -1.333 2.947
 1.765 -1.315 2.897
 1.77 -1.304 2.862
 -2.216 -1.626 3.72
 -2.159 -1.602 3.68
 -2.16 -1.623 3.739
 -2.137 -1.625 3.756
 -2.114 -1.627 3.774
 -2.085 -1.624 3.779
 -2.062 -1.626 3.796
 -2.038 -1.628 3.812
 -2.011 -1.627 3.821
 -1.985 -1.627 3.832
 -1.959 -1.627 3.844
 -1.934 -1.627 3.856
 -1.905 -1.625 3.86
 -1.88 -1.625 3.872
 -1.856 -1.627 3.887
 -1.83 -1.627 3.897
 -1.806 -1.628 3.911
 -1.78 -1.628 3.92
 -1.751 -1.625 3.923
 -1.722 -1.622 3.925
 -1.695 -1.621 3.932
 -1.668 -1.62 3.939
 -1.641 -1.618 3.945
 -1.617 -1.62 3.957
 -1.592 -1.621 3.968
 -1.566 -1.62 3.975
 -1.538 -1.618 3.979
 -1.514 -1.619 3.989
 -1.486 -1.617 3.991
 -1.459 -1.616 3.997
 -1.435 -1.617 4.007
 -1.408 -1.616 4.013
 -1.383 -1.617 4.022
 -1.358 -1.617 4.029
 -1.331 -1.616 4.034
 -1.305 -1.615 4.038
 -1.281 -1.616 4.049
 -1.256 -1.618 4.059
 -1.232 -1.619 4.069
 -1.206 -1.619 4.075
 -1.179 -1.617 4.078
 -1.152 -1.615 4.078
 -1.125 -1.612 4.077
 -1.097 -1.609 4.074
 -1.072 -1.61 4.082
 -1.047 -1.61 4.088
 -1.022 -1.61 4.093
 -0.996 -1.609 4.096
 -0.97 -1.61 4.101
 -0.944 -1.609 4.104
 -0.917 -1.605 4.1
 -0.891 -1.604 4.1
 -0.866 -1.603 4.104
 -0.842 -1.606 4.114
 -0.816 -1.605 4.117
 -0.792 -1.609 4.13
 -0.768 -1.61 4.137
 -0.741 -1.607 4.133
 -0.715 -1.605 4.13
 -0.689 -1.605 4.134
 -0.664 -1.604 4.134
 -0.639 -1.605 4.14
 -0.616 -1.611 4.158
 -0.591 -1.612 4.165
 -0.566 -1.613 4.169
 -0.541 -1.613 4.173
 -0.515 -1.613 4.174
 -0.489 -1.612 4.174
 -0.464 -1.611 4.174
 -0.439 -1.612 4.179
 -0.414 -1.612 4.18
 -0.388 -1.611 4.178
 -0.362 -1.61 4.178
 -0.337 -1.61 4.18
 -0.312 -1.609 4.179
 -0.287 -1.611 4.184
 -0.261 -1.611 4.185
 -0.236 -1.61 4.183
 -0.211 -1.611 4.187
 -0.185 -1.609 4.184
 -0.16 -1.608 4.182
 -0.135 -1.609 4.185
 -0.11 -1.61 4.186
 -0.084 -1.609 4.185
 -0.059 -1.611 4.191
 -0.034 -1.612 4.193
 -0.009 -1.612 4.191
 0.016 -1.612 4.192
 0.041 -1.612 4.192
 0.066 -1.611 4.189
 0.091 -1.611 4.188
 0.117 -1.612 4.188
 0.142 -1.609 4.181
 0.167 -1.609 4.179
 0.192 -1.609 4.177
 0.217 -1.608 4.174
 0.242 -1.607 4.17
 0.267 -1.608 4.171
 0.293 -1.609 4.17
 0.318 -1.609 4.171
 0.343 -1.61 4.171
 0.369 -1.611 4.171
 0.394 -1.613 4.173
 0.42 -1.614 4.174
 0.445 -1.613 4.168
 0.469 -1.611 4.162
 0.495 -1.612 4.162
 0.52 -1.612 4.157
 0.544 -1.608 4.144
 0.569 -1.608 4.142
 0.595 -1.61 4.143
 0.62 -1.611 4.141
 0.646 -1.613 4.144
 0.673 -1.616 4.148
 0.699 -1.619 4.152
 0.725 -1.62 4.149
 0.75 -1.619 4.142
 0.775 -1.618 4.137
 0.8 -1.619 4.133
 0.825 -1.618 4.128
 0.85 -1.619 4.124
 0.877 -1.62 4.123
 0.902 -1.62 4.117
 0.928 -1.622 4.117
 0.953 -1.621 4.111
 0.979 -1.623 4.109
 1.006 -1.625 4.108
 1.032 -1.626 4.105
 1.057 -1.626 4.1
 1.083 -1.628 4.097
 1.109 -1.629 4.094
 1.135 -1.628 4.087
 1.16 -1.629 4.082
 1.188 -1.632 4.082
 1.214 -1.632 4.077
 1.24 -1.633 4.072
 1.267 -1.635 4.07
 1.295 -1.639 4.071
 1.319 -1.637 4.06
 1.347 -1.64 4.059
 1.373 -1.641 4.054
 1.399 -1.641 4.045
 1.422 -1.639 4.031
 1.446 -1.638 4.02
 1.47 -1.635 4.006
 1.494 -1.634 3.993
 1.518 -1.632 3.98
 1.542 -1.631 3.969
 1.568 -1.632 3.962
 1.592 -1.63 3.949
 1.618 -1.631 3.94
 1.643 -1.63 3.93
 1.668 -1.63 3.92
 1.692 -1.629 3.907
 1.719 -1.631 3.901
 1.744 -1.63 3.89
 1.767 -1.629 3.875
 1.79 -1.626 3.859
 1.809 -1.621 3.835
 1.82 -1.609 3.796
 1.827 -1.593 3.747
 1.833 -1.577 3.697
 1.835 -1.558 3.643
 1.84 -1.542 3.593
 1.844 -1.526 3.544
 1.848 -1.51 3.496
 1.837 -1.482 3.421
 1.8 -1.434 3.299
 1.772 -1.395 3.197
 1.766 -1.374 3.138
 1.77 -1.36 3.096
 1.773 -1.347 3.054
 1.77 -1.329 3.004
 1.771 -1.314 2.959
 1.76 -1.292 2.898
 1.768 -1.283 2.867
 -2.237 -1.615 3.766
 -2.234 -1.632 3.818
 -2.191 -1.62 3.803
 -2.169 -1.623 3.822
 -2.144 -1.623 3.836
 -2.116 -1.622 3.846
 -2.092 -1.624 3.863
 -2.068 -1.626 3.878
 -2.04 -1.624 3.886
 -2.014 -1.625 3.899
 -1.986 -1.623 3.907
 -1.961 -1.624 3.92
 -1.932 -1.622 3.925
 -1.905 -1.621 3.935
 -1.88 -1.622 3.948
 -1.854 -1.622 3.958
 -1.826 -1.621 3.965
 -1.8 -1.621 3.975
 -1.772 -1.619 3.981
 -1.745 -1.618 3.988
 -1.718 -1.617 3.996
 -1.692 -1.618 4.006
 -1.665 -1.616 4.012
 -1.64 -1.617 4.023
 -1.615 -1.618 4.034
 -1.59 -1.619 4.045
 -1.562 -1.617 4.05
 -1.537 -1.619 4.062
 -1.51 -1.617 4.065
 -1.482 -1.615 4.068
 -1.456 -1.615 4.077
 -1.43 -1.615 4.085
 -1.403 -1.614 4.09
 -1.376 -1.613 4.094
 -1.35 -1.613 4.1
 -1.322 -1.61 4.101
 -1.298 -1.612 4.112
 -1.272 -1.613 4.121
 -1.248 -1.615 4.134
 -1.222 -1.615 4.14
 -1.197 -1.615 4.146
 -1.169 -1.613 4.146
 -1.141 -1.609 4.143
 -1.112 -1.606 4.14
 -1.087 -1.606 4.146
 -1.06 -1.605 4.15
 -1.034 -1.605 4.153
 -1.008 -1.604 4.156
 -0.983 -1.605 4.163
 -0.956 -1.603 4.165
 -0.929 -1.6 4.16
 -0.903 -1.599 4.163
 -0.877 -1.6 4.169
 -0.852 -1.6 4.174
 -0.826 -1.6 4.177
 -0.802 -1.603 4.189
 -0.777 -1.604 4.195
 -0.75 -1.601 4.193
 -0.724 -1.601 4.195
 -0.698 -1.6 4.197
 -0.672 -1.6 4.199
 -0.647 -1.6 4.202
 -0.623 -1.605 4.217
 -0.598 -1.605 4.22
 -0.572 -1.605 4.223
 -0.546 -1.604 4.223
 -0.52 -1.603 4.224
 -0.494 -1.601 4.221
 -0.468 -1.601 4.222
 -0.443 -1.602 4.227
 -0.417 -1.602 4.23
 -0.391 -1.6 4.226
 -0.366 -1.6 4.228
 -0.34 -1.6 4.228
 -0.314 -1.598 4.225
 -0.289 -1.598 4.225
 -0.263 -1.599 4.229
 -0.238 -1.597 4.225
 -0.212 -1.598 4.227
 -0.187 -1.597 4.227
 -0.161 -1.596 4.224
 -0.136 -1.596 4.225
 -0.11 -1.596 4.225
 -0.085 -1.596 4.225
 -0.059 -1.598 4.23
 -0.034 -1.6 4.235
 -0.009 -1.599 4.232
 0.016 -1.599 4.233
 0.041 -1.6 4.236
 0.067 -1.6 4.233
 0.092 -1.6 4.234
 0.118 -1.601 4.236
 0.143 -1.599 4.228
 0.168 -1.597 4.223
 0.194 -1.597 4.22
 0.219 -1.595 4.215
 0.244 -1.593 4.208
 0.27 -1.595 4.21
 0.295 -1.595 4.209
 0.32 -1.595 4.208
 0.346 -1.596 4.207
 0.372 -1.598 4.211
 0.397 -1.599 4.211
 0.423 -1.601 4.214
 0.448 -1.6 4.21
 0.474 -1.601 4.208
 0.5 -1.601 4.207
 0.525 -1.601 4.204
 0.549 -1.598 4.194
 0.575 -1.598 4.189
 0.6 -1.599 4.189
 0.626 -1.6 4.188
 0.652 -1.601 4.188
 0.678 -1.604 4.19
 0.705 -1.607 4.196
 0.731 -1.607 4.19
 0.756 -1.606 4.183
 0.782 -1.607 4.184
 0.808 -1.608 4.181
 0.833 -1.608 4.176
 0.86 -1.61 4.176
 0.886 -1.612 4.176
 0.911 -1.61 4.166
 0.937 -1.612 4.165
 0.963 -1.612 4.161
 0.989 -1.612 4.157
 1.015 -1.614 4.155
 1.042 -1.616 4.154
 1.068 -1.616 4.149
 1.094 -1.617 4.145
 1.121 -1.619 4.144
 1.146 -1.619 4.138
 1.173 -1.62 4.133
 1.201 -1.623 4.135
 1.226 -1.623 4.128
 1.253 -1.624 4.123
 1.28 -1.626 4.121
 1.307 -1.628 4.118
 1.332 -1.627 4.108
 1.361 -1.631 4.109
 1.387 -1.631 4.103
 1.413 -1.632 4.096
 1.439 -1.631 4.087
 1.463 -1.63 4.075
 1.487 -1.628 4.061
 1.512 -1.628 4.051
 1.538 -1.628 4.043
 1.563 -1.627 4.032
 1.591 -1.629 4.028
 1.615 -1.628 4.015
 1.64 -1.627 4.003
 1.664 -1.625 3.99
 1.689 -1.625 3.978
 1.712 -1.623 3.964
 1.739 -1.624 3.955
 1.764 -1.623 3.944
 1.787 -1.621 3.928
 1.808 -1.617 3.906
 1.822 -1.607 3.873
 1.835 -1.596 3.834
 1.841 -1.58 3.785
 1.845 -1.562 3.73
 1.848 -1.544 3.677
 1.854 -1.53 3.631
 1.856 -1.511 3.577
 1.86 -1.495 3.527
 1.847 -1.467 3.448
 1.783 -1.399 3.277
 1.754 -1.359 3.172
 1.759 -1.346 3.132
 1.767 -1.337 3.099
 1.775 -1.327 3.066
 1.773 -1.31 3.016
 1.773 -1.295 2.97
 1.758 -1.27 2.9
 1.748 -1.248 2.841
 -2.259 -1.605 3.814
 -2.236 -1.607 3.832
 -2.221 -1.615 3.864
 -2.2 -1.619 3.887
 -2.176 -1.621 3.904
 -2.149 -1.621 3.916
 -2.125 -1.623 3.933
 -2.098 -1.623 3.946
 -2.07 -1.622 3.955
 -2.043 -1.621 3.965
 -2.014 -1.619 3.971
 -1.987 -1.619 3.982
 -1.961 -1.619 3.994
 -1.933 -1.619 4.003
 -1.908 -1.62 4.016
 -1.881 -1.62 4.027
 -1.854 -1.619 4.034
 -1.826 -1.618 4.043
 -1.797 -1.616 4.047
 -1.77 -1.615 4.055
 -1.742 -1.614 4.062
 -1.715 -1.613 4.071
 -1.687 -1.611 4.074
 -1.661 -1.612 4.085
 -1.635 -1.612 4.096
 -1.611 -1.614 4.109
 -1.584 -1.613 4.116
 -1.559 -1.615 4.129
 -1.531 -1.614 4.134
 -1.504 -1.612 4.138
 -1.476 -1.612 4.144
 -1.449 -1.611 4.15
 -1.423 -1.61 4.156
 -1.394 -1.608 4.157
 -1.367 -1.607 4.161
 -1.338 -1.604 4.161
 -1.313 -1.605 4.17
 -1.286 -1.604 4.176
 -1.262 -1.607 4.189
 -1.236 -1.607 4.195
 -1.21 -1.608 4.204
 -1.182 -1.605 4.202
 -1.155 -1.603 4.204
 -1.126 -1.6 4.201
 -1.101 -1.601 4.209
 -1.074 -1.599 4.21
 -1.048 -1.6 4.216
 -1.021 -1.598 4.218
 -0.995 -1.598 4.222
 -0.967 -1.596 4.223
 -0.94 -1.593 4.219
 -0.913 -1.593 4.222
 -0.887 -1.592 4.225
 -0.861 -1.591 4.227
 -0.834 -1.59 4.228
 -0.81 -1.593 4.239
 -0.784 -1.592 4.242
 -0.757 -1.59 4.24
 -0.731 -1.59 4.244
 -0.705 -1.591 4.249
 -0.679 -1.59 4.249
 -0.653 -1.589 4.25
 -0.628 -1.592 4.261
 -0.602 -1.592 4.263
 -0.576 -1.591 4.263
 -0.55 -1.591 4.265
 -0.524 -1.59 4.265
 -0.498 -1.589 4.264
 -0.472 -1.589 4.267
 -0.446 -1.588 4.268
 -0.42 -1.587 4.266
 -0.394 -1.586 4.264
 -0.368 -1.584 4.262
 -0.342 -1.583 4.261
 -0.316 -1.582 4.259
 -0.29 -1.582 4.26
 -0.265 -1.582 4.262
 -0.239 -1.582 4.261
 -0.213 -1.581 4.26
 -0.188 -1.581 4.261
 -0.162 -1.581 4.26
 -0.136 -1.58 4.26
 -0.111 -1.58 4.258
 -0.085 -1.58 4.259
 -0.06 -1.581 4.261
 -0.034 -1.581 4.263
 -0.008 -1.581 4.262
 0.016 -1.582 4.264
 0.042 -1.583 4.266
 0.067 -1.581 4.261
 0.093 -1.582 4.263
 0.119 -1.583 4.263
 0.144 -1.581 4.256
 0.169 -1.579 4.251
 0.195 -1.58 4.251
 0.22 -1.579 4.248
 0.246 -1.578 4.244
 0.271 -1.579 4.246
 0.297 -1.579 4.245
 0.323 -1.581 4.246
 0.348 -1.581 4.244
 0.374 -1.582 4.246
 0.4 -1.583 4.245
 0.426 -1.585 4.249
 0.451 -1.584 4.244
 0.477 -1.584 4.242
 0.502 -1.584 4.238
 0.528 -1.585 4.237
 0.553 -1.583 4.229
 0.579 -1.583 4.225
 0.605 -1.584 4.225
 0.631 -1.586 4.226
 0.656 -1.586 4.223
 0.683 -1.588 4.224
 0.709 -1.59 4.227
 0.735 -1.589 4.22
 0.76 -1.589 4.216
 0.787 -1.592 4.219
 0.813 -1.592 4.215
 0.84 -1.594 4.216
 0.866 -1.596 4.217
 0.893 -1.598 4.216
 0.918 -1.597 4.208
 0.945 -1.599 4.208
 0.97 -1.598 4.201
 0.997 -1.599 4.198
 1.024 -1.601 4.197
 1.05 -1.602 4.195
 1.076 -1.603 4.191
 1.103 -1.604 4.188
 1.13 -1.606 4.185
 1.156 -1.606 4.18
 1.183 -1.608 4.178
 1.21 -1.61 4.176
 1.236 -1.61 4.169
 1.264 -1.612 4.168
 1.291 -1.614 4.165
 1.318 -1.615 4.161
 1.344 -1.615 4.152
 1.372 -1.618 4.153
 1.399 -1.619 4.147
 1.425 -1.619 4.139
 1.451 -1.62 4.132
 1.477 -1.619 4.122
 1.503 -1.619 4.113
 1.527 -1.617 4.101
 1.554 -1.619 4.095
 1.581 -1.62 4.088
 1.611 -1.624 4.09
 1.636 -1.623 4.077
 1.663 -1.624 4.07
 1.689 -1.624 4.059
 1.714 -1.622 4.046
 1.735 -1.618 4.025
 1.76 -1.617 4.013
 1.782 -1.614 3.994
 1.802 -1.608 3.969
 1.819 -1.601 3.94
 1.832 -1.59 3.903
 1.842 -1.576 3.858
 1.848 -1.56 3.807
 1.852 -1.543 3.754
 1.854 -1.524 3.697
 1.861 -1.51 3.652
 1.864 -1.494 3.6
 1.868 -1.478 3.552
 0 0 0
 1.769 -1.366 3.259
 1.743 -1.329 3.16
 1.757 -1.324 3.137
 1.766 -1.315 3.105
 1.775 -1.306 3.074
 1.773 -1.289 3.023
 1.774 -1.275 2.979
 1.777 -1.263 2.94
 1.775 -1.247 2.892
 -2.296 -1.604 3.885
 -2.256 -1.595 3.877
 -2.256 -1.614 3.935
 -2.231 -1.616 3.952
 -2.205 -1.616 3.967
 -2.177 -1.616 3.978
 -2.153 -1.618 3.995
 -2.125 -1.617 4.006
 -2.099 -1.618 4.02
 -2.072 -1.618 4.032
 -2.043 -1.616 4.038
 -2.013 -1.613 4.044
 -1.987 -1.614 4.057
 -1.959 -1.613 4.066
 -1.934 -1.615 4.08
 -1.907 -1.615 4.091
 -1.879 -1.614 4.101
 -1.853 -1.614 4.111
 -1.823 -1.612 4.115
 -1.794 -1.61 4.121
 -1.766 -1.609 4.128
 -1.739 -1.609 4.136
 -1.71 -1.607 4.141
 -1.684 -1.607 4.151
 -1.656 -1.606 4.157
 -1.632 -1.609 4.173
 -1.605 -1.608 4.18
 -1.579 -1.609 4.191
 -1.551 -1.608 4.195
 -1.524 -1.608 4.205
 -1.497 -1.607 4.211
 -1.469 -1.606 4.216
 -1.441 -1.605 4.219
 -1.412 -1.602 4.221
 -1.385 -1.601 4.224
 -1.355 -1.598 4.222
 -1.328 -1.598 4.229
 -1.302 -1.597 4.235
 -1.276 -1.598 4.245
 -1.248 -1.597 4.247
 -1.222 -1.597 4.254
 -1.194 -1.594 4.253
 -1.166 -1.592 4.254
 -1.137 -1.59 4.252
 -1.111 -1.59 4.259
 -1.084 -1.589 4.26
 -1.057 -1.588 4.263
 -1.03 -1.587 4.266
 -1.003 -1.586 4.268
 -0.976 -1.584 4.268
 -0.948 -1.581 4.265
 -0.921 -1.58 4.268
 -0.894 -1.579 4.268
 -0.867 -1.578 4.269
 -0.84 -1.576 4.268
 -0.815 -1.576 4.273
 -0.789 -1.577 4.278
 -0.762 -1.575 4.277
 -0.736 -1.575 4.28
 -0.71 -1.575 4.284
 -0.684 -1.575 4.287
 -0.657 -1.573 4.285
 -0.631 -1.575 4.293
 -0.605 -1.574 4.294
 -0.579 -1.573 4.294
 -0.553 -1.572 4.294
 -0.527 -1.572 4.296
 -0.5 -1.571 4.294
 -0.474 -1.57 4.293
 -0.448 -1.568 4.291
 -0.421 -1.567 4.29
 -0.395 -1.566 4.289
 -0.369 -1.565 4.288
 -0.343 -1.565 4.289
 -0.317 -1.563 4.286
 -0.292 -1.563 4.287
 -0.266 -1.563 4.286
 -0.24 -1.562 4.285
 -0.214 -1.56 4.28
 -0.188 -1.56 4.281
 -0.162 -1.559 4.278
 -0.137 -1.559 4.278
 -0.111 -1.558 4.276
 -0.085 -1.56 4.282
 -0.06 -1.559 4.281
 -0.034 -1.56 4.283
 -0.008 -1.56 4.282
 0.016 -1.561 4.284
 0.042 -1.56 4.283
 0.068 -1.56 4.282
 0.093 -1.56 4.281
 0.119 -1.56 4.279
 0.144 -1.558 4.273
 0.17 -1.557 4.268
 0.195 -1.556 4.266
 0.221 -1.557 4.266
 0.247 -1.557 4.264
 0.272 -1.558 4.265
 0.298 -1.558 4.264
 0.324 -1.56 4.267
 0.35 -1.56 4.265
 0.375 -1.561 4.266
 0.401 -1.562 4.266
 0.427 -1.564 4.269
 0.453 -1.564 4.266
 0.479 -1.564 4.263
 0.504 -1.563 4.26
 0.53 -1.564 4.26
 0.556 -1.564 4.255
 0.581 -1.564 4.251
 0.607 -1.565 4.252
 0.633 -1.565 4.249
 0.659 -1.565 4.246
 0.685 -1.567 4.246
 0.712 -1.569 4.247
 0.737 -1.568 4.241
 0.763 -1.57 4.241
 0.79 -1.572 4.244
 0.816 -1.573 4.24
 0.843 -1.575 4.241
 0.87 -1.577 4.243
 0.897 -1.579 4.242
 0.923 -1.579 4.237
 0.949 -1.58 4.235
 0.975 -1.58 4.229
 1.002 -1.581 4.228
 1.029 -1.583 4.226
 1.055 -1.583 4.222
 1.082 -1.585 4.22
 1.109 -1.587 4.218
 1.136 -1.588 4.215
 1.162 -1.589 4.212
 1.19 -1.591 4.21
 1.217 -1.592 4.206
 1.243 -1.592 4.199
 1.27 -1.594 4.198
 1.298 -1.596 4.195
 1.325 -1.598 4.193
 1.353 -1.6 4.19
 1.381 -1.602 4.189
 1.408 -1.603 4.182
 1.435 -1.604 4.178
 1.462 -1.605 4.171
 1.488 -1.604 4.161
 1.515 -1.605 4.155
 1.541 -1.606 4.147
 1.568 -1.607 4.14
 1.596 -1.609 4.136
 1.626 -1.612 4.136
 1.651 -1.611 4.124
 1.679 -1.613 4.118
 1.706 -1.613 4.109
 1.731 -1.612 4.096
 1.753 -1.608 4.075
 1.777 -1.606 4.06
 1.797 -1.601 4.037
 1.813 -1.592 4.003
 1.826 -1.581 3.965
 1.838 -1.57 3.925
 1.847 -1.555 3.878
 1.852 -1.539 3.825
 1.857 -1.522 3.773
 1.859 -1.504 3.717
 1.871 -1.494 3.68
 1.874 -1.477 3.627
 0 0 0
 0 0 0
 1.732 -1.316 3.198
 1.739 -1.304 3.161
 1.755 -1.301 3.141
 1.764 -1.292 3.109
 1.773 -1.283 3.077
 1.774 -1.269 3.032
 1.774 -1.254 2.986
 1.763 -1.233 2.924
 1.784 -1.233 2.914
 -2.342 -1.61 3.974
 -2.294 -1.595 3.951
 -2.089 -1.47 3.653
 -2.076 -1.479 3.687
 -2.143 -1.545 3.865
 -2.207 -1.611 4.043
 -2.181 -1.612 4.057
 -2.153 -1.611 4.068
 -2.127 -1.612 4.083
 -2.099 -1.612 4.095
 -2.069 -1.61 4.101
 -2.039 -1.608 4.107
 -2.012 -1.607 4.118
 -1.983 -1.607 4.127
 -1.957 -1.607 4.14
 -1.931 -1.608 4.153
 -1.904 -1.609 4.165
 -1.879 -1.611 4.181
 -1.85 -1.609 4.185
 -1.823 -1.609 4.196
 -1.794 -1.607 4.201
 -1.764 -1.605 4.206
 -1.734 -1.602 4.208
 -1.705 -1.601 4.213
 -1.675 -1.598 4.214
 -1.65 -1.6 4.23
 -1.623 -1.6 4.238
 -1.596 -1.6 4.246
 -1.568 -1.599 4.253
 -1.542 -1.6 4.262
 -1.513 -1.597 4.265
 -1.483 -1.595 4.267
 -1.455 -1.593 4.268
 -1.425 -1.59 4.269
 -1.397 -1.589 4.273
 -1.368 -1.586 4.272
 -1.341 -1.586 4.277
 -1.313 -1.584 4.28
 -1.286 -1.584 4.286
 -1.257 -1.581 4.285
 -1.229 -1.58 4.289
 -1.201 -1.578 4.29
 -1.173 -1.576 4.29
 -1.145 -1.574 4.29
 -1.118 -1.573 4.294
 -1.09 -1.572 4.295
 -1.063 -1.571 4.299
 -1.037 -1.571 4.303
 -1.01 -1.57 4.304
 -0.982 -1.568 4.305
 -0.954 -1.565 4.302
 -0.927 -1.564 4.304
 -0.899 -1.562 4.302
 -0.873 -1.561 4.303
 -0.846 -1.56 4.304
 -0.819 -1.56 4.307
 -0.792 -1.557 4.305
 -0.765 -1.556 4.305
 -0.738 -1.555 4.305
 -0.712 -1.554 4.306
 -0.686 -1.554 4.31
 -0.659 -1.553 4.309
 -0.633 -1.553 4.314
 -0.607 -1.552 4.313
 -0.58 -1.551 4.313
 -0.554 -1.549 4.311
 -0.528 -1.55 4.314
 -0.501 -1.547 4.308
 -0.474 -1.546 4.307
 -0.448 -1.544 4.304
 -0.422 -1.543 4.303
 -0.395 -1.541 4.299
 -0.37 -1.541 4.301
 -0.344 -1.541 4.302
 -0.318 -1.54 4.299
 -0.292 -1.539 4.299
 -0.266 -1.538 4.298
 -0.24 -1.538 4.298
 -0.214 -1.536 4.294
 -0.188 -1.536 4.295
 -0.162 -1.535 4.291
 -0.137 -1.535 4.291
 -0.111 -1.534 4.289
 -0.085 -1.535 4.292
 -0.059 -1.534 4.29
 -0.034 -1.534 4.29
 -0.008 -1.534 4.288
 0.017 -1.535 4.291
 0.042 -1.535 4.29
 0.068 -1.535 4.29
 0.094 -1.535 4.29
 0.119 -1.535 4.29
 0.145 -1.534 4.284
 0.17 -1.532 4.28
 0.196 -1.532 4.278
 0.222 -1.533 4.279
 0.247 -1.533 4.278
 0.273 -1.534 4.279
 0.299 -1.535 4.279
 0.324 -1.535 4.279
 0.35 -1.535 4.276
 0.376 -1.535 4.273
 0.401 -1.535 4.271
 0.427 -1.536 4.273
 0.453 -1.538 4.275
 0.479 -1.539 4.276
 0.505 -1.54 4.274
 0.531 -1.541 4.273
 0.557 -1.54 4.269
 0.582 -1.54 4.264
 0.608 -1.541 4.264
 0.634 -1.542 4.264
 0.66 -1.542 4.26
 0.686 -1.543 4.259
 0.712 -1.544 4.258
 0.737 -1.543 4.25
 0.764 -1.544 4.25
 0.791 -1.547 4.255
 0.817 -1.549 4.253
 0.845 -1.552 4.257
 0.872 -1.554 4.26
 0.899 -1.556 4.26
 0.925 -1.556 4.255
 0.951 -1.556 4.249
 0.976 -1.555 4.242
 1.003 -1.557 4.24
 1.03 -1.558 4.238
 1.056 -1.559 4.235
 1.085 -1.563 4.239
 1.112 -1.565 4.239
 1.14 -1.567 4.239
 1.167 -1.569 4.237
 1.194 -1.57 4.232
 1.22 -1.57 4.227
 1.247 -1.571 4.222
 1.274 -1.573 4.219
 1.302 -1.574 4.217
 1.33 -1.576 4.214
 1.359 -1.58 4.215
 1.387 -1.582 4.214
 1.414 -1.583 4.208
 1.441 -1.584 4.204
 1.469 -1.586 4.201
 1.496 -1.586 4.192
 1.524 -1.588 4.188
 1.552 -1.59 4.184
 1.579 -1.591 4.178
 1.608 -1.594 4.175
 1.637 -1.596 4.172
 1.664 -1.596 4.164
 1.692 -1.598 4.157
 1.72 -1.599 4.151
 1.745 -1.598 4.137
 1.765 -1.593 4.114
 1.788 -1.59 4.095
 1.806 -1.583 4.066
 1.82 -1.572 4.027
 1.833 -1.56 3.987
 1.847 -1.551 3.953
 1.856 -1.537 3.906
 1.864 -1.523 3.858
 1.873 -1.51 3.815
 1.88 -1.496 3.768
 1.891 -1.485 3.728
 0 0 0
 0 0 0
 0 0 0
 0 0 0
 1.743 -1.286 3.175
 1.754 -1.279 3.147
 1.763 -1.27 3.115
 1.772 -1.262 3.083
 1.776 -1.249 3.043
 1.774 -1.234 2.993
 1.789 -1.231 2.975
 1.774 -1.207 2.906
 -2.402 -1.623 4.086
 -2.338 -1.598 4.037
 -1.805 -1.249 3.161
 -1.902 -1.332 3.385
 -1.879 -1.332 3.395
 -1.873 -1.344 3.437
 -1.939 -1.409 3.614
 -2.003 -1.474 3.793
 -1.89 -1.409 3.636
 -1.953 -1.474 3.817
 -1.925 -1.472 3.823
 -1.897 -1.471 3.829
 -1.872 -1.47 3.839
 -1.928 -1.536 4.021
 -1.901 -1.535 4.031
 -1.955 -1.601 4.215
 -1.928 -1.601 4.226
 -1.901 -1.602 4.239
 -1.871 -1.6 4.244
 -1.844 -1.6 4.255
 -1.814 -1.599 4.26
 -1.785 -1.597 4.265
 -1.753 -1.593 4.265
 -1.724 -1.591 4.269
 -1.693 -1.587 4.268
 -1.666 -1.588 4.28
 -1.638 -1.587 4.285
 -1.609 -1.586 4.291
 -1.581 -1.585 4.297
 -1.553 -1.585 4.304
 -1.524 -1.583 4.306
 -1.494 -1.579 4.305
 -1.464 -1.576 4.304
 -1.434 -1.573 4.304
 -1.405 -1.571 4.306
 -1.376 -1.568 4.305
 -1.348 -1.568 4.31
 -1.32 -1.567 4.314
 -1.292 -1.565 4.317
 -1.263 -1.563 4.317
 -1.235 -1.56 4.316
 -1.206 -1.558 4.315
 -1.178 -1.556 4.316
 -1.15 -1.554 4.317
 -1.122 -1.553 4.319
 -1.094 -1.551 4.32
 -1.067 -1.55 4.322
 -1.04 -1.549 4.325
 -1.012 -1.547 4.325
 -0.984 -1.545 4.323
 -0.957 -1.544 4.325
 -0.93 -1.543 4.327
 -0.902 -1.541 4.324
 -0.875 -1.539 4.324
 -0.848 -1.537 4.323
 -0.82 -1.536 4.322
 -0.793 -1.533 4.318
 -0.766 -1.532 4.318
 -0.739 -1.529 4.315
 -0.712 -1.529 4.316
 -0.686 -1.529 4.321
 -0.66 -1.528 4.321
 -0.633 -1.528 4.323
 -0.607 -1.528 4.326
 -0.581 -1.527 4.326
 -0.554 -1.525 4.323
 -0.528 -1.524 4.323
 -0.501 -1.521 4.317
 -0.474 -1.519 4.313
 -0.448 -1.518 4.31
 -0.421 -1.516 4.308
 -0.395 -1.515 4.307
 -0.369 -1.515 4.308
 -0.344 -1.516 4.312
 -0.318 -1.515 4.31
 -0.292 -1.514 4.308
 -0.266 -1.513 4.308
 -0.24 -1.512 4.306
 -0.214 -1.51 4.302
 -0.188 -1.51 4.3
 -0.162 -1.508 4.297
 -0.136 -1.508 4.297
 -0.111 -1.507 4.295
 -0.085 -1.508 4.298
 -0.059 -1.508 4.296
 -0.034 -1.507 4.295
 -0.008 -1.507 4.294
 0.017 -1.508 4.296
 0.042 -1.508 4.295
 0.068 -1.508 4.295
 0.094 -1.508 4.295
 0.119 -1.508 4.294
 0.145 -1.508 4.291
 0.17 -1.507 4.288
 0.196 -1.506 4.285
 0.222 -1.507 4.284
 0.247 -1.507 4.283
 0.273 -1.507 4.283
 0.298 -1.507 4.282
 0.324 -1.509 4.283
 0.35 -1.509 4.282
 0.375 -1.508 4.277
 0.401 -1.508 4.275
 0.427 -1.51 4.278
 0.453 -1.512 4.28
 0.479 -1.512 4.279
 0.505 -1.514 4.281
 0.531 -1.514 4.28
 0.557 -1.514 4.275
 0.582 -1.513 4.271
 0.609 -1.516 4.274
 0.634 -1.516 4.27
 0.66 -1.516 4.267
 0.686 -1.517 4.266
 0.712 -1.518 4.265
 0.737 -1.517 4.258
 0.764 -1.518 4.258
 0.791 -1.521 4.262
 0.818 -1.523 4.262
 0.844 -1.524 4.262
 0.872 -1.527 4.264
 0.898 -1.528 4.262
 0.925 -1.529 4.26
 0.95 -1.529 4.254
 0.977 -1.531 4.254
 1.004 -1.532 4.251
 1.031 -1.533 4.25
 1.057 -1.533 4.244
 1.085 -1.537 4.248
 1.112 -1.538 4.246
 1.139 -1.54 4.244
 1.167 -1.542 4.243
 1.194 -1.543 4.241
 1.221 -1.544 4.236
 1.247 -1.545 4.23
 1.275 -1.547 4.23
 1.303 -1.549 4.229
 1.331 -1.552 4.227
 1.36 -1.555 4.229
 1.389 -1.558 4.229
 1.417 -1.559 4.225
 1.445 -1.561 4.222
 1.473 -1.564 4.22
 1.501 -1.565 4.215
 1.529 -1.567 4.212
 1.558 -1.569 4.209
 1.585 -1.57 4.203
 1.615 -1.573 4.201
 1.644 -1.576 4.198
 1.672 -1.577 4.192
 1.7 -1.579 4.186
 1.73 -1.581 4.184
 1.755 -1.58 4.169
 1.776 -1.575 4.146
 1.797 -1.571 4.124
 1.814 -1.563 4.092
 1.828 -1.552 4.053
 1.841 -1.541 4.014
 1.856 -1.532 3.979
 1.866 -1.52 3.936
 1.878 -1.509 3.896
 1.887 -1.496 3.852
 1.894 -1.482 3.804
 0 0 0
 0 0 0
 0 0 0
 0 0 0
 0 0 0
 1.749 -1.269 3.194
 1.757 -1.259 3.159
 1.765 -1.25 3.125
 1.774 -1.242 3.093
 1.777 -1.229 3.052
 1.774 -1.213 3.001
 1.768 -1.196 2.947
 1.752 -1.171 2.876
 0 0 0
 -0.027 -0.02 0.035
 -1.328 -0.903 2.328
 -1.449 -0.998 2.581
 -1.431 -0.997 2.589
 -1.447 -1.021 2.659
 -1.518 -1.085 2.834
 -1.588 -1.148 3.011
 -1.478 -1.083 2.848
 -1.546 -1.148 3.027
 -1.524 -1.146 3.031
 -1.501 -1.144 3.033
 -1.561 -1.206 3.208
 -1.704 -1.334 3.56
 -1.679 -1.332 3.565
 -1.813 -1.459 3.916
 -1.867 -1.524 4.102
 -1.841 -1.525 4.114
 -1.812 -1.523 4.118
 -1.86 -1.587 4.301
 -1.832 -1.586 4.31
 -1.8 -1.582 4.31
 -1.768 -1.579 4.31
 -1.737 -1.576 4.312
 -1.705 -1.571 4.308
 -1.676 -1.571 4.315
 -1.648 -1.57 4.321
 -1.618 -1.567 4.324
 -1.589 -1.566 4.329
 -1.562 -1.566 4.338
 -1.532 -1.563 4.338
 -1.5 -1.559 4.334
 -1.471 -1.557 4.336
 -1.441 -1.554 4.335
 -1.411 -1.551 4.335
 -1.382 -1.548 4.333
 -1.353 -1.547 4.336
 -1.324 -1.545 4.337
 -1.295 -1.542 4.335
 -1.265 -1.539 4.333
 -1.237 -1.536 4.333
 -1.208 -1.534 4.331
 -1.179 -1.531 4.33
 -1.151 -1.53 4.332
 -1.124 -1.529 4.336
 -1.096 -1.527 4.336
 -1.069 -1.526 4.337
 -1.041 -1.525 4.34
 -1.013 -1.523 4.337
 -0.985 -1.52 4.334
 -0.958 -1.519 4.338
 -0.931 -1.518 4.337
 -0.902 -1.515 4.333
 -0.875 -1.514 4.334
 -0.848 -1.512 4.334
 -0.82 -1.509 4.33
 -0.793 -1.507 4.328
 -0.766 -1.506 4.326
 -0.738 -1.502 4.32
 -0.711 -1.501 4.321
 -0.685 -1.5 4.321
 -0.658 -1.499 4.322
 -0.632 -1.499 4.324
 -0.607 -1.5 4.329
 -0.58 -1.499 4.329
 -0.554 -1.498 4.328
 -0.527 -1.497 4.327
 -0.501 -1.495 4.324
 -0.474 -1.493 4.319
 -0.447 -1.491 4.316
 -0.421 -1.49 4.314
 -0.395 -1.489 4.314
 -0.369 -1.488 4.313
 -0.343 -1.489 4.316
 -0.317 -1.488 4.315
 -0.291 -1.487 4.314
 -0.265 -1.486 4.311
 -0.239 -1.485 4.311
 -0.214 -1.485 4.309
 -0.188 -1.483 4.306
 -0.162 -1.481 4.301
 -0.136 -1.482 4.302
 -0.11 -1.48 4.298
 -0.085 -1.48 4.298
 -0.059 -1.48 4.296
 -0.033 -1.48 4.296
 -0.008 -1.48 4.296
 0.017 -1.481 4.3
 0.042 -1.48 4.297
 0.068 -1.48 4.295
 0.094 -1.48 4.295
 0.119 -1.479 4.292
 0.145 -1.478 4.288
 0.17 -1.478 4.287
 0.196 -1.479 4.287
 0.221 -1.479 4.286
 0.247 -1.48 4.287
 0.273 -1.481 4.288
 0.298 -1.481 4.286
 0.324 -1.481 4.284
 0.35 -1.481 4.284
 0.375 -1.48 4.277
 0.4 -1.479 4.274
 0.426 -1.481 4.277
 0.452 -1.483 4.279
 0.478 -1.484 4.279
 0.505 -1.486 4.282
 0.531 -1.487 4.283
 0.556 -1.486 4.278
 0.582 -1.487 4.276
 0.608 -1.489 4.279
 0.634 -1.489 4.274
 0.66 -1.489 4.271
 0.686 -1.49 4.272
 0.712 -1.491 4.271
 0.738 -1.491 4.265
 0.764 -1.493 4.268
 0.791 -1.495 4.269
 0.818 -1.497 4.269
 0.844 -1.497 4.267
 0.871 -1.499 4.266
 0.897 -1.499 4.262
 0.924 -1.501 4.262
 0.95 -1.502 4.26
 0.977 -1.504 4.26
 1.004 -1.506 4.259
 1.031 -1.507 4.259
 1.057 -1.508 4.255
 1.086 -1.511 4.257
 1.112 -1.512 4.253
 1.139 -1.513 4.25
 1.167 -1.516 4.251
 1.194 -1.517 4.249
 1.22 -1.517 4.242
 1.248 -1.519 4.241
 1.276 -1.522 4.241
 1.304 -1.524 4.239
 1.332 -1.526 4.237
 1.36 -1.529 4.237
 1.389 -1.531 4.236
 1.417 -1.533 4.234
 1.445 -1.535 4.231
 1.473 -1.537 4.228
 1.502 -1.54 4.227
 1.531 -1.542 4.225
 1.56 -1.544 4.221
 1.588 -1.546 4.216
 1.617 -1.548 4.215
 1.645 -1.55 4.21
 1.674 -1.552 4.205
 1.703 -1.554 4.202
 1.733 -1.557 4.2
 1.76 -1.557 4.19
 1.781 -1.553 4.167
 1.802 -1.548 4.144
 1.819 -1.54 4.111
 1.832 -1.529 4.071
 1.844 -1.517 4.029
 1.862 -1.511 4
 1.869 -1.496 3.951
 1.881 -1.485 3.91
 1.888 -1.471 3.862
 0 0 0
 0 0 0
 0 0 0
 0 0 0
 0 0 0
 0 0 0
 1.828 -1.304 3.347
 1.762 -1.241 3.175
 1.77 -1.232 3.142
 1.778 -1.223 3.108
 1.782 -1.212 3.068
 1.777 -1.195 3.013
 1.774 -1.179 2.963
 1.749 -1.15 2.878
 -0.045 -0.031 0.065
 -2.4 -1.584 4.164
 -0.849 -0.568 1.488
 -0.992 -0.672 1.768
 -0.976 -0.669 1.766
 -1.017 -0.705 1.868
 -1.091 -0.766 2.037
 -1.163 -0.827 2.207
 -1.062 -0.765 2.046
 -1.135 -0.828 2.223
 -1.116 -0.825 2.222
 -1.098 -0.822 2.22
 -1.163 -0.883 2.391
 -1.391 -1.07 2.909
 -1.37 -1.068 2.913
 -1.588 -1.256 3.436
 -1.723 -1.382 3.793
 -1.776 -1.446 3.977
 -1.748 -1.443 3.981
 -1.872 -1.569 4.338
 -1.842 -1.567 4.344
 -1.809 -1.563 4.342
 -1.778 -1.56 4.343
 -1.747 -1.557 4.345
 -1.713 -1.551 4.338
 -1.683 -1.549 4.341
 -1.653 -1.547 4.343
 -1.622 -1.544 4.342
 -1.592 -1.542 4.345
 -1.565 -1.542 4.355
 -1.535 -1.539 4.355
 -1.504 -1.536 4.353
 -1.474 -1.533 4.353
 -1.444 -1.53 4.353
 -1.414 -1.527 4.351
 -1.384 -1.524 4.349
 -1.355 -1.522 4.35
 -1.326 -1.52 4.352
 -1.296 -1.516 4.348
 -1.266 -1.513 4.344
 -1.237 -1.51 4.342
 -1.209 -1.508 4.343
 -1.18 -1.505 4.341
 -1.152 -1.504 4.343
 -1.125 -1.503 4.345
 -1.096 -1.501 4.344
 -1.068 -1.499 4.343
 -1.041 -1.498 4.347
 -1.013 -1.496 4.345
 -0.984 -1.493 4.341
 -0.958 -1.492 4.344
 -0.93 -1.49 4.342
 -0.901 -1.487 4.338
 -0.874 -1.485 4.336
 -0.846 -1.483 4.334
 -0.819 -1.481 4.332
 -0.792 -1.479 4.33
 -0.765 -1.478 4.329
 -0.737 -1.475 4.324
 -0.711 -1.475 4.327
 -0.684 -1.474 4.327
 -0.658 -1.473 4.329
 -0.632 -1.473 4.331
 -0.606 -1.474 4.337
 -0.58 -1.473 4.337
 -0.553 -1.471 4.333
 -0.526 -1.469 4.329
 -0.5 -1.467 4.326
 -0.473 -1.464 4.318
 -0.446 -1.462 4.315
 -0.42 -1.462 4.316
 -0.394 -1.461 4.316
 -0.368 -1.46 4.314
 -0.343 -1.461 4.318
 -0.317 -1.46 4.317
 -0.291 -1.459 4.314
 -0.265 -1.458 4.313
 -0.239 -1.458 4.315
 -0.213 -1.457 4.312
 -0.187 -1.456 4.307
 -0.161 -1.454 4.304
 -0.136 -1.454 4.302
 -0.11 -1.452 4.297
 -0.084 -1.452 4.297
 -0.059 -1.452 4.297
 -0.033 -1.452 4.296
 -0.008 -1.452 4.298
 0.017 -1.454 4.303
 0.043 -1.453 4.3
 0.068 -1.454 4.301
 0.094 -1.453 4.299
 0.119 -1.452 4.295
 0.145 -1.451 4.29
 0.17 -1.451 4.29
 0.196 -1.452 4.29
 0.221 -1.452 4.29
 0.247 -1.453 4.29
 0.273 -1.454 4.293
 0.298 -1.454 4.29
 0.324 -1.453 4.286
 0.349 -1.454 4.286
 0.375 -1.453 4.282
 0.4 -1.453 4.278
 0.426 -1.454 4.28
 0.452 -1.457 4.285
 0.478 -1.457 4.283
 0.504 -1.459 4.286
 0.53 -1.459 4.285
 0.556 -1.46 4.282
 0.581 -1.459 4.279
 0.608 -1.462 4.282
 0.633 -1.461 4.277
 0.659 -1.462 4.275
 0.686 -1.463 4.275
 0.711 -1.464 4.273
 0.737 -1.464 4.271
 0.764 -1.467 4.275
 0.791 -1.468 4.274
 0.818 -1.47 4.275
 0.844 -1.471 4.274
 0.87 -1.471 4.269
 0.896 -1.471 4.265
 0.923 -1.474 4.266
 0.949 -1.475 4.264
 0.977 -1.477 4.267
 1.004 -1.479 4.266
 1.031 -1.481 4.266
 1.058 -1.482 4.264
 1.085 -1.484 4.264
 1.111 -1.485 4.258
 1.138 -1.486 4.256
 1.166 -1.488 4.254
 1.193 -1.489 4.252
 1.219 -1.489 4.246
 1.247 -1.492 4.246
 1.276 -1.495 4.247
 1.304 -1.497 4.247
 1.332 -1.5 4.246
 1.361 -1.503 4.248
 1.39 -1.505 4.247
 1.418 -1.507 4.245
 1.445 -1.509 4.24
 1.473 -1.51 4.236
 1.503 -1.513 4.236
 1.531 -1.515 4.233
 1.56 -1.518 4.231
 1.589 -1.52 4.229
 1.617 -1.522 4.224
 1.645 -1.522 4.216
 1.673 -1.524 4.212
 1.702 -1.527 4.209
 1.731 -1.529 4.205
 1.76 -1.531 4.199
 1.784 -1.528 4.183
 1.806 -1.524 4.16
 1.824 -1.517 4.131
 1.839 -1.508 4.095
 1.852 -1.497 4.054
 1.869 -1.491 4.025
 1.882 -1.48 3.986
 1.894 -1.47 3.947
 0 0 0
 0 0 0
 0 0 0
 0 0 0
 0 0 0
 0 0 0
 0 0 0
 1.84 -1.289 3.376
 1.762 -1.22 3.182
 1.771 -1.211 3.149
 1.78 -1.204 3.119
 1.786 -1.193 3.081
 1.779 -1.175 3.024
 1.752 -1.145 2.933
 1.779 -1.149 2.934
 -0.066 -0.044 0.1
 -0.033 -0.023 0.045
 -0.371 -0.245 0.645
 -0.538 -0.358 0.954
 -0.526 -0.355 0.947
 -0.587 -0.4 1.075
 -0.663 -0.458 1.236
 -0.738 -0.516 1.4
 -0.64 -0.454 1.232
 -0.717 -0.514 1.403
 -0.704 -0.512 1.4
 -0.69 -0.508 1.394
 -0.76 -0.567 1.562
 -1.075 -0.813 2.251
 -1.138 -0.872 2.423
 -1.358 -1.055 2.943
 -1.574 -1.241 3.471
 -1.706 -1.364 3.828
 -1.679 -1.362 3.831
 -1.803 -1.484 4.186
 -1.847 -1.544 4.366
 -1.815 -1.54 4.365
 -1.782 -1.536 4.363
 -1.75 -1.533 4.362
 -1.717 -1.528 4.359
 -1.686 -1.525 4.359
 -1.655 -1.522 4.359
 -1.624 -1.519 4.359
 -1.594 -1.516 4.36
 -1.565 -1.515 4.363
 -1.534 -1.512 4.362
 -1.504 -1.508 4.361
 -1.473 -1.505 4.36
 -1.443 -1.502 4.359
 -1.414 -1.5 4.359
 -1.383 -1.497 4.356
 -1.354 -1.494 4.356
 -1.326 -1.492 4.358
 -1.295 -1.488 4.352
 -1.265 -1.485 4.35
 -1.237 -1.483 4.349
 -1.208 -1.481 4.349
 -1.179 -1.478 4.347
 -1.152 -1.477 4.35
 -1.123 -1.475 4.348
 -1.094 -1.472 4.346
 -1.067 -1.47 4.346
 -1.039 -1.469 4.347
 -1.011 -1.467 4.345
 -0.983 -1.465 4.343
 -0.956 -1.464 4.347
 -0.928 -1.462 4.343
 -0.9 -1.458 4.338
 -0.872 -1.456 4.336
 -0.845 -1.454 4.335
 -0.817 -1.452 4.33
 -0.79 -1.45 4.329
 -0.763 -1.449 4.329
 -0.736 -1.447 4.325
 -0.71 -1.446 4.327
 -0.683 -1.446 4.329
 -0.657 -1.446 4.333
 -0.631 -1.445 4.334
 -0.605 -1.446 4.338
 -0.579 -1.446 4.34
 -0.552 -1.443 4.333
 -0.525 -1.439 4.326
 -0.498 -1.437 4.32
 -0.471 -1.434 4.312
 -0.445 -1.431 4.307
 -0.419 -1.432 4.31
 -0.393 -1.431 4.309
 -0.367 -1.431 4.312
 -0.342 -1.432 4.316
 -0.316 -1.431 4.315
 -0.29 -1.431 4.314
 -0.264 -1.431 4.315
 -0.239 -1.431 4.316
 -0.213 -1.43 4.314
 -0.187 -1.428 4.309
 -0.161 -1.427 4.307
 -0.135 -1.426 4.305
 -0.11 -1.425 4.3
 -0.084 -1.424 4.299
 -0.059 -1.425 4.301
 -0.033 -1.426 4.303
 -0.008 -1.426 4.305
 0.017 -1.429 4.311
 0.043 -1.427 4.307
 0.068 -1.425 4.3
 0.094 -1.424 4.294
 0.119 -1.423 4.292
 0.144 -1.422 4.288
 0.17 -1.424 4.291
 0.196 -1.426 4.296
 0.222 -1.426 4.297
 0.247 -1.426 4.295
 0.273 -1.426 4.292
 0.298 -1.426 4.291
 0.323 -1.425 4.286
 0.349 -1.425 4.283
 0.374 -1.424 4.28
 0.4 -1.425 4.278
 0.425 -1.425 4.278
 0.452 -1.429 4.286
 0.478 -1.43 4.287
 0.504 -1.432 4.289
 0.53 -1.432 4.286
 0.555 -1.432 4.284
 0.581 -1.432 4.28
 0.607 -1.433 4.282
 0.633 -1.433 4.278
 0.659 -1.436 4.283
 0.686 -1.437 4.282
 0.711 -1.437 4.278
 0.737 -1.438 4.277
 0.764 -1.44 4.279
 0.79 -1.44 4.275
 0.816 -1.442 4.275
 0.843 -1.443 4.275
 0.869 -1.443 4.27
 0.894 -1.443 4.266
 0.922 -1.446 4.268
 0.949 -1.448 4.268
 0.976 -1.45 4.269
 1.003 -1.451 4.269
 1.031 -1.454 4.271
 1.057 -1.455 4.268
 1.084 -1.457 4.267
 1.111 -1.458 4.264
 1.138 -1.459 4.261
 1.165 -1.46 4.259
 1.193 -1.462 4.258
 1.219 -1.463 4.252
 1.246 -1.465 4.251
 1.275 -1.467 4.251
 1.303 -1.469 4.25
 1.331 -1.471 4.248
 1.36 -1.474 4.25
 1.388 -1.477 4.249
 1.417 -1.479 4.248
 1.444 -1.48 4.243
 1.473 -1.483 4.241
 1.502 -1.486 4.242
 1.531 -1.488 4.24
 1.559 -1.49 4.236
 1.589 -1.493 4.235
 1.616 -1.494 4.228
 1.643 -1.494 4.221
 1.673 -1.497 4.219
 1.702 -1.499 4.215
 1.732 -1.502 4.213
 1.76 -1.504 4.208
 1.785 -1.502 4.194
 1.807 -1.499 4.172
 1.827 -1.493 4.147
 1.845 -1.486 4.116
 1.861 -1.478 4.083
 1.878 -1.471 4.051
 1.892 -1.462 4.016
 0 0 0
 0 0 0
 0 0 0
 0 0 0
 0 0 0
 0 0 0
 0 0 0
 0 0 0
 1.601 -1.102 2.942
 1.618 -1.101 2.929
 1.776 -1.193 3.165
 1.784 -1.185 3.131
 1.789 -1.174 3.093
 1.783 -1.157 3.037
 1.765 -1.133 2.961
 1.77 -1.123 2.925
 -0.081 -0.052 0.126
 -0.107 -0.07 0.175
 -0.18 -0.118 0.308
 -0.267 -0.175 0.468
 -0.161 -0.108 0.282
 -0.149 -0.101 0.265
 -0.229 -0.156 0.419
 -0.308 -0.212 0.577
 -0.213 -0.149 0.403
 -0.293 -0.208 0.568
 -0.284 -0.204 0.559
 -0.275 -0.2 0.549
 -0.351 -0.258 0.715
 -0.752 -0.559 1.575
 -0.901 -0.679 1.92
 -1.205 -0.92 2.616
 -1.502 -1.162 3.318
 -1.711 -1.343 3.846
 -1.682 -1.34 3.848
 -1.804 -1.459 4.199
 -1.848 -1.517 4.378
 -1.815 -1.513 4.375
 -1.783 -1.509 4.373
 -1.751 -1.506 4.373
 -1.719 -1.502 4.372
 -1.687 -1.498 4.369
 -1.655 -1.494 4.368
 -1.624 -1.492 4.368
 -1.593 -1.488 4.366
 -1.563 -1.486 4.367
 -1.533 -1.483 4.367
 -1.502 -1.48 4.365
 -1.472 -1.477 4.364
 -1.443 -1.475 4.365
 -1.412 -1.471 4.362
 -1.382 -1.468 4.359
 -1.353 -1.466 4.361
 -1.324 -1.464 4.362
 -1.294 -1.46 4.356
 -1.264 -1.457 4.354
 -1.235 -1.455 4.353
 -1.207 -1.453 4.352
 -1.177 -1.449 4.347
 -1.15 -1.448 4.35
 -1.121 -1.446 4.349
 -1.092 -1.443 4.346
 -1.065 -1.442 4.347
 -1.037 -1.44 4.347
 -1.009 -1.437 4.344
 -0.981 -1.435 4.341
 -0.954 -1.435 4.345
 -0.926 -1.431 4.339
 -0.898 -1.429 4.336
 -0.871 -1.427 4.336
 -0.844 -1.427 4.337
 -0.816 -1.424 4.333
 -0.79 -1.424 4.335
 -0.763 -1.423 4.336
 -0.736 -1.42 4.332
 -0.709 -1.42 4.334
 -0.683 -1.419 4.336
 -0.657 -1.42 4.34
 -0.631 -1.419 4.341
 -0.605 -1.42 4.346
 -0.579 -1.42 4.348
 -0.552 -1.417 4.34
 -0.524 -1.413 4.33
 -0.498 -1.41 4.324
 -0.471 -1.406 4.315
 -0.444 -1.404 4.309
 -0.418 -1.404 4.312
 -0.392 -1.402 4.308
 -0.366 -1.402 4.309
 -0.341 -1.403 4.312
 -0.315 -1.402 4.31
 -0.289 -1.4 4.307
 -0.264 -1.402 4.313
 -0.238 -1.402 4.315
 -0.212 -1.402 4.315
 -0.187 -1.401 4.312
 -0.161 -1.401 4.312
 -0.135 -1.4 4.309
 -0.109 -1.397 4.302
 -0.084 -1.397 4.3
 -0.058 -1.397 4.302
 -0.033 -1.398 4.305
 -0.007 -1.399 4.307
 0.017 -1.402 4.315
 0.043 -1.401 4.311
 0.068 -1.398 4.302
 0.094 -1.396 4.295
 0.119 -1.396 4.293
 0.144 -1.395 4.29
 0.17 -1.397 4.294
 0.196 -1.399 4.301
 0.222 -1.4 4.302
 0.247 -1.4 4.298
 0.272 -1.399 4.296
 0.298 -1.4 4.295
 0.323 -1.399 4.291
 0.349 -1.399 4.289
 0.374 -1.399 4.288
 0.4 -1.399 4.286
 0.425 -1.4 4.284
 0.452 -1.402 4.291
 0.478 -1.403 4.29
 0.504 -1.404 4.291
 0.529 -1.404 4.289
 0.555 -1.405 4.287
 0.58 -1.405 4.283
 0.607 -1.407 4.286
 0.632 -1.407 4.282
 0.66 -1.41 4.289
 0.686 -1.411 4.29
 0.712 -1.412 4.287
 0.738 -1.413 4.287
 0.765 -1.415 4.29
 0.79 -1.415 4.284
 0.817 -1.417 4.284
 0.843 -1.417 4.282
 0.868 -1.416 4.275
 0.894 -1.416 4.27
 0.922 -1.42 4.277
 0.949 -1.421 4.275
 0.976 -1.423 4.275
 1.003 -1.425 4.276
 1.031 -1.428 4.278
 1.056 -1.428 4.271
 1.083 -1.429 4.27
 1.11 -1.431 4.268
 1.137 -1.431 4.263
 1.163 -1.432 4.259
 1.191 -1.434 4.259
 1.218 -1.435 4.255
 1.246 -1.437 4.255
 1.273 -1.439 4.253
 1.302 -1.441 4.253
 1.33 -1.444 4.253
 1.359 -1.447 4.255
 1.387 -1.449 4.252
 1.416 -1.452 4.254
 1.443 -1.453 4.248
 1.471 -1.455 4.246
 1.5 -1.457 4.244
 1.529 -1.459 4.242
 1.557 -1.462 4.239
 1.587 -1.464 4.238
 1.614 -1.465 4.23
 1.642 -1.466 4.224
 1.671 -1.469 4.222
 1.7 -1.471 4.219
 1.73 -1.474 4.217
 1.758 -1.475 4.211
 1.785 -1.475 4.201
 1.808 -1.472 4.182
 1.83 -1.468 4.16
 1.849 -1.463 4.134
 1.87 -1.458 4.11
 1.887 -1.452 4.08
 0 0 0
 0 0 0
 0 0 0
 0 0 0
 0 0 0
 0 0 0
 0 0 0
 0 0 0
 0 0 0
 1.591 -1.076 2.931
 1.613 -1.078 2.926
 1.775 -1.172 3.171
 1.784 -1.163 3.138
 1.79 -1.154 3.101
 1.787 -1.139 3.051
 1.76 -1.109 2.959
 1.776 -1.107 2.942
 -0.168 -0.105 0.277
 -0.108 -0.069 0.176
 -0.099 -0.064 0.163
 -0.087 -0.057 0.144
 -0.077 -0.052 0.129
 -0.071 -0.048 0.12
 -0.059 -0.041 0.099
 -0.05 -0.035 0.084
 -0.045 -0.032 0.075
 -0.039 -0.028 0.063
 -0.117 -0.083 0.222
 -0.109 -0.078 0.209
 -0.184 -0.134 0.37
 -0.588 -0.429 1.23
 -0.82 -0.606 1.75
 -1.045 -0.783 2.272
 -1.422 -1.08 3.148
 -1.71 -1.318 3.853
 -1.682 -1.315 3.855
 -1.803 -1.431 4.204
 -1.847 -1.488 4.383
 -1.814 -1.484 4.381
 -1.781 -1.48 4.378
 -1.75 -1.477 4.379
 -1.718 -1.474 4.378
 -1.686 -1.47 4.376
 -1.655 -1.467 4.376
 -1.624 -1.463 4.374
 -1.592 -1.46 4.371
 -1.562 -1.457 4.372
 -1.531 -1.454 4.372
 -1.501 -1.451 4.369
 -1.471 -1.449 4.371
 -1.442 -1.447 4.371
 -1.411 -1.444 4.369
 -1.381 -1.44 4.364
 -1.352 -1.438 4.365
 -1.323 -1.436 4.367
 -1.293 -1.433 4.363
 -1.263 -1.429 4.359
 -1.235 -1.428 4.36
 -1.207 -1.426 4.361
 -1.177 -1.422 4.354
 -1.149 -1.42 4.355
 -1.121 -1.419 4.355
 -1.091 -1.415 4.349
 -1.064 -1.414 4.351
 -1.036 -1.413 4.352
 -1.009 -1.411 4.352
 -0.981 -1.409 4.349
 -0.954 -1.409 4.354
 -0.925 -1.405 4.346
 -0.897 -1.402 4.343
 -0.87 -1.401 4.342
 -0.843 -1.4 4.343
 -0.815 -1.397 4.336
 -0.789 -1.397 4.34
 -0.762 -1.396 4.34
 -0.735 -1.393 4.336
 -0.709 -1.393 4.339
 -0.683 -1.393 4.342
 -0.657 -1.393 4.346
 -0.631 -1.393 4.347
 -0.605 -1.393 4.349
 -0.578 -1.392 4.351
 -0.551 -1.389 4.342
 -0.523 -1.385 4.331
 -0.497 -1.382 4.325
 -0.47 -1.379 4.317
 -0.443 -1.376 4.31
 -0.418 -1.377 4.315
 -0.391 -1.374 4.307
 -0.365 -1.374 4.307
 -0.34 -1.374 4.31
 -0.314 -1.373 4.307
 -0.288 -1.372 4.304
 -0.263 -1.374 4.313
 -0.238 -1.375 4.317
 -0.212 -1.376 4.319
 -0.186 -1.375 4.318
 -0.161 -1.375 4.319
 -0.135 -1.374 4.315
 -0.109 -1.371 4.306
 -0.084 -1.369 4.3
 -0.058 -1.369 4.301
 -0.033 -1.37 4.303
 -0.007 -1.371 4.306
 0.017 -1.375 4.317
 0.043 -1.375 4.317
 0.068 -1.372 4.306
 0.094 -1.369 4.297
 0.119 -1.368 4.293
 0.144 -1.367 4.289
 0.17 -1.369 4.295
 0.196 -1.373 4.306
 0.222 -1.375 4.309
 0.247 -1.374 4.305
 0.272 -1.373 4.3
 0.298 -1.374 4.301
 0.323 -1.372 4.293
 0.348 -1.371 4.289
 0.374 -1.372 4.291
 0.4 -1.373 4.29
 0.425 -1.373 4.288
 0.452 -1.376 4.295
 0.478 -1.378 4.297
 0.504 -1.378 4.296
 0.529 -1.379 4.295
 0.555 -1.379 4.294
 0.581 -1.379 4.29
 0.606 -1.38 4.289
 0.632 -1.38 4.287
 0.659 -1.384 4.295
 0.686 -1.385 4.295
 0.711 -1.385 4.292
 0.738 -1.387 4.295
 0.765 -1.39 4.297
 0.79 -1.389 4.291
 0.817 -1.39 4.29
 0.843 -1.392 4.29
 0.868 -1.39 4.282
 0.894 -1.391 4.278
 0.923 -1.395 4.285
 0.948 -1.394 4.278
 0.975 -1.395 4.277
 1.002 -1.398 4.279
 1.029 -1.4 4.278
 1.055 -1.4 4.273
 1.083 -1.402 4.275
 1.11 -1.404 4.274
 1.136 -1.404 4.269
 1.163 -1.406 4.267
 1.191 -1.408 4.266
 1.217 -1.408 4.261
 1.245 -1.41 4.259
 1.272 -1.411 4.257
 1.299 -1.413 4.254
 1.328 -1.415 4.254
 1.357 -1.418 4.256
 1.385 -1.42 4.254
 1.415 -1.424 4.257
 1.443 -1.426 4.254
 1.47 -1.427 4.25
 1.499 -1.43 4.249
 1.528 -1.431 4.246
 1.555 -1.433 4.241
 1.584 -1.435 4.239
 1.612 -1.436 4.232
 1.638 -1.436 4.223
 1.668 -1.439 4.223
 1.697 -1.441 4.218
 1.726 -1.443 4.214
 1.755 -1.445 4.211
 1.784 -1.447 4.207
 1.809 -1.446 4.191
 1.834 -1.445 4.178
 1.859 -1.444 4.164
 1.879 -1.439 4.139
 0 0 0
 0 0 0
 0 0 0
 0 0 0
 0 0 0
 0 0 0
 0 0 0
 0 0 0
 0 0 0
 0 0 0
 1.566 -1.04 2.89
 1.598 -1.048 2.904
 1.775 -1.15 3.178
 1.783 -1.142 3.143
 1.789 -1.132 3.106
 1.788 -1.118 3.058
 1.788 -1.106 3.014
 1.781 -1.089 2.956
 -0.124 -0.077 0.202
 -0.128 -0.08 0.211
 -0.107 -0.068 0.178
 -0.093 -0.06 0.156
 -0.082 -0.054 0.138
 -0.074 -0.049 0.126
 -0.063 -0.043 0.107
 -0.053 -0.036 0.088
 -0.046 -0.032 0.077
 -0.038 -0.027 0.063
 -0.116 -0.081 0.221
 -0.107 -0.076 0.206
 -0.101 -0.072 0.197
 -0.505 -0.362 1.058
 -0.739 -0.536 1.58
 -0.968 -0.712 2.106
 -1.345 -1.003 2.982
 -1.712 -1.294 3.864
 -1.683 -1.291 3.864
 -1.803 -1.404 4.213
 -1.845 -1.459 4.388
 -1.813 -1.456 4.388
 -1.78 -1.451 4.384
 -1.748 -1.448 4.384
 -1.717 -1.446 4.385
 -1.686 -1.442 4.384
 -1.654 -1.439 4.382
 -1.622 -1.434 4.378
 -1.59 -1.43 4.373
 -1.559 -1.428 4.373
 -1.529 -1.425 4.374
 -1.499 -1.422 4.372
 -1.47 -1.42 4.374
 -1.44 -1.418 4.373
 -1.41 -1.415 4.372
 -1.379 -1.412 4.369
 -1.351 -1.41 4.37
 -1.323 -1.409 4.373
 -1.294 -1.407 4.372
 -1.263 -1.403 4.367
 -1.235 -1.401 4.367
 -1.206 -1.399 4.368
 -1.176 -1.395 4.361
 -1.147 -1.392 4.358
 -1.12 -1.391 4.359
 -1.091 -1.388 4.354
 -1.063 -1.387 4.355
 -1.035 -1.385 4.355
 -1.008 -1.384 4.357
 -0.98 -1.381 4.353
 -0.953 -1.381 4.356
 -0.924 -1.377 4.348
 -0.897 -1.375 4.347
 -0.869 -1.374 4.346
 -0.843 -1.373 4.347
 -0.815 -1.37 4.341
 -0.789 -1.37 4.345
 -0.762 -1.369 4.345
 -0.735 -1.367 4.341
 -0.709 -1.367 4.346
 -0.683 -1.368 4.352
 -0.657 -1.368 4.356
 -0.631 -1.367 4.355
 -0.604 -1.366 4.354
 -0.578 -1.367 4.358
 -0.551 -1.362 4.346
 -0.522 -1.357 4.33
 -0.495 -1.353 4.321
 -0.468 -1.35 4.312
 -0.441 -1.345 4.3
 -0.416 -1.347 4.306
 -0.39 -1.343 4.297
 -0.364 -1.344 4.301
 -0.339 -1.345 4.306
 -0.313 -1.344 4.302
 -0.287 -1.343 4.301
 -0.262 -1.345 4.309
 -0.237 -1.346 4.313
 -0.211 -1.346 4.312
 -0.186 -1.347 4.315
 -0.16 -1.347 4.318
 -0.135 -1.347 4.317
 -0.109 -1.344 4.309
 -0.083 -1.344 4.308
 -0.058 -1.344 4.308
 -0.033 -1.344 4.309
 -0.007 -1.345 4.311
 0.018 -1.35 4.327
 0.043 -1.35 4.326
 0.069 -1.347 4.315
 0.094 -1.344 4.304
 0.119 -1.343 4.302
 0.145 -1.342 4.298
 0.17 -1.345 4.305
 0.196 -1.348 4.315
 0.222 -1.349 4.316
 0.247 -1.348 4.311
 0.272 -1.346 4.304
 0.298 -1.348 4.308
 0.323 -1.347 4.301
 0.349 -1.346 4.298
 0.375 -1.348 4.3
 0.4 -1.347 4.297
 0.425 -1.347 4.294
 0.452 -1.352 4.306
 0.478 -1.352 4.305
 0.504 -1.353 4.306
 0.529 -1.353 4.302
 0.555 -1.354 4.301
 0.58 -1.352 4.293
 0.606 -1.353 4.293
 0.632 -1.353 4.29
 0.66 -1.359 4.303
 0.686 -1.359 4.301
 0.711 -1.358 4.294
 0.738 -1.361 4.3
 0.765 -1.363 4.303
 0.79 -1.361 4.292
 0.816 -1.363 4.294
 0.844 -1.367 4.3
 0.868 -1.364 4.288
 0.894 -1.365 4.284
 0.924 -1.37 4.297
 0.947 -1.366 4.279
 0.973 -1.368 4.278
 1.001 -1.37 4.281
 1.028 -1.371 4.279
 1.053 -1.371 4.272
 1.081 -1.374 4.276
 1.109 -1.376 4.276
 1.135 -1.376 4.27
 1.162 -1.378 4.269
 1.19 -1.381 4.271
 1.217 -1.382 4.267
 1.244 -1.383 4.265
 1.272 -1.385 4.264
 1.299 -1.386 4.26
 1.327 -1.388 4.259
 1.356 -1.391 4.261
 1.384 -1.392 4.257
 1.413 -1.396 4.259
 1.441 -1.398 4.257
 1.469 -1.399 4.254
 1.498 -1.402 4.253
 1.526 -1.403 4.25
 1.554 -1.405 4.245
 1.582 -1.407 4.241
 1.61 -1.407 4.235
 1.636 -1.408 4.226
 1.667 -1.411 4.226
 1.695 -1.413 4.222
 1.725 -1.416 4.22
 1.755 -1.418 4.219
 1.785 -1.421 4.217
 1.812 -1.421 4.207
 1.84 -1.423 4.2
 1.867 -1.423 4.19
 0 0 0
 0 0 0
 0 0 0
 0 0 0
 0 0 0
 0 0 0
 0 0 0
 0 0 0
 0 0 0
 0 0 0
 0 0 0
 1.339 -0.873 2.475
 1.573 -1.012 2.864
 1.768 -1.124 3.172
 1.776 -1.116 3.138
 1.783 -1.108 3.103
 1.786 -1.096 3.06
 1.785 -1.084 3.014
 1.775 -1.066 2.952
 -0.166 -0.1 0.275
 -0.133 -0.081 0.221
 -0.112 -0.069 0.187
 -0.098 -0.062 0.165
 -0.087 -0.055 0.147
 -0.078 -0.051 0.133
 -0.067 -0.044 0.113
 -0.055 -0.037 0.093
 -0.047 -0.032 0.078
 -0.123 -0.083 0.233
 -0.2 -0.136 0.391
 -0.274 -0.188 0.551
 -0.349 -0.243 0.717
 -0.752 -0.528 1.583
 -0.983 -0.699 2.108
 -1.207 -0.87 2.635
 -1.501 -1.098 3.337
 -1.789 -1.327 4.046
 -1.758 -1.323 4.046
 -1.802 -1.377 4.219
 -1.844 -1.43 4.394
 -1.812 -1.427 4.394
 -1.778 -1.422 4.388
 -1.746 -1.419 4.387
 -1.715 -1.416 4.387
 -1.683 -1.412 4.385
 -1.652 -1.409 4.384
 -1.619 -1.405 4.38
 -1.588 -1.402 4.377
 -1.558 -1.399 4.378
 -1.529 -1.398 4.38
 -1.498 -1.394 4.377
 -1.469 -1.393 4.38
 -1.438 -1.389 4.377
 -1.408 -1.387 4.376
 -1.378 -1.383 4.371
 -1.35 -1.382 4.374
 -1.322 -1.381 4.377
 -1.293 -1.379 4.377
 -1.263 -1.376 4.374
 -1.234 -1.374 4.374
 -1.206 -1.372 4.374
 -1.175 -1.367 4.363
 -1.146 -1.364 4.36
 -1.118 -1.362 4.359
 -1.088 -1.358 4.352
 -1.06 -1.357 4.352
 -1.033 -1.355 4.351
 -1.005 -1.354 4.352
 -0.977 -1.351 4.349
 -0.951 -1.351 4.353
 -0.921 -1.347 4.342
 -0.894 -1.345 4.341
 -0.868 -1.345 4.345
 -0.842 -1.346 4.351
 -0.814 -1.342 4.343
 -0.789 -1.344 4.352
 -0.762 -1.344 4.356
 -0.736 -1.342 4.354
 -0.709 -1.341 4.353
 -0.683 -1.342 4.361
 -0.657 -1.343 4.364
 -0.63 -1.34 4.36
 -0.602 -1.336 4.348
 -0.577 -1.339 4.359
 -0.549 -1.333 4.341
 -0.521 -1.328 4.327
 -0.493 -1.321 4.308
 -0.467 -1.319 4.304
 -0.439 -1.312 4.283
 -0.414 -1.314 4.289
 -0.388 -1.312 4.285
 -0.363 -1.316 4.299
 -0.338 -1.317 4.302
 -0.312 -1.316 4.302
 -0.287 -1.316 4.304
 -0.262 -1.318 4.309
 -0.236 -1.318 4.312
 -0.211 -1.318 4.311
 -0.185 -1.318 4.313
 -0.16 -1.319 4.317
 -0.134 -1.319 4.316
 -0.109 -1.317 4.309
 -0.083 -1.317 4.308
 -0.058 -1.317 4.308
 -0.032 -1.317 4.309
 -0.007 -1.317 4.31
 0.018 -1.322 4.327
 0.043 -1.325 4.334
 0.069 -1.318 4.31
 0.094 -1.314 4.296
 0.119 -1.313 4.294
 0.144 -1.314 4.296
 0.17 -1.317 4.305
 0.196 -1.322 4.321
 0.222 -1.323 4.322
 0.247 -1.321 4.314
 0.271 -1.315 4.29
 0.298 -1.319 4.304
 0.323 -1.32 4.303
 0.348 -1.317 4.293
 0.374 -1.317 4.292
 0.4 -1.32 4.298
 0.424 -1.318 4.289
 0.452 -1.323 4.304
 0.478 -1.325 4.307
 0.505 -1.329 4.316
 0.53 -1.327 4.307
 0.555 -1.326 4.301
 0.579 -1.324 4.292
 0.605 -1.324 4.289
 0.63 -1.323 4.282
