 1.838 -1.343 3.08
 1.838 -1.327 3.033
 1.848 -1.319 3.004
 -2.284 -1.623 3.856
 -2.238 -1.608 3.835
 -2.227 -1.62 3.875
 -2.198 -1.618 3.884
 -2.173 -1.619 3.899
 -2.148 -1.62 3.914
 -2.121 -1.62 3.925
 -2.096 -1.622 3.941
 -2.069 -1.621 3.953
 -2.043 -1.621 3.964
 -2.016 -1.621 3.975
 -1.989 -1.621 3.986
 -1.962 -1.62 3.995
 -1.936 -1.621 4.009
 -1.909 -1.62 4.018
 -1.883 -1.621 4.03
 -1.858 -1.622 4.044
 -1.832 -1.623 4.057
 -1.804 -1.622 4.063
 -1.778 -1.622 4.074
 -1.75 -1.621 4.081
 -1.721 -1.619 4.085
 -1.693 -1.617 4.089
 -1.665 -1.616 4.095
 -1.638 -1.615 4.102
 -1.61 -1.613 4.107
 -1.584 -1.613 4.116
 -1.556 -1.612 4.122
 -1.53 -1.612 4.13
 -1.503 -1.612 4.137
 -1.476 -1.611 4.143
 -1.449 -1.61 4.148
 -1.422 -1.609 4.153
 -1.395 -1.609 4.16
 -1.367 -1.607 4.163
 -1.341 -1.607 4.168
 -1.315 -1.607 4.175
 -1.289 -1.608 4.185
 -1.262 -1.607 4.19
 -1.236 -1.607 4.196
 -1.211 -1.609 4.207
 -1.183 -1.607 4.208
 -1.155 -1.604 4.206
 -1.129 -1.603 4.21
 -1.101 -1.602 4.211
 -1.073 -1.599 4.209
 -1.047 -1.598 4.213
 -1.021 -1.599 4.221
 -0.994 -1.597 4.221
 -0.968 -1.597 4.224
 -0.941 -1.595 4.224
 -0.914 -1.594 4.226
 -0.888 -1.594 4.23
 -0.862 -1.593 4.231
 -0.835 -1.592 4.233
 -0.809 -1.592 4.237
 -0.783 -1.59 4.237
 -0.756 -1.589 4.236
 -0.73 -1.587 4.236
 -0.703 -1.586 4.235
 -0.677 -1.585 4.235
 -0.651 -1.585 4.239
 -0.625 -1.584 4.24
 -0.6 -1.586 4.246
 -0.574 -1.585 4.247
 -0.548 -1.584 4.248
 -0.522 -1.584 4.248
 -0.496 -1.583 4.248
 -0.47 -1.581 4.246
 -0.444 -1.58 4.246
 -0.418 -1.58 4.246
 -0.392 -1.579 4.246
 -0.367 -1.579 4.247
 -0.341 -1.578 4.246
 -0.315 -1.578 4.248
 -0.29 -1.577 4.247
 -0.264 -1.576 4.244
 -0.238 -1.576 4.245
 -0.213 -1.576 4.247
 -0.187 -1.576 4.247
 -0.162 -1.576 4.248
 -0.136 -1.576 4.248
 -0.11 -1.575 4.246
 -0.085 -1.574 4.242
 -0.059 -1.574 4.242
 -0.034 -1.573 4.241
 -0.008 -1.573 4.238
 0.016 -1.572 4.238
 0.041 -1.573 4.238
 0.067 -1.572 4.236
 0.092 -1.572 4.235
 0.118 -1.573 4.237
 0.143 -1.574 4.238
 0.169 -1.574 4.238
 0.194 -1.574 4.235
 0.22 -1.574 4.235
 0.245 -1.574 4.233
 0.27 -1.572 4.227
 0.296 -1.574 4.23
 0.322 -1.576 4.233
 0.347 -1.576 4.232
 0.373 -1.578 4.235
 0.399 -1.58 4.237
 0.424 -1.579 4.231
 0.45 -1.579 4.231
 0.476 -1.581 4.232
 0.501 -1.58 4.226
 0.527 -1.581 4.226
 0.553 -1.582 4.225
 0.578 -1.581 4.222
 0.604 -1.582 4.221
 0.63 -1.583 4.219
 0.656 -1.584 4.218
 0.682 -1.586 4.219
 0.707 -1.586 4.215
 0.733 -1.587 4.213
 0.76 -1.588 4.214
 0.786 -1.589 4.212
 0.812 -1.591 4.212
 0.838 -1.592 4.21
 0.864 -1.592 4.205
 0.889 -1.591 4.198
 0.915 -1.592 4.195
 0.941 -1.593 4.191
 0.969 -1.596 4.195
 0.996 -1.598 4.194
 1.023 -1.6 4.195
 1.05 -1.602 4.194
 1.076 -1.602 4.189
 1.102 -1.603 4.183
 1.129 -1.605 4.182
 1.156 -1.606 4.18
 1.183 -1.608 4.177
 1.21 -1.609 4.175
 1.237 -1.611 4.172
 1.263 -1.611 4.164
 1.29 -1.613 4.162
 1.317 -1.614 4.158
 1.344 -1.616 4.155
 1.371 -1.617 4.15
 1.399 -1.62 4.149
 1.426 -1.62 4.142
 1.452 -1.621 4.135
 1.478 -1.62 4.125
 1.505 -1.621 4.119
 1.531 -1.621 4.11
 1.556 -1.621 4.1
 1.582 -1.621 4.091
 1.609 -1.622 4.084
 1.636 -1.622 4.075
 1.662 -1.622 4.066
 1.688 -1.623 4.058
 1.713 -1.622 4.046
 1.739 -1.621 4.034
 1.763 -1.62 4.021
 1.787 -1.619 4.006
 1.81 -1.616 3.988
 1.833 -1.613 3.97
 1.85 -1.605 3.94
 1.864 -1.595 3.905
 1.875 -1.583 3.864
 1.886 -1.572 3.824
 1.891 -1.555 3.772
 1.897 -1.539 3.723
 1.904 -1.526 3.678
 1.913 -1.513 3.636
 1.916 -1.497 3.585
 1.928 -1.488 3.552
 1.893 -1.443 3.433
 1.806 -1.36 3.224
 1.801 -1.341 3.166
 1.821 -1.339 3.153
 1.83 -1.331 3.121
 1.838 -1.321 3.087
 1.835 -1.304 3.035
 1.828 -1.285 2.979
 -2.32 -1.621 3.927
 -2.292 -1.62 3.938
 -2.256 -1.614 3.936
 -2.229 -1.614 3.948
 -2.202 -1.614 3.961
 -2.176 -1.615 3.975
 -2.15 -1.615 3.989
 -2.124 -1.616 4.004
 -2.096 -1.616 4.014
 -2.069 -1.615 4.026
 -2.043 -1.616 4.039
 -2.015 -1.615 4.049
 -1.987 -1.615 4.058
 -1.961 -1.615 4.07
 -1.934 -1.615 4.08
 -1.908 -1.616 4.093
 -1.883 -1.617 4.108
 -1.857 -1.619 4.121
 -1.83 -1.618 4.13
 -1.802 -1.617 4.139
 -1.775 -1.617 4.147
 -1.746 -1.615 4.153
 -1.717 -1.613 4.157
 -1.688 -1.611 4.162
 -1.66 -1.61 4.166
 -1.631 -1.608 4.17
 -1.602 -1.606 4.175
 -1.574 -1.604 4.177
 -1.546 -1.603 4.184
 -1.52 -1.603 4.192
 -1.492 -1.602 4.196
 -1.463 -1.6 4.199
 -1.436 -1.599 4.205
 -1.409 -1.598 4.21
 -1.38 -1.596 4.212
 -1.353 -1.595 4.215
 -1.327 -1.595 4.223
 -1.3 -1.595 4.23
 -1.272 -1.594 4.232
 -1.245 -1.593 4.236
 -1.219 -1.594 4.245
 -1.191 -1.591 4.245
 -1.163 -1.588 4.243
 -1.136 -1.588 4.248
 -1.109 -1.588 4.252
 -1.081 -1.584 4.249
 -1.054 -1.584 4.253
 -1.029 -1.584 4.26
 -1.001 -1.582 4.258
 -0.974 -1.581 4.26
 -0.947 -1.579 4.259
 -0.92 -1.578 4.261
 -0.893 -1.577 4.262
 -0.866 -1.575 4.263
 -0.84 -1.574 4.264
 -0.813 -1.574 4.267
 -0.786 -1.572 4.265
 -0.759 -1.57 4.263
 -0.733 -1.569 4.264
 -0.706 -1.567 4.262
 -0.679 -1.565 4.259
 -0.653 -1.565 4.263
 -0.627 -1.564 4.263
 -0.601 -1.564 4.267
 -0.575 -1.563 4.265
 -0.549 -1.563 4.268
 -0.523 -1.562 4.269
 -0.497 -1.562 4.269
 -0.471 -1.56 4.266
 -0.445 -1.559 4.266
 -0.419 -1.558 4.266
 -0.393 -1.557 4.263
 -0.367 -1.557 4.265
 -0.341 -1.556 4.265
 -0.316 -1.556 4.266
 -0.29 -1.555 4.264
 -0.264 -1.554 4.262
 -0.238 -1.553 4.261
 -0.213 -1.553 4.261
 -0.187 -1.553 4.263
 -0.162 -1.554 4.265
 -0.136 -1.554 4.265
 -0.111 -1.553 4.264
 -0.085 -1.552 4.262
 -0.059 -1.552 4.262
 -0.034 -1.552 4.262
 -0.008 -1.551 4.258
 0.016 -1.551 4.257
 0.042 -1.551 4.257
 0.067 -1.55 4.254
 0.093 -1.549 4.25
 0.118 -1.55 4.252
 0.144 -1.551 4.253
 0.169 -1.551 4.253
 0.195 -1.551 4.252
 0.22 -1.552 4.252
 0.246 -1.551 4.249
 0.271 -1.55 4.244
 0.297 -1.552 4.247
 0.322 -1.552 4.247
 0.348 -1.553 4.245
 0.374 -1.555 4.249
 0.4 -1.556 4.249
 0.425 -1.555 4.245
 0.451 -1.556 4.245
 0.477 -1.557 4.246
 0.502 -1.557 4.241
 0.528 -1.558 4.243
 0.554 -1.56 4.243
 0.58 -1.56 4.242
 0.606 -1.561 4.24
 0.632 -1.561 4.238
 0.657 -1.562 4.237
 0.684 -1.563 4.236
 0.709 -1.564 4.233
 0.736 -1.565 4.233
 0.762 -1.568 4.235
 0.789 -1.569 4.236
 0.816 -1.571 4.237
 0.842 -1.572 4.234
 0.868 -1.573 4.231
 0.893 -1.572 4.225
 0.919 -1.573 4.221
 0.946 -1.574 4.219
 0.974 -1.577 4.223
 1 -1.579 4.221
 1.028 -1.581 4.222
 1.055 -1.583 4.221
 1.081 -1.584 4.216
 1.107 -1.584 4.21
 1.134 -1.586 4.211
 1.162 -1.588 4.209
 1.188 -1.589 4.206
 1.216 -1.592 4.205
 1.244 -1.594 4.204
 1.271 -1.595 4.199
 1.299 -1.597 4.198
 1.326 -1.599 4.195
 1.353 -1.6 4.191
 1.38 -1.601 4.185
 1.408 -1.603 4.183
 1.435 -1.604 4.177
 1.462 -1.605 4.172
 1.489 -1.606 4.165
 1.517 -1.608 4.161
 1.544 -1.609 4.155
 1.571 -1.609 4.146
 1.597 -1.609 4.136
 1.624 -1.61 4.129
 1.651 -1.61 4.122
 1.677 -1.611 4.113
 1.704 -1.612 4.105
 1.73 -1.611 4.093
 1.756 -1.611 4.083
 1.78 -1.609 4.068
 1.804 -1.607 4.051
 1.826 -1.603 4.031
 1.846 -1.598 4.007
 1.86 -1.588 3.972
 1.873 -1.577 3.933
 1.882 -1.563 3.886
 1.892 -1.551 3.845
 1.899 -1.536 3.797
 1.905 -1.521 3.749
 1.915 -1.509 3.707
 1.927 -1.5 3.672
 1.93 -1.484 3.621
 1.945 -1.476 3.591
 0 0 0
 0 0 0
 1.8 -1.318 3.172
 1.819 -1.317 3.158
 1.829 -1.308 3.126
 1.838 -1.3 3.094
 1.828 -1.278 3.033
 1.832 -1.267 2.994
 -2.351 -1.616 3.989
 -2.322 -1.615 4
 -2.289 -1.611 4.004
 -2.263 -1.612 4.019
 -2.235 -1.611 4.03
 -2.208 -1.611 4.043
 -2.181 -1.611 4.057
 -2.155 -1.612 4.071
 -2.126 -1.611 4.08
 -2.099 -1.612 4.094
 -2.072 -1.612 4.106
 -2.043 -1.611 4.115
 -2.016 -1.611 4.126
 -1.988 -1.61 4.137
 -1.959 -1.609 4.144
 -1.933 -1.61 4.156
 -1.906 -1.611 4.169
 -1.878 -1.61 4.178
 -1.851 -1.609 4.187
 -1.823 -1.609 4.197
 -1.796 -1.609 4.206
 -1.767 -1.607 4.212
 -1.737 -1.605 4.216
 -1.708 -1.604 4.221
 -1.678 -1.6 4.221
 -1.647 -1.597 4.221
 -1.618 -1.595 4.226
 -1.589 -1.593 4.227
 -1.56 -1.591 4.23
 -1.532 -1.59 4.236
 -1.503 -1.587 4.238
 -1.474 -1.585 4.238
 -1.446 -1.584 4.244
 -1.418 -1.583 4.248
 -1.39 -1.581 4.251
 -1.362 -1.58 4.255
 -1.335 -1.579 4.26
 -1.308 -1.579 4.265
 -1.28 -1.577 4.267
 -1.252 -1.576 4.27
 -1.226 -1.575 4.276
 -1.198 -1.573 4.276
 -1.168 -1.57 4.272
 -1.142 -1.569 4.278
 -1.114 -1.568 4.279
 -1.085 -1.564 4.274
 -1.058 -1.562 4.275
 -1.032 -1.563 4.281
 -1.003 -1.56 4.278
 -0.976 -1.558 4.278
 -0.949 -1.557 4.28
 -0.923 -1.557 4.283
 -0.896 -1.555 4.283
 -0.869 -1.554 4.284
 -0.842 -1.553 4.285
 -0.815 -1.551 4.284
 -0.788 -1.549 4.282
 -0.761 -1.547 4.279
 -0.734 -1.545 4.279
 -0.707 -1.544 4.277
 -0.681 -1.542 4.276
 -0.654 -1.542 4.278
 -0.628 -1.541 4.278
 -0.602 -1.54 4.28
 -0.576 -1.539 4.279
 -0.55 -1.539 4.281
 -0.524 -1.539 4.282
 -0.498 -1.538 4.282
 -0.471 -1.536 4.28
 -0.446 -1.536 4.28
 -0.419 -1.534 4.278
 -0.393 -1.533 4.277
 -0.368 -1.533 4.277
 -0.342 -1.531 4.275
 -0.316 -1.53 4.271
 -0.29 -1.529 4.272
 -0.264 -1.527 4.267
 -0.238 -1.526 4.265
 -0.212 -1.526 4.265
 -0.187 -1.527 4.269
 -0.161 -1.527 4.269
 -0.136 -1.527 4.27
 -0.11 -1.527 4.27
 -0.085 -1.526 4.268
 -0.059 -1.526 4.267
 -0.034 -1.526 4.266
 -0.008 -1.525 4.263
 0.016 -1.525 4.264
 0.042 -1.526 4.265
 0.067 -1.525 4.262
 0.093 -1.524 4.259
 0.118 -1.525 4.261
 0.144 -1.526 4.262
 0.169 -1.526 4.261
 0.195 -1.526 4.261
 0.221 -1.527 4.263
 0.246 -1.527 4.26
 0.271 -1.525 4.254
 0.297 -1.526 4.255
 0.323 -1.527 4.254
 0.348 -1.527 4.252
 0.374 -1.528 4.255
 0.4 -1.53 4.257
 0.425 -1.53 4.254
 0.451 -1.531 4.255
 0.477 -1.532 4.256
 0.503 -1.532 4.253
 0.528 -1.533 4.252
 0.554 -1.534 4.251
 0.58 -1.535 4.252
 0.606 -1.536 4.25
 0.632 -1.536 4.248
 0.658 -1.537 4.246
 0.684 -1.539 4.248
 0.71 -1.538 4.243
 0.736 -1.54 4.243
 0.762 -1.542 4.243
 0.789 -1.543 4.244
 0.816 -1.545 4.243
 0.842 -1.546 4.243
 0.868 -1.547 4.24
 0.894 -1.548 4.237
 0.921 -1.549 4.235
 0.947 -1.55 4.232
 0.974 -1.552 4.234
 1.001 -1.554 4.233
 1.029 -1.557 4.234
 1.056 -1.559 4.234
 1.083 -1.56 4.232
 1.109 -1.561 4.228
 1.138 -1.564 4.23
 1.165 -1.566 4.228
 1.192 -1.567 4.226
 1.22 -1.57 4.225
 1.247 -1.572 4.224
 1.274 -1.573 4.219
 1.303 -1.575 4.219
 1.33 -1.577 4.217
 1.358 -1.579 4.213
 1.385 -1.58 4.209
 1.413 -1.582 4.205
 1.441 -1.583 4.202
 1.469 -1.585 4.198
 1.496 -1.587 4.194
 1.524 -1.589 4.19
 1.553 -1.591 4.187
 1.58 -1.592 4.179
 1.607 -1.593 4.172
 1.634 -1.594 4.166
 1.662 -1.595 4.159
 1.689 -1.595 4.15
 1.716 -1.596 4.142
 1.742 -1.596 4.132
 1.769 -1.596 4.121
 1.794 -1.595 4.108
 1.817 -1.592 4.089
 1.838 -1.587 4.068
 1.855 -1.58 4.037
 1.869 -1.569 3.999
 1.88 -1.557 3.956
 1.889 -1.543 3.91
 1.899 -1.531 3.868
 1.908 -1.518 3.823
 1.914 -1.503 3.775
 1.924 -1.492 3.734
 1.938 -1.483 3.701
 1.94 -1.466 3.647
 0 0 0
 0 0 0
 0 0 0
 1.805 -1.3 3.19
 1.822 -1.297 3.171
 1.831 -1.288 3.137
 1.838 -1.279 3.103
 1.854 -1.275 3.082
 1.829 -1.244 2.996
 -2.355 -1.591 4.006
 -2.356 -1.611 4.07
 -2.321 -1.606 4.07
 -2.293 -1.606 4.083
 -2.262 -1.603 4.09
 -2.23 -1.6 4.095
 -2.207 -1.603 4.116
 -2.18 -1.604 4.13
 -2.151 -1.603 4.14
 -2.125 -1.605 4.156
 -2.101 -1.607 4.174
 -2.071 -1.605 4.181
 -2.042 -1.604 4.189
 -2.013 -1.603 4.198
 -1.983 -1.601 4.204
 -1.953 -1.599 4.21
 -1.925 -1.599 4.22
 -1.896 -1.597 4.227
 -1.866 -1.596 4.232
 -1.837 -1.595 4.24
 -1.81 -1.595 4.25
 -1.781 -1.593 4.256
 -1.751 -1.591 4.26
 -1.722 -1.589 4.264
 -1.691 -1.586 4.265
 -1.66 -1.582 4.264
 -1.63 -1.58 4.266
 -1.6 -1.577 4.268
 -1.57 -1.574 4.268
 -1.542 -1.573 4.272
 -1.512 -1.57 4.273
 -1.483 -1.568 4.273
 -1.454 -1.565 4.275
 -1.425 -1.563 4.277
 -1.397 -1.562 4.28
 -1.368 -1.56 4.282
 -1.34 -1.558 4.285
 -1.313 -1.558 4.29
 -1.285 -1.557 4.293
 -1.256 -1.554 4.293
 -1.228 -1.552 4.294
 -1.2 -1.55 4.293
 -1.17 -1.546 4.289
 -1.143 -1.545 4.292
 -1.115 -1.543 4.292
 -1.087 -1.541 4.29
 -1.059 -1.538 4.289
 -1.032 -1.538 4.293
 -1.005 -1.536 4.292
 -0.977 -1.534 4.291
 -0.95 -1.532 4.291
 -0.923 -1.531 4.293
 -0.895 -1.529 4.292
 -0.868 -1.528 4.291
 -0.842 -1.526 4.292
 -0.815 -1.525 4.292
 -0.788 -1.523 4.29
 -0.76 -1.52 4.286
 -0.734 -1.519 4.286
 -0.707 -1.517 4.284
 -0.68 -1.516 4.283
 -0.654 -1.515 4.284
 -0.628 -1.514 4.285
 -0.601 -1.513 4.283
 -0.575 -1.512 4.282
 -0.549 -1.511 4.283
 -0.523 -1.51 4.283
 -0.497 -1.509 4.283
 -0.471 -1.508 4.283
 -0.445 -1.508 4.283
 -0.419 -1.507 4.283
 -0.393 -1.507 4.285
 -0.367 -1.507 4.286
 -0.341 -1.506 4.283
 -0.315 -1.504 4.281
 -0.29 -1.504 4.281
 -0.264 -1.503 4.277
 -0.238 -1.501 4.275
 -0.212 -1.501 4.274
 -0.187 -1.501 4.275
 -0.161 -1.5 4.274
 -0.136 -1.5 4.273
 -0.11 -1.5 4.273
 -0.085 -1.5 4.273
 -0.059 -1.499 4.272
 -0.033 -1.499 4.27
 -0.008 -1.498 4.266
 0.017 -1.498 4.266
 0.042 -1.498 4.268
 0.068 -1.499 4.268
 0.093 -1.499 4.267
 0.119 -1.5 4.27
 0.144 -1.5 4.27
 0.17 -1.5 4.268
 0.195 -1.5 4.268
 0.221 -1.501 4.268
 0.246 -1.501 4.267
 0.271 -1.5 4.261
 0.297 -1.501 4.263
 0.323 -1.501 4.261
 0.348 -1.5 4.258
 0.374 -1.502 4.26
 0.4 -1.504 4.262
 0.425 -1.503 4.26
 0.451 -1.504 4.26
 0.477 -1.505 4.26
 0.502 -1.505 4.256
 0.528 -1.506 4.255
 0.554 -1.507 4.256
 0.58 -1.509 4.259
 0.606 -1.51 4.256
 0.632 -1.511 4.257
 0.658 -1.511 4.254
 0.684 -1.513 4.254
 0.71 -1.513 4.251
 0.736 -1.515 4.252
 0.763 -1.516 4.251
 0.789 -1.517 4.251
 0.815 -1.518 4.249
 0.842 -1.52 4.249
 0.868 -1.521 4.248
 0.895 -1.522 4.246
 0.921 -1.524 4.245
 0.948 -1.525 4.244
 0.975 -1.527 4.243
 1.001 -1.528 4.241
 1.029 -1.53 4.241
 1.056 -1.533 4.242
 1.083 -1.534 4.241
 1.11 -1.535 4.237
 1.138 -1.538 4.238
 1.165 -1.54 4.238
 1.192 -1.541 4.233
 1.22 -1.543 4.234
 1.248 -1.546 4.234
 1.275 -1.547 4.23
 1.303 -1.55 4.229
 1.332 -1.552 4.228
 1.36 -1.554 4.226
 1.387 -1.555 4.222
 1.415 -1.558 4.221
 1.443 -1.56 4.218
 1.472 -1.562 4.217
 1.5 -1.564 4.212
 1.529 -1.567 4.211
 1.558 -1.57 4.21
 1.586 -1.571 4.204
 1.614 -1.572 4.199
 1.642 -1.574 4.193
 1.67 -1.575 4.187
 1.697 -1.575 4.178
 1.724 -1.576 4.17
 1.751 -1.577 4.162
 1.778 -1.577 4.151
 1.803 -1.576 4.137
 1.826 -1.573 4.118
 1.847 -1.568 4.095
 1.863 -1.56 4.062
 1.877 -1.549 4.025
 1.888 -1.537 3.981
 1.897 -1.524 3.936
 1.908 -1.512 3.894
 1.916 -1.499 3.848
 1.924 -1.486 3.803
 1.935 -1.475 3.763
 1.947 -1.466 3.728
 0 0 0
 0 0 0
 0 0 0
 0 0 0
 1.805 -1.278 3.197
 1.821 -1.275 3.176
 1.83 -1.266 3.143
 1.839 -1.257 3.11
 1.842 -1.245 3.069
 1.839 -1.23 3.019
 -2.41 -1.6 4.109
 -2.402 -1.614 4.159
 -2.353 -1.6 4.136
 -2.325 -1.6 4.149
 -2.293 -1.597 4.156
 -2.265 -1.597 4.168
 -2.238 -1.598 4.184
 -2.212 -1.599 4.2
 -2.182 -1.598 4.209
 -2.154 -1.598 4.222
 -2.127 -1.599 4.234
 -2.094 -1.595 4.237
 -2.063 -1.593 4.242
 -2.032 -1.591 4.248
 -2.001 -1.588 4.253
 -1.97 -1.586 4.258
 -1.941 -1.585 4.266
 -1.91 -1.582 4.269
 -1.88 -1.58 4.273
 -1.85 -1.578 4.279
 -1.822 -1.577 4.286
 -1.792 -1.575 4.291
 -1.761 -1.573 4.293
 -1.731 -1.57 4.295
 -1.698 -1.566 4.293
 -1.667 -1.562 4.292
 -1.637 -1.56 4.293
 -1.607 -1.556 4.293
 -1.577 -1.554 4.295
 -1.547 -1.552 4.297
 -1.518 -1.549 4.298
 -1.488 -1.546 4.298
 -1.459 -1.544 4.299
 -1.429 -1.541 4.298
 -1.401 -1.539 4.301
 -1.371 -1.536 4.299
 -1.342 -1.534 4.299
 -1.314 -1.532 4.301
 -1.286 -1.531 4.303
 -1.256 -1.528 4.302
 -1.228 -1.526 4.302
 -1.2 -1.524 4.303
 -1.171 -1.521 4.3
 -1.143 -1.519 4.3
 -1.114 -1.516 4.298
 -1.086 -1.513 4.296
 -1.058 -1.511 4.295
 -1.031 -1.51 4.297
 -1.004 -1.509 4.298
 -0.977 -1.507 4.298
 -0.949 -1.506 4.299
 -0.922 -1.504 4.3
 -0.895 -1.502 4.298
 -0.868 -1.501 4.297
 -0.841 -1.5 4.3
 -0.814 -1.498 4.299
 -0.787 -1.497 4.297
 -0.76 -1.495 4.295
 -0.734 -1.494 4.295
 -0.707 -1.492 4.293
 -0.68 -1.49 4.292
 -0.654 -1.489 4.292
 -0.628 -1.489 4.293
 -0.601 -1.486 4.289
 -0.575 -1.485 4.288
 -0.548 -1.484 4.286
 -0.522 -1.482 4.285
 -0.496 -1.482 4.285
 -0.47 -1.481 4.287
 -0.444 -1.481 4.286
 -0.419 -1.481 4.288
 -0.393 -1.481 4.29
 -0.367 -1.48 4.29
 -0.341 -1.479 4.288
 -0.315 -1.478 4.286
 -0.289 -1.478 4.286
 -0.264 -1.476 4.282
 -0.238 -1.475 4.28
 -0.212 -1.474 4.279
 -0.187 -1.474 4.28
 -0.161 -1.474 4.279
 -0.135 -1.473 4.277
 -0.11 -1.473 4.277
 -0.084 -1.473 4.277
 -0.059 -1.472 4.275
 -0.033 -1.471 4.271
 -0.008 -1.471 4.27
 0.017 -1.471 4.27
 0.042 -1.471 4.271
 0.068 -1.472 4.273
 0.093 -1.473 4.273
 0.119 -1.473 4.273
 0.144 -1.474 4.275
 0.17 -1.474 4.275
 0.195 -1.474 4.273
 0.221 -1.475 4.274
 0.246 -1.475 4.274
 0.272 -1.474 4.269
 0.297 -1.475 4.269
 0.323 -1.475 4.267
 0.348 -1.475 4.266
 0.374 -1.476 4.267
 0.4 -1.478 4.269
 0.425 -1.478 4.267
 0.451 -1.478 4.265
 0.477 -1.479 4.265
 0.502 -1.479 4.263
 0.528 -1.48 4.261
 0.554 -1.481 4.262
 0.58 -1.483 4.264
 0.606 -1.483 4.261
 0.632 -1.484 4.261
 0.658 -1.484 4.258
 0.684 -1.486 4.259
 0.71 -1.487 4.258
 0.736 -1.488 4.257
 0.762 -1.489 4.256
 0.789 -1.49 4.255
 0.815 -1.491 4.253
 0.841 -1.493 4.253
 0.868 -1.494 4.252
 0.895 -1.496 4.252
 0.921 -1.497 4.252
 0.948 -1.499 4.252
 0.975 -1.5 4.25
 1.001 -1.501 4.247
 1.028 -1.503 4.245
 1.056 -1.505 4.247
 1.083 -1.507 4.247
 1.11 -1.509 4.246
 1.138 -1.512 4.247
 1.166 -1.514 4.246
 1.192 -1.514 4.24
 1.219 -1.516 4.239
 1.247 -1.518 4.238
 1.275 -1.52 4.236
 1.303 -1.523 4.236
 1.332 -1.526 4.238
 1.36 -1.528 4.235
 1.387 -1.529 4.231
 1.416 -1.532 4.23
 1.444 -1.534 4.228
 1.473 -1.536 4.226
 1.501 -1.538 4.223
 1.53 -1.541 4.223
 1.56 -1.544 4.222
 1.588 -1.546 4.217
 1.616 -1.548 4.213
 1.645 -1.55 4.209
 1.673 -1.551 4.203
 1.701 -1.552 4.196
 1.729 -1.553 4.189
 1.757 -1.555 4.182
 1.784 -1.555 4.174
 1.808 -1.553 4.158
 1.831 -1.55 4.138
 1.85 -1.544 4.112
 1.866 -1.535 4.077
 1.879 -1.525 4.039
 1.892 -1.514 3.999
 1.902 -1.502 3.954
 1.915 -1.492 3.917
 1.926 -1.481 3.876
 1.943 -1.475 3.848
 0 0 0
 0 0 0
 0 0 0
 0 0 0
 0 0 0
 0 0 0
 1.818 -1.265 3.226
 1.827 -1.257 3.193
 1.836 -1.248 3.16
 1.843 -1.239 3.125
 1.848 -1.229 3.088
 1.842 -1.21 3.031
 -2.461 -1.605 4.206
 -2.437 -1.609 4.229
 -2.386 -1.594 4.204
 -2.358 -1.594 4.218
 -2.325 -1.592 4.224
 -2.295 -1.59 4.234
 -2.265 -1.589 4.243
 -2.235 -1.588 4.254
 -2.203 -1.585 4.259
 -2.174 -1.585 4.27
 -2.143 -1.583 4.277
 -2.11 -1.579 4.279
 -2.078 -1.577 4.284
 -2.047 -1.574 4.289
 -2.015 -1.571 4.291
 -1.983 -1.568 4.294
 -1.952 -1.566 4.298
 -1.919 -1.562 4.298
 -1.887 -1.558 4.299
 -1.855 -1.555 4.299
 -1.826 -1.553 4.305
 -1.795 -1.551 4.308
 -1.764 -1.548 4.31
 -1.734 -1.545 4.312
 -1.702 -1.542 4.311
 -1.67 -1.538 4.309
 -1.64 -1.535 4.31
 -1.609 -1.532 4.309
 -1.579 -1.529 4.31
 -1.549 -1.526 4.31
 -1.519 -1.523 4.31
 -1.489 -1.52 4.309
 -1.459 -1.518 4.31
 -1.429 -1.514 4.307
 -1.401 -1.513 4.31
 -1.371 -1.51 4.309
 -1.342 -1.508 4.31
 -1.313 -1.505 4.309
 -1.285 -1.503 4.311
 -1.256 -1.5 4.308
 -1.227 -1.498 4.307
 -1.199 -1.496 4.306
 -1.17 -1.493 4.304
 -1.142 -1.491 4.306
 -1.114 -1.489 4.303
 -1.085 -1.486 4.301
 -1.058 -1.484 4.302
 -1.031 -1.483 4.304
 -1.003 -1.482 4.304
 -0.976 -1.479 4.302
 -0.949 -1.479 4.305
 -0.922 -1.478 4.306
 -0.894 -1.475 4.302
 -0.867 -1.473 4.302
 -0.841 -1.473 4.304
 -0.813 -1.471 4.302
 -0.786 -1.469 4.3
 -0.76 -1.468 4.3
 -0.733 -1.466 4.299
 -0.706 -1.465 4.297
 -0.68 -1.464 4.297
 -0.653 -1.462 4.296
 -0.627 -1.461 4.296
 -0.6 -1.458 4.291
 -0.574 -1.457 4.29
 -0.547 -1.455 4.287
 -0.521 -1.455 4.288
 -0.495 -1.454 4.287
 -0.47 -1.455 4.291
 -0.444 -1.453 4.289
 -0.418 -1.453 4.291
 -0.392 -1.453 4.291
 -0.366 -1.452 4.291
 -0.34 -1.451 4.288
 -0.315 -1.45 4.286
 -0.289 -1.45 4.287
 -0.263 -1.449 4.285
 -0.237 -1.448 4.283
 -0.212 -1.447 4.282
 -0.186 -1.448 4.284
 -0.161 -1.447 4.284
 -0.135 -1.447 4.283
 -0.11 -1.447 4.283
 -0.084 -1.447 4.283
 -0.059 -1.446 4.28
 -0.033 -1.445 4.277
 -0.008 -1.444 4.273
 0.017 -1.444 4.273
 0.042 -1.444 4.272
 0.068 -1.444 4.273
 0.093 -1.444 4.272
 0.119 -1.445 4.274
 0.144 -1.446 4.275
 0.17 -1.447 4.276
 0.195 -1.447 4.276
 0.221 -1.448 4.277
 0.246 -1.448 4.275
 0.272 -1.447 4.272
 0.297 -1.448 4.272
 0.323 -1.448 4.27
 0.348 -1.448 4.269
 0.374 -1.449 4.27
 0.399 -1.449 4.269
 0.425 -1.45 4.268
 0.451 -1.451 4.267
 0.476 -1.452 4.267
 0.502 -1.452 4.265
 0.528 -1.453 4.265
 0.553 -1.453 4.264
 0.58 -1.455 4.266
 0.605 -1.455 4.263
 0.631 -1.457 4.263
 0.657 -1.457 4.262
 0.683 -1.458 4.262
 0.709 -1.459 4.26
 0.735 -1.46 4.259
 0.761 -1.461 4.257
 0.787 -1.462 4.256
 0.813 -1.462 4.253
 0.84 -1.464 4.253
 0.867 -1.466 4.254
 0.894 -1.468 4.255
 0.92 -1.47 4.255
 0.947 -1.472 4.255
 0.974 -1.473 4.253
 1 -1.473 4.249
 1.027 -1.475 4.249
 1.054 -1.477 4.25
 1.082 -1.48 4.25
 1.109 -1.481 4.248
 1.137 -1.484 4.25
 1.164 -1.486 4.248
 1.191 -1.486 4.244
 1.218 -1.489 4.243
 1.247 -1.492 4.245
 1.275 -1.493 4.243
 1.303 -1.496 4.242
 1.331 -1.499 4.243
 1.359 -1.501 4.241
 1.387 -1.502 4.238
 1.415 -1.504 4.234
 1.443 -1.506 4.233
 1.472 -1.509 4.232
 1.5 -1.51 4.228
 1.529 -1.513 4.226
 1.559 -1.516 4.227
 1.587 -1.518 4.223
 1.615 -1.52 4.219
 1.645 -1.522 4.216
 1.673 -1.524 4.212
 1.701 -1.525 4.205
 1.729 -1.527 4.2
 1.758 -1.529 4.194
 1.785 -1.529 4.185
 1.809 -1.527 4.168
 1.832 -1.524 4.149
 1.853 -1.519 4.125
 1.868 -1.511 4.091
 1.884 -1.502 4.058
 1.899 -1.493 4.021
 1.91 -1.482 3.979
 1.919 -1.469 3.934
 1.928 -1.457 3.888
 0 0 0
 0 0 0
 0 0 0
 0 0 0
 0 0 0
 0 0 0
 0 0 0
 1.81 -1.238 3.22
 1.821 -1.231 3.19
 1.832 -1.224 3.161
 1.841 -1.216 3.129
 1.843 -1.204 3.086
 1.861 -1.202 3.07
 -2.489 -1.595 4.265
 -2.452 -1.59 4.265
 -2.414 -1.584 4.263
 -2.382 -1.582 4.272
 -2.349 -1.579 4.276
 -2.316 -1.576 4.283
 -2.283 -1.573 4.288
 -2.253 -1.572 4.298
 -2.219 -1.569 4.3
 -2.189 -1.568 4.31
 -2.156 -1.564 4.312
 -2.121 -1.56 4.312
 -2.089 -1.556 4.315
 -2.056 -1.553 4.318
 -2.022 -1.549 4.316
 -1.99 -1.545 4.318
 -1.956 -1.541 4.317
 -1.923 -1.537 4.317
 -1.89 -1.533 4.315
 -1.859 -1.53 4.317
 -1.828 -1.528 4.319
 -1.797 -1.525 4.322
 -1.765 -1.521 4.321
 -1.733 -1.518 4.32
 -1.701 -1.514 4.318
 -1.67 -1.51 4.317
 -1.639 -1.507 4.317
 -1.609 -1.504 4.317
 -1.579 -1.502 4.318
 -1.549 -1.499 4.318
 -1.519 -1.496 4.318
 -1.489 -1.494 4.318
 -1.46 -1.491 4.32
 -1.43 -1.488 4.318
 -1.401 -1.486 4.318
 -1.371 -1.483 4.318
 -1.342 -1.48 4.316
 -1.312 -1.477 4.313
 -1.284 -1.475 4.314
 -1.254 -1.472 4.31
 -1.225 -1.469 4.309
 -1.197 -1.467 4.308
 -1.168 -1.465 4.307
 -1.14 -1.463 4.307
 -1.112 -1.46 4.306
 -1.084 -1.458 4.303
 -1.056 -1.456 4.304
 -1.029 -1.455 4.305
 -1.002 -1.454 4.306
 -0.974 -1.452 4.305
 -0.948 -1.452 4.309
 -0.921 -1.451 4.31
 -0.894 -1.448 4.308
 -0.866 -1.447 4.307
 -0.84 -1.446 4.309
 -0.812 -1.443 4.304
 -0.785 -1.441 4.301
 -0.758 -1.439 4.3
 -0.732 -1.438 4.299
 -0.705 -1.437 4.298
 -0.679 -1.436 4.3
 -0.652 -1.434 4.298
 -0.626 -1.434 4.298
 -0.599 -1.431 4.292
 -0.572 -1.429 4.289
 -0.546 -1.426 4.284
 -0.52 -1.425 4.283
 -0.494 -1.425 4.283
 -0.469 -1.428 4.295
 -0.443 -1.427 4.295
 -0.418 -1.428 4.299
 -0.392 -1.429 4.303
 -0.366 -1.427 4.3
 -0.34 -1.424 4.29
 -0.314 -1.422 4.288
 -0.288 -1.423 4.29
 -0.263 -1.422 4.288
 -0.237 -1.421 4.286
 -0.211 -1.42 4.285
 -0.186 -1.421 4.287
 -0.16 -1.42 4.285
 -0.135 -1.419 4.283
 -0.109 -1.419 4.284
 -0.084 -1.419 4.284
 -0.058 -1.418 4.279
 -0.033 -1.417 4.277
 -0.007 -1.417 4.276
 0.017 -1.417 4.276
 0.042 -1.417 4.277
 0.068 -1.418 4.279
 0.093 -1.417 4.274
 0.119 -1.418 4.275
 0.144 -1.418 4.274
 0.169 -1.417 4.272
 0.195 -1.418 4.273
 0.221 -1.42 4.278
 0.246 -1.42 4.276
 0.272 -1.422 4.279
 0.297 -1.421 4.277
 0.322 -1.42 4.271
 0.348 -1.421 4.271
 0.373 -1.422 4.272
 0.398 -1.42 4.265
 0.425 -1.423 4.27
 0.45 -1.424 4.271
 0.476 -1.424 4.268
 0.501 -1.424 4.266
 0.527 -1.425 4.266
 0.552 -1.423 4.258
 0.578 -1.426 4.262
 0.604 -1.427 4.262
 0.63 -1.428 4.262
 0.657 -1.43 4.264
 0.683 -1.431 4.265
 0.709 -1.432 4.262
 0.735 -1.433 4.261
 0.76 -1.433 4.256
 0.786 -1.433 4.253
 0.812 -1.434 4.252
 0.839 -1.436 4.253
 0.865 -1.438 4.253
 0.892 -1.44 4.255
 0.919 -1.442 4.256
 0.946 -1.444 4.257
 0.973 -1.445 4.256
 0.999 -1.446 4.253
 1.026 -1.448 4.253
 1.054 -1.451 4.255
 1.082 -1.453 4.256
 1.109 -1.455 4.254
 1.136 -1.457 4.254
 1.163 -1.458 4.253
 1.19 -1.459 4.248
 1.217 -1.461 4.246
 1.245 -1.463 4.247
 1.273 -1.465 4.246
 1.301 -1.467 4.245
 1.329 -1.47 4.245
 1.358 -1.472 4.243
 1.386 -1.474 4.241
 1.414 -1.476 4.239
 1.442 -1.479 4.238
 1.472 -1.482 4.239
 1.5 -1.484 4.236
 1.528 -1.485 4.232
 1.557 -1.488 4.23
 1.585 -1.489 4.226
 1.614 -1.491 4.222
 1.642 -1.494 4.219
 1.671 -1.496 4.215
 1.7 -1.497 4.21
 1.728 -1.499 4.205
 1.757 -1.501 4.199
 1.786 -1.503 4.194
 1.81 -1.501 4.179
 1.835 -1.499 4.164
 1.857 -1.496 4.143
 1.874 -1.488 4.111
 1.89 -1.48 4.078
 1.905 -1.472 4.044
 1.921 -1.464 4.011
 1.93 -1.452 3.965
 0 0 0
 0 0 0
 0 0 0
 0 0 0
 0 0 0
 0 0 0
 0 0 0
 0 0 0
 1.808 -1.215 3.222
 1.822 -1.21 3.199
 1.833 -1.203 3.17
 1.843 -1.196 3.139
 1.874 -1.203 3.145
 1.844 -1.17 3.048
 -2.493 -1.568 4.281
 -2.472 -1.574 4.31
 -2.433 -1.568 4.307
 -2.399 -1.564 4.312
 -2.364 -1.56 4.314
 -2.329 -1.556 4.316
 -2.295 -1.553 4.32
 -2.263 -1.551 4.327
 -2.228 -1.546 4.326
 -2.196 -1.544 4.333
 -2.162 -1.54 4.334
 -2.126 -1.535 4.331
 -2.092 -1.531 4.331
 -2.059 -1.528 4.334
 -2.025 -1.523 4.331
 -1.991 -1.519 4.33
 -1.958 -1.515 4.329
 -1.925 -1.511 4.329
 -1.891 -1.506 4.327
 -1.86 -1.503 4.328
 -1.828 -1.5 4.329
 -1.796 -1.497 4.329
 -1.764 -1.493 4.327
 -1.731 -1.489 4.324
 -1.7 -1.485 4.324
 -1.668 -1.482 4.322
 -1.638 -1.479 4.322
 -1.607 -1.476 4.322
 -1.578 -1.474 4.325
 -1.548 -1.472 4.326
 -1.518 -1.469 4.326
 -1.489 -1.467 4.326
 -1.459 -1.464 4.326
 -1.429 -1.46 4.323
 -1.399 -1.458 4.323
 -1.37 -1.456 4.323
 -1.341 -1.453 4.322
 -1.311 -1.45 4.319
 -1.282 -1.447 4.318
 -1.252 -1.444 4.313
 -1.224 -1.441 4.312
 -1.195 -1.438 4.31
 -1.167 -1.436 4.31
 -1.139 -1.435 4.31
 -1.111 -1.432 4.308
 -1.082 -1.43 4.306
 -1.055 -1.429 4.307
 -1.029 -1.428 4.311
 -1.002 -1.428 4.317
 -0.976 -1.427 4.318
 -0.949 -1.427 4.322
 -0.922 -1.426 4.324
 -0.894 -1.423 4.318
 -0.866 -1.42 4.312
 -0.839 -1.419 4.314
 -0.812 -1.416 4.31
 -0.785 -1.414 4.306
 -0.758 -1.413 4.307
 -0.731 -1.412 4.306
 -0.705 -1.411 4.305
 -0.679 -1.41 4.307
 -0.652 -1.408 4.304
 -0.626 -1.407 4.304
 -0.599 -1.404 4.297
 -0.572 -1.402 4.293
 -0.545 -1.4 4.288
 -0.519 -1.398 4.286
 -0.493 -1.398 4.287
 -0.469 -1.402 4.301
 -0.443 -1.401 4.301
 -0.418 -1.402 4.306
 -0.392 -1.403 4.311
 -0.366 -1.4 4.303
 -0.339 -1.396 4.29
 -0.313 -1.395 4.288
 -0.288 -1.394 4.288
 -0.262 -1.394 4.287
 -0.237 -1.394 4.288
 -0.211 -1.393 4.287
 -0.186 -1.393 4.288
 -0.16 -1.393 4.287
 -0.134 -1.392 4.284
 -0.109 -1.392 4.285
 -0.084 -1.392 4.286
 -0.058 -1.391 4.281
 -0.033 -1.391 4.281
 -0.007 -1.391 4.281
 0.017 -1.391 4.28
 0.042 -1.391 4.279
 0.068 -1.392 4.284
 0.093 -1.39 4.277
 0.119 -1.391 4.278
 0.144 -1.391 4.279
 0.169 -1.391 4.278
 0.195 -1.392 4.278
 0.221 -1.394 4.281
 0.246 -1.393 4.28
 0.272 -1.395 4.284
 0.297 -1.395 4.281
 0.322 -1.394 4.275
 0.348 -1.395 4.277
 0.373 -1.396 4.277
 0.398 -1.393 4.267
 0.424 -1.396 4.273
 0.45 -1.397 4.274
 0.475 -1.396 4.27
 0.501 -1.397 4.268
 0.527 -1.398 4.269
 0.552 -1.396 4.261
 0.578 -1.399 4.265
 0.604 -1.4 4.265
 0.63 -1.401 4.266
 0.657 -1.404 4.27
 0.683 -1.405 4.27
 0.708 -1.405 4.267
 0.734 -1.406 4.266
 0.76 -1.406 4.261
 0.785 -1.406 4.257
 0.812 -1.408 4.258
 0.838 -1.409 4.258
 0.865 -1.411 4.259
 0.892 -1.414 4.261
 0.919 -1.416 4.263
 0.946 -1.418 4.264
 0.973 -1.419 4.262
 0.999 -1.419 4.258
 1.026 -1.422 4.259
 1.054 -1.424 4.26
 1.081 -1.425 4.259
 1.108 -1.427 4.258
 1.135 -1.429 4.257
 1.162 -1.43 4.255
 1.188 -1.43 4.249
 1.216 -1.432 4.248
 1.244 -1.435 4.25
 1.272 -1.437 4.249
 1.3 -1.439 4.247
 1.328 -1.442 4.247
 1.355 -1.443 4.244
 1.383 -1.445 4.242
 1.412 -1.448 4.241
 1.44 -1.45 4.24
 1.47 -1.453 4.24
 1.498 -1.455 4.238
 1.526 -1.457 4.234
 1.554 -1.458 4.23
 1.582 -1.46 4.227
 1.612 -1.463 4.224
 1.64 -1.465 4.221
 1.67 -1.468 4.22
 1.699 -1.47 4.216
 1.728 -1.472 4.212
 1.756 -1.473 4.206
 1.785 -1.475 4.201
 1.809 -1.473 4.185
 1.835 -1.472 4.172
 1.858 -1.469 4.153
 1.876 -1.463 4.124
 1.895 -1.457 4.096
 1.918 -1.455 4.078
 1.936 -1.449 4.051
 0 0 0
 0 0 0
 0 0 0
 0 0 0
 0 0 0
 0 0 0
 0 0 0
 0 0 0
 0 0 0
 0 0 0
 1.821 -1.188 3.204
 1.832 -1.181 3.174
 1.843 -1.175 3.147
 1.857 -1.17 3.123
 1.849 -1.152 3.063
 -2.526 -1.56 4.348
 -2.472 -1.545 4.32
 -2.443 -1.545 4.334
 -2.408 -1.541 4.337
 -2.372 -1.537 4.339
 -2.335 -1.532 4.337
 -2.299 -1.527 4.336
 -2.266 -1.524 4.341
 -2.229 -1.518 4.337
 -2.195 -1.515 4.34
 -2.161 -1.511 4.341
 -2.126 -1.507 4.34
 -2.091 -1.502 4.339
 -2.059 -1.499 4.341
 -2.024 -1.494 4.339
 -1.99 -1.49 4.337
 -1.957 -1.486 4.337
 -1.924 -1.482 4.335
 -1.89 -1.478 4.334
 -1.859 -1.475 4.335
 -1.827 -1.472 4.336
 -1.795 -1.468 4.335
 -1.763 -1.464 4.332
 -1.729 -1.46 4.328
 -1.698 -1.456 4.326
 -1.665 -1.452 4.322
 -1.635 -1.449 4.322
 -1.605 -1.447 4.323
 -1.575 -1.445 4.326
 -1.546 -1.443 4.328
 -1.517 -1.44 4.329
 -1.487 -1.438 4.33
 -1.457 -1.435 4.328
 -1.427 -1.432 4.327
 -1.397 -1.429 4.324
 -1.369 -1.427 4.327
 -1.34 -1.425 4.326
 -1.31 -1.422 4.324
 -1.281 -1.42 4.323
 -1.252 -1.416 4.319
 -1.223 -1.414 4.318
 -1.194 -1.411 4.316
 -1.166 -1.409 4.316
 -1.139 -1.408 4.317
 -1.11 -1.406 4.315
 -1.082 -1.403 4.311
 -1.055 -1.402 4.313
 -1.028 -1.401 4.317
 -1.002 -1.402 4.323
 -0.975 -1.401 4.325
 -0.949 -1.401 4.33
 -0.922 -1.4 4.332
 -0.894 -1.397 4.326
 -0.865 -1.393 4.318
 -0.839 -1.393 4.32
 -0.812 -1.39 4.316
 -0.784 -1.388 4.313
 -0.758 -1.387 4.314
 -0.731 -1.386 4.314
 -0.705 -1.385 4.314
 -0.679 -1.384 4.314
 -0.652 -1.382 4.311
 -0.626 -1.381 4.311
 -0.598 -1.378 4.304
 -0.572 -1.376 4.299
 -0.545 -1.373 4.293
 -0.519 -1.372 4.292
 -0.493 -1.372 4.293
 -0.469 -1.376 4.308
 -0.443 -1.375 4.308
 -0.418 -1.376 4.312
 -0.392 -1.377 4.316
 -0.365 -1.371 4.3
 -0.338 -1.367 4.286
 -0.312 -1.365 4.283
 -0.287 -1.366 4.285
 -0.261 -1.365 4.284
 -0.236 -1.365 4.285
 -0.21 -1.364 4.283
 -0.185 -1.365 4.287
 -0.16 -1.364 4.285
 -0.134 -1.364 4.284
 -0.109 -1.365 4.287
 -0.083 -1.365 4.286
 -0.058 -1.363 4.28
 -0.033 -1.363 4.282
 -0.007 -1.364 4.282
 0.017 -1.363 4.281
 0.043 -1.364 4.284
 0.068 -1.367 4.292
 0.093 -1.363 4.278
 0.119 -1.363 4.278
 0.144 -1.363 4.277
 0.169 -1.363 4.275
 0.195 -1.363 4.275
 0.22 -1.366 4.283
 0.246 -1.366 4.281
 0.272 -1.369 4.288
 0.297 -1.368 4.283
 0.322 -1.367 4.279
 0.348 -1.368 4.28
 0.373 -1.369 4.282
 0.398 -1.366 4.269
 0.424 -1.37 4.278
 0.45 -1.371 4.28
 0.475 -1.37 4.274
 0.501 -1.371 4.273
 0.527 -1.372 4.275
 0.551 -1.369 4.262
 0.577 -1.371 4.267
 0.604 -1.373 4.269
 0.63 -1.375 4.269
 0.656 -1.377 4.275
 0.683 -1.379 4.277
 0.709 -1.38 4.275
 0.734 -1.38 4.272
 0.759 -1.379 4.265
 0.784 -1.379 4.259
 0.811 -1.381 4.26
 0.837 -1.382 4.26
 0.864 -1.384 4.261
 0.892 -1.387 4.265
 0.919 -1.389 4.267
 0.946 -1.391 4.268
 0.973 -1.393 4.268
 0.999 -1.393 4.264
 1.025 -1.394 4.262
 1.052 -1.396 4.261
 1.079 -1.397 4.259
 1.105 -1.398 4.256
 1.133 -1.4 4.257
 1.16 -1.401 4.253
 1.186 -1.402 4.249
 1.213 -1.404 4.247
 1.242 -1.407 4.25
 1.27 -1.409 4.25
 1.298 -1.411 4.249
 1.326 -1.413 4.248
 1.354 -1.415 4.247
 1.382 -1.417 4.243
 1.41 -1.419 4.242
 1.439 -1.422 4.242
 1.468 -1.424 4.242
 1.496 -1.427 4.241
 1.524 -1.428 4.237
 1.552 -1.43 4.232
 1.581 -1.432 4.23
 1.61 -1.435 4.228
 1.639 -1.437 4.225
 1.669 -1.44 4.224
 1.698 -1.442 4.222
 1.727 -1.444 4.217
 1.755 -1.445 4.212
 1.784 -1.447 4.207
 1.809 -1.446 4.192
 1.834 -1.445 4.178
 1.858 -1.443 4.163
 1.877 -1.437 4.135
 1.894 -1.43 4.101
 1.916 -1.427 4.082
 0 0 0
 0 0 0
 0 0 0
 0 0 0
 0 0 0
 0 0 0
 0 0 0
 0 0 0
 0 0 0
 0 0 0
 0 0 0
 1.82 -1.165 3.209
 1.831 -1.159 3.179
 1.841 -1.152 3.149
 1.86 -1.151 3.135
 1.867 -1.142 3.1
 -2.53 -1.533 4.364
 -2.482 -1.522 4.347
 -2.446 -1.518 4.348
 -2.411 -1.514 4.351
 -2.373 -1.509 4.35
 -2.336 -1.503 4.347
 -2.3 -1.499 4.347
 -2.265 -1.495 4.349
 -2.226 -1.488 4.341
 -2.193 -1.485 4.345
 -2.158 -1.481 4.344
 -2.124 -1.477 4.344
 -2.088 -1.472 4.342
 -2.057 -1.47 4.346
 -2.022 -1.465 4.342
 -1.988 -1.461 4.342
 -1.955 -1.457 4.341
 -1.923 -1.454 4.342
 -1.89 -1.45 4.341
 -1.857 -1.446 4.34
 -1.825 -1.443 4.339
 -1.793 -1.439 4.339
 -1.761 -1.435 4.336
 -1.727 -1.431 4.331
 -1.697 -1.428 4.332
 -1.665 -1.425 4.33
 -1.634 -1.421 4.328
 -1.604 -1.418 4.328
 -1.574 -1.416 4.33
 -1.545 -1.414 4.332
 -1.515 -1.412 4.331
 -1.485 -1.409 4.332
 -1.456 -1.407 4.333
 -1.426 -1.404 4.331
 -1.396 -1.401 4.328
 -1.368 -1.4 4.332
 -1.339 -1.398 4.333
 -1.31 -1.395 4.33
 -1.281 -1.393 4.329
 -1.251 -1.39 4.326
 -1.223 -1.387 4.324
 -1.193 -1.384 4.321
 -1.165 -1.382 4.32
 -1.138 -1.381 4.322
 -1.11 -1.379 4.321
 -1.081 -1.376 4.318
 -1.054 -1.375 4.32
 -1.028 -1.376 4.326
 -1.002 -1.376 4.332
 -0.975 -1.375 4.333
 -0.949 -1.375 4.338
 -0.923 -1.375 4.341
 -0.894 -1.371 4.334
 -0.865 -1.367 4.324
 -0.838 -1.366 4.324
 -0.81 -1.363 4.318
 -0.783 -1.359 4.312
 -0.756 -1.358 4.31
 -0.729 -1.357 4.309
 -0.703 -1.356 4.31
 -0.677 -1.355 4.312
 -0.65 -1.354 4.309
 -0.624 -1.353 4.31
 -0.597 -1.351 4.304
 -0.571 -1.348 4.299
 -0.544 -1.345 4.293
 -0.518 -1.344 4.292
 -0.492 -1.345 4.296
 -0.469 -1.351 4.316
 -0.443 -1.351 4.319
 -0.418 -1.352 4.325
 -0.393 -1.354 4.33
 -0.365 -1.345 4.304
 -0.337 -1.339 4.286
 -0.312 -1.338 4.282
 -0.286 -1.338 4.286
 -0.261 -1.338 4.286
 -0.236 -1.338 4.287
 -0.21 -1.338 4.286
 -0.185 -1.339 4.29
 -0.159 -1.337 4.285
 -0.134 -1.337 4.285
 -0.108 -1.338 4.287
 -0.083 -1.337 4.286
 -0.058 -1.336 4.281
 -0.032 -1.337 4.286
 -0.007 -1.337 4.286
 0.017 -1.337 4.285
 0.043 -1.339 4.291
 0.068 -1.343 4.302
 0.093 -1.335 4.275
 0.119 -1.336 4.279
 0.144 -1.335 4.275
 0.169 -1.333 4.268
 0.194 -1.334 4.269
 0.22 -1.339 4.283
 0.245 -1.338 4.277
 0.272 -1.343 4.292
 0.297 -1.341 4.286
 0.322 -1.34 4.28
 0.347 -1.34 4.279
 0.373 -1.342 4.284
 0.397 -1.337 4.265
 0.424 -1.342 4.277
 0.45 -1.344 4.282
 0.475 -1.343 4.275
 0.5 -1.343 4.273
 0.526 -1.344 4.274
 0.55 -1.341 4.26
 0.577 -1.344 4.268
 0.603 -1.346 4.27
 0.629 -1.348 4.272
 0.657 -1.352 4.283
 0.683 -1.353 4.282
 0.708 -1.353 4.277
 0.734 -1.354 4.277
 0.759 -1.352 4.268
 0.784 -1.351 4.26
 0.811 -1.354 4.265
 0.837 -1.355 4.263
 0.864 -1.357 4.264
 0.891 -1.36 4.269
 0.918 -1.362 4.271
 0.945 -1.364 4.271
 0.972 -1.365 4.271
 0.997 -1.365 4.264
 1.024 -1.366 4.263
 1.05 -1.367 4.261
 1.077 -1.368 4.258
 1.103 -1.369 4.255
 1.131 -1.372 4.256
 1.158 -1.373 4.253
 1.184 -1.374 4.249
 1.211 -1.375 4.247
 1.24 -1.379 4.251
 1.269 -1.381 4.252
 1.296 -1.383 4.251
 1.324 -1.385 4.249
 1.352 -1.387 4.248
 1.38 -1.389 4.246
 1.408 -1.391 4.243
 1.436 -1.393 4.243
 1.466 -1.396 4.243
 1.494 -1.398 4.242
 1.522 -1.399 4.237
 1.549 -1.4 4.231
 1.578 -1.402 4.229
 1.607 -1.405 4.227
 1.636 -1.407 4.224
 1.665 -1.41 4.223
 1.695 -1.413 4.222
 1.724 -1.414 4.217
 1.753 -1.416 4.213
 1.781 -1.418 4.208
 1.807 -1.418 4.195
 1.834 -1.417 4.185
 1.861 -1.418 4.176
 1.885 -1.416 4.159
 1.902 -1.41 4.129
 0 0 0
 0 0 0
 0 0 0
 0 0 0
 0 0 0
 0 0 0
 0 0 0
 0 0 0
 0 0 0
 0 0 0
 0 0 0
 0 0 0
 1.813 -1.139 3.202
 1.825 -1.134 3.176
 1.838 -1.129 3.15
 1.847 -1.122 3.12
 1.879 -1.128 3.126
 -2.53 -1.504 4.374
 -2.481 -1.492 4.354
 -2.448 -1.49 4.362
 -2.412 -1.486 4.362
 -2.373 -1.48 4.359
 -2.336 -1.474 4.356
 -2.299 -1.47 4.355
 -2.264 -1.465 4.355
 -2.226 -1.46 4.351
 -2.191 -1.456 4.35
 -2.157 -1.452 4.351
 -2.122 -1.448 4.35
 -2.087 -1.443 4.347
 -2.054 -1.439 4.348
 -2.019 -1.435 4.345
 -1.985 -1.431 4.343
 -1.952 -1.427 4.342
 -1.92 -1.424 4.344
 -1.888 -1.421 4.346
 -1.856 -1.418 4.345
 -1.823 -1.414 4.344
 -1.791 -1.41 4.341
 -1.758 -1.406 4.339
 -1.724 -1.401 4.332
 -1.693 -1.398 4.331
 -1.661 -1.394 4.328
 -1.63 -1.391 4.327
 -1.6 -1.388 4.327
 -1.571 -1.386 4.329
 -1.542 -1.385 4.333
 -1.512 -1.383 4.333
 -1.483 -1.38 4.333
 -1.452 -1.377 4.33
 -1.423 -1.374 4.329
 -1.393 -1.372 4.328
 -1.365 -1.37 4.331
 -1.337 -1.369 4.332
 -1.308 -1.366 4.331
 -1.28 -1.365 4.333
 -1.25 -1.361 4.327
 -1.221 -1.359 4.326
 -1.192 -1.356 4.323
 -1.164 -1.354 4.322
 -1.135 -1.352 4.32
 -1.108 -1.35 4.321
 -1.08 -1.349 4.32
 -1.053 -1.348 4.322
 -1.028 -1.349 4.332
 -1.003 -1.351 4.342
 -0.977 -1.351 4.347
 -0.95 -1.351 4.351
 -0.924 -1.351 4.356
 -0.895 -1.347 4.348
 -0.866 -1.342 4.335
 -0.838 -1.34 4.331
 -0.81 -1.336 4.324
 -0.782 -1.332 4.315
 -0.754 -1.329 4.306
 -0.728 -1.328 4.308
 -0.702 -1.328 4.309
 -0.678 -1.333 4.328
 -0.652 -1.333 4.331
 -0.626 -1.332 4.332
 -0.599 -1.33 4.327
 -0.572 -1.326 4.317
 -0.542 -1.316 4.286
 -0.515 -1.312 4.278
 -0.491 -1.315 4.289
 -0.469 -1.325 4.322
 -0.445 -1.33 4.341
 0 0 0
 0 0 0
 -0.365 -1.322 4.32
 -0.337 -1.313 4.291
 -0.311 -1.311 4.285
 -0.286 -1.312 4.289
 -0.261 -1.312 4.291
 -0.235 -1.311 4.289
 -0.21 -1.31 4.285
 -0.184 -1.311 4.289
 -0.159 -1.309 4.284
 -0.133 -1.309 4.282
 -0.108 -1.309 4.282
 -0.083 -1.309 4.284
 -0.057 -1.307 4.278
 -0.032 -1.309 4.282
 -0.007 -1.309 4.282
 0.017 -1.308 4.281
 0.043 -1.311 4.288
 0 0 0
 0 0 0
 0 0 0
 0.144 -1.308 4.276
 0.168 -1.302 4.255
 0.193 -1.302 4.254
 0.22 -1.31 4.279
 0.245 -1.309 4.274
 0.272 -1.32 4.307
 0.297 -1.317 4.295
 0.321 -1.311 4.275
 0.347 -1.313 4.279
 0.373 -1.316 4.286
 0.396 -1.307 4.254
 0.423 -1.315 4.28
 0.451 -1.32 4.293
 0.475 -1.316 4.278
 0.5 -1.317 4.278
 0.526 -1.319 4.281
 0.549 -1.312 4.255
 0.576 -1.316 4.264
 0.602 -1.319 4.271
 0.628 -1.319 4.268
 0.656 -1.324 4.281
 0.682 -1.326 4.283
 0.707 -1.326 4.279
 0.734 -1.327 4.279
 0.758 -1.325 4.269
 0.783 -1.324 4.263
 0.811 -1.328 4.271
 0.836 -1.328 4.264
 0.862 -1.329 4.264
 0.89 -1.333 4.271
 0.917 -1.334 4.272
 0.944 -1.336 4.273
 0.969 -1.336 4.267
 0.995 -1.335 4.259
 1.022 -1.338 4.262
 1.049 -1.339 4.26
 1.075 -1.34 4.258
 1.103 -1.342 4.258
 1.131 -1.345 4.261
 1.157 -1.345 4.256
 1.183 -1.346 4.252
 1.21 -1.347 4.249
 1.238 -1.35 4.251
 1.266 -1.352 4.251
 1.294 -1.354 4.25
 1.322 -1.356 4.249
 1.35 -1.358 4.247
 1.377 -1.36 4.245
 1.405 -1.362 4.243
 1.434 -1.364 4.241
 1.463 -1.367 4.242
 1.492 -1.369 4.241
 1.52 -1.371 4.238
 1.547 -1.372 4.233
 1.576 -1.374 4.231
 1.605 -1.376 4.229
 1.634 -1.379 4.227
 1.663 -1.381 4.225
 1.693 -1.384 4.223
 1.721 -1.386 4.218
 1.75 -1.387 4.214
 1.779 -1.39 4.21
 1.806 -1.39 4.2
 1.834 -1.391 4.192
 1.862 -1.392 4.187
 1.89 -1.393 4.178
 0 0 0
 0 0 0
 0 0 0
 0 0 0
 0 0 0
 0 0 0
 0 0 0
 0 0 0
 0 0 0
 0 0 0
 0 0 0
 0 0 0
 0 0 0
 1.811 -1.117 3.206
 1.826 -1.112 3.183
 1.838 -1.107 3.157
 1.848 -1.1 3.127
 1.845 -1.087 3.076
 -2.511 -1.464 4.351
 -2.498 -1.473 4.393
 -2.447 -1.46 4.368
 -2.41 -1.456 4.369
 -2.371 -1.45 4.364
 -2.333 -1.444 4.36
 -2.297 -1.44 4.359
 -2.261 -1.435 4.358
 -2.223 -1.429 4.353
 -2.188 -1.425 4.352
 -2.154 -1.421 4.353
 -2.119 -1.418 4.353
 -2.084 -1.412 4.349
 -2.052 -1.41 4.352
 -2.017 -1.406 4.35
 -1.983 -1.401 4.348
 -1.95 -1.398 4.348
 -1.918 -1.395 4.347
 -1.885 -1.391 4.348
 -1.852 -1.387 4.346
 -1.82 -1.384 4.344
 -1.787 -1.38 4.34
 -1.755 -1.377 4.34
 -1.721 -1.371 4.332
 -1.69 -1.368 4.332
 -1.658 -1.365 4.329
 -1.627 -1.361 4.326
 -1.597 -1.359 4.327
 -1.568 -1.357 4.329
 -1.538 -1.355 4.33
 -1.509 -1.353 4.331
 -1.479 -1.35 4.331
 -1.449 -1.347 4.329
 -1.419 -1.344 4.326
 -1.391 -1.343 4.328
 -1.363 -1.341 4.331
 -1.335 -1.34 4.334
 -1.307 -1.339 4.336
 -1.28 -1.339 4.342
 -1.25 -1.335 4.335
 -1.221 -1.333 4.334
 -1.191 -1.329 4.327
 -1.162 -1.326 4.323
 -1.134 -1.324 4.323
 -1.106 -1.322 4.323
 -1.08 -1.322 4.326
 -1.052 -1.32 4.325
 -1.03 -1.325 4.346
 -1.007 -1.33 4.367
 -0.983 -1.333 4.382
 0 0 0
 0 0 0
 0 0 0
 0 0 0
 0 0 0
 0 0 0
 0 0 0
 0 0 0
 0 0 0
 0 0 0
 0 0 0
 0 0 0
 0 0 0
 0 0 0
 0 0 0
 0 0 0
 0 0 0
 0 0 0
 0 0 0
 0 0 0
 0 0 0
 0 0 0
 -0.362 -1.285 4.286
 -0.336 -1.284 4.286
 -0.311 -1.284 4.286
 -0.285 -1.284 4.289
 -0.26 -1.284 4.29
 -0.235 -1.284 4.29
 -0.209 -1.283 4.287
 -0.184 -1.284 4.289
 -0.158 -1.282 4.284
 -0.133 -1.282 4.283
 -0.108 -1.282 4.283
 -0.082 -1.282 4.284
 -0.057 -1.28 4.278
 -0.032 -1.281 4.279
 -0.007 -1.28 4.278
 0.018 -1.278 4.272
 0.043 -1.275 4.261
 0 0 0
 0 0 0
 0 0 0
 0 0 0
 0 0 0
 0 0 0
 0 0 0
 0 0 0
 0 0 0
 0 0 0
 0 0 0
 0 0 0
 0 0 0
 0 0 0
 0 0 0
 0 0 0
 0 0 0
 0 0 0
 0 0 0
 0 0 0
 0 0 0
 0 0 0
 0 0 0
 0 0 0
 0 0 0
 0 0 0
 0 0 0
 0 0 0
 0 0 0
 0 0 0
 0 0 0
 0 0 0
 0 0 0
 0 0 0
 0 0 0
 0.968 -1.308 4.268
 0.993 -1.307 4.256
 1.021 -1.31 4.262
 1.047 -1.311 4.26
 1.074 -1.312 4.257
 1.101 -1.314 4.258
 1.129 -1.317 4.262
 1.155 -1.317 4.256
 1.182 -1.319 4.254
 1.209 -1.32 4.253
 1.237 -1.322 4.252
 1.265 -1.324 4.252
 1.293 -1.326 4.251
 1.32 -1.328 4.249
 1.347 -1.329 4.246
 1.375 -1.331 4.244
 1.403 -1.333 4.242
 1.431 -1.335 4.239
 1.46 -1.337 4.24
 1.488 -1.34 4.239
 1.517 -1.342 4.237
 1.545 -1.343 4.234
 1.574 -1.346 4.232
 1.602 -1.348 4.229
 1.631 -1.35 4.227
 1.66 -1.352 4.224
 1.689 -1.354 4.222
 1.718 -1.356 4.217
 1.747 -1.358 4.214
 1.776 -1.36 4.21
 1.803 -1.361 4.201
 1.83 -1.361 4.193
 1.86 -1.364 4.189
 1.889 -1.365 4.182
 0 0 0
 0 0 0
 0 0 0
 0 0 0
 0 0 0
 0 0 0
 0 0 0
 0 0 0
 0 0 0
 0 0 0
 0 0 0
 0 0 0
 0 0 0
 1.801 -1.089 3.194
 1.821 -1.088 3.182
 1.834 -1.083 3.156
 1.869 -1.091 3.168
 1.866 -1.077 3.116
 -2.509 -1.433 4.355
 -2.502 -1.446 4.409
 -2.442 -1.429 4.369
 -2.406 -1.425 4.371
 -2.366 -1.418 4.364
 -2.329 -1.413 4.362
 -2.292 -1.408 4.36
 -2.256 -1.404 4.358
 -2.219 -1.398 4.354
 -2.184 -1.394 4.353
 -2.149 -1.39 4.351
 -2.116 -1.387 4.354
 -2.08 -1.382 4.35
 -2.048 -1.38 4.353
 -2.014 -1.375 4.351
 -1.98 -1.371 4.349
 -1.947 -1.368 4.349
 -1.915 -1.365 4.35
 -1.883 -1.362 4.35
 -1.848 -1.357 4.344
 -1.815 -1.353 4.341
 -1.783 -1.349 4.338
 -1.751 -1.346 4.336
 -1.717 -1.341 4.33
 -1.687 -1.339 4.331
 -1.656 -1.336 4.331
 -1.625 -1.332 4.328
 -1.595 -1.33 4.328
 -1.565 -1.328 4.33
 -1.535 -1.325 4.329
 -1.505 -1.322 4.327
 -1.476 -1.32 4.328
 -1.446 -1.318 4.327
 -1.415 -1.314 4.323
 -1.388 -1.313 4.326
 -1.36 -1.312 4.329
 -1.331 -1.311 4.33
 -1.301 -1.307 4.325
 0 0 0
 0 0 0
 0 0 0
 0 0 0
 0 0 0
 0 0 0
 0 0 0
 0 0 0
 0 0 0
 0 0 0
 0 0 0
 0 0 0
 0 0 0
 0 0 0
 0 0 0
 0 0 0
 0 0 0
 0 0 0
 0 0 0
 0 0 0
 0 0 0
 0 0 0
 -0.684 -1.293 4.382
 -0.658 -1.293 4.386
 -0.631 -1.29 4.378
 -0.605 -1.29 4.381
 -0.58 -1.293 4.392
 0 0 0
 0 0 0
 0 0 0
 0 0 0
 0 0 0
 0 0 0
 0 0 0
 -0.362 -1.261 4.298
 -0.336 -1.259 4.292
 -0.31 -1.258 4.289
 -0.285 -1.258 4.292
 -0.26 -1.258 4.293
 -0.234 -1.257 4.291
 -0.209 -1.257 4.289
 -0.184 -1.257 4.29
 -0.158 -1.255 4.286
 -0.133 -1.255 4.285
 -0.107 -1.255 4.284
 -0.082 -1.255 4.285
 -0.057 -1.253 4.279
 -0.032 -1.253 4.279
 -0.006 -1.253 4.276
 0.018 -1.251 4.271
 0.043 -1.248 4.259
 0 0 0
 0 0 0
 0 0 0
 0 0 0
 0 0 0
 0 0 0
 0 0 0
 0 0 0
 0 0 0
 0 0 0
 0 0 0
 0 0 0
 0 0 0
 0 0 0
 0 0 0
 0 0 0
 0 0 0
 0 0 0
 0 0 0
 0 0 0
 0 0 0
 0 0 0
 0 0 0
 0 0 0
 0 0 0
 0 0 0
 0 0 0
 0 0 0
 0 0 0
 0 0 0
 0 0 0
 0 0 0
 0 0 0
 0 0 0
 0 0 0
 0.963 -1.276 4.251
 0.989 -1.276 4.246
 1.017 -1.279 4.253
 1.044 -1.281 4.252
 1.071 -1.283 4.252
 1.099 -1.286 4.256
 1.127 -1.289 4.26
 1.153 -1.289 4.256
 1.181 -1.291 4.257
 1.208 -1.293 4.254
 1.235 -1.294 4.253
 1.264 -1.297 4.255
 1.292 -1.299 4.255
 1.319 -1.3 4.251
 1.347 -1.302 4.25
 1.374 -1.304 4.249
 1.402 -1.305 4.244
 1.429 -1.307 4.241
 1.458 -1.31 4.242
 1.486 -1.311 4.24
 1.515 -1.314 4.239
 1.544 -1.316 4.237
 1.572 -1.318 4.235
 1.6 -1.319 4.231
 1.63 -1.322 4.23
 1.657 -1.323 4.224
 1.686 -1.325 4.221
 1.714 -1.326 4.215
 1.743 -1.329 4.212
 1.773 -1.331 4.211
 1.801 -1.333 4.204
 1.829 -1.334 4.197
 1.86 -1.337 4.197
 1.891 -1.34 4.195
 0 0 0
 0 0 0
 0 0 0
 0 0 0
 0 0 0
 0 0 0
 0 0 0
 0 0 0
 0 0 0
 0 0 0
 0 0 0
 0 0 0
 0 0 0
 1.794 -1.063 3.187
 1.818 -1.065 3.181
 1.831 -1.06 3.156
 1.877 -1.075 3.188
 1.859 -1.053 3.111
 -2.506 -1.402 4.358
 -2.478 -1.403 4.376
 -2.438 -1.397 4.371
 -2.402 -1.393 4.372
 -2.363 -1.387 4.366
 -2.326 -1.382 4.364
 -2.29 -1.378 4.363
 -2.254 -1.374 4.363
 -2.217 -1.369 4.358
 -2.182 -1.364 4.357
 -2.147 -1.36 4.355
 -2.113 -1.357 4.357
 -2.077 -1.352 4.352
 -2.045 -1.35 4.355
 -2.012 -1.346 4.354
 -1.978 -1.342 4.353
 -1.946 -1.339 4.354
 -1.915 -1.337 4.357
 -1.883 -1.334 4.358
 -1.847 -1.328 4.349
 -1.812 -1.323 4.341
 -1.78 -1.319 4.338
 -1.748 -1.316 4.337
 -1.715 -1.312 4.331
 -1.684 -1.309 4.331
 -1.654 -1.307 4.334
 -1.623 -1.304 4.33
 -1.592 -1.301 4.329
 -1.564 -1.3 4.333
 -1.533 -1.296 4.33
 -1.502 -1.293 4.327
 -1.473 -1.291 4.328
 -1.444 -1.289 4.327
 -1.413 -1.286 4.322
 -1.386 -1.285 4.329
 -1.358 -1.284 4.33
 -1.33 -1.283 4.333
 -1.3 -1.279 4.327
 0 0 0
 0 0 0
 0 0 0
 0 0 0
 0 0 0
 0 0 0
 0 0 0
 0 0 0
 0 0 0
 0 0 0
 0 0 0
 0 0 0
 0 0 0
 0 0 0
 0 0 0
 0 0 0
 0 0 0
 0 0 0
 0 0 0
 0 0 0
 0 0 0
 0 0 0
 -0.684 -1.267 4.389
 -0.659 -1.269 4.398
 -0.632 -1.266 4.391
 -0.606 -1.266 4.395
 -0.582 -1.271 4.415
 -0.555 -1.269 4.411
 0 0 0
 0 0 0
 0 0 0
 0 0 0
 0 0 0
 0 0 0
 -0.362 -1.236 4.305
 -0.336 -1.232 4.294
 -0.31 -1.231 4.292
 -0.285 -1.231 4.293
 -0.259 -1.232 4.295
 -0.234 -1.231 4.292
 -0.208 -1.23 4.291
 -0.183 -1.23 4.291
 -0.158 -1.229 4.287
 -0.132 -1.228 4.284
 -0.107 -1.227 4.282
 -0.082 -1.227 4.282
 -0.057 -1.226 4.277
 -0.032 -1.226 4.278
 -0.006 -1.226 4.276
 0.018 -1.225 4.274
 0.043 -1.222 4.263
 0 0 0
 0 0 0
 0 0 0
 0 0 0
 0 0 0
 0 0 0
 0 0 0
 0 0 0
 0 0 0
 0 0 0
 0 0 0
 0 0 0
 0 0 0
 0 0 0
 0 0 0
 0 0 0
 0 0 0
 0 0 0
 0 0 0
 0 0 0
 0 0 0
 0 0 0
 0 0 0
 0 0 0
 0 0 0
 0 0 0
 0 0 0
 0 0 0
 0 0 0
 0 0 0
 0 0 0
 0 0 0
 0 0 0
 0 0 0
 0 0 0
 0.961 -1.247 4.248
 0.987 -1.248 4.245
 1.016 -1.252 4.253
 1.043 -1.253 4.253
 1.069 -1.255 4.252
 1.098 -1.258 4.258
 1.126 -1.261 4.261
 1.152 -1.262 4.258
 1.18 -1.264 4.259
 1.207 -1.266 4.258
 1.234 -1.267 4.255
 1.262 -1.269 4.256
 1.291 -1.272 4.257
 1.317 -1.272 4.252
 1.344 -1.274 4.249
 1.373 -1.276 4.249
 1.4 -1.277 4.246
 1.427 -1.279 4.242
 1.456 -1.281 4.244
 1.485 -1.283 4.241
 1.513 -1.285 4.24
 1.541 -1.287 4.238
 1.57 -1.289 4.235
 1.598 -1.291 4.23
 1.627 -1.293 4.229
 1.654 -1.294 4.223
 1.682 -1.295 4.218
 1.711 -1.297 4.214
 1.74 -1.299 4.211
 1.77 -1.302 4.21
 1.798 -1.303 4.203
 1.827 -1.305 4.198
 1.857 -1.308 4.196
 1.888 -1.311 4.196
 0 0 0
 0 0 0
 0 0 0
 0 0 0
 0 0 0
 0 0 0
 0 0 0
 0 0 0
 0 0 0
 0 0 0
 0 0 0
 0 0 0
 0 0 0
 1.788 -1.038 3.182
 1.816 -1.042 3.184
 1.831 -1.039 3.163
 1.869 -1.049 3.182
 1.841 -1.022 3.087
 -2.493 -1.366 4.345
 -2.487 -1.379 4.4
 -2.437 -1.368 4.377
 -2.401 -1.364 4.377
 -2.361 -1.357 4.371
 -2.322 -1.352 4.366
 -2.285 -1.347 4.362
 -2.249 -1.343 4.361
 -2.212 -1.337 4.356
 -2.176 -1.333 4.354
 -2.142 -1.329 4.354
 -2.109 -1.326 4.356
 -2.073 -1.321 4.351
 -2.041 -1.319 4.353
 -2.008 -1.316 4.354
 -1.974 -1.312 4.352
 -1.943 -1.31 4.355
 -1.912 -1.307 4.357
 -1.88 -1.305 4.359
 -1.843 -1.298 4.348
 -1.809 -1.294 4.341
 -1.776 -1.29 4.338
 -1.746 -1.288 4.339
 -1.712 -1.283 4.332
 -1.681 -1.28 4.332
 -1.651 -1.278 4.332
 -1.62 -1.275 4.33
 -1.59 -1.272 4.33
 -1.561 -1.271 4.333
 -1.531 -1.268 4.331
 -1.5 -1.265 4.328
 -1.47 -1.262 4.327
 -1.441 -1.26 4.325
 -1.41 -1.256 4.321
 -1.383 -1.256 4.325
 -1.354 -1.254 4.326
 -1.327 -1.254 4.331
 -1.297 -1.25 4.327
 0 0 0
 0 0 0
 0 0 0
 0 0 0
 0 0 0
 0 0 0
 0 0 0
 0 0 0
 0 0 0
 0 0 0
 0 0 0
 0 0 0
 0 0 0
 0 0 0
 0 0 0
 0 0 0
 0 0 0
 0 0 0
 0 0 0
 0 0 0
 0 0 0
 0 0 0
 -0.686 -1.243 4.404
 -0.66 -1.244 4.411
 -0.633 -1.242 4.406
 -0.606 -1.241 4.405
 -0.582 -1.245 4.422
 -0.555 -1.244 4.418
 0 0 0
 0 0 0
 0 0 0
 0 0 0
 0 0 0
 0 0 0
 -0.36 -1.205 4.291
 -0.334 -1.203 4.285
 -0.309 -1.203 4.288
 -0.284 -1.204 4.292
 -0.259 -1.204 4.295
 -0.234 -1.204 4.294
 -0.208 -1.204 4.293
 -0.183 -1.203 4.291
 -0.157 -1.202 4.287
 -0.132 -1.201 4.284
 -0.107 -1.2 4.282
 -0.082 -1.201 4.285
 -0.056 -1.199 4.276
 -0.031 -1.198 4.275
 -0.006 -1.198 4.272
 0.018 -1.196 4.266
 0.043 -1.19 4.243
 0 0 0
 0 0 0
 0 0 0
 0 0 0
 0 0 0
 0 0 0
 0 0 0
 0 0 0
 0 0 0
 0 0 0
 0 0 0
 0 0 0
 0 0 0
 0 0 0
 0 0 0
 0 0 0
 0 0 0
 0 0 0
 0 0 0
 0 0 0
 0 0 0
 0 0 0
 0 0 0
 0 0 0
 0 0 0
 0 0 0
 0 0 0
 0 0 0
 0 0 0
 0 0 0
 0 0 0
 0 0 0
 0 0 0
 0 0 0
 0 0 0
 0.961 -1.221 4.251
 0.987 -1.221 4.248
 1.015 -1.225 4.254
 1.041 -1.226 4.253
 1.068 -1.227 4.253
 1.096 -1.231 4.258
 1.124 -1.233 4.259
 1.151 -1.234 4.257
 1.178 -1.236 4.258
 1.206 -1.238 4.258
 1.232 -1.239 4.254
 1.261 -1.241 4.256
 1.289 -1.244 4.257
 1.315 -1.245 4.253
 1.343 -1.246 4.25
 1.372 -1.249 4.252
 1.399 -1.25 4.248
 1.426 -1.251 4.245
 1.455 -1.254 4.245
 1.483 -1.255 4.242
 1.511 -1.257 4.239
 1.539 -1.259 4.237
 1.567 -1.261 4.234
 1.595 -1.262 4.229
 1.623 -1.264 4.227
 1.651 -1.265 4.222
