 -0.914 -1.625 3.912
 -0.892 -1.607 3.873
 -0.886 -1.618 3.902
 -0.882 -1.633 3.94
 -0.867 -1.628 3.929
 -0.855 -1.628 3.932
 -0.848 -1.638 3.958
 -0.851 -1.668 4.034
 -0.809 -1.611 3.896
 -0.814 -1.644 3.979
 -0.787 -1.614 3.909
 -0.785 -1.635 3.961
 -0.746 -1.578 3.824
 -0.746 -1.605 3.891
 -0.733 -1.601 3.885
 -0.734 -1.631 3.959
 -0.719 -1.625 3.945
 -0.706 -1.623 3.942
 -0.693 -1.62 3.937
 -0.687 -1.636 3.979
 -0.669 -1.622 3.945
 -0.657 -1.621 3.946
 -0.657 -1.652 4.021
 -0.629 -1.612 3.926
 -0.62 -1.62 3.948
 -0.614 -1.637 3.991
 -0.602 -1.637 3.991
 -0.593 -1.646 4.016
 -0.574 -1.628 3.972
 -0.564 -1.633 3.986
 -0.552 -1.635 3.993
 -0.537 -1.627 3.973
 -0.533 -1.65 4.032
 -0.508 -1.61 3.934
 -0.499 -1.62 3.961
 -0.495 -1.647 4.028
 -0.481 -1.642 4.018
 -0.461 -1.616 3.954
 -0.454 -1.633 3.995
 -0.446 -1.649 4.036
 -0.426 -1.619 3.963
 -0.422 -1.653 4.048
 -0.405 -1.634 4.003
 -0.388 -1.611 3.947
 -0.389 -1.668 4.087
 -0.369 -1.633 4.004
 -0.353 -1.618 3.968
 -0.341 -1.621 3.974
 -0.328 -1.615 3.961
 -0.322 -1.645 4.035
 -0.304 -1.613 3.957
 -0.297 -1.643 4.032
 -0.282 -1.629 3.997
 -0.265 -1.6 3.926
 -0.256 -1.617 3.969
 -0.247 -1.637 4.019
 -0.235 -1.64 4.027
 -0.218 -1.606 3.943
 -0.208 -1.622 3.983
 -0.196 -1.62 3.979
 -0.184 -1.622 3.983
 -0.172 -1.621 3.982
 -0.16 -1.621 3.982
 -0.146 -1.604 3.94
 -0.135 -1.615 3.969
 -0.126 -1.649 4.053
 -0.113 -1.636 4.019
 -0.099 -1.62 3.981
 -0.088 -1.638 4.025
 -0.074 -1.589 3.903
 -0.064 -1.639 4.028
 -0.051 -1.609 3.953
 -0.039 -1.618 3.977
 -0.027 -1.621 3.983
 -0.015 -1.656 4.07
 -0.003 -1.637 4.023
 0.008 -1.629 4.002
 0.02 -1.627 3.998
 0.033 -1.641 4.033
 0.045 -1.627 3.997
 0.057 -1.622 3.984
 0.068 -1.616 3.968
 0.084 -1.682 4.132
 0.093 -1.626 3.993
 0.107 -1.651 4.055
 0.116 -1.602 3.933
 0.13 -1.635 4.015
 0.14 -1.612 3.957
 0.155 -1.635 4.013
 0.165 -1.618 3.97
 0.177 -1.615 3.962
 0.191 -1.636 4.014
 0.206 -1.656 4.062
 0.212 -1.612 3.954
 0.222 -1.593 3.906
 0.234 -1.593 3.906
 0.251 -1.626 3.984
 0.261 -1.618 3.965
 0.278 -1.643 4.025
 0.289 -1.636 4.008
 0.3 -1.631 3.995
 0.312 -1.629 3.988
 0.316 -1.592 3.897
 0.334 -1.618 3.96
 0.341 -1.598 3.909
 0.351 -1.588 3.885
 0.371 -1.625 3.974
 0.386 -1.634 3.995
 0.393 -1.613 3.943
 0.406 -1.619 3.956
 0.428 -1.657 4.047
 0.436 -1.643 4.011
 0.448 -1.639 4.001
 0.458 -1.632 3.983
 0.467 -1.621 3.954
 0.472 -1.597 3.894
 0.495 -1.634 3.983
 0.504 -1.626 3.962
 0.524 -1.648 4.015
 0.532 -1.635 3.981
 0.531 -1.595 3.882
 0.562 -1.654 4.023
 0.556 -1.6 3.892
 0.582 -1.64 3.986
 0.586 -1.618 3.93
 0.596 -1.611 3.912
 0.605 -1.605 3.897
 0.623 -1.619 3.929
 0.642 -1.639 3.975
 0.637 -1.596 3.868
 0.657 -1.615 3.913
 0.677 -1.633 3.956
 0.701 -1.662 4.025
 0.699 -1.63 3.943
 0.722 -1.655 4.002
 0.708 -1.595 3.855
 0.747 -1.655 3.999
 0.752 -1.64 3.96
 0.757 -1.624 3.919
 0.772 -1.631 3.933
 0.783 -1.627 3.921
 0.792 -1.621 3.904
 0.814 -1.641 3.95
 0.809 -1.607 3.867
 0.825 -1.616 3.887
 0.848 -1.638 3.935
 0.868 -1.652 3.968
 0.864 -1.621 3.891
 0.895 -1.656 3.973
 0.897 -1.637 3.923
 0.91 -1.64 3.928
 0.921 -1.638 3.921
 0.932 -1.635 3.913
 0.936 -1.621 3.874
 0.945 -1.617 3.862
 0.967 -1.633 3.899
 0.99 -1.651 3.938
 0.988 -1.628 3.882
 0.998 -1.624 3.869
 1.037 -1.668 3.97
 1.022 -1.624 3.864
 1.057 -1.661 3.947
 1.027 -1.595 3.788
 1.067 -1.638 3.887
 1.092 -1.657 3.93
 1.085 -1.629 3.858
 1.107 -1.643 3.889
 1.12 -1.645 3.891
 1.132 -1.645 3.887
 1.131 -1.625 3.837
 1.166 -1.657 3.91
 1.15 -1.618 3.814
 1.155 -1.608 3.787
 1.2 -1.654 3.893
 1.217 -1.66 3.903
 1.218 -1.645 3.865
 1.222 -1.635 3.837
 1.212 -1.605 3.764
 1.249 -1.638 3.837
 1.263 -1.641 3.84
 1.266 -1.629 3.808
 1.282 -1.634 3.816
 1.291 -1.631 3.804
 1.306 -1.633 3.807
 1.325 -1.642 3.823
 1.347 -1.655 3.849
 1.328 -1.616 3.756
 1.372 -1.655 3.842
 1.359 -1.625 3.769
 1.387 -1.644 3.808
 1.417 -1.665 3.852
 1.41 -1.642 3.795
 1.421 -1.641 3.79
 1.441 -1.65 3.806
 1.454 -1.651 3.803
 1.48 -1.667 3.835
 1.494 -1.669 3.835
 1.483 -1.643 3.771
 1.47 -1.615 3.704
 1.499 -1.633 3.741
 1.506 -1.628 3.725
 1.51 -1.619 3.7
 1.531 -1.63 3.719
 1.534 -1.619 3.691
 1.544 -1.618 3.683
 1.569 -1.631 3.708
 1.605 -1.656 3.76
 1.605 -1.643 3.727
 1.635 -1.662 3.764
 1.634 -1.648 3.728
 1.641 -1.643 3.711
 1.626 -1.616 3.646
 1.613 -1.592 3.585
 1.647 -1.614 3.63
 1.649 -1.604 3.603
 1.687 -1.629 3.654
 1.686 -1.616 3.621
 1.718 -1.635 3.659
 1.738 -1.643 3.67
 1.735 -1.629 3.634
 1.752 -1.634 3.639
 1.741 -1.612 3.586
 1.776 -1.634 3.629
 1.763 -1.61 3.571
 1.778 -1.613 3.572
 1.834 -1.653 3.655
 1.837 -1.645 3.631
 1.857 -1.652 3.642
 1.82 -1.608 3.54
 1.877 -1.648 3.622
 1.822 -1.589 3.487
 1.821 -1.578 3.457
 1.858 -1.601 3.5
 1.884 -1.612 3.521
 1.782 -1.516 3.304
 1.877 -1.587 3.452
 1.868 -1.569 3.409
 1.877 -1.567 3.398
 1.811 -1.503 3.254
 1.824 -1.505 3.251
 1.863 -1.528 3.296
 1.901 -1.55 3.337
 1.836 -1.487 3.197
 1.879 -1.513 3.247
 1.855 -1.485 3.181
 1.798 -1.431 3.059
 1.843 -1.459 3.113
 1.85 -1.456 3.101
 0 0 0
 1.816 -1.413 2.998
 1.826 -1.412 2.991
 1.782 -1.371 2.898
 1.812 -1.386 2.923
 1.783 -1.356 2.856
 -2.162 -1.65 3.589
 -2.108 -1.618 3.526
 -2.109 -1.628 3.553
 -2.127 -1.653 3.613
 -2.078 -1.623 3.555
 -2.081 -1.636 3.589
 -2.051 -1.622 3.563
 -2.03 -1.615 3.554
 -2.104 -1.684 3.713
 -2.037 -1.641 3.623
 -2.003 -1.623 3.59
 -1.951 -1.591 3.524
 -2.002 -1.642 3.644
 -1.943 -1.604 3.565
 -2.024 -1.682 3.744
 -1.99 -1.664 3.709
 -1.908 -1.606 3.585
 -1.872 -1.586 3.545
 -1.913 -1.63 3.651
 -1.886 -1.618 3.628
 -1.866 -1.611 3.618
 -1.819 -1.581 3.555
 -1.86 -1.628 3.667
 -1.85 -1.63 3.676
 -1.869 -1.657 3.744
 0 0 0
 -1.814 -1.631 3.695
 -1.851 -1.676 3.802
 -1.815 -1.654 3.757
 -1.8 -1.652 3.758
 -1.773 -1.639 3.733
 -1.765 -1.643 3.747
 -1.726 -1.618 3.696
 -1.719 -1.622 3.71
 -1.733 -1.648 3.774
 -1.718 -1.646 3.774
 -1.706 -1.646 3.779
 -1.694 -1.647 3.786
 -1.687 -1.652 3.801
 -1.656 -1.634 3.765
 -1.63 -1.621 3.739
 -1.609 -1.611 3.722
 -1.602 -1.616 3.738
 -1.615 -1.642 3.803
 -1.594 -1.633 3.786
 -1.536 -1.587 3.683
 -1.523 -1.586 3.685
 -1.544 -1.62 3.768
 -1.511 -1.598 3.721
 -1.54 -1.643 3.83
 -1.541 -1.656 3.866
 -1.497 -1.622 3.791
 -1.519 -1.661 3.885
 -1.491 -1.643 3.848
 -1.477 -1.642 3.849
 -1.458 -1.634 3.834
 -1.464 -1.655 3.887
 -1.429 -1.629 3.831
 -1.391 -1.6 3.767
 -1.381 -1.602 3.774
 -1.407 -1.646 3.883
 -1.403 -1.657 3.913
 -1.375 -1.638 3.871
 -1.389 -1.67 3.951
 -1.369 -1.661 3.932
 -1.321 -1.618 3.835
 -1.335 -1.65 3.914
 -1.319 -1.645 3.907
 -1.294 -1.631 3.875
 -1.299 -1.653 3.931
 -1.247 -1.601 3.811
 -1.254 -1.627 3.877
 -1.23 -1.611 3.841
 -1.23 -1.627 3.884
 -1.216 -1.625 3.881
 -1.228 -1.658 3.964
 -1.21 -1.65 3.948
 -1.193 -1.644 3.938
 -1.196 -1.666 3.993
 -1.15 -1.619 3.881
 -1.164 -1.657 3.976
 -1.113 -1.6 3.844
 -1.121 -1.631 3.919
 -1.114 -1.638 3.94
 -1.091 -1.623 3.906
 -1.068 -1.606 3.868
 -1.081 -1.645 3.965
 -1.056 -1.625 3.92
 -1.054 -1.641 3.961
 -1.015 -1.599 3.863
 -1.019 -1.625 3.929
 -0.994 -1.603 3.878
 -1.001 -1.635 3.958
 -0.992 -1.642 3.976
 -0.969 -1.623 3.933
 -0.949 -1.611 3.905
 -0.94 -1.616 3.92
 -0.932 -1.623 3.942
 -0.93 -1.641 3.988
 -0.896 -1.602 3.893
 -0.881 -1.597 3.883
 -0.888 -1.633 3.974
 -0.877 -1.634 3.979
 -0.857 -1.619 3.945
 -0.846 -1.623 3.956
 -0.845 -1.644 4.009
 -0.818 -1.616 3.944
 -0.792 -1.588 3.877
 -0.793 -1.614 3.942
 -0.774 -1.601 3.913
 -0.77 -1.618 3.957
 -0.757 -1.616 3.954
 -0.755 -1.638 4.009
 -0.728 -1.605 3.929
 -0.728 -1.633 4.001
 -0.72 -1.643 4.026
 -0.692 -1.607 3.939
 -0.683 -1.614 3.958
 -0.664 -1.598 3.922
 -0.666 -1.631 4.003
 -0.653 -1.629 4.001
 -0.644 -1.639 4.027
 -0.62 -1.608 3.951
 -0.618 -1.635 4.02
 -0.599 -1.616 3.974
 -0.586 -1.615 3.972
 -0.583 -1.642 4.041
 -0.565 -1.623 3.997
 -0.549 -1.615 3.976
 -0.547 -1.643 4.048
 -0.535 -1.644 4.052
 -0.509 -1.603 3.95
 -0.499 -1.609 3.966
 -0.487 -1.61 3.971
 -0.485 -1.643 4.055
 -0.465 -1.616 3.987
 -0.459 -1.64 4.049
 -0.444 -1.631 4.027
 -0.432 -1.629 4.024
 -0.425 -1.65 4.077
 -0.412 -1.648 4.073
 -0.396 -1.633 4.035
 -0.381 -1.622 4.009
 -0.363 -1.599 3.952
 -0.356 -1.622 4.01
 -0.342 -1.61 3.982
 -0.335 -1.636 4.047
 -0.315 -1.6 3.957
 -0.31 -1.636 4.049
 -0.298 -1.638 4.055
 -0.281 -1.611 3.988
 -0.273 -1.634 4.045
 -0.262 -1.641 4.063
 -0.249 -1.637 4.055
 -0.233 -1.614 3.997
 -0.219 -1.6 3.963
 -0.209 -1.613 3.996
 -0.195 -1.6 3.964
 -0.184 -1.605 3.976
 -0.175 -1.64 4.063
 -0.161 -1.617 4.007
 -0.151 -1.647 4.081
 -0.138 -1.635 4.053
 -0.125 -1.623 4.023
 -0.112 -1.612 3.995
 -0.1 -1.614 3.999
 -0.088 -1.613 3.997
 -0.076 -1.62 4.015
 -0.065 -1.648 4.085
 -0.051 -1.611 3.994
 -0.039 -1.632 4.045
 -0.028 -1.655 4.103
 -0.015 -1.629 4.038
 -0.003 -1.618 4.011
 0.009 -1.626 4.03
 0.021 -1.616 4.004
 0.033 -1.609 3.988
 0.045 -1.611 3.991
 0.058 -1.636 4.053
 0.069 -1.618 4.008
 0.081 -1.62 4.012
 0.095 -1.641 4.066
 0.104 -1.594 3.948
 0.119 -1.629 4.035
 0.13 -1.618 4.006
 0.143 -1.625 4.023
 0.154 -1.613 3.994
 0.165 -1.602 3.966
 0.178 -1.617 4.002
 0.191 -1.619 4.007
 0.202 -1.609 3.98
 0.215 -1.62 4.008
 0.227 -1.615 3.993
 0.244 -1.648 4.075
 0.254 -1.637 4.047
 0.26 -1.597 3.946
 0.275 -1.613 3.986
 0.288 -1.619 3.999
 0.303 -1.634 4.036
 0.315 -1.633 4.032
 0.324 -1.616 3.99
 0.341 -1.638 4.044
 0.349 -1.619 3.996
 0.359 -1.612 3.977
 0.366 -1.591 3.925
 0.383 -1.611 3.973
 0.395 -1.609 3.966
 0.416 -1.645 4.055
 0.417 -1.603 3.949
 0.44 -1.642 4.044
 0.444 -1.615 3.976
 0.456 -1.614 3.971
 0.474 -1.633 4.016
 0.487 -1.635 4.022
 0.498 -1.633 4.014
 0.508 -1.625 3.993
 0.525 -1.639 4.026
 0.528 -1.613 3.96
 0.544 -1.623 3.984
 0.564 -1.646 4.039
 0.568 -1.623 3.981
 0.569 -1.592 3.903
 0.59 -1.615 3.958
 0.613 -1.644 4.029
 0.604 -1.589 3.891
 0.631 -1.627 3.982
 0.641 -1.622 3.968
 0.652 -1.621 3.963
 0.661 -1.613 3.943
 0.671 -1.607 3.926
 0.694 -1.632 3.985
 0.723 -1.672 4.08
 0.735 -1.671 4.076
 0.735 -1.644 4.008
 0.739 -1.625 3.961
 0.759 -1.642 3.999
 0.77 -1.638 3.987
 0.765 -1.604 3.901
 0.788 -1.626 3.952
 0.799 -1.623 3.944
 0.798 -1.598 3.88
 0.83 -1.636 3.971
 0.836 -1.624 3.939
 0.856 -1.639 3.973
 0.875 -1.652 4.003
 0.856 -1.594 3.86
 0.894 -1.642 3.974
 0.898 -1.626 3.932
 0.921 -1.646 3.979
 0.916 -1.617 3.903
 0.921 -1.604 3.87
 0.937 -1.61 3.882
 0.975 -1.655 3.988
 0.96 -1.609 3.874
 0.987 -1.633 3.929
 0.998 -1.631 3.922
 1.018 -1.644 3.951
 1.028 -1.64 3.938
 1.037 -1.635 3.924
 1.037 -1.616 3.875
 1.06 -1.634 3.914
 1.058 -1.612 3.859
 1.087 -1.638 3.917
 1.079 -1.608 3.843
 1.098 -1.617 3.862
 1.113 -1.622 3.869
 1.127 -1.625 3.873
 1.14 -1.626 3.873
 1.15 -1.623 3.862
 1.173 -1.637 3.893
 1.191 -1.647 3.912
 1.194 -1.634 3.878
 1.218 -1.649 3.911
 1.239 -1.661 3.936
 1.252 -1.662 3.934
 1.257 -1.652 3.908
 1.239 -1.612 3.809
 1.264 -1.629 3.845
 1.255 -1.602 3.779
 1.296 -1.639 3.862
 1.319 -1.653 3.891
 1.312 -1.629 3.83
 1.327 -1.633 3.835
 1.341 -1.635 3.836
 1.389 -1.678 3.933
 1.367 -1.636 3.831
 1.372 -1.628 3.808
 1.389 -1.634 3.818
 1.393 -1.624 3.791
 1.426 -1.648 3.843
 1.431 -1.64 3.82
 1.422 -1.616 3.759
 1.443 -1.626 3.778
 1.455 -1.626 3.773
 1.468 -1.627 3.773
 1.492 -1.64 3.798
 1.498 -1.633 3.778
 1.534 -1.659 3.833
 1.539 -1.651 3.81
 1.52 -1.618 3.73
 1.543 -1.63 3.752
 1.545 -1.619 3.723
 1.566 -1.629 3.74
 1.566 -1.616 3.707
 1.588 -1.626 3.723
 1.603 -1.629 3.726
 1.603 -1.617 3.694
 1.623 -1.624 3.706
 1.63 -1.619 3.69
 1.689 -1.666 3.792
 1.661 -1.626 3.696
 1.678 -1.631 3.703
 1.654 -1.596 3.617
 1.673 -1.604 3.629
 1.732 -1.648 3.724
 1.726 -1.631 3.682
 1.742 -1.634 3.684
 1.788 -1.665 3.749
 1.805 -1.671 3.755
 1.775 -1.632 3.661
 1.804 -1.647 3.691
 1.803 -1.635 3.658
 1.835 -1.652 3.691
 1.824 -1.632 3.641
 1.855 -1.648 3.672
 1.834 -1.619 3.601
 1.849 -1.622 3.601
 1.879 -1.638 3.631
 1.84 -1.594 3.527
 1.836 -1.58 3.491
 1.838 -1.571 3.467
 1.857 -1.578 3.476
 1.858 -1.568 3.449
 1.886 -1.583 3.474
 1.853 -1.545 3.385
 1.904 -1.578 3.452
 1.825 -1.504 3.284
 1.872 -1.533 3.342
 1.86 -1.514 3.295
 1.835 -1.485 3.225
 1.813 -1.458 3.162
 1.841 -1.472 3.186
 1.84 -1.462 3.16
 1.85 -1.462 3.153
 1.823 -1.432 3.083
 1.868 -1.459 3.135
 1.82 -1.413 3.031
 1.813 -1.4 2.997
 1.806 -1.386 2.963
 1.814 -1.384 2.953
 1.788 -1.357 2.889
 1.851 -1.397 2.968
 -2.201 -1.667 3.659
 -2.141 -1.631 3.585
 -2.135 -1.637 3.604
 -2.112 -1.628 3.591
 -2.1 -1.629 3.599
 -2.087 -1.628 3.603
 -2.071 -1.626 3.604
 -2.054 -1.622 3.602
 -2.049 -1.628 3.62
 -2.035 -1.626 3.624
 -2.025 -1.628 3.634
 -2.006 -1.623 3.629
 -2.001 -1.629 3.648
 -1.99 -1.63 3.655
 -1.977 -1.63 3.66
 -1.961 -1.627 3.66
 -1.958 -1.635 3.683
 -1.943 -1.633 3.684
 -1.933 -1.635 3.694
 -1.924 -1.638 3.707
 -1.914 -1.64 3.718
 -1.896 -1.636 3.712
 -1.883 -1.635 3.716
 -1.871 -1.636 3.723
 -1.857 -1.634 3.725
 -1.849 -1.638 3.739
 -1.838 -1.64 3.749
 -1.827 -1.641 3.756
 -1.81 -1.637 3.753
 -1.801 -1.64 3.765
 -1.785 -1.637 3.762
 -1.768 -1.633 3.759
 -1.755 -1.633 3.763
 -1.746 -1.636 3.775
 -1.735 -1.637 3.783
 -1.721 -1.636 3.785
 -1.713 -1.641 3.8
 -1.7 -1.64 3.803
 -1.683 -1.636 3.798
 -1.669 -1.634 3.799
 -1.658 -1.636 3.808
 -1.641 -1.631 3.802
 -1.627 -1.63 3.804
 -1.613 -1.628 3.803
 -1.598 -1.626 3.802
 -1.588 -1.628 3.812
 -1.575 -1.628 3.816
 -1.563 -1.628 3.822
 -1.555 -1.633 3.836
 -1.542 -1.632 3.839
 -1.528 -1.63 3.839
 -1.518 -1.633 3.851
 -1.503 -1.63 3.846
 -1.489 -1.628 3.846
 -1.478 -1.63 3.855
 -1.465 -1.629 3.857
 -1.448 -1.625 3.851
 -1.439 -1.629 3.864
 -1.43 -1.632 3.875
 -1.416 -1.631 3.877
 -1.402 -1.629 3.877
 -1.394 -1.634 3.892
 -1.383 -1.635 3.898
 -1.368 -1.632 3.895
 -1.356 -1.633 3.901
 -1.347 -1.638 3.915
 -1.333 -1.636 3.915
 -1.318 -1.633 3.911
 -1.303 -1.629 3.905
 -1.287 -1.625 3.899
 -1.273 -1.623 3.898
 -1.262 -1.625 3.906
 -1.251 -1.626 3.911
 -1.243 -1.633 3.931
 -1.231 -1.633 3.934
 -1.219 -1.633 3.938
 -1.207 -1.634 3.945
 -1.193 -1.632 3.941
 -1.179 -1.63 3.94
 -1.167 -1.63 3.943
 -1.152 -1.627 3.939
 -1.138 -1.624 3.935
 -1.126 -1.625 3.94
 -1.113 -1.624 3.94
 -1.099 -1.622 3.94
 -1.088 -1.624 3.947
 -1.077 -1.625 3.953
 -1.064 -1.625 3.955
 -1.051 -1.624 3.954
 -1.039 -1.625 3.961
 -1.028 -1.627 3.966
 -1.016 -1.627 3.971
 -1.003 -1.627 3.972
 -0.989 -1.624 3.968
 -0.976 -1.622 3.966
 -0.962 -1.621 3.965
 -0.948 -1.617 3.958
 -0.936 -1.618 3.963
 -0.925 -1.619 3.969
 -0.914 -1.622 3.977
 -0.902 -1.622 3.98
 -0.89 -1.623 3.986
 -0.877 -1.623 3.987
 -0.867 -1.627 3.999
 -0.855 -1.627 4.001
 -0.841 -1.625 3.999
 -0.828 -1.624 3.996
 -0.815 -1.623 3.996
 -0.801 -1.618 3.986
 -0.788 -1.617 3.986
 -0.776 -1.617 3.988
 -0.763 -1.617 3.99
 -0.752 -1.62 3.999
 -0.741 -1.623 4.008
 -0.729 -1.622 4.007
 -0.716 -1.622 4.009
 -0.703 -1.62 4.006
 -0.69 -1.618 4.003
 -0.677 -1.617 4.002
 -0.665 -1.617 4.005
 -0.653 -1.617 4.005
 -0.642 -1.621 4.016
 -0.63 -1.622 4.02
 -0.618 -1.624 4.026
 -0.607 -1.626 4.035
 -0.596 -1.631 4.047
 -0.584 -1.631 4.049
 -0.573 -1.634 4.058
 -0.561 -1.637 4.066
 -0.548 -1.634 4.06
 -0.535 -1.633 4.059
 -0.522 -1.631 4.055
 -0.509 -1.628 4.049
 -0.495 -1.625 4.042
 -0.483 -1.626 4.047
 -0.471 -1.625 4.045
 -0.458 -1.625 4.046
 -0.447 -1.627 4.052
 -0.434 -1.628 4.055
 -0.422 -1.627 4.053
 -0.41 -1.627 4.055
 -0.397 -1.626 4.053
 -0.383 -1.621 4.041
 -0.371 -1.619 4.037
 -0.358 -1.618 4.036
 -0.346 -1.617 4.035
 -0.334 -1.62 4.041
 -0.323 -1.625 4.056
 -0.311 -1.627 4.061
 -0.299 -1.628 4.065
 -0.286 -1.628 4.064
 -0.274 -1.628 4.065
 -0.261 -1.624 4.057
 -0.248 -1.622 4.052
 -0.236 -1.621 4.05
 -0.224 -1.621 4.049
 -0.211 -1.621 4.049
 -0.199 -1.62 4.048
 -0.187 -1.62 4.048
 -0.174 -1.621 4.05
 -0.162 -1.622 4.053
 -0.15 -1.62 4.049
 -0.138 -1.62 4.05
 -0.125 -1.619 4.046
 -0.113 -1.618 4.046
 -0.101 -1.617 4.042
 -0.088 -1.62 4.049
 -0.076 -1.619 4.049
 -0.064 -1.624 4.061
 -0.052 -1.625 4.061
 -0.04 -1.626 4.065
 -0.027 -1.625 4.062
 -0.015 -1.626 4.064
 -0.003 -1.622 4.054
 0.009 -1.62 4.051
 0.021 -1.618 4.044
 0.033 -1.618 4.043
 0.045 -1.619 4.046
 0.058 -1.624 4.06
 0.07 -1.625 4.061
 0.083 -1.628 4.068
 0.095 -1.627 4.064
 0.107 -1.626 4.062
 0.119 -1.621 4.048
 0.131 -1.621 4.049
 0.143 -1.618 4.041
 0.156 -1.619 4.043
 0.168 -1.621 4.048
 0.181 -1.623 4.052
 0.193 -1.622 4.049
 0.205 -1.625 4.055
 0.217 -1.622 4.047
 0.229 -1.621 4.043
 0.241 -1.616 4.032
 0.253 -1.619 4.037
 0.265 -1.618 4.033
 0.278 -1.62 4.038
 0.29 -1.619 4.034
 0.303 -1.623 4.043
 0.315 -1.621 4.039
 0.327 -1.621 4.036
 0.339 -1.619 4.031
 0.351 -1.617 4.025
 0.363 -1.618 4.026
 0.375 -1.616 4.021
 0.388 -1.62 4.029
 0.401 -1.623 4.034
 0.414 -1.626 4.043
 0.426 -1.624 4.035
 0.438 -1.624 4.034
 0.45 -1.622 4.027
 0.462 -1.622 4.027
 0.474 -1.619 4.018
 0.486 -1.62 4.018
 0.499 -1.623 4.025
 0.511 -1.622 4.021
 0.522 -1.619 4.012
 0.536 -1.622 4.018
 0.549 -1.624 4.022
 0.56 -1.621 4.013
 0.572 -1.622 4.013
 0.586 -1.626 4.022
 0.597 -1.623 4.012
 0.609 -1.622 4.007
 0.621 -1.622 4.007
 0.633 -1.622 4.005
 0.645 -1.621 4.001
 0.659 -1.624 4.006
 0.672 -1.627 4.011
 0.686 -1.631 4.02
 0.7 -1.635 4.026
 0.713 -1.635 4.026
 0.725 -1.636 4.026
 0.737 -1.635 4.02
 0.748 -1.631 4.009
 0.758 -1.628 3.998
 0.77 -1.627 3.996
 0.781 -1.624 3.985
 0.794 -1.625 3.986
 0.806 -1.625 3.982
 0.818 -1.624 3.978
 0.83 -1.624 3.975
 0.844 -1.628 3.984
 0.856 -1.628 3.98
 0.87 -1.63 3.983
 0.883 -1.632 3.986
 0.897 -1.634 3.988
 0.908 -1.632 3.981
 0.919 -1.631 3.975
 0.929 -1.626 3.962
 0.941 -1.626 3.959
 0.952 -1.623 3.948
 0.964 -1.623 3.945
 0.978 -1.627 3.953
 0.994 -1.633 3.965
 1.008 -1.636 3.968
 1.021 -1.636 3.967
 1.034 -1.638 3.968
 1.045 -1.635 3.957
 1.055 -1.633 3.948
 1.067 -1.632 3.944
 1.08 -1.633 3.942
 1.091 -1.632 3.936
 1.105 -1.634 3.938
 1.117 -1.633 3.935
 1.129 -1.632 3.928
 1.141 -1.632 3.924
 1.153 -1.632 3.921
 1.165 -1.631 3.916
 1.177 -1.631 3.912
 1.191 -1.634 3.916
 1.205 -1.636 3.918
 1.219 -1.638 3.919
 1.232 -1.638 3.916
 1.244 -1.639 3.914
 1.255 -1.637 3.904
 1.266 -1.636 3.899
 1.279 -1.636 3.895
 1.293 -1.638 3.898
 1.306 -1.639 3.896
 1.32 -1.642 3.898
 1.335 -1.645 3.902
 1.348 -1.646 3.9
 1.361 -1.646 3.896
 1.373 -1.645 3.891
 1.385 -1.645 3.886
 1.396 -1.644 3.879
 1.407 -1.643 3.873
 1.417 -1.639 3.86
 1.43 -1.641 3.859
 1.441 -1.639 3.852
 1.454 -1.64 3.849
 1.466 -1.639 3.844
 1.48 -1.641 3.844
 1.49 -1.639 3.834
 1.503 -1.639 3.83
 1.513 -1.637 3.82
 1.523 -1.634 3.81
 1.532 -1.632 3.799
 1.546 -1.633 3.798
 1.556 -1.631 3.788
 1.569 -1.632 3.785
 1.584 -1.634 3.787
 1.598 -1.637 3.787
 1.609 -1.635 3.779
 1.622 -1.636 3.776
 1.633 -1.635 3.768
 1.644 -1.634 3.761
 1.656 -1.633 3.754
 1.667 -1.631 3.746
 1.677 -1.629 3.736
 1.686 -1.627 3.725
 1.699 -1.628 3.722
 1.713 -1.629 3.72
 1.725 -1.629 3.715
 1.741 -1.632 3.717
 1.757 -1.636 3.72
 1.77 -1.636 3.716
 1.784 -1.638 3.715
 1.795 -1.637 3.707
 1.807 -1.637 3.7
 1.819 -1.637 3.695
 1.829 -1.635 3.684
 1.834 -1.629 3.666
 1.844 -1.626 3.655
 1.851 -1.622 3.64
 1.849 -1.61 3.606
 1.848 -1.599 3.576
 1.852 -1.591 3.554
 1.854 -1.583 3.53
 1.85 -1.57 3.494
 1.858 -1.567 3.481
 1.861 -1.559 3.459
 1.861 -1.55 3.433
 1.855 -1.535 3.394
 1.858 -1.528 3.373
 1.857 -1.518 3.345
 1.861 -1.512 3.326
 1.851 -1.495 3.282
 1.853 -1.487 3.261
 1.847 -1.474 3.225
 1.839 -1.459 3.186
 1.836 -1.448 3.157
 1.843 -1.445 3.145
 1.84 -1.434 3.116
 1.84 -1.426 3.092
 1.841 -1.419 3.071
 1.834 -1.405 3.036
 1.824 -1.39 2.997
 1.824 -1.382 2.973
 1.826 -1.375 2.954
 1.831 -1.371 2.94
 -2.17 -1.631 3.612
 -2.174 -1.644 3.647
 -2.153 -1.637 3.638
 -2.128 -1.628 3.624
 -2.117 -1.629 3.633
 -2.107 -1.631 3.644
 -2.09 -1.628 3.642
 -2.077 -1.627 3.646
 -2.073 -1.634 3.667
 -2.053 -1.628 3.66
 -2.04 -1.628 3.666
 -2.024 -1.625 3.665
 -2.016 -1.629 3.679
 -2.004 -1.629 3.686
 -1.996 -1.634 3.702
 -1.984 -1.634 3.708
 -1.978 -1.639 3.726
 -1.959 -1.634 3.72
 -1.948 -1.635 3.728
 -1.936 -1.636 3.735
 -1.924 -1.636 3.742
 -1.907 -1.633 3.74
 -1.898 -1.636 3.751
 -1.885 -1.636 3.757
 -1.872 -1.635 3.761
 -1.862 -1.638 3.772
 -1.851 -1.639 3.78
 -1.84 -1.64 3.788
 -1.824 -1.637 3.786
 -1.815 -1.64 3.799
 -1.8 -1.639 3.8
 -1.786 -1.637 3.801
 -1.772 -1.636 3.803
 -1.761 -1.637 3.812
 -1.747 -1.636 3.815
 -1.731 -1.633 3.812
 -1.722 -1.636 3.824
 -1.708 -1.635 3.826
 -1.693 -1.633 3.826
 -1.679 -1.632 3.828
 -1.667 -1.632 3.834
 -1.651 -1.629 3.83
 -1.64 -1.63 3.837
 -1.623 -1.626 3.832
 -1.61 -1.626 3.837
 -1.6 -1.628 3.846
 -1.587 -1.627 3.848
 -1.574 -1.627 3.852
 -1.565 -1.631 3.866
 -1.551 -1.629 3.866
 -1.539 -1.629 3.871
 -1.528 -1.632 3.881
 -1.514 -1.629 3.88
 -1.5 -1.628 3.882
 -1.49 -1.631 3.893
 -1.477 -1.631 3.895
 -1.462 -1.628 3.893
 -1.453 -1.631 3.904
 -1.443 -1.635 3.918
 -1.429 -1.634 3.918
 -1.414 -1.63 3.914
 -1.405 -1.634 3.926
 -1.393 -1.635 3.933
 -1.376 -1.63 3.924
 -1.364 -1.631 3.929
 -1.355 -1.634 3.941
 -1.34 -1.632 3.94
 -1.324 -1.628 3.934
 -1.31 -1.626 3.933
 -1.295 -1.622 3.927
 -1.281 -1.621 3.927
 -1.271 -1.624 3.939
 -1.259 -1.624 3.943
 -1.251 -1.63 3.959
 -1.24 -1.632 3.967
 -1.227 -1.631 3.969
 -1.214 -1.631 3.971
 -1.2 -1.63 3.971
 -1.188 -1.63 3.975
 -1.174 -1.628 3.974
 -1.161 -1.628 3.976
 -1.147 -1.625 3.972
 -1.135 -1.626 3.978
 -1.12 -1.623 3.972
 -1.108 -1.622 3.974
 -1.097 -1.625 3.985
 -1.086 -1.628 3.993
 -1.073 -1.627 3.993
 -1.061 -1.626 3.995
 -1.048 -1.626 3.998
 -1.034 -1.625 3.997
 -1.021 -1.623 3.996
 -1.008 -1.623 3.997
 -0.995 -1.622 3.997
 -0.982 -1.62 3.997
 -0.968 -1.618 3.993
 -0.955 -1.617 3.992
 -0.943 -1.618 3.997
 -0.931 -1.618 4
 -0.919 -1.62 4.007
 -0.908 -1.621 4.012
 -0.895 -1.62 4.012
 -0.881 -1.618 4.008
 -0.87 -1.62 4.017
 -0.858 -1.622 4.022
 -0.845 -1.619 4.018
 -0.832 -1.619 4.021
 -0.821 -1.621 4.026
 -0.807 -1.619 4.025
 -0.795 -1.619 4.027
 -0.784 -1.622 4.035
 -0.771 -1.62 4.033
 -0.759 -1.622 4.04
 -0.747 -1.623 4.045
 -0.734 -1.621 4.041
 -0.721 -1.62 4.04
 -0.708 -1.619 4.038
 -0.694 -1.616 4.034
 -0.681 -1.613 4.028
 -0.669 -1.614 4.032
 -0.657 -1.614 4.034
 -0.645 -1.616 4.04
 -0.633 -1.618 4.045
 -0.621 -1.62 4.052
 -0.61 -1.622 4.059
 -0.599 -1.626 4.07
 -0.587 -1.628 4.076
 -0.576 -1.631 4.087
 -0.564 -1.634 4.094
 -0.551 -1.632 4.091
 -0.539 -1.633 4.094
 -0.526 -1.631 4.092
 -0.512 -1.628 4.084
 -0.499 -1.624 4.076
 -0.486 -1.624 4.077
 -0.473 -1.62 4.068
 -0.46 -1.619 4.067
 -0.448 -1.62 4.071
 -0.436 -1.623 4.078
 -0.424 -1.622 4.078
 -0.411 -1.622 4.078
 -0.399 -1.621 4.077
 -0.385 -1.617 4.068
 -0.373 -1.615 4.064
 -0.36 -1.614 4.061
 -0.348 -1.615 4.064
 -0.336 -1.617 4.07
 -0.325 -1.622 4.083
 -0.312 -1.623 4.087
 -0.301 -1.627 4.096
 -0.288 -1.626 4.096
 -0.276 -1.625 4.094
 -0.262 -1.621 4.084
 -0.25 -1.62 4.083
 -0.237 -1.618 4.078
 -0.225 -1.618 4.079
 -0.213 -1.621 4.085
 -0.201 -1.622 4.088
 -0.188 -1.621 4.087
 -0.176 -1.624 4.093
 -0.164 -1.625 4.097
 -0.151 -1.621 4.087
 -0.138 -1.619 4.083
 -0.126 -1.616 4.076
 -0.113 -1.613 4.068
 -0.101 -1.611 4.063
 -0.089 -1.614 4.071
 -0.077 -1.617 4.078
 -0.064 -1.623 4.094
 -0.052 -1.625 4.098
 -0.04 -1.623 4.093
 -0.027 -1.623 4.092
 -0.015 -1.621 4.087
 -0.003 -1.615 4.073
 0.009 -1.614 4.069
 0.021 -1.612 4.065
 0.033 -1.612 4.065
 0.046 -1.614 4.069
 0.058 -1.618 4.078
 0.07 -1.619 4.08
 0.083 -1.621 4.086
 0.095 -1.621 4.085
 0.108 -1.62 4.082
 0.12 -1.619 4.079
 0.132 -1.618 4.077
 0.144 -1.616 4.07
 0.157 -1.617 4.072
 0.169 -1.619 4.078
 0.181 -1.618 4.073
 0.194 -1.618 4.073
 0.207 -1.623 4.085
 0.219 -1.619 4.076
 0.231 -1.62 4.076
 0.243 -1.617 4.068
 0.255 -1.618 4.069
 0.267 -1.615 4.061
 0.28 -1.616 4.063
 0.292 -1.614 4.057
 0.305 -1.619 4.069
 0.317 -1.619 4.067
 0.329 -1.619 4.067
 0.342 -1.62 4.069
 0.354 -1.618 4.063
 0.366 -1.618 4.061
 0.378 -1.617 4.057
 0.391 -1.619 4.063
 0.403 -1.618 4.058
 0.416 -1.621 4.063
 0.428 -1.618 4.057
 0.44 -1.618 4.053
 0.452 -1.616 4.048
 0.465 -1.619 4.055
 0.476 -1.617 4.047
 0.489 -1.617 4.045
 0.502 -1.619 4.05
 0.514 -1.619 4.05
 0.525 -1.615 4.037
 0.538 -1.618 4.043
 0.552 -1.621 4.05
 0.564 -1.62 4.045
 0.576 -1.62 4.042
 0.59 -1.625 4.054
 0.602 -1.624 4.049
 0.613 -1.621 4.041
 0.626 -1.622 4.04
 0.639 -1.623 4.041
 0.651 -1.622 4.037
 0.664 -1.624 4.041
 0.677 -1.626 4.043
 0.692 -1.631 4.055
 0.705 -1.633 4.057
 0.717 -1.634 4.058
 0.73 -1.635 4.057
 0.742 -1.633 4.051
 0.753 -1.629 4.04
 0.763 -1.626 4.03
 0.775 -1.624 4.023
 0.786 -1.622 4.014
 0.8 -1.625 4.02
 0.812 -1.624 4.015
 0.825 -1.625 4.016
 0.837 -1.625 4.014
 0.851 -1.628 4.019
 0.863 -1.628 4.016
 0.875 -1.628 4.013
 0.888 -1.628 4.011
 0.901 -1.63 4.013
 0.913 -1.629 4.008
 0.924 -1.626 3.998
 0.935 -1.624 3.99
 0.947 -1.624 3.988
 0.958 -1.622 3.979
 0.971 -1.622 3.978
 0.986 -1.627 3.987
 1.003 -1.634 4.001
 1.015 -1.635 4
 1.028 -1.635 3.999
 1.041 -1.636 3.998
 1.053 -1.636 3.993
 1.063 -1.632 3.981
 1.075 -1.631 3.976
 1.087 -1.63 3.971
 1.099 -1.631 3.969
 1.111 -1.63 3.964
 1.124 -1.63 3.961
 1.137 -1.632 3.963
 1.149 -1.63 3.956
 1.161 -1.631 3.953
 1.174 -1.632 3.952
 1.185 -1.63 3.945
 1.198 -1.63 3.941
 1.213 -1.634 3.948
 1.226 -1.635 3.947
 1.239 -1.636 3.945
 1.253 -1.638 3.947
 1.265 -1.638 3.942
 1.277 -1.637 3.935
 1.289 -1.637 3.932
 1.304 -1.639 3.935
 1.317 -1.641 3.935
 1.331 -1.643 3.935
 1.347 -1.646 3.939
 1.361 -1.649 3.942
 1.372 -1.646 3.932
 1.384 -1.646 3.927
 1.396 -1.646 3.922
 1.407 -1.645 3.915
 1.417 -1.642 3.904
 1.429 -1.641 3.897
 1.441 -1.64 3.893
 1.452 -1.638 3.884
 1.464 -1.638 3.879
 1.474 -1.636 3.869
 1.487 -1.636 3.865
 1.498 -1.635 3.858
 1.511 -1.636 3.856
 1.523 -1.635 3.85
 1.536 -1.636 3.846
 1.546 -1.634 3.837
 1.56 -1.635 3.837
 1.571 -1.634 3.829
 1.583 -1.633 3.822
 1.596 -1.634 3.82
 1.609 -1.635 3.817
 1.618 -1.632 3.804
 1.63 -1.631 3.798
 1.641 -1.63 3.792
 1.654 -1.631 3.788
 1.669 -1.633 3.788
 1.682 -1.634 3.785
 1.694 -1.633 3.779
 1.704 -1.631 3.768
 1.716 -1.631 3.763
 1.727 -1.63 3.755
 1.737 -1.628 3.745
 1.752 -1.63 3.746
 1.768 -1.634 3.748
 1.78 -1.634 3.742
 1.795 -1.636 3.743
 1.809 -1.637 3.74
 1.819 -1.635 3.73
 1.83 -1.634 3.721
 1.839 -1.631 3.709
 1.84 -1.621 3.681
 1.847 -1.617 3.666
 1.853 -1.611 3.648
 1.851 -1.599 3.613
 1.851 -1.589 3.586
 1.857 -1.584 3.569
 1.859 -1.575 3.543
 1.857 -1.564 3.512
 1.865 -1.561 3.499
 1.865 -1.551 3.471
 1.862 -1.539 3.439
 1.858 -1.526 3.405
 1.858 -1.516 3.377
 1.857 -1.507 3.35
 1.862 -1.501 3.332
 1.852 -1.484 3.288
 1.849 -1.473 3.258
 1.84 -1.457 3.217
 1.832 -1.443 3.179
 1.835 -1.436 3.159
 1.843 -1.434 3.148
 1.842 -1.425 3.124
 1.843 -1.418 3.102
 1.844 -1.41 3.08
 1.837 -1.397 3.044
 1.828 -1.382 3.007
 1.825 -1.372 2.979
 1.852 -1.384 3
 1.787 -1.329 2.874
 -2.211 -1.649 3.686
 0 0 0
 -2.166 -1.634 3.665
 -2.142 -1.626 3.653
 -2.135 -1.63 3.668
 -2.129 -1.635 3.686
 -2.108 -1.629 3.678
 -2.091 -1.626 3.677
 -2.09 -1.635 3.703
 -2.069 -1.629 3.695
 -2.056 -1.628 3.7
 -2.043 -1.628 3.706
 -2.033 -1.63 3.716
 -2.018 -1.628 3.718
 -2.01 -1.632 3.732
 -2.001 -1.635 3.745
 -1.995 -1.64 3.763
 -1.98 -1.639 3.765
 -1.971 -1.642 3.778
 -1.959 -1.642 3.784
 -1.943 -1.64 3.784
 -1.925 -1.635 3.779
 -1.916 -1.638 3.791
 -1.901 -1.637 3.794
 -1.887 -1.636 3.797
 -1.875 -1.636 3.803
 -1.863 -1.636 3.809
 -1.85 -1.637 3.815
 -1.835 -1.635 3.816
 -1.824 -1.636 3.824
 -1.813 -1.638 3.832
 -1.802 -1.639 3.841
 -1.788 -1.638 3.843
 -1.775 -1.638 3.847
 -1.76 -1.636 3.849
 -1.743 -1.632 3.844
 -1.73 -1.632 3.848
 -1.715 -1.63 3.848
 -1.704 -1.631 3.855
 -1.691 -1.631 3.86
 -1.68 -1.632 3.868
 -1.664 -1.629 3.865
 -1.652 -1.63 3.872
 -1.636 -1.627 3.869
 -1.625 -1.628 3.876
 -1.613 -1.628 3.882
 -1.601 -1.629 3.889
 -1.587 -1.628 3.89
 -1.577 -1.63 3.899
 -1.562 -1.628 3.898
 -1.548 -1.626 3.899
 -1.536 -1.628 3.907
 -1.522 -1.626 3.907
 -1.51 -1.626 3.911
 -1.498 -1.628 3.919
 -1.487 -1.629 3.926
 -1.473 -1.627 3.926
 -1.464 -1.632 3.941
 -1.454 -1.634 3.95
 -1.44 -1.632 3.95
 -1.424 -1.629 3.945
 -1.41 -1.628 3.947
 -1.397 -1.628 3.95
 -1.382 -1.624 3.946
 -1.37 -1.625 3.952
 -1.36 -1.628 3.962
 -1.348 -1.628 3.967
 -1.332 -1.624 3.96
 -1.317 -1.621 3.956
 -1.302 -1.618 3.953
 -1.289 -1.618 3.956
 -1.28 -1.623 3.97
 -1.269 -1.625 3.98
 -1.26 -1.629 3.992
 -1.248 -1.631 4
 -1.234 -1.628 3.996
 -1.22 -1.626 3.995
 -1.205 -1.624 3.992
 -1.193 -1.625 3.998
 -1.181 -1.625 4.002
 -1.169 -1.626 4.007
 -1.156 -1.625 4.007
 -1.144 -1.626 4.013
 -1.13 -1.624 4.011
 -1.116 -1.621 4.007
 -1.106 -1.626 4.022
 -1.095 -1.628 4.029
 -1.082 -1.627 4.03
 -1.068 -1.626 4.03
 -1.057 -1.628 4.038
 -1.043 -1.625 4.033
 -1.029 -1.623 4.031
 -1.016 -1.622 4.032
 -1.003 -1.622 4.034
 -0.989 -1.62 4.031
 -0.975 -1.618 4.028
 -0.963 -1.618 4.03
 -0.951 -1.62 4.037
 -0.939 -1.62 4.041
 -0.927 -1.621 4.045
 -0.915 -1.622 4.05
 -0.902 -1.621 4.05
 -0.887 -1.617 4.042
 -0.875 -1.616 4.043
 -0.863 -1.619 4.051
 -0.851 -1.619 4.054
 -0.839 -1.62 4.057
 -0.828 -1.623 4.067
 -0.815 -1.623 4.069
 -0.803 -1.623 4.071
 -0.79 -1.622 4.071
 -0.777 -1.62 4.069
 -0.764 -1.621 4.072
 -0.752 -1.621 4.075
 -0.738 -1.619 4.071
 -0.725 -1.617 4.068
 -0.713 -1.617 4.071
 -0.699 -1.615 4.067
 -0.686 -1.613 4.063
 -0.673 -1.613 4.065
 -0.661 -1.614 4.069
 -0.649 -1.613 4.068
 -0.637 -1.616 4.076
 -0.626 -1.618 4.084
 -0.614 -1.621 4.092
 -0.603 -1.623 4.1
 -0.591 -1.627 4.11
 -0.58 -1.63 4.119
 -0.567 -1.63 4.121
 -0.555 -1.631 4.124
 -0.543 -1.633 4.13
 -0.53 -1.631 4.128
 -0.516 -1.627 4.117
 -0.503 -1.625 4.114
 -0.49 -1.623 4.111
 -0.476 -1.619 4.1
 -0.463 -1.617 4.096
 -0.451 -1.619 4.102
 -0.439 -1.62 4.108
 -0.426 -1.618 4.104
 -0.414 -1.618 4.105
 -0.401 -1.619 4.107
 -0.388 -1.616 4.101
 -0.375 -1.616 4.1
 -0.363 -1.615 4.098
 -0.351 -1.616 4.102
 -0.338 -1.617 4.106
 -0.327 -1.622 4.118
 -0.315 -1.622 4.12
 -0.302 -1.625 4.127
 -0.29 -1.624 4.125
 -0.277 -1.621 4.12
 -0.264 -1.618 4.111
 -0.251 -1.617 4.109
 -0.239 -1.616 4.107
 -0.226 -1.616 4.108
 -0.214 -1.619 4.116
 -0.202 -1.619 4.116
 -0.189 -1.618 4.114
 -0.177 -1.619 4.117
 -0.165 -1.621 4.122
 -0.152 -1.618 4.114
 -0.139 -1.617 4.114
 -0.127 -1.615 4.107
 -0.114 -1.613 4.103
 -0.102 -1.612 4.101
 -0.089 -1.614 4.106
 -0.077 -1.616 4.112
 -0.065 -1.621 4.124
 -0.052 -1.622 4.125
 -0.04 -1.619 4.118
 -0.027 -1.619 4.118
 -0.015 -1.617 4.113
 -0.002 -1.613 4.102
 0.009 -1.613 4.103
 0.021 -1.612 4.099
 0.034 -1.609 4.093
 0.046 -1.61 4.094
 0.058 -1.613 4.103
 0.071 -1.613 4.102
 0.083 -1.616 4.11
 0.096 -1.617 4.111
 0.108 -1.616 4.109
 0.121 -1.615 4.106
 0.133 -1.616 4.106
 0.145 -1.613 4.098
 0.158 -1.616 4.105
 0.17 -1.617 4.108
 0.183 -1.616 4.105
 0.195 -1.615 4.102
 0.208 -1.621 4.115
 0.22 -1.616 4.104
 0.232 -1.617 4.105
 0.244 -1.614 4.096
 0.257 -1.616 4.1
 0.269 -1.611 4.088
 0.282 -1.614 4.093
 0.293 -1.611 4.085
 0.307 -1.616 4.097
 0.319 -1.615 4.092
 0.331 -1.615 4.092
 0.344 -1.616 4.095
 0.356 -1.616 4.094
 0.369 -1.617 4.094
 0.381 -1.616 4.091
 0.394 -1.617 4.092
 0.406 -1.616 4.088
 0.418 -1.616 4.087
 0.43 -1.612 4.076
 0.442 -1.612 4.075
 0.454 -1.612 4.074
 0.467 -1.613 4.075
 0.478 -1.61 4.066
 0.491 -1.611 4.066
 0.504 -1.613 4.071
 0.517 -1.614 4.071
 0.528 -1.61 4.061
 0.542 -1.615 4.07
 0.555 -1.617 4.076
 0.568 -1.618 4.076
 0.58 -1.619 4.075
 0.594 -1.624 4.086
 0.607 -1.624 4.086
 0.619 -1.622 4.079
 0.63 -1.621 4.074
 0.643 -1.621 4.071
 0.656 -1.622 4.073
 0.669 -1.624 4.077
 0.682 -1.625 4.077
 0.696 -1.63 4.086
 0.709 -1.63 4.087
 0.721 -1.63 4.082
 0.734 -1.63 4.082
 0.746 -1.629 4.077
 0.756 -1.625 4.064
 0.768 -1.624 4.06
 0.781 -1.623 4.056
 0.792 -1.621 4.047
 0.807 -1.626 4.059
 0.82 -1.627 4.059
 0.833 -1.629 4.061
 0.845 -1.629 4.057
 0.858 -1.63 4.058
 0.869 -1.627 4.049
 0.88 -1.625 4.04
 0.893 -1.624 4.036
 0.905 -1.625 4.035
 0.918 -1.625 4.033
 0.928 -1.621 4.022
 0.941 -1.622 4.022
 0.953 -1.621 4.015
 0.965 -1.621 4.012
 0.977 -1.62 4.009
 0.993 -1.626 4.02
 1.009 -1.632 4.032
 1.022 -1.633 4.032
 1.034 -1.633 4.027
 1.048 -1.634 4.028
 1.059 -1.632 4.019
 1.07 -1.63 4.011
 1.082 -1.629 4.006
 1.094 -1.628 4.002
 1.107 -1.629 4
 1.12 -1.63 3.998
 1.132 -1.629 3.993
 1.147 -1.633 4
 1.159 -1.632 3.994
 1.171 -1.632 3.992
 1.183 -1.632 3.987
 1.195 -1.63 3.98
 1.205 -1.628 3.97
 1.219 -1.629 3.97
 1.231 -1.63 3.968
 1.244 -1.63 3.966
 1.259 -1.633 3.969
 1.273 -1.635 3.969
 1.286 -1.636 3.968
 1.299 -1.637 3.967
 1.315 -1.64 3.972
 1.327 -1.641 3.969
 1.342 -1.643 3.971
 1.357 -1.646 3.974
 1.369 -1.646 3.97
 1.38 -1.644 3.961
 1.393 -1.644 3.957
 1.404 -1.642 3.948
 1.415 -1.641 3.942
 1.427 -1.64 3.934
 1.438 -1.638 3.926
 1.451 -1.639 3.925
 1.463 -1.638 3.918
 1.476 -1.639 3.915
 1.487 -1.638 3.908
 1.501 -1.639 3.907
 1.512 -1.637 3.898
 1.524 -1.638 3.895
 1.534 -1.635 3.883
 1.547 -1.635 3.878
 1.556 -1.631 3.866
 1.57 -1.633 3.865
 1.581 -1.631 3.856
 1.594 -1.632 3.853
 1.607 -1.633 3.851
 1.62 -1.633 3.847
 1.629 -1.63 3.834
 1.641 -1.63 3.829
 1.653 -1.629 3.822
 1.664 -1.628 3.815
 1.679 -1.63 3.816
 1.693 -1.632 3.813
 1.707 -1.633 3.812
 1.718 -1.632 3.805
 1.73 -1.632 3.799
 1.74 -1.63 3.788
 1.75 -1.627 3.777
 1.761 -1.626 3.769
 1.774 -1.627 3.766
 1.789 -1.629 3.765
 1.806 -1.634 3.771
 1.82 -1.634 3.767
 1.83 -1.632 3.757
 1.838 -1.629 3.743
 1.845 -1.624 3.727
 1.844 -1.612 3.694
 1.848 -1.606 3.673
 1.854 -1.6 3.654
 1.851 -1.587 3.618
 1.852 -1.578 3.592
 1.858 -1.573 3.575
 1.862 -1.566 3.554
 1.863 -1.556 3.527
 1.871 -1.553 3.514
 1.87 -1.543 3.485
 1.864 -1.529 3.447
 1.861 -1.517 3.414
 1.858 -1.505 3.382
 1.858 -1.496 3.356
 1.862 -1.49 3.337
 1.856 -1.476 3.299
 1.85 -1.463 3.265
 1.84 -1.446 3.221
 1.829 -1.429 3.178
 1.834 -1.424 3.161
 1.84 -1.421 3.147
 1.842 -1.414 3.127
 1.843 -1.407 3.105
 1.846 -1.401 3.087
 1.838 -1.387 3.05
 1.832 -1.375 3.017
 1.826 -1.362 2.984
 1.807 -1.34 2.931
 1.83 -1.35 2.947
 -2.196 -1.625 3.665
 -2.204 -1.64 3.706
 -2.179 -1.632 3.693
 -2.162 -1.629 3.693
 -2.152 -1.631 3.703
 -2.149 -1.638 3.726
 -2.13 -1.634 3.722
 -2.111 -1.629 3.717
 -2.102 -1.632 3.731
 -2.084 -1.627 3.726
 -2.069 -1.625 3.728
 -2.057 -1.626 3.736
 -2.051 -1.632 3.754
 -2.036 -1.63 3.756
 -2.029 -1.634 3.772
 -2.019 -1.637 3.784
 -2.007 -1.638 3.792
 -1.992 -1.636 3.792
 -1.985 -1.64 3.809
 -1.969 -1.638 3.809
 -1.953 -1.636 3.809
 -1.939 -1.634 3.812
 -1.93 -1.638 3.826
 -1.914 -1.635 3.825
 -1.902 -1.636 3.832
 -1.888 -1.635 3.834
 -1.874 -1.634 3.838
 -1.861 -1.633 3.841
 -1.849 -1.634 3.848
 -1.839 -1.637 3.86
 -1.828 -1.638 3.868
 -1.815 -1.638 3.873
 -1.801 -1.637 3.876
 -1.785 -1.634 3.875
 -1.77 -1.632 3.875
 -1.756 -1.631 3.876
 -1.746 -1.633 3.887
 -1.73 -1.631 3.887
 -1.72 -1.633 3.897
 -1.707 -1.633 3.902
 -1.694 -1.633 3.905
 -1.676 -1.628 3.898
 -1.664 -1.629 3.904
 -1.648 -1.625 3.9
 -1.634 -1.624 3.902
 -1.621 -1.624 3.907
 -1.608 -1.624 3.911
 -1.595 -1.623 3.913
 -1.585 -1.626 3.925
 -1.569 -1.623 3.922
 -1.556 -1.623 3.925
 -1.547 -1.626 3.938
 -1.534 -1.626 3.941
 -1.521 -1.626 3.945
 -1.511 -1.628 3.956
 -1.5 -1.631 3.966
 -1.484 -1.627 3.96
 -1.475 -1.631 3.974
 -1.464 -1.632 3.982
 -1.449 -1.631 3.982
 -1.433 -1.627 3.976
 -1.42 -1.627 3.98
 -1.406 -1.625 3.978
 -1.39 -1.621 3.973
 -1.378 -1.621 3.978
 -1.365 -1.622 3.982
 -1.354 -1.624 3.991
 -1.338 -1.62 3.985
 -1.324 -1.618 3.983
 -1.311 -1.617 3.985
 -1.299 -1.618 3.992
 -1.288 -1.62 4
 -1.278 -1.623 4.011
 -1.268 -1.627 4.023
 -1.256 -1.628 4.029
 -1.241 -1.624 4.023
 -1.228 -1.625 4.028
 -1.213 -1.622 4.023
 -1.201 -1.623 4.028
 -1.189 -1.624 4.035
 -1.178 -1.625 4.041
 -1.162 -1.621 4.035
 -1.152 -1.625 4.047
 -1.137 -1.621 4.04
 -1.123 -1.62 4.039
 -1.112 -1.623 4.049
 -1.103 -1.627 4.063
 -1.089 -1.626 4.063
 -1.076 -1.626 4.065
 -1.063 -1.625 4.066
 -1.049 -1.622 4.062
 -1.034 -1.618 4.055
 -1.021 -1.617 4.055
 -1.009 -1.619 4.061
 -0.995 -1.616 4.058
 -0.982 -1.616 4.058
 -0.97 -1.617 4.064
 -0.957 -1.617 4.066
 -0.943 -1.615 4.063
 -0.931 -1.615 4.067
 -0.919 -1.616 4.071
 -0.905 -1.614 4.067
 -0.891 -1.61 4.061
 -0.879 -1.611 4.066
 -0.867 -1.613 4.071
 -0.855 -1.613 4.075
 -0.843 -1.615 4.081
 -0.832 -1.619 4.093
 -0.819 -1.618 4.093
 -0.807 -1.62 4.1
 -0.795 -1.62 4.103
 -0.782 -1.62 4.103
 -0.77 -1.62 4.106
 -0.757 -1.619 4.106
 -0.742 -1.615 4.098
 -0.729 -1.614 4.096
 -0.716 -1.612 4.092
 -0.702 -1.61 4.089
 -0.69 -1.611 4.093
 -0.678 -1.612 4.098
 -0.666 -1.612 4.099
 -0.653 -1.612 4.101
 -0.641 -1.613 4.105
 -0.629 -1.615 4.111
 -0.618 -1.617 4.119
 -0.605 -1.619 4.124
 -0.594 -1.622 4.134
 -0.583 -1.625 4.144
 -0.57 -1.625 4.144
 -0.557 -1.625 4.146
 -0.546 -1.628 4.154
 -0.533 -1.627 4.153
 -0.519 -1.624 4.147
 -0.506 -1.622 4.142
 -0.492 -1.619 4.137
 -0.478 -1.614 4.125
 -0.465 -1.613 4.122
 -0.453 -1.614 4.125
 -0.441 -1.616 4.133
 -0.428 -1.614 4.129
 -0.415 -1.613 4.127
 -0.403 -1.614 4.129
 -0.39 -1.611 4.123
 -0.377 -1.61 4.121
 -0.365 -1.611 4.124
 -0.353 -1.615 4.135
 -0.341 -1.616 4.139
 -0.328 -1.617 4.143
 -0.316 -1.619 4.149
 -0.304 -1.619 4.15
 -0.291 -1.617 4.146
 -0.278 -1.617 4.146
 -0.266 -1.618 4.149
 -0.253 -1.617 4.146
 -0.24 -1.616 4.143
 -0.228 -1.617 4.146
 -0.215 -1.617 4.147
 -0.203 -1.616 4.144
 -0.19 -1.615 4.143
 -0.178 -1.616 4.147
 -0.165 -1.616 4.145
 -0.152 -1.613 4.139
 -0.14 -1.613 4.139
 -0.127 -1.612 4.137
 -0.115 -1.613 4.138
 -0.102 -1.613 4.138
 -0.09 -1.615 4.145
 -0.078 -1.617 4.149
 -0.065 -1.618 4.151
 -0.053 -1.616 4.147
 -0.04 -1.614 4.142
 -0.027 -1.613 4.14
 -0.015 -1.611 4.133
 -0.002 -1.609 4.129
 0.009 -1.611 4.134
 0.021 -1.607 4.123
 0.034 -1.605 4.117
 0.046 -1.605 4.117
 0.059 -1.607 4.122
 0.071 -1.607 4.122
 0.084 -1.613 4.137
 0.097 -1.614 4.139
 0.109 -1.615 4.141
 0.122 -1.617 4.147
 0.134 -1.616 4.143
 0.146 -1.613 4.136
 0.159 -1.616 4.141
 0.172 -1.618 4.146
 0.184 -1.614 4.137
 0.196 -1.614 4.135
 0.21 -1.62 4.15
 0.222 -1.616 4.14
 0.234 -1.615 4.137
 0.246 -1.614 4.131
 0.259 -1.614 4.132
 0.271 -1.609 4.119
 0.283 -1.61 4.12
 0.295 -1.608 4.115
 0.308 -1.611 4.12
 0.321 -1.612 4.121
 0.333 -1.612 4.122
 0.346 -1.614 4.125
 0.359 -1.615 4.125
 0.372 -1.617 4.13
 0.384 -1.615 4.124
 0.397 -1.616 4.125
 0.409 -1.616 4.123
 0.421 -1.614 4.118
 0.433 -1.612 4.111
 0.446 -1.613 4.113
 0.458 -1.612 4.108
 0.47 -1.611 4.105
 0.482 -1.61 4.101
 0.495 -1.61 4.1
 0.507 -1.611 4.101
 0.52 -1.613 4.106
 0.532 -1.61 4.095
 0.545 -1.613 4.101
 0.558 -1.614 4.104
 0.571 -1.616 4.107
 0.583 -1.615 4.101
 0.598 -1.621 4.116
 0.611 -1.622 4.116
 0.623 -1.62 4.11
 0.635 -1.621 4.11
 0.647 -1.62 4.105
 0.66 -1.619 4.102
 0.673 -1.621 4.105
 0.686 -1.622 4.106
 0.7 -1.624 4.109
 0.713 -1.627 4.115
 0.726 -1.627 4.111
 0.739 -1.628 4.113
 0.751 -1.627 4.107
 0.761 -1.623 4.094
 0.773 -1.622 4.09
 0.785 -1.62 4.085
 0.796 -1.618 4.076
 0.811 -1.622 4.083
 0.824 -1.622 4.082
 0.837 -1.625 4.086
 0.85 -1.625 4.085
 0.863 -1.626 4.085
 0.874 -1.624 4.076
 0.886 -1.622 4.069
 0.898 -1.622 4.066
 0.911 -1.623 4.066
 0.924 -1.623 4.063
 0.936 -1.622 4.059
 0.95 -1.624 4.062
 0.961 -1.622 4.053
 0.974 -1.623 4.053
 0.986 -1.623 4.05
 1.002 -1.628 4.059
 1.017 -1.632 4.067
 1.031 -1.634 4.07
 1.042 -1.632 4.061
 1.054 -1.631 4.056
 1.065 -1.629 4.049
 1.076 -1.627 4.039
 1.087 -1.624 4.029
 1.099 -1.623 4.023
 1.113 -1.625 4.026
 1.125 -1.625 4.022
 1.137 -1.624 4.016
 1.152 -1.628 4.024
 1.166 -1.63 4.024
 1.177 -1.628 4.017
 1.189 -1.627 4.012
 1.202 -1.627 4.007
 1.212 -1.624 3.997
 1.225 -1.624 3.994
 1.239 -1.627 3.996
 1.252 -1.628 3.996
 1.267 -1.631 4
 1.282 -1.634 4.002
 1.295 -1.634 3.999
 1.308 -1.635 3.997
 1.322 -1.637 3.999
 1.335 -1.637 3.995
 1.348 -1.638 3.993
 1.364 -1.642 3.999
 1.376 -1.642 3.995
 1.389 -1.642 3.991
 1.402 -1.642 3.988
 1.413 -1.64 3.98
 1.425 -1.64 3.974
 1.437 -1.639 3.967
 1.448 -1.638 3.96
 1.46 -1.636 3.952
 1.472 -1.636 3.949
 1.486 -1.637 3.946
 1.498 -1.636 3.94
 1.51 -1.637 3.936
 1.523 -1.637 3.932
 1.536 -1.637 3.929
 1.547 -1.635 3.919
 1.56 -1.636 3.917
 1.569 -1.632 3.903
 1.582 -1.633 3.9
 1.593 -1.631 3.89
 1.606 -1.632 3.887
 1.618 -1.631 3.881
 1.631 -1.632 3.877
 1.639 -1.628 3.864
 1.654 -1.629 3.862
 1.665 -1.628 3.854
 1.676 -1.627 3.846
 1.69 -1.629 3.846
 1.704 -1.63 3.845
 1.718 -1.631 3.842
 1.729 -1.63 3.833
 1.741 -1.63 3.828
 1.752 -1.628 3.819
 1.762 -1.626 3.809
 1.774 -1.625 3.802
 1.788 -1.627 3.8
 1.803 -1.629 3.8
 1.819 -1.633 3.803
 1.835 -1.635 3.804
 1.844 -1.633 3.791
 1.851 -1.627 3.774
 1.857 -1.622 3.756
 1.858 -1.612 3.726
 1.859 -1.602 3.699
 1.86 -1.592 3.67
 1.858 -1.581 3.638
 1.862 -1.574 3.615
 1.867 -1.568 3.597
 1.872 -1.562 3.577
 1.875 -1.555 3.555
 1.881 -1.55 3.538
 1.878 -1.537 3.504
 1.871 -1.523 3.464
 1.867 -1.509 3.428
 1.863 -1.497 3.395
 1.863 -1.488 3.369
 1.865 -1.481 3.347
 1.857 -1.466 3.306
 1.849 -1.45 3.266
 1.832 -1.429 3.212
 1.817 -1.409 3.161
 1.825 -1.407 3.151
 1.833 -1.404 3.139
 1.837 -1.4 3.124
 1.839 -1.393 3.103
 1.844 -1.388 3.087
 1.839 -1.377 3.056
 1.835 -1.366 3.026
 1.828 -1.353 2.992
 1.806 -1.33 2.934
 1.793 -1.313 2.891
 -2.166 -1.591 3.621
 0 0 0
 -2.202 -1.636 3.737
 -2.188 -1.635 3.742
 -2.177 -1.637 3.751
 -2.169 -1.641 3.767
 -2.151 -1.637 3.763
 -2.134 -1.634 3.763
 -2.122 -1.634 3.77
 -2.103 -1.63 3.766
 -2.088 -1.628 3.767
 -2.075 -1.628 3.774
 -2.065 -1.63 3.786
 -2.051 -1.629 3.789
 -2.042 -1.632 3.802
 -2.031 -1.634 3.811
 -2.019 -1.634 3.818
 -2.004 -1.633 3.821
 -1.996 -1.637 3.837
 -1.98 -1.635 3.836
 -1.966 -1.633 3.839
 -1.954 -1.634 3.846
 -1.944 -1.637 3.859
 -1.928 -1.634 3.858
 -1.918 -1.636 3.868
 -1.904 -1.636 3.872
 -1.888 -1.633 3.871
 -1.874 -1.632 3.874
 -1.864 -1.634 3.885
 -1.853 -1.636 3.894
 -1.841 -1.638 3.903
 -1.828 -1.638 3.908
 -1.813 -1.636 3.908
 -1.796 -1.631 3.903
 -1.779 -1.628 3.9
 -1.764 -1.626 3.899
 -1.756 -1.63 3.915
 -1.742 -1.629 3.917
 -1.73 -1.63 3.925
 -1.718 -1.631 3.931
 -1.705 -1.631 3.936
 -1.688 -1.626 3.93
 -1.675 -1.627 3.936
 -1.661 -1.625 3.936
 -1.648 -1.625 3.94
 -1.634 -1.624 3.942
 -1.619 -1.622 3.943
 -1.604 -1.62 3.942
 -1.593 -1.621 3.949
 -1.579 -1.62 3.95
 -1.566 -1.62 3.954
 -1.556 -1.623 3.967
 -1.545 -1.625 3.975
 -1.533 -1.626 3.982
 -1.521 -1.627 3.988
 -1.511 -1.629 3.998
 -1.495 -1.627 3.996
 -1.486 -1.63 4.008
 -1.474 -1.632 4.016
 -1.46 -1.63 4.015
 -1.443 -1.625 4.009
 -1.429 -1.624 4.009
 -1.414 -1.622 4.007
 -1.398 -1.617 4
 -1.385 -1.618 4.005
 -1.372 -1.617 4.008
 -1.361 -1.619 4.016
 -1.347 -1.617 4.014
 -1.334 -1.618 4.02
 -1.322 -1.618 4.023
 -1.31 -1.619 4.03
 -1.3 -1.622 4.041
 -1.288 -1.624 4.049
 -1.277 -1.627 4.058
 -1.264 -1.626 4.061
 -1.25 -1.624 4.058
 -1.235 -1.622 4.056
 -1.22 -1.618 4.051
 -1.208 -1.619 4.056
 -1.195 -1.619 4.06
 -1.183 -1.62 4.063
 -1.168 -1.616 4.059
 -1.156 -1.618 4.067
 -1.14 -1.614 4.057
 -1.127 -1.613 4.058
 -1.116 -1.616 4.068
 -1.107 -1.621 4.083
 -1.095 -1.621 4.088
 -1.083 -1.623 4.094
 -1.07 -1.623 4.097
 -1.055 -1.619 4.091
 -1.039 -1.614 4.08
 -1.027 -1.614 4.084
 -1.015 -1.615 4.089
 -1.001 -1.613 4.087
 -0.988 -1.614 4.089
 -0.977 -1.617 4.101
 -0.963 -1.615 4.097
 -0.95 -1.614 4.098
 -0.939 -1.616 4.104
 -0.927 -1.617 4.111
 -0.911 -1.613 4.101
 -0.897 -1.609 4.095
 -0.884 -1.609 4.096
 -0.872 -1.609 4.1
 -0.859 -1.609 4.101
 -0.849 -1.613 4.114
 -0.838 -1.617 4.127
 -0.825 -1.616 4.125
 -0.812 -1.617 4.13
 -0.8 -1.618 4.134
 -0.786 -1.615 4.128
 -0.773 -1.615 4.129
 -0.761 -1.615 4.131
 -0.746 -1.611 4.123
 -0.733 -1.61 4.122
 -0.72 -1.609 4.122
 -0.707 -1.607 4.119
 -0.694 -1.607 4.12
 -0.682 -1.608 4.125
 -0.669 -1.607 4.124
 -0.656 -1.607 4.125
 -0.644 -1.608 4.13
 -0.632 -1.61 4.135
 -0.62 -1.611 4.14
 -0.608 -1.612 4.143
 -0.596 -1.616 4.156
 -0.585 -1.62 4.166
 -0.573 -1.621 4.17
 -0.561 -1.622 4.176
 -0.548 -1.624 4.181
 -0.535 -1.623 4.18
 -0.522 -1.619 4.172
 -0.508 -1.616 4.165
 -0.495 -1.614 4.161
 -0.481 -1.611 4.153
 -0.468 -1.609 4.148
 -0.455 -1.608 4.147
 -0.443 -1.611 4.156
 -0.43 -1.608 4.149
 -0.417 -1.606 4.147
 -0.405 -1.609 4.153
 -0.393 -1.61 4.158
 -0.38 -1.609 4.155
 -0.368 -1.612 4.164
 -0.356 -1.616 4.174
 -0.343 -1.615 4.174
 -0.33 -1.614 4.173
 -0.318 -1.615 4.174
 -0.305 -1.614 4.172
 -0.292 -1.613 4.17
 -0.28 -1.614 4.174
 -0.267 -1.612 4.17
 -0.254 -1.612 4.17
 -0.242 -1.611 4.168
 -0.229 -1.612 4.17
 -0.216 -1.609 4.163
 -0.204 -1.611 4.168
 -0.191 -1.609 4.165
 -0.178 -1.61 4.168
 -0.166 -1.612 4.173
 -0.153 -1.612 4.173
 -0.141 -1.612 4.173
 -0.128 -1.612 4.172
 -0.116 -1.612 4.173
 -0.103 -1.609 4.167
 -0.091 -1.613 4.175
 -0.078 -1.614 4.179
 -0.065 -1.614 4.179
 -0.053 -1.613 4.177
 -0.04 -1.612 4.174
 -0.028 -1.61 4.169
 -0.015 -1.607 4.161
 -0.002 -1.606 4.158
 0.009 -1.607 4.16
 0.022 -1.604 4.153
 0.034 -1.601 4.144
 0.047 -1.601 4.144
 0.059 -1.603 4.148
 0.072 -1.605 4.154
 0.085 -1.609 4.165
 0.097 -1.612 4.17
 0.11 -1.613 4.172
 0.123 -1.614 4.176
 0.135 -1.611 4.168
 0.147 -1.611 4.166
 0.16 -1.613 4.17
 0.173 -1.614 4.172
 0.185 -1.612 4.168
 0.198 -1.611 4.164
 0.211 -1.614 4.171
 0.223 -1.612 4.164
 0.235 -1.611 4.162
 0.248 -1.609 4.157
 0.261 -1.611 4.161
 0.273 -1.609 4.154
 0.285 -1.607 4.148
 0.297 -1.606 4.144
 0.31 -1.606 4.145
 0.322 -1.605 4.14
 0.334 -1.605 4.138
 0.348 -1.608 4.147
 0.36 -1.609 4.148
 0.374 -1.612 4.154
 0.386 -1.611 4.151
 0.399 -1.612 4.152
 0.411 -1.611 4.148
 0.423 -1.61 4.144
 0.436 -1.61 4.144
 0.449 -1.611 4.145
 0.461 -1.609 4.139
 0.473 -1.61 4.138
 0.486 -1.61 4.138
 0.498 -1.61 4.136
 0.511 -1.61 4.136
 0.524 -1.612 4.138
 0.536 -1.61 4.131
 0.549 -1.61 4.13
 0.561 -1.61 4.128
 0.575 -1.613 4.134
 0.587 -1.611 4.129
 0.6 -1.614 4.135
 0.613 -1.616 4.136
 0.626 -1.615 4.134
 0.639 -1.616 4.134
 0.652 -1.617 4.134
 0.665 -1.619 4.138
 0.678 -1.62 4.138
 0.691 -1.621 4.138
 0.703 -1.62 4.135
 0.717 -1.623 4.141
 0.729 -1.623 4.137
 0.742 -1.623 4.137
 0.754 -1.622 4.131
 0.766 -1.619 4.121
 0.778 -1.618 4.116
 0.79 -1.617 4.112
 0.801 -1.615 4.105
 0.816 -1.619 4.112
 0.829 -1.62 4.113
 0.842 -1.621 4.114
 0.855 -1.622 4.113
 0.868 -1.623 4.113
 0.879 -1.619 4.101
 0.89 -1.617 4.092
 0.903 -1.617 4.091
 0.916 -1.618 4.09
 0.928 -1.618 4.087
 0.941 -1.618 4.086
 0.956 -1.622 4.093
 0.967 -1.62 4.085
 0.981 -1.622 4.086
 0.993 -1.621 4.083
 1.008 -1.625 4.09
 1.022 -1.627 4.091
 1.036 -1.629 4.094
 1.047 -1.627 4.085
 1.059 -1.626 4.081
 1.071 -1.626 4.076
 1.082 -1.623 4.066
 1.093 -1.62 4.056
 1.105 -1.62 4.051
 1.118 -1.621 4.051
 1.13 -1.62 4.045
 1.143 -1.62 4.043
 1.159 -1.625 4.051
 1.172 -1.625 4.05
 1.185 -1.626 4.046
 1.197 -1.625 4.041
 1.209 -1.624 4.037
 1.219 -1.621 4.024
 1.232 -1.621 4.022
 1.246 -1.623 4.024
 1.26 -1.625 4.024
 1.275 -1.628 4.028
 1.29 -1.631 4.032
 1.303 -1.631 4.028
 1.316 -1.632 4.026
 1.33 -1.634 4.028
 1.342 -1.632 4.02
 1.354 -1.632 4.015
 1.369 -1.635 4.018
 1.382 -1.635 4.015
 1.395 -1.636 4.012
 1.409 -1.638 4.013
 1.421 -1.637 4.007
 1.434 -1.637 4.003
 1.445 -1.636 3.995
 1.459 -1.637 3.994
 1.47 -1.635 3.986
 1.484 -1.637 3.985
 1.497 -1.637 3.981
 1.51 -1.637 3.977
 1.521 -1.636 3.97
 1.534 -1.636 3.966
 1.547 -1.636 3.961
 1.558 -1.634 3.952
 1.573 -1.636 3.953
 1.582 -1.633 3.939
 1.593 -1.632 3.932
 1.604 -1.629 3.922
 1.616 -1.63 3.918
 1.627 -1.628 3.909
 1.639 -1.627 3.901
 1.649 -1.624 3.89
 1.662 -1.625 3.887
 1.675 -1.625 3.882
 1.686 -1.624 3.875
 1.701 -1.626 3.875
 1.715 -1.628 3.874
 1.73 -1.63 3.873
 1.741 -1.629 3.865
 1.753 -1.628 3.858
 1.763 -1.626 3.848
 1.775 -1.625 3.84
 1.787 -1.625 3.835
 1.801 -1.625 3.831
 1.813 -1.625 3.826
 1.828 -1.627 3.825
 1.842 -1.629 3.823
 1.85 -1.625 3.807
 1.853 -1.617 3.784
 1.861 -1.612 3.767
 1.862 -1.603 3.739
 1.862 -1.592 3.709
 1.865 -1.584 3.685
 1.865 -1.574 3.655
 1.869 -1.567 3.634
 1.873 -1.56 3.612
 1.876 -1.553 3.59
 1.879 -1.546 3.566
 1.887 -1.542 3.553
 1.884 -1.53 3.519
 1.879 -1.517 3.483
 1.879 -1.508 3.457
 1.872 -1.493 3.416
 1.864 -1.478 3.376
 1.859 -1.464 3.339
 1.851 -1.45 3.3
 1.836 -1.429 3.248
 1.82 -1.408 3.194
 1.808 -1.391 3.149
 1.819 -1.391 3.143
 1.83 -1.392 3.139
 1.839 -1.39 3.13
 1.841 -1.384 3.111
 1.842 -1.377 3.089
 1.837 -1.365 3.057
 1.83 -1.352 3.023
 1.822 -1.339 2.986
 1.829 -1.336 2.975
 1.804 -1.311 2.913
 -2.263 -1.648 3.787
 -2.24 -1.642 3.778
 -2.215 -1.633 3.765
 -2.207 -1.637 3.78
 -2.195 -1.638 3.788
 -2.185 -1.639 3.799
 -2.169 -1.637 3.8
 -2.15 -1.633 3.796
 -2.134 -1.631 3.797
 -2.117 -1.627 3.795
 -2.103 -1.626 3.799
 -2.088 -1.625 3.802
 -2.08 -1.629 3.818
 -2.066 -1.628 3.822
 -2.057 -1.631 3.834
 -2.046 -1.633 3.844
