 1.033 -1.52 4.232
 1.046 -1.521 4.231
 1.058 -1.519 4.224
 1.072 -1.521 4.226
 1.087 -1.523 4.229
 1.1 -1.525 4.23
 1.114 -1.525 4.228
 1.13 -1.529 4.236
 1.143 -1.529 4.233
 1.155 -1.528 4.227
 1.167 -1.527 4.22
 1.182 -1.53 4.225
 1.194 -1.529 4.218
 1.207 -1.528 4.213
 1.22 -1.528 4.21
 1.235 -1.531 4.214
 1.249 -1.532 4.214
 1.263 -1.533 4.214
 1.278 -1.536 4.217
 1.293 -1.538 4.22
 1.307 -1.539 4.219
 1.318 -1.538 4.211
 1.333 -1.54 4.214
 1.347 -1.54 4.21
 1.36 -1.54 4.207
 1.373 -1.541 4.204
 1.388 -1.543 4.207
 1.401 -1.543 4.202
 1.415 -1.543 4.199
 1.428 -1.544 4.196
 1.443 -1.545 4.196
 1.455 -1.545 4.191
 1.47 -1.547 4.192
 1.486 -1.55 4.196
 1.502 -1.553 4.2
 1.516 -1.554 4.198
 1.532 -1.557 4.201
 1.546 -1.558 4.2
 1.561 -1.559 4.198
 1.573 -1.558 4.192
 1.587 -1.559 4.19
 1.602 -1.56 4.188
 1.614 -1.559 4.182
 1.628 -1.56 4.179
 1.642 -1.561 4.176
 1.656 -1.561 4.173
 1.67 -1.562 4.17
 1.686 -1.565 4.172
 1.7 -1.565 4.169
 1.714 -1.567 4.167
 1.729 -1.568 4.165
 1.741 -1.567 4.159
 1.756 -1.568 4.156
 1.77 -1.569 4.153
 1.786 -1.571 4.153
 1.801 -1.573 4.152
 1.813 -1.572 4.145
 1.826 -1.571 4.138
 1.835 -1.568 4.123
 1.839 -1.56 4.098
 1.844 -1.554 4.075
 1.851 -1.548 4.056
 1.853 -1.54 4.026
 1.86 -1.535 4.008
 1.866 -1.529 3.987
 1.874 -1.525 3.972
 1.878 -1.517 3.946
 1.885 -1.513 3.93
 1.889 -1.506 3.906
 1.896 -1.502 3.888
 1.899 -1.493 3.861
 1.909 -1.492 3.851
 1.913 -1.485 3.828
 0 0 0
 0 0 0
 0 0 0
 0 0 0
 0 0 0
 0 0 0
 0 0 0
 0 0 0
 0 0 0
 0 0 0
 0 0 0
 0 0 0
 0 0 0
 0 0 0
 0 0 0
 0 0 0
 0 0 0
 1.82 -1.265 3.164
 1.832 -1.266 3.161
 1.84 -1.264 3.151
 1.844 -1.26 3.134
 1.846 -1.253 3.113
 1.847 -1.247 3.091
 1.847 -1.24 3.069
 1.832 -1.223 3.021
 1.861 -1.235 3.046
 -2.416 -1.606 4.102
 0 0 0
 -2.381 -1.602 4.104
 -2.365 -1.601 4.107
 -2.358 -1.605 4.126
 -2.342 -1.604 4.13
 -2.326 -1.603 4.132
 -2.314 -1.604 4.144
 -2.301 -1.605 4.151
 -2.281 -1.601 4.148
 -2.271 -1.603 4.161
 -2.26 -1.606 4.174
 -2.245 -1.605 4.178
 -2.227 -1.602 4.177
 -2.212 -1.601 4.181
 -2.197 -1.6 4.185
 -2.182 -1.6 4.189
 -2.167 -1.599 4.195
 -2.154 -1.6 4.201
 -2.138 -1.599 4.205
 -2.124 -1.599 4.211
 -2.107 -1.596 4.209
 -2.09 -1.594 4.21
 -2.076 -1.594 4.215
 -2.063 -1.594 4.222
 -2.049 -1.595 4.23
 -2.036 -1.595 4.235
 -2.023 -1.596 4.243
 -2.009 -1.596 4.25
 -1.997 -1.597 4.259
 -1.981 -1.596 4.26
 -1.968 -1.596 4.267
 -1.953 -1.596 4.272
 -1.936 -1.593 4.27
 -1.918 -1.59 4.266
 -1.904 -1.589 4.27
 -1.891 -1.59 4.277
 -1.874 -1.588 4.277
 -1.86 -1.587 4.28
 -1.845 -1.587 4.284
 -1.831 -1.587 4.288
 -1.816 -1.585 4.29
 -1.802 -1.585 4.293
 -1.791 -1.587 4.305
 -1.776 -1.586 4.307
 -1.761 -1.586 4.31
 -1.743 -1.582 4.305
 -1.727 -1.58 4.304
 -1.71 -1.577 4.299
 -1.695 -1.576 4.301
 -1.678 -1.573 4.298
 -1.664 -1.572 4.3
 -1.649 -1.571 4.303
 -1.632 -1.568 4.299
 -1.618 -1.567 4.301
 -1.603 -1.566 4.301
 -1.587 -1.564 4.3
 -1.571 -1.562 4.298
 -1.558 -1.562 4.303
 -1.542 -1.56 4.3
 -1.525 -1.556 4.294
 -1.51 -1.555 4.295
 -1.494 -1.553 4.293
 -1.481 -1.553 4.298
 -1.466 -1.552 4.297
 -1.455 -1.554 4.307
 -1.44 -1.553 4.308
 -1.426 -1.552 4.309
 -1.411 -1.55 4.307
 -1.396 -1.548 4.307
 -1.379 -1.545 4.3
 -1.364 -1.543 4.298
 -1.35 -1.542 4.3
 -1.335 -1.54 4.297
 -1.321 -1.54 4.3
 -1.308 -1.541 4.306
 -1.293 -1.538 4.301
 -1.277 -1.535 4.298
 -1.263 -1.534 4.298
 -1.249 -1.533 4.298
 -1.234 -1.531 4.296
 -1.222 -1.533 4.305
 -1.208 -1.532 4.305
 -1.194 -1.531 4.304
 -1.177 -1.527 4.295
 -1.163 -1.526 4.295
 -1.148 -1.524 4.292
 -1.135 -1.523 4.294
 -1.121 -1.522 4.292
 -1.107 -1.522 4.296
 -1.092 -1.519 4.291
 -1.077 -1.517 4.286
 -1.063 -1.515 4.282
 -1.049 -1.514 4.284
 -1.035 -1.512 4.28
 -1.021 -1.511 4.279
 -1.007 -1.51 4.281
 -0.994 -1.511 4.284
 -0.981 -1.51 4.286
 -0.969 -1.512 4.292
 -0.957 -1.514 4.299
 -0.943 -1.512 4.298
 -0.929 -1.511 4.295
 -0.914 -1.508 4.291
 -0.9 -1.506 4.286
 -0.885 -1.504 4.282
 -0.872 -1.504 4.284
 -0.859 -1.503 4.285
 -0.846 -1.502 4.284
 -0.832 -1.501 4.284
 -0.819 -1.501 4.286
 -0.806 -1.501 4.286
 -0.793 -1.501 4.287
 -0.779 -1.5 4.288
 -0.767 -1.502 4.294
 -0.753 -1.5 4.29
 -0.739 -1.497 4.282
 -0.724 -1.494 4.277
 -0.712 -1.494 4.279
 -0.698 -1.492 4.275
 -0.685 -1.493 4.277
 -0.673 -1.495 4.284
 -0.66 -1.495 4.287
 -0.647 -1.494 4.287
 -0.633 -1.492 4.283
 -0.62 -1.492 4.282
 -0.607 -1.492 4.283
 -0.594 -1.492 4.285
 -0.581 -1.491 4.284
 -0.568 -1.491 4.286
 -0.556 -1.492 4.29
 -0.542 -1.491 4.287
 -0.528 -1.488 4.282
 -0.515 -1.487 4.279
 -0.502 -1.487 4.28
 -0.489 -1.486 4.278
 -0.476 -1.487 4.281
 -0.464 -1.487 4.282
 -0.451 -1.487 4.283
 -0.438 -1.486 4.283
 -0.425 -1.486 4.283
 -0.411 -1.483 4.276
 -0.398 -1.484 4.278
 -0.385 -1.483 4.276
 -0.373 -1.483 4.278
 -0.359 -1.481 4.271
 -0.347 -1.481 4.273
 -0.334 -1.481 4.273
 -0.321 -1.482 4.275
 -0.308 -1.481 4.275
 -0.296 -1.482 4.279
 -0.283 -1.481 4.277
 -0.269 -1.48 4.272
 -0.257 -1.479 4.272
 -0.244 -1.48 4.273
 -0.231 -1.48 4.274
 -0.219 -1.481 4.277
 -0.206 -1.48 4.276
 -0.193 -1.48 4.275
 -0.18 -1.479 4.273
 -0.167 -1.478 4.27
 -0.154 -1.477 4.267
 -0.142 -1.478 4.271
 -0.129 -1.477 4.267
 -0.116 -1.477 4.267
 -0.103 -1.477 4.269
 -0.09 -1.475 4.263
 -0.078 -1.475 4.262
 -0.065 -1.475 4.261
 -0.052 -1.473 4.258
 -0.04 -1.473 4.256
 -0.027 -1.475 4.263
 -0.014 -1.475 4.263
 -0.001 -1.475 4.262
 0.01 -1.476 4.264
 0.023 -1.477 4.267
 0.036 -1.477 4.267
 0.049 -1.478 4.271
 0.061 -1.48 4.275
 0.074 -1.48 4.275
 0.087 -1.48 4.274
 0.099 -1.479 4.27
 0.112 -1.474 4.257
 0.125 -1.475 4.26
 0.137 -1.475 4.258
 0.15 -1.473 4.253
 0.163 -1.474 4.254
 0.176 -1.478 4.265
 0.188 -1.477 4.262
 0.201 -1.476 4.259
 0.214 -1.478 4.264
 0.226 -1.476 4.257
 0.239 -1.476 4.257
 0.252 -1.476 4.257
 0.264 -1.476 4.255
 0.277 -1.475 4.25
 0.29 -1.478 4.259
 0.302 -1.476 4.252
 0.315 -1.474 4.246
 0.328 -1.476 4.249
 0.34 -1.475 4.245
 0.353 -1.475 4.244
 0.366 -1.477 4.248
 0.379 -1.477 4.248
 0.392 -1.477 4.248
 0.404 -1.478 4.248
 0.417 -1.477 4.245
 0.43 -1.477 4.243
 0.442 -1.477 4.243
 0.456 -1.48 4.249
 0.469 -1.481 4.251
 0.482 -1.481 4.251
 0.495 -1.482 4.25
 0.508 -1.483 4.252
 0.52 -1.482 4.249
 0.534 -1.484 4.253
 0.547 -1.484 4.253
 0.559 -1.485 4.253
 0.572 -1.484 4.248
 0.584 -1.483 4.244
 0.597 -1.483 4.241
 0.61 -1.484 4.243
 0.623 -1.485 4.245
 0.637 -1.487 4.249
 0.65 -1.488 4.248
 0.663 -1.488 4.246
 0.676 -1.488 4.246
 0.689 -1.488 4.245
 0.701 -1.488 4.243
 0.714 -1.489 4.243
 0.727 -1.489 4.242
 0.741 -1.491 4.246
 0.754 -1.492 4.245
 0.768 -1.493 4.247
 0.781 -1.494 4.246
 0.794 -1.495 4.248
 0.807 -1.495 4.244
 0.82 -1.495 4.243
 0.832 -1.494 4.237
 0.845 -1.495 4.237
 0.857 -1.493 4.231
 0.87 -1.494 4.231
 0.883 -1.494 4.227
 0.898 -1.497 4.234
 0.91 -1.496 4.229
 0.925 -1.5 4.236
 0.938 -1.499 4.233
 0.952 -1.502 4.237
 0.965 -1.502 4.235
 0.979 -1.504 4.237
 0.992 -1.504 4.235
 1.006 -1.506 4.239
 1.02 -1.507 4.239
 1.033 -1.508 4.237
 1.046 -1.508 4.235
 1.058 -1.506 4.226
 1.071 -1.507 4.226
 1.085 -1.508 4.227
 1.099 -1.51 4.229
 1.113 -1.511 4.228
 1.129 -1.515 4.237
 1.141 -1.514 4.23
 1.153 -1.513 4.225
 1.166 -1.512 4.219
 1.181 -1.516 4.226
 1.193 -1.514 4.219
 1.206 -1.515 4.216
 1.219 -1.515 4.213
 1.233 -1.516 4.213
 1.247 -1.517 4.212
 1.261 -1.518 4.212
 1.277 -1.521 4.217
 1.291 -1.523 4.217
 1.306 -1.526 4.222
 1.317 -1.523 4.211
 1.332 -1.525 4.214
 1.346 -1.526 4.212
 1.36 -1.528 4.213
 1.374 -1.528 4.21
 1.39 -1.532 4.216
 1.404 -1.532 4.213
 1.417 -1.533 4.211
 1.431 -1.533 4.208
 1.446 -1.535 4.209
 1.458 -1.534 4.202
 1.473 -1.536 4.203
 1.488 -1.538 4.204
 1.503 -1.54 4.206
 1.516 -1.54 4.201
 1.532 -1.543 4.205
 1.547 -1.544 4.204
 1.56 -1.544 4.199
 1.573 -1.545 4.196
 1.587 -1.545 4.193
 1.601 -1.546 4.191
 1.614 -1.546 4.187
 1.629 -1.548 4.185
 1.642 -1.548 4.181
 1.658 -1.55 4.183
 1.672 -1.551 4.18
 1.687 -1.552 4.179
 1.7 -1.553 4.175
 1.714 -1.553 4.171
 1.727 -1.553 4.165
 1.742 -1.554 4.164
 1.756 -1.555 4.161
 1.771 -1.556 4.159
 1.787 -1.559 4.16
 1.801 -1.56 4.158
 1.814 -1.56 4.152
 1.827 -1.559 4.146
 1.837 -1.556 4.132
 1.842 -1.549 4.108
 1.847 -1.543 4.085
 1.851 -1.535 4.059
 1.854 -1.527 4.032
 1.862 -1.523 4.015
 1.869 -1.518 3.996
 1.877 -1.514 3.981
 1.882 -1.507 3.958
 1.889 -1.503 3.941
 1.89 -1.494 3.911
 1.897 -1.49 3.895
 1.901 -1.483 3.871
 1.912 -1.482 3.862
 1.918 -1.476 3.842
 0 0 0
 0 0 0
 0 0 0
 0 0 0
 0 0 0
 0 0 0
 0 0 0
 0 0 0
 0 0 0
 0 0 0
 0 0 0
 0 0 0
 0 0 0
 0 0 0
 0 0 0
 0 0 0
 0 0 0
 1.806 -1.244 3.143
 1.818 -1.245 3.14
 1.831 -1.247 3.138
 1.837 -1.244 3.125
 1.842 -1.24 3.11
 1.843 -1.234 3.089
 1.846 -1.229 3.07
 1.804 -1.194 2.978
 1.836 -1.208 3.008
 0 0 0
 -2.483 -1.647 4.254
 -2.408 -1.606 4.156
 -2.388 -1.602 4.153
 -2.373 -1.602 4.158
 -2.355 -1.599 4.157
 -2.339 -1.597 4.16
 -2.328 -1.6 4.174
 -2.311 -1.598 4.175
 -2.292 -1.594 4.172
 -2.284 -1.599 4.191
 -2.273 -1.601 4.202
 -2.259 -1.601 4.209
 -2.242 -1.599 4.209
 -2.228 -1.599 4.216
 -2.209 -1.595 4.213
 -2.194 -1.595 4.218
 -2.178 -1.593 4.219
 -2.163 -1.593 4.225
 -2.145 -1.59 4.222
 -2.13 -1.589 4.228
 -2.113 -1.587 4.227
 -2.097 -1.585 4.228
 -2.083 -1.585 4.235
 -2.071 -1.587 4.244
 -2.056 -1.586 4.248
 -2.042 -1.586 4.254
 -2.03 -1.588 4.264
 -2.018 -1.589 4.273
 -2.004 -1.589 4.279
 -1.99 -1.589 4.284
 -1.975 -1.588 4.287
 -1.959 -1.587 4.29
 -1.941 -1.583 4.285
 -1.926 -1.582 4.287
 -1.91 -1.581 4.289
 -1.897 -1.582 4.296
 -1.881 -1.58 4.296
 -1.867 -1.58 4.301
 -1.85 -1.577 4.299
 -1.836 -1.577 4.304
 -1.821 -1.576 4.305
 -1.806 -1.575 4.308
 -1.793 -1.576 4.316
 -1.78 -1.576 4.322
 -1.763 -1.574 4.32
 -1.746 -1.571 4.316
 -1.73 -1.569 4.314
 -1.714 -1.566 4.314
 -1.698 -1.565 4.314
 -1.683 -1.563 4.314
 -1.666 -1.561 4.312
 -1.651 -1.559 4.311
 -1.633 -1.556 4.306
 -1.617 -1.553 4.302
 -1.602 -1.552 4.305
 -1.587 -1.551 4.305
 -1.572 -1.55 4.306
 -1.558 -1.548 4.307
 -1.543 -1.547 4.308
 -1.525 -1.543 4.3
 -1.51 -1.542 4.3
 -1.495 -1.54 4.3
 -1.482 -1.54 4.303
 -1.467 -1.539 4.303
 -1.455 -1.54 4.312
 -1.441 -1.54 4.313
 -1.426 -1.538 4.312
 -1.411 -1.537 4.312
 -1.396 -1.535 4.312
 -1.38 -1.532 4.306
 -1.364 -1.53 4.304
 -1.35 -1.529 4.304
 -1.334 -1.525 4.298
 -1.32 -1.525 4.301
 -1.307 -1.526 4.306
 -1.291 -1.523 4.301
 -1.276 -1.521 4.298
 -1.262 -1.52 4.3
 -1.247 -1.518 4.296
 -1.232 -1.516 4.294
 -1.221 -1.519 4.305
 -1.208 -1.518 4.307
 -1.194 -1.518 4.309
 -1.178 -1.515 4.303
 -1.164 -1.514 4.303
 -1.149 -1.511 4.297
 -1.135 -1.51 4.297
 -1.12 -1.508 4.293
 -1.106 -1.507 4.296
 -1.091 -1.505 4.291
 -1.077 -1.503 4.288
 -1.063 -1.501 4.287
 -1.05 -1.502 4.291
 -1.036 -1.501 4.29
 -1.022 -1.5 4.289
 -1.008 -1.499 4.289
 -0.994 -1.497 4.288
 -0.98 -1.496 4.287
 -0.968 -1.497 4.292
 -0.955 -1.498 4.297
 -0.942 -1.498 4.298
 -0.928 -1.497 4.298
 -0.914 -1.495 4.294
 -0.9 -1.493 4.29
 -0.886 -1.491 4.287
 -0.872 -1.491 4.288
 -0.858 -1.489 4.286
 -0.845 -1.488 4.285
 -0.831 -1.487 4.284
 -0.819 -1.488 4.289
 -0.805 -1.487 4.288
 -0.793 -1.489 4.294
 -0.78 -1.488 4.294
 -0.767 -1.489 4.299
 -0.753 -1.486 4.292
 -0.739 -1.484 4.289
 -0.724 -1.481 4.281
 -0.712 -1.482 4.283
 -0.698 -1.48 4.28
 -0.685 -1.479 4.28
 -0.672 -1.48 4.284
 -0.659 -1.481 4.287
 -0.647 -1.481 4.29
 -0.633 -1.479 4.285
 -0.62 -1.479 4.286
 -0.607 -1.478 4.286
 -0.594 -1.479 4.289
 -0.581 -1.478 4.286
 -0.567 -1.477 4.285
 -0.555 -1.477 4.288
 -0.542 -1.477 4.287
 -0.528 -1.474 4.281
 -0.514 -1.473 4.278
 -0.502 -1.473 4.28
 -0.488 -1.472 4.277
 -0.476 -1.472 4.279
 -0.463 -1.472 4.28
 -0.45 -1.472 4.282
 -0.437 -1.472 4.283
 -0.424 -1.473 4.285
 -0.411 -1.469 4.275
 -0.398 -1.47 4.278
 -0.385 -1.469 4.277
 -0.373 -1.471 4.284
 -0.36 -1.47 4.28
 -0.347 -1.471 4.285
 -0.334 -1.471 4.286
 -0.321 -1.471 4.285
 -0.308 -1.47 4.283
 -0.295 -1.469 4.282
 -0.283 -1.469 4.281
 -0.269 -1.467 4.276
 -0.257 -1.467 4.276
 -0.244 -1.466 4.273
 -0.231 -1.467 4.277
 -0.218 -1.468 4.28
 -0.206 -1.467 4.278
 -0.193 -1.466 4.276
 -0.18 -1.466 4.277
 -0.167 -1.464 4.272
 -0.154 -1.463 4.268
 -0.141 -1.464 4.272
 -0.129 -1.465 4.273
 -0.116 -1.465 4.274
 -0.103 -1.467 4.28
 -0.091 -1.466 4.277
 -0.078 -1.464 4.271
 -0.065 -1.463 4.268
 -0.052 -1.461 4.263
 -0.039 -1.459 4.256
 -0.027 -1.46 4.26
 -0.014 -1.462 4.264
 -0.001 -1.462 4.263
 0.01 -1.462 4.264
 0.023 -1.464 4.272
 0.036 -1.465 4.272
 0.049 -1.465 4.272
 0.061 -1.466 4.275
 0.074 -1.467 4.277
 0.087 -1.466 4.273
 0.099 -1.465 4.271
 0.112 -1.463 4.265
 0.125 -1.465 4.269
 0.137 -1.464 4.266
 0.15 -1.462 4.26
 0.163 -1.461 4.258
 0.176 -1.463 4.264
 0.188 -1.463 4.262
 0.201 -1.462 4.259
 0.214 -1.465 4.266
 0.226 -1.464 4.261
 0.239 -1.464 4.262
 0.252 -1.465 4.263
 0.265 -1.464 4.26
 0.277 -1.463 4.256
 0.29 -1.466 4.263
 0.303 -1.464 4.258
 0.315 -1.463 4.253
 0.328 -1.464 4.256
 0.341 -1.463 4.253
 0.353 -1.464 4.252
 0.366 -1.465 4.254
 0.379 -1.464 4.25
 0.392 -1.464 4.25
 0.404 -1.463 4.247
 0.416 -1.462 4.243
 0.429 -1.462 4.242
 0.442 -1.464 4.244
 0.456 -1.466 4.251
 0.469 -1.468 4.255
 0.482 -1.469 4.257
 0.495 -1.47 4.257
 0.508 -1.471 4.259
 0.521 -1.471 4.257
 0.534 -1.471 4.256
 0.546 -1.471 4.255
 0.559 -1.472 4.256
 0.571 -1.47 4.248
 0.584 -1.469 4.244
 0.596 -1.468 4.241
 0.609 -1.47 4.242
 0.622 -1.47 4.243
 0.636 -1.472 4.247
 0.649 -1.473 4.248
 0.662 -1.474 4.247
 0.675 -1.474 4.246
 0.688 -1.475 4.246
 0.701 -1.474 4.243
 0.714 -1.474 4.242
 0.727 -1.476 4.245
 0.741 -1.478 4.249
 0.754 -1.479 4.248
 0.768 -1.481 4.251
 0.781 -1.481 4.25
 0.793 -1.481 4.247
 0.806 -1.48 4.242
 0.819 -1.48 4.241
 0.831 -1.48 4.237
 0.844 -1.48 4.237
 0.857 -1.479 4.232
 0.87 -1.48 4.232
 0.883 -1.48 4.229
 0.897 -1.483 4.235
 0.91 -1.483 4.232
 0.925 -1.487 4.24
 0.938 -1.487 4.238
 0.952 -1.489 4.241
 0.965 -1.488 4.237
 0.978 -1.489 4.238
 0.991 -1.49 4.235
 1.005 -1.491 4.238
 1.018 -1.492 4.236
 1.031 -1.492 4.233
 1.044 -1.492 4.23
 1.057 -1.491 4.226
 1.071 -1.493 4.229
 1.085 -1.494 4.229
 1.099 -1.496 4.23
 1.113 -1.498 4.232
 1.128 -1.5 4.236
 1.139 -1.499 4.228
 1.152 -1.499 4.225
 1.165 -1.498 4.22
 1.18 -1.501 4.225
 1.192 -1.499 4.217
 1.204 -1.499 4.213
 1.218 -1.499 4.211
 1.232 -1.501 4.213
 1.246 -1.503 4.213
 1.26 -1.504 4.214
 1.276 -1.507 4.219
 1.29 -1.509 4.22
 1.304 -1.51 4.219
 1.315 -1.508 4.208
 1.33 -1.51 4.211
 1.344 -1.511 4.21
 1.358 -1.512 4.211
 1.372 -1.513 4.209
 1.389 -1.518 4.218
 1.403 -1.519 4.216
 1.417 -1.519 4.213
 1.431 -1.52 4.212
 1.446 -1.522 4.213
 1.458 -1.521 4.207
 1.473 -1.523 4.208
 1.489 -1.526 4.213
 1.505 -1.529 4.215
 1.518 -1.528 4.21
 1.534 -1.531 4.213
 1.55 -1.534 4.217
 1.562 -1.533 4.209
 1.574 -1.532 4.202
 1.588 -1.533 4.2
 1.602 -1.533 4.196
 1.614 -1.533 4.19
 1.629 -1.534 4.19
 1.644 -1.536 4.19
 1.66 -1.538 4.191
 1.675 -1.54 4.19
 1.689 -1.541 4.189
 1.704 -1.542 4.187
 1.717 -1.542 4.182
 1.731 -1.543 4.178
 1.744 -1.543 4.173
 1.757 -1.543 4.168
 1.771 -1.543 4.164
 1.788 -1.546 4.167
 1.801 -1.546 4.161
 1.816 -1.547 4.16
 1.828 -1.546 4.151
 1.838 -1.544 4.139
 1.843 -1.537 4.115
 1.85 -1.532 4.095
 1.853 -1.523 4.068
 1.858 -1.516 4.044
 1.865 -1.512 4.027
 1.87 -1.505 4.003
 1.879 -1.503 3.99
 1.884 -1.496 3.968
 1.89 -1.491 3.947
 1.887 -1.479 3.909
 1.896 -1.476 3.896
 1.896 -1.466 3.864
 1.902 -1.461 3.845
 0 0 0
 0 0 0
 0 0 0
 0 0 0
 0 0 0
 0 0 0
 0 0 0
 0 0 0
 0 0 0
 0 0 0
 0 0 0
 0 0 0
 0 0 0
 0 0 0
 0 0 0
 0 0 0
 0 0 0
 0 0 0
 1.797 -1.228 3.131
 1.813 -1.231 3.135
 1.826 -1.232 3.133
 1.835 -1.232 3.126
 1.84 -1.228 3.11
 1.843 -1.223 3.092
 1.843 -1.216 3.069
 1.847 -1.212 3.052
 1.839 -1.2 3.017
 -2.452 -1.602 4.174
 0 0 0
 -2.417 -1.598 4.176
 -2.398 -1.595 4.175
 -2.38 -1.592 4.175
 -2.359 -1.588 4.17
 -2.345 -1.588 4.177
 -2.335 -1.59 4.19
 -2.321 -1.59 4.197
 -2.305 -1.59 4.201
 -2.298 -1.594 4.221
 -2.285 -1.595 4.23
 -2.272 -1.596 4.237
 -2.256 -1.595 4.242
 -2.24 -1.594 4.245
 -2.222 -1.591 4.243
 -2.209 -1.591 4.251
 -2.191 -1.589 4.25
 -2.176 -1.588 4.255
 -2.159 -1.586 4.256
 -2.145 -1.586 4.261
 -2.131 -1.586 4.268
 -2.118 -1.587 4.276
 -2.101 -1.585 4.276
 -2.084 -1.583 4.276
 -2.071 -1.583 4.283
 -2.052 -1.58 4.279
 -2.039 -1.58 4.287
 -2.027 -1.582 4.298
 -2.015 -1.584 4.307
 -2.001 -1.584 4.313
 -1.986 -1.583 4.316
 -1.968 -1.58 4.313
 -1.948 -1.575 4.306
 -1.933 -1.575 4.309
 -1.916 -1.572 4.306
 -1.902 -1.572 4.312
 -1.886 -1.57 4.313
 -1.873 -1.571 4.319
 -1.855 -1.568 4.316
 -1.84 -1.567 4.319
 -1.824 -1.565 4.319
 -1.81 -1.564 4.322
 -1.795 -1.563 4.324
 -1.781 -1.564 4.329
 -1.765 -1.562 4.329
 -1.749 -1.56 4.328
 -1.732 -1.557 4.325
 -1.717 -1.556 4.327
 -1.702 -1.554 4.327
 -1.685 -1.551 4.323
 -1.668 -1.549 4.32
 -1.654 -1.548 4.323
 -1.636 -1.545 4.317
 -1.617 -1.539 4.307
 -1.602 -1.538 4.309
 -1.586 -1.536 4.306
 -1.57 -1.534 4.303
 -1.555 -1.532 4.304
 -1.542 -1.533 4.309
 -1.526 -1.531 4.308
 -1.512 -1.53 4.309
 -1.497 -1.529 4.31
 -1.484 -1.529 4.314
 -1.468 -1.527 4.312
 -1.454 -1.526 4.313
 -1.438 -1.524 4.31
 -1.424 -1.523 4.313
 -1.409 -1.521 4.312
 -1.394 -1.52 4.311
 -1.378 -1.517 4.307
 -1.365 -1.517 4.31
 -1.349 -1.515 4.307
 -1.333 -1.512 4.302
 -1.321 -1.513 4.307
 -1.308 -1.513 4.312
 -1.291 -1.509 4.305
 -1.276 -1.508 4.303
 -1.262 -1.507 4.303
 -1.247 -1.504 4.299
 -1.231 -1.502 4.295
 -1.221 -1.505 4.307
 -1.206 -1.503 4.306
 -1.193 -1.503 4.308
 -1.177 -1.5 4.303
 -1.164 -1.5 4.306
 -1.148 -1.497 4.299
 -1.134 -1.496 4.299
 -1.119 -1.494 4.295
 -1.105 -1.493 4.296
 -1.09 -1.49 4.289
 -1.075 -1.487 4.284
 -1.061 -1.487 4.286
 -1.049 -1.487 4.29
 -1.034 -1.486 4.288
 -1.021 -1.485 4.29
 -1.007 -1.485 4.29
 -0.993 -1.483 4.288
 -0.979 -1.481 4.284
 -0.966 -1.481 4.288
 -0.953 -1.481 4.289
 -0.94 -1.482 4.293
 -0.927 -1.481 4.294
 -0.913 -1.481 4.296
 -0.901 -1.481 4.298
 -0.887 -1.481 4.299
 -0.873 -1.479 4.297
 -0.859 -1.477 4.293
 -0.846 -1.477 4.294
 -0.831 -1.475 4.289
 -0.818 -1.475 4.291
 -0.805 -1.474 4.291
 -0.793 -1.475 4.296
 -0.779 -1.474 4.294
 -0.766 -1.474 4.296
 -0.753 -1.473 4.295
 -0.738 -1.47 4.289
 -0.724 -1.468 4.284
 -0.711 -1.468 4.285
 -0.698 -1.467 4.285
 -0.684 -1.465 4.28
 -0.671 -1.466 4.284
 -0.659 -1.466 4.286
 -0.646 -1.467 4.29
 -0.632 -1.463 4.281
 -0.619 -1.463 4.282
 -0.606 -1.464 4.284
 -0.593 -1.464 4.287
 -0.58 -1.463 4.284
 -0.567 -1.463 4.285
 -0.554 -1.464 4.29
 -0.541 -1.462 4.286
 -0.527 -1.46 4.28
 -0.514 -1.459 4.28
 -0.501 -1.459 4.281
 -0.488 -1.458 4.277
 -0.475 -1.459 4.282
 -0.462 -1.458 4.281
 -0.45 -1.459 4.285
 -0.437 -1.459 4.285
 -0.424 -1.459 4.286
 -0.41 -1.455 4.274
 -0.397 -1.455 4.276
 -0.384 -1.454 4.274
 -0.372 -1.456 4.281
 -0.359 -1.455 4.278
 -0.346 -1.456 4.282
 -0.334 -1.456 4.284
 -0.321 -1.455 4.28
 -0.308 -1.455 4.28
 -0.295 -1.454 4.279
 -0.282 -1.455 4.282
 -0.269 -1.454 4.279
 -0.257 -1.455 4.283
 -0.244 -1.454 4.28
 -0.231 -1.455 4.285
 -0.218 -1.455 4.284
 -0.206 -1.456 4.286
 -0.193 -1.453 4.279
 -0.18 -1.453 4.279
 -0.167 -1.452 4.275
 -0.154 -1.45 4.271
 -0.141 -1.45 4.272
 -0.129 -1.451 4.273
 -0.116 -1.451 4.275
 -0.103 -1.452 4.276
 -0.09 -1.452 4.276
 -0.078 -1.45 4.271
 -0.065 -1.449 4.269
 -0.052 -1.448 4.265
 -0.039 -1.446 4.258
 -0.027 -1.447 4.261
 -0.014 -1.448 4.266
 -0.001 -1.449 4.266
 0.01 -1.448 4.265
 0.023 -1.451 4.274
 0.036 -1.452 4.277
 0.049 -1.451 4.273
 0.061 -1.452 4.276
 0.074 -1.454 4.281
 0.087 -1.453 4.277
 0.099 -1.451 4.272
 0.112 -1.449 4.266
 0.125 -1.449 4.265
 0.137 -1.448 4.262
 0.15 -1.448 4.261
 0.163 -1.448 4.26
 0.176 -1.451 4.267
 0.188 -1.451 4.268
 0.201 -1.451 4.266
 0.214 -1.452 4.269
 0.227 -1.452 4.268
 0.24 -1.453 4.27
 0.252 -1.453 4.269
 0.265 -1.452 4.265
 0.277 -1.451 4.261
 0.29 -1.452 4.263
 0.302 -1.45 4.257
 0.315 -1.448 4.251
 0.328 -1.45 4.255
 0.34 -1.449 4.252
 0.353 -1.451 4.255
 0.367 -1.452 4.26
 0.379 -1.453 4.261
 0.392 -1.453 4.259
 0.405 -1.453 4.259
 0.417 -1.451 4.251
 0.429 -1.45 4.247
 0.442 -1.45 4.246
 0.455 -1.452 4.251
 0.469 -1.454 4.255
 0.482 -1.455 4.256
 0.495 -1.456 4.257
 0.507 -1.456 4.256
 0.52 -1.456 4.255
 0.533 -1.455 4.251
 0.545 -1.456 4.251
 0.558 -1.456 4.25
 0.571 -1.455 4.245
 0.583 -1.454 4.243
 0.596 -1.454 4.238
 0.609 -1.455 4.24
 0.622 -1.457 4.246
 0.636 -1.459 4.248
 0.649 -1.459 4.248
 0.662 -1.46 4.249
 0.674 -1.459 4.245
 0.687 -1.459 4.242
 0.7 -1.46 4.242
 0.713 -1.461 4.243
 0.728 -1.464 4.251
 0.742 -1.467 4.256
 0.755 -1.467 4.256
 0.768 -1.469 4.257
 0.781 -1.469 4.257
 0.794 -1.469 4.253
 0.806 -1.468 4.249
 0.819 -1.468 4.247
 0.832 -1.468 4.246
 0.845 -1.469 4.244
 0.857 -1.467 4.236
 0.87 -1.468 4.237
 0.883 -1.468 4.236
 0.897 -1.47 4.24
 0.91 -1.47 4.237
 0.924 -1.473 4.241
 0.938 -1.473 4.241
 0.952 -1.475 4.243
 0.964 -1.474 4.238
 0.978 -1.475 4.238
 0.991 -1.476 4.238
 1.005 -1.478 4.24
 1.018 -1.479 4.24
 1.032 -1.479 4.238
 1.045 -1.48 4.237
 1.057 -1.479 4.231
 1.071 -1.48 4.232
 1.084 -1.48 4.229
 1.098 -1.482 4.232
 1.111 -1.482 4.23
 1.126 -1.485 4.235
 1.139 -1.484 4.229
 1.153 -1.486 4.23
 1.165 -1.485 4.224
 1.181 -1.489 4.231
 1.193 -1.488 4.225
 1.206 -1.488 4.223
 1.219 -1.488 4.22
 1.234 -1.49 4.222
 1.248 -1.491 4.222
 1.262 -1.493 4.222
 1.276 -1.495 4.224
 1.291 -1.496 4.225
 1.305 -1.498 4.225
 1.316 -1.495 4.214
 1.331 -1.497 4.217
 1.345 -1.498 4.216
 1.359 -1.499 4.215
 1.373 -1.5 4.214
 1.389 -1.505 4.222
 1.403 -1.505 4.219
 1.417 -1.506 4.219
 1.431 -1.507 4.216
 1.446 -1.509 4.217
 1.458 -1.508 4.212
 1.473 -1.51 4.213
 1.489 -1.512 4.215
 1.504 -1.514 4.216
 1.517 -1.514 4.211
 1.532 -1.517 4.214
 1.548 -1.519 4.216
 1.561 -1.519 4.21
 1.574 -1.519 4.207
 1.589 -1.521 4.207
 1.603 -1.521 4.203
 1.616 -1.521 4.198
 1.63 -1.521 4.195
 1.643 -1.521 4.191
 1.657 -1.523 4.189
 1.673 -1.525 4.189
 1.687 -1.526 4.187
 1.703 -1.528 4.19
 1.718 -1.529 4.188
 1.733 -1.531 4.187
 1.746 -1.531 4.182
 1.76 -1.531 4.177
 1.773 -1.531 4.172
 1.79 -1.534 4.176
 1.803 -1.534 4.17
 1.819 -1.537 4.171
 1.832 -1.536 4.164
 1.843 -1.534 4.153
 1.849 -1.528 4.133
 1.854 -1.521 4.108
 1.855 -1.512 4.076
 1.861 -1.506 4.056
 1.869 -1.502 4.039
 1.871 -1.493 4.01
 1.882 -1.492 4
 1.89 -1.488 3.983
 1.894 -1.481 3.96
 1.891 -1.469 3.922
 1.898 -1.465 3.905
 1.895 -1.453 3.867
 0 0 0
 0 0 0
 0 0 0
 0 0 0
 0 0 0
 0 0 0
 0 0 0
 0 0 0
 0 0 0
 0 0 0
 0 0 0
 0 0 0
 0 0 0
 0 0 0
 0 0 0
 0 0 0
 0 0 0
 0 0 0
 0 0 0
 1.792 -1.214 3.126
 1.812 -1.22 3.137
 1.826 -1.222 3.137
 1.837 -1.223 3.133
 1.84 -1.217 3.113
 1.844 -1.213 3.097
 1.84 -1.204 3.068
 1.862 -1.211 3.081
 1.828 -1.182 3.002
 -2.521 -1.632 4.296
 -2.465 -1.605 4.232
 -2.444 -1.601 4.228
 -2.422 -1.597 4.222
 -2.402 -1.593 4.219
 -2.386 -1.592 4.223
 -2.369 -1.59 4.225
 -2.356 -1.591 4.234
 -2.343 -1.592 4.243
 -2.326 -1.59 4.245
 -2.312 -1.59 4.252
 -2.294 -1.587 4.251
 -2.282 -1.589 4.261
 -2.267 -1.588 4.266
 -2.25 -1.587 4.269
 -2.234 -1.585 4.271
 -2.222 -1.587 4.281
 -2.207 -1.586 4.286
 -2.191 -1.585 4.289
 -2.175 -1.584 4.291
 -2.157 -1.581 4.29
 -2.143 -1.581 4.297
 -2.129 -1.581 4.302
 -2.112 -1.579 4.302
 -2.094 -1.576 4.301
 -2.081 -1.577 4.309
 -2.062 -1.574 4.305
 -2.048 -1.573 4.311
 -2.034 -1.574 4.317
 -2.02 -1.574 4.322
 -2.005 -1.573 4.326
 -1.988 -1.571 4.326
 -1.969 -1.567 4.32
 -1.949 -1.562 4.313
 -1.935 -1.562 4.317
 -1.917 -1.559 4.314
 -1.902 -1.558 4.318
 -1.887 -1.557 4.319
 -1.873 -1.557 4.325
 -1.856 -1.555 4.323
 -1.842 -1.555 4.328
 -1.825 -1.552 4.326
 -1.81 -1.551 4.328
 -1.793 -1.548 4.325
 -1.778 -1.547 4.327
 -1.762 -1.545 4.326
 -1.747 -1.544 4.328
 -1.73 -1.541 4.324
 -1.717 -1.542 4.331
 -1.702 -1.541 4.333
 -1.685 -1.539 4.33
 -1.669 -1.536 4.327
 -1.655 -1.536 4.331
 -1.637 -1.532 4.325
 -1.618 -1.527 4.314
 -1.602 -1.525 4.313
 -1.587 -1.523 4.313
 -1.572 -1.522 4.313
 -1.555 -1.519 4.309
 -1.542 -1.519 4.313
 -1.526 -1.517 4.311
 -1.511 -1.516 4.312
 -1.497 -1.515 4.314
 -1.485 -1.516 4.321
 -1.47 -1.515 4.321
 -1.456 -1.515 4.325
 -1.44 -1.512 4.321
 -1.425 -1.51 4.318
 -1.409 -1.508 4.316
 -1.394 -1.506 4.313
 -1.377 -1.503 4.307
 -1.364 -1.503 4.311
 -1.349 -1.501 4.31
 -1.334 -1.499 4.307
 -1.321 -1.499 4.312
 -1.307 -1.499 4.314
 -1.291 -1.496 4.309
 -1.276 -1.494 4.307
 -1.262 -1.493 4.308
 -1.247 -1.491 4.303
 -1.231 -1.489 4.3
 -1.22 -1.49 4.308
 -1.205 -1.489 4.307
 -1.191 -1.487 4.305
 -1.176 -1.486 4.303
 -1.163 -1.486 4.306
 -1.147 -1.482 4.299
 -1.132 -1.48 4.295
 -1.117 -1.478 4.293
 -1.103 -1.476 4.29
 -1.088 -1.474 4.286
 -1.074 -1.472 4.284
 -1.062 -1.474 4.291
 -1.049 -1.475 4.296
 -1.036 -1.474 4.297
 -1.022 -1.474 4.298
 -1.008 -1.473 4.297
 -0.993 -1.47 4.293
 -0.978 -1.467 4.285
 -0.965 -1.467 4.288
 -0.952 -1.467 4.289
 -0.939 -1.467 4.292
 -0.926 -1.467 4.294
 -0.913 -1.467 4.298
 -0.9 -1.468 4.301
 -0.887 -1.468 4.304
 -0.874 -1.467 4.303
 -0.859 -1.465 4.3
 -0.846 -1.465 4.301
 -0.832 -1.463 4.297
 -0.818 -1.461 4.294
 -0.805 -1.461 4.295
 -0.792 -1.461 4.297
 -0.778 -1.46 4.295
 -0.765 -1.459 4.293
 -0.752 -1.459 4.296
 -0.737 -1.456 4.288
 -0.724 -1.454 4.286
 -0.711 -1.454 4.287
 -0.698 -1.454 4.288
 -0.684 -1.452 4.283
 -0.671 -1.452 4.286
 -0.658 -1.452 4.286
 -0.645 -1.452 4.287
 -0.631 -1.45 4.283
 -0.618 -1.449 4.283
 -0.605 -1.45 4.286
 -0.592 -1.449 4.286
 -0.579 -1.449 4.285
 -0.566 -1.448 4.284
 -0.554 -1.449 4.289
 -0.54 -1.448 4.286
 -0.527 -1.447 4.285
 -0.514 -1.447 4.285
 -0.501 -1.445 4.282
 -0.488 -1.444 4.279
 -0.475 -1.445 4.284
 -0.462 -1.444 4.28
 -0.449 -1.445 4.283
 -0.437 -1.446 4.288
 -0.424 -1.447 4.292
 -0.41 -1.443 4.282
 -0.398 -1.444 4.285
 -0.385 -1.443 4.284
 -0.372 -1.443 4.285
 -0.359 -1.441 4.277
 -0.346 -1.442 4.281
 -0.333 -1.442 4.282
 -0.32 -1.44 4.276
 -0.307 -1.44 4.279
 -0.295 -1.442 4.283
 -0.282 -1.441 4.282
 -0.269 -1.441 4.283
 -0.257 -1.442 4.286
 -0.244 -1.441 4.284
 -0.231 -1.442 4.285
 -0.218 -1.443 4.289
 -0.206 -1.443 4.29
 -0.193 -1.441 4.285
 -0.18 -1.441 4.284
 -0.167 -1.439 4.279
 -0.154 -1.438 4.277
 -0.141 -1.438 4.275
 -0.128 -1.438 4.276
 -0.116 -1.439 4.281
 -0.103 -1.439 4.281
 -0.09 -1.438 4.277
 -0.077 -1.436 4.272
 -0.065 -1.435 4.268
 -0.052 -1.433 4.263
 -0.039 -1.432 4.259
 -0.027 -1.434 4.264
 -0.014 -1.436 4.27
 -0.001 -1.436 4.271
 0.01 -1.435 4.268
 0.023 -1.438 4.275
 0.036 -1.438 4.275
 0.049 -1.437 4.272
 0.061 -1.438 4.274
 0.074 -1.44 4.28
 0.087 -1.439 4.276
 0.1 -1.438 4.275
 0.112 -1.437 4.27
 0.125 -1.437 4.271
 0.137 -1.436 4.266
 0.15 -1.436 4.265
 0.163 -1.434 4.261
 0.175 -1.436 4.264
 0.188 -1.435 4.262
 0.201 -1.435 4.261
 0.214 -1.437 4.265
 0.226 -1.437 4.266
 0.239 -1.438 4.268
 0.252 -1.437 4.265
 0.264 -1.437 4.262
 0.277 -1.435 4.257
 0.29 -1.437 4.261
 0.302 -1.436 4.256
 0.315 -1.436 4.255
 0.328 -1.437 4.257
 0.34 -1.436 4.255
 0.353 -1.437 4.256
 0.366 -1.438 4.26
 0.379 -1.439 4.26
 0.392 -1.44 4.261
 0.405 -1.44 4.262
 0.417 -1.438 4.253
 0.429 -1.437 4.248
 0.442 -1.437 4.248
 0.455 -1.439 4.252
 0.468 -1.44 4.254
 0.482 -1.442 4.258
 0.495 -1.443 4.262
 0.508 -1.444 4.263
 0.52 -1.443 4.259
 0.533 -1.443 4.257
 0.546 -1.444 4.259
 0.559 -1.444 4.257
 0.571 -1.444 4.254
 0.584 -1.444 4.253
 0.596 -1.442 4.245
 0.609 -1.441 4.242
 0.622 -1.442 4.243
 0.634 -1.442 4.241
 0.648 -1.444 4.244
 0.661 -1.445 4.246
 0.674 -1.445 4.245
 0.687 -1.447 4.248
 0.701 -1.449 4.251
 0.714 -1.449 4.25
 0.728 -1.452 4.258
 0.742 -1.454 4.259
 0.754 -1.453 4.255
 0.767 -1.453 4.253
 0.78 -1.454 4.253
 0.793 -1.454 4.252
 0.806 -1.454 4.249
 0.82 -1.456 4.252
 0.833 -1.456 4.251
 0.846 -1.457 4.251
 0.857 -1.453 4.239
 0.87 -1.454 4.238
 0.883 -1.454 4.236
 0.898 -1.458 4.244
 0.91 -1.457 4.241
 0.925 -1.461 4.248
 0.939 -1.462 4.249
 0.952 -1.463 4.249
 0.963 -1.46 4.239
 0.977 -1.461 4.237
 0.99 -1.462 4.237
 1.004 -1.463 4.238
 1.017 -1.464 4.237
 1.031 -1.465 4.238
 1.045 -1.467 4.24
 1.057 -1.466 4.236
 1.071 -1.467 4.236
 1.084 -1.467 4.234
 1.098 -1.469 4.236
 1.11 -1.468 4.23
 1.125 -1.471 4.234
 1.137 -1.47 4.228
 1.151 -1.471 4.228
 1.164 -1.471 4.225
 1.18 -1.475 4.233
 1.193 -1.474 4.228
 1.206 -1.475 4.227
 1.219 -1.475 4.223
 1.233 -1.477 4.225
 1.247 -1.477 4.223
 1.261 -1.478 4.223
 1.275 -1.48 4.223
 1.289 -1.481 4.224
 1.302 -1.481 4.22
 1.314 -1.48 4.212
 1.329 -1.482 4.215
 1.343 -1.484 4.215
 1.358 -1.485 4.216
 1.373 -1.487 4.218
 1.389 -1.491 4.225
 1.402 -1.491 4.22
 1.417 -1.492 4.221
 1.43 -1.492 4.217
 1.445 -1.494 4.218
 1.458 -1.494 4.214
 1.473 -1.497 4.217
 1.489 -1.499 4.219
 1.503 -1.501 4.219
 1.517 -1.501 4.216
 1.532 -1.503 4.218
 1.548 -1.505 4.219
 1.56 -1.505 4.213
 1.575 -1.507 4.214
 1.59 -1.508 4.214
 1.603 -1.508 4.209
 1.617 -1.509 4.206
 1.632 -1.51 4.205
 1.645 -1.51 4.199
 1.659 -1.511 4.197
 1.674 -1.512 4.196
 1.687 -1.512 4.191
 1.702 -1.514 4.192
 1.717 -1.515 4.189
 1.731 -1.516 4.187
 1.746 -1.517 4.185
 1.76 -1.518 4.182
 1.773 -1.518 4.177
 1.79 -1.521 4.18
 1.804 -1.522 4.176
 1.82 -1.524 4.178
 1.832 -1.523 4.169
 1.844 -1.522 4.161
 1.852 -1.517 4.143
 1.858 -1.512 4.122
 1.86 -1.503 4.092
 1.867 -1.498 4.073
 1.875 -1.493 4.055
 1.877 -1.485 4.027
 1.885 -1.481 4.011
 1.891 -1.476 3.99
 1.897 -1.47 3.971
 1.897 -1.461 3.939
 0 0 0
 0 0 0
 0 0 0
 0 0 0
 0 0 0
 0 0 0
 0 0 0
 0 0 0
 0 0 0
 0 0 0
 0 0 0
 0 0 0
 0 0 0
 0 0 0
 0 0 0
 0 0 0
 0 0 0
 0 0 0
 0 0 0
 0 0 0
 0 0 0
 0 0 0
 1.818 -1.213 3.151
 1.833 -1.216 3.152
 1.847 -1.218 3.153
 1.848 -1.212 3.131
 1.853 -1.208 3.116
 1.85 -1.199 3.087
 1.83 -1.18 3.031
 1.828 -1.172 3.005
 0 0 0
 0 0 0
 -2.453 -1.593 4.248
 -2.437 -1.592 4.253
 -2.423 -1.592 4.261
 -2.405 -1.59 4.261
 -2.392 -1.591 4.271
 -2.39 -1.599 4.299
 -2.369 -1.595 4.294
 -2.355 -1.595 4.301
 -2.339 -1.594 4.306
 -2.316 -1.588 4.296
 -2.295 -1.584 4.291
 -2.282 -1.585 4.3
 -2.26 -1.579 4.292
 -2.243 -1.577 4.293
 -2.229 -1.578 4.3
 -2.216 -1.579 4.309
 -2.202 -1.578 4.314
 -2.188 -1.579 4.323
 -2.17 -1.576 4.32
 -2.155 -1.576 4.326
 -2.14 -1.575 4.33
 -2.12 -1.571 4.325
 -2.1 -1.567 4.319
 -2.088 -1.568 4.328
 -2.067 -1.563 4.321
 -2.05 -1.561 4.32
 -2.034 -1.559 4.321
 -2.017 -1.557 4.321
 -2 -1.555 4.321
 -1.985 -1.554 4.323
 -1.967 -1.552 4.321
 -1.951 -1.55 4.322
 -1.938 -1.551 4.33
 -1.921 -1.548 4.328
 -1.905 -1.547 4.329
 -1.888 -1.544 4.326
 -1.872 -1.542 4.327
 -1.856 -1.541 4.327
 -1.841 -1.54 4.329
 -1.827 -1.539 4.333
 -1.812 -1.539 4.337
 -1.795 -1.536 4.334
 -1.778 -1.533 4.331
 -1.763 -1.532 4.333
 -1.746 -1.53 4.331
 -1.73 -1.527 4.328
 -1.716 -1.528 4.333
 -1.702 -1.527 4.337
 -1.685 -1.524 4.333
 -1.669 -1.522 4.331
 -1.654 -1.522 4.335
 -1.638 -1.519 4.332
 -1.621 -1.516 4.326
 -1.605 -1.514 4.325
 -1.589 -1.512 4.324
 -1.574 -1.51 4.323
 -1.558 -1.508 4.32
 -1.543 -1.506 4.32
 -1.526 -1.504 4.316
 -1.512 -1.503 4.319
 -1.499 -1.503 4.323
 -1.486 -1.504 4.328
 -1.471 -1.502 4.327
 -1.457 -1.502 4.33
 -1.44 -1.499 4.325
 -1.423 -1.495 4.318
 -1.407 -1.492 4.312
 -1.391 -1.49 4.309
 -1.376 -1.488 4.307
 -1.362 -1.488 4.31
 -1.348 -1.486 4.31
 -1.333 -1.485 4.31
 -1.32 -1.485 4.313
 -1.305 -1.484 4.313
 -1.289 -1.48 4.306
 -1.275 -1.48 4.307
 -1.261 -1.479 4.309
 -1.247 -1.478 4.308
 -1.231 -1.475 4.304
 -1.219 -1.476 4.31
 -1.204 -1.474 4.307
 -1.19 -1.473 4.306
 -1.175 -1.472 4.305
 -1.163 -1.472 4.31
 -1.147 -1.469 4.304
 -1.132 -1.468 4.301
 -1.117 -1.465 4.297
 -1.104 -1.464 4.297
 -1.089 -1.462 4.293
 -1.075 -1.461 4.293
 -1.062 -1.462 4.298
 -1.049 -1.462 4.299
 -1.035 -1.46 4.298
 -1.021 -1.459 4.297
 -1.008 -1.459 4.299
 -0.994 -1.457 4.297
 -0.979 -1.455 4.293
 -0.965 -1.454 4.292
 -0.952 -1.453 4.292
 -0.938 -1.453 4.293
 -0.925 -1.452 4.293
 -0.913 -1.454 4.299
 -0.9 -1.455 4.305
 -0.887 -1.455 4.309
 -0.874 -1.454 4.307
 -0.86 -1.453 4.305
 -0.846 -1.451 4.302
 -0.832 -1.45 4.299
 -0.818 -1.448 4.298
 -0.805 -1.448 4.299
 -0.792 -1.449 4.302
 -0.779 -1.448 4.301
 -0.765 -1.446 4.298
 -0.751 -1.445 4.296
 -0.737 -1.443 4.293
 -0.724 -1.442 4.29
 -0.71 -1.441 4.29
 -0.697 -1.441 4.29
 -0.684 -1.439 4.287
 -0.671 -1.438 4.287
 -0.657 -1.438 4.286
 -0.644 -1.437 4.286
 -0.631 -1.437 4.287
 -0.618 -1.436 4.286
 -0.605 -1.436 4.288
 -0.592 -1.436 4.287
 -0.579 -1.434 4.284
 -0.566 -1.434 4.284
 -0.553 -1.435 4.287
 -0.539 -1.433 4.283
 -0.526 -1.432 4.282
 -0.514 -1.433 4.286
 -0.5 -1.43 4.278
 -0.487 -1.429 4.275
 -0.474 -1.43 4.281
 -0.461 -1.429 4.277
 -0.448 -1.429 4.28
 -0.436 -1.431 4.286
 -0.424 -1.433 4.291
 -0.41 -1.429 4.283
 -0.398 -1.43 4.286
 -0.385 -1.43 4.285
 -0.372 -1.43 4.286
 -0.358 -1.427 4.279
 -0.346 -1.428 4.281
 -0.333 -1.427 4.279
 -0.319 -1.425 4.274
 -0.307 -1.425 4.274
 -0.294 -1.425 4.276
 -0.281 -1.426 4.278
 -0.269 -1.426 4.28
 -0.256 -1.428 4.285
 -0.243 -1.428 4.285
 -0.231 -1.428 4.287
 -0.218 -1.428 4.288
 -0.205 -1.428 4.287
 -0.192 -1.427 4.286
 -0.18 -1.427 4.284
 -0.167 -1.426 4.281
 -0.154 -1.426 4.283
 -0.141 -1.426 4.282
 -0.128 -1.425 4.279
 -0.116 -1.426 4.284
 -0.103 -1.426 4.282
 -0.09 -1.424 4.278
 -0.077 -1.422 4.272
 -0.065 -1.422 4.27
 -0.052 -1.42 4.265
 -0.039 -1.419 4.262
 -0.026 -1.42 4.263
 -0.014 -1.422 4.271
 -0.001 -1.421 4.268
 0.011 -1.42 4.264
 0.023 -1.422 4.271
 0.036 -1.422 4.27
 0.049 -1.421 4.267
 0.061 -1.424 4.274
 0.074 -1.424 4.275
 0.087 -1.423 4.271
 0.099 -1.422 4.268
 0.112 -1.421 4.264
 0.125 -1.421 4.264
 0.137 -1.42 4.261
 0.15 -1.422 4.265
 0.163 -1.422 4.266
 0.176 -1.423 4.268
 0.188 -1.423 4.266
 0.201 -1.423 4.265
 0.214 -1.423 4.265
 0.226 -1.422 4.262
 0.239 -1.422 4.262
 0.252 -1.423 4.263
 0.264 -1.421 4.257
 0.276 -1.42 4.253
 0.289 -1.422 4.258
 0.302 -1.422 4.256
 0.315 -1.421 4.253
 0.328 -1.423 4.259
 0.34 -1.423 4.257
 0.353 -1.424 4.259
 0.366 -1.426 4.263
 0.379 -1.426 4.264
 0.392 -1.426 4.261
 0.405 -1.427 4.263
 0.417 -1.425 4.255
 0.429 -1.423 4.248
 0.442 -1.423 4.248
 0.455 -1.424 4.25
 0.468 -1.426 4.253
 0.481 -1.426 4.252
 0.494 -1.428 4.257
 0.507 -1.428 4.256
 0.519 -1.428 4.255
 0.532 -1.427 4.25
 0.545 -1.428 4.253
 0.557 -1.427 4.249
 0.57 -1.427 4.245
 0.583 -1.428 4.247
 0.595 -1.428 4.244
 0.609 -1.429 4.245
 0.621 -1.429 4.244
 0.634 -1.428 4.24
 0.647 -1.429 4.24
 0.66 -1.43 4.243
 0.673 -1.43 4.241
 0.687 -1.433 4.248
 0.701 -1.436 4.254
 0.714 -1.437 4.256
 0.728 -1.439 4.26
 0.742 -1.441 4.262
 0.754 -1.44 4.258
 0.767 -1.439 4.254
 0.779 -1.438 4.249
 0.792 -1.439 4.249
 0.804 -1.438 4.245
 0.818 -1.439 4.246
 0.831 -1.441 4.247
 0.844 -1.441 4.248
 0.856 -1.44 4.24
 0.869 -1.44 4.238
 0.883 -1.441 4.241
 0.897 -1.444 4.246
 0.91 -1.444 4.243
 0.924 -1.446 4.246
 0.938 -1.448 4.249
 0.952 -1.449 4.249
 0.963 -1.446 4.239
 0.976 -1.447 4.239
 0.989 -1.448 4.238
 1.003 -1.448 4.238
 1.015 -1.448 4.233
 1.03 -1.451 4.238
 1.044 -1.452 4.239
 1.057 -1.452 4.237
 1.07 -1.453 4.236
 1.083 -1.453 4.235
 1.097 -1.454 4.235
 1.109 -1.453 4.227
 1.123 -1.454 4.228
 1.136 -1.455 4.226
 1.15 -1.456 4.226
 1.163 -1.457 4.225
 1.179 -1.461 4.233
 1.192 -1.46 4.23
 1.205 -1.461 4.227
 1.218 -1.461 4.224
 1.232 -1.462 4.224
 1.247 -1.464 4.226
 1.261 -1.465 4.226
 1.275 -1.467 4.228
 1.29 -1.469 4.229
 1.302 -1.467 4.222
 1.314 -1.466 4.215
 1.328 -1.468 4.217
 1.342 -1.469 4.215
 1.356 -1.47 4.215
 1.373 -1.474 4.222
 1.388 -1.477 4.226
 1.401 -1.477 4.222
 1.416 -1.479 4.224
 1.43 -1.479 4.221
 1.443 -1.479 4.217
 1.456 -1.479 4.212
 1.472 -1.482 4.216
 1.485 -1.482 4.213
 1.5 -1.484 4.213
 1.514 -1.485 4.213
 1.531 -1.488 4.217
 1.545 -1.49 4.217
 1.56 -1.491 4.215
 1.576 -1.494 4.219
 1.59 -1.495 4.217
 1.603 -1.494 4.212
 1.618 -1.496 4.211
 1.632 -1.497 4.21
 1.645 -1.497 4.205
 1.661 -1.499 4.206
 1.676 -1.5 4.205
 1.689 -1.5 4.2
 1.704 -1.502 4.199
 1.717 -1.502 4.195
 1.731 -1.502 4.191
 1.745 -1.503 4.187
 1.759 -1.504 4.184
 1.772 -1.504 4.179
 1.789 -1.507 4.182
 1.804 -1.508 4.18
 1.821 -1.511 4.184
 1.832 -1.509 4.174
 1.844 -1.508 4.165
 1.852 -1.504 4.149
 1.858 -1.498 4.126
 1.861 -1.49 4.098
 1.869 -1.486 4.081
 1.878 -1.482 4.066
 1.88 -1.474 4.038
 1.891 -1.472 4.027
 1.899 -1.468 4.011
 1.911 -1.468 4.004
 0 0 0
 0 0 0
 0 0 0
 0 0 0
 0 0 0
 0 0 0
 0 0 0
 0 0 0
 0 0 0
 0 0 0
 0 0 0
 0 0 0
 0 0 0
 0 0 0
 0 0 0
 0 0 0
 0 0 0
 0 0 0
 0 0 0
 0 0 0
 0 0 0
 0 0 0
 0 0 0
 1.82 -1.204 3.158
 1.834 -1.206 3.157
 1.845 -1.206 3.153
 1.847 -1.201 3.133
 1.851 -1.196 3.116
 1.847 -1.187 3.086
 1.824 -1.166 3.025
 1.788 -1.137 2.943
 -2.491 -1.584 4.255
 -2.511 -1.606 4.321
 -2.476 -1.594 4.294
 -2.454 -1.589 4.287
 -2.442 -1.59 4.299
 -2.421 -1.586 4.294
 -2.408 -1.587 4.305
 -2.4 -1.591 4.322
 -2.38 -1.588 4.319
 -2.367 -1.589 4.329
 -2.355 -1.591 4.34
 -2.334 -1.586 4.335
 -2.311 -1.58 4.325
 -2.298 -1.581 4.335
 -2.275 -1.575 4.325
 -2.257 -1.573 4.324
 -2.242 -1.573 4.33
 -2.226 -1.571 4.333
 -2.212 -1.572 4.34
 -2.194 -1.569 4.34
 -2.175 -1.565 4.335
 -2.158 -1.564 4.337
 -2.144 -1.564 4.342
 -2.123 -1.559 4.334
 -2.105 -1.556 4.333
 -2.092 -1.557 4.341
 -2.071 -1.552 4.334
 -2.053 -1.549 4.331
 -2.036 -1.547 4.331
 -2.018 -1.544 4.328
 -2 -1.541 4.324
 -1.982 -1.538 4.323
 -1.967 -1.537 4.324
 -1.949 -1.535 4.323
 -1.936 -1.535 4.33
 -1.92 -1.533 4.33
 -1.905 -1.532 4.332
 -1.888 -1.53 4.33
 -1.873 -1.529 4.333
 -1.857 -1.527 4.333
 -1.843 -1.527 4.338
 -1.827 -1.526 4.339
 -1.812 -1.525 4.34
 -1.794 -1.521 4.336
 -1.778 -1.519 4.335
 -1.761 -1.517 4.333
 -1.746 -1.516 4.334
 -1.729 -1.513 4.331
 -1.716 -1.514 4.339
 -1.702 -1.514 4.343
 -1.686 -1.511 4.339
 -1.67 -1.509 4.338
 -1.656 -1.509 4.342
 -1.639 -1.507 4.339
 -1.62 -1.502 4.33
 -1.605 -1.5 4.328
 -1.588 -1.497 4.324
 -1.572 -1.495 4.321
 -1.554 -1.491 4.315
 -1.54 -1.49 4.316
 -1.524 -1.488 4.315
 -1.511 -1.488 4.319
 -1.497 -1.489 4.323
 -1.484 -1.488 4.327
 -1.468 -1.487 4.326
 -1.454 -1.486 4.327
 -1.438 -1.483 4.323
 -1.422 -1.481 4.319
 -1.406 -1.478 4.315
 -1.391 -1.476 4.312
 -1.375 -1.474 4.31
 -1.362 -1.474 4.312
 -1.347 -1.472 4.312
 -1.332 -1.471 4.311
 -1.318 -1.47 4.312
 -1.303 -1.468 4.31
 -1.288 -1.466 4.306
 -1.274 -1.465 4.307
 -1.26 -1.465 4.31
 -1.246 -1.464 4.311
 -1.231 -1.462 4.308
 -1.218 -1.462 4.312
 -1.203 -1.46 4.308
 -1.189 -1.459 4.307
 -1.174 -1.457 4.306
 -1.162 -1.458 4.31
 -1.147 -1.456 4.306
 -1.132 -1.454 4.303
 -1.117 -1.451 4.298
 -1.103 -1.451 4.3
 -1.089 -1.449 4.297
 -1.075 -1.448 4.297
 -1.062 -1.448 4.299
 -1.048 -1.448 4.301
 -1.034 -1.446 4.299
 -1.021 -1.446 4.301
 -1.007 -1.445 4.302
 -0.994 -1.445 4.302
 -0.979 -1.443 4.298
 -0.965 -1.441 4.295
 -0.95 -1.439 4.291
 -0.937 -1.438 4.292
 -0.923 -1.437 4.29
 -0.911 -1.438 4.295
 -0.898 -1.439 4.3
 -0.886 -1.44 4.304
 -0.872 -1.438 4.301
 -0.858 -1.437 4.301
 -0.845 -1.437 4.302
 -0.831 -1.436 4.301
 -0.818 -1.435 4.299
 -0.804 -1.434 4.298
 -0.791 -1.433 4.298
 -0.777 -1.432 4.297
 -0.763 -1.431 4.294
 -0.75 -1.43 4.294
 -0.737 -1.429 4.294
 -0.724 -1.429 4.295
 -0.71 -1.428 4.292
 -0.697 -1.427 4.293
 -0.684 -1.426 4.291
 -0.67 -1.426 4.29
 -0.657 -1.424 4.288
 -0.644 -1.424 4.288
 -0.631 -1.423 4.288
 -0.618 -1.423 4.287
 -0.605 -1.423 4.289
 -0.592 -1.422 4.288
 -0.579 -1.422 4.288
 -0.566 -1.421 4.289
 -0.553 -1.421 4.289
 -0.539 -1.42 4.285
 -0.526 -1.419 4.284
 -0.513 -1.418 4.283
 -0.499 -1.415 4.274
 -0.486 -1.414 4.274
 -0.474 -1.415 4.278
 -0.461 -1.415 4.278
 -0.448 -1.416 4.283
 -0.437 -1.42 4.294
 -0.424 -1.421 4.298
 -0.411 -1.419 4.292
 -0.398 -1.419 4.294
 -0.385 -1.419 4.295
 -0.372 -1.418 4.292
 -0.359 -1.415 4.286
 -0.346 -1.415 4.286
 -0.333 -1.414 4.282
 -0.319 -1.411 4.274
 -0.307 -1.411 4.276
 -0.294 -1.412 4.278
 -0.281 -1.413 4.281
 -0.269 -1.414 4.284
 -0.256 -1.414 4.286
 -0.243 -1.413 4.283
 -0.23 -1.413 4.285
 -0.218 -1.413 4.284
 -0.205 -1.412 4.281
 -0.192 -1.412 4.282
 -0.179 -1.411 4.28
 -0.166 -1.411 4.279
 -0.154 -1.411 4.28
 -0.141 -1.412 4.281
 -0.128 -1.41 4.277
 -0.116 -1.413 4.284
 -0.103 -1.411 4.278
 -0.09 -1.41 4.276
 -0.077 -1.408 4.27
 -0.065 -1.408 4.271
 -0.052 -1.407 4.268
 -0.039 -1.406 4.263
 -0.026 -1.406 4.264
 -0.014 -1.409 4.272
 -0.001 -1.407 4.267
 0.011 -1.406 4.265
 0.023 -1.409 4.273
 0.036 -1.409 4.271
 0.049 -1.407 4.267
 0.061 -1.409 4.271
 0.074 -1.409 4.27
 0.087 -1.409 4.27
 0.099 -1.409 4.27
 0.112 -1.408 4.266
 0.125 -1.408 4.268
 0.137 -1.408 4.265
 0.15 -1.408 4.265
 0.163 -1.408 4.264
 0.175 -1.409 4.267
 0.188 -1.408 4.263
 0.201 -1.407 4.261
 0.213 -1.408 4.264
 0.226 -1.408 4.262
 0.239 -1.409 4.263
 0.252 -1.41 4.267
 0.264 -1.41 4.265
 0.277 -1.408 4.258
 0.289 -1.408 4.258
 0.302 -1.408 4.255
 0.315 -1.408 4.255
 0.328 -1.409 4.259
 0.34 -1.408 4.255
 0.353 -1.41 4.259
 0.366 -1.41 4.259
 0.379 -1.411 4.259
 0.391 -1.41 4.256
 0.405 -1.413 4.264
 0.417 -1.411 4.256
 0.429 -1.409 4.25
 0.442 -1.41 4.25
 0.454 -1.41 4.251
 0.467 -1.41 4.248
 0.48 -1.411 4.251
 0.494 -1.414 4.257
 0.506 -1.414 4.255
 0.519 -1.415 4.257
 0.531 -1.413 4.249
 0.544 -1.413 4.25
 0.557 -1.412 4.246
 0.569 -1.412 4.243
 0.582 -1.412 4.242
 0.595 -1.414 4.244
 0.608 -1.414 4.244
 0.621 -1.415 4.245
 0.633 -1.414 4.241
 0.647 -1.416 4.243
 0.66 -1.416 4.243
 0.673 -1.417 4.244
 0.687 -1.42 4.252
 0.701 -1.423 4.258
 0.715 -1.424 4.261
 0.729 -1.427 4.266
 0.742 -1.429 4.269
 0.754 -1.426 4.26
 0.766 -1.425 4.255
 0.778 -1.424 4.25
 0.791 -1.425 4.25
 0.804 -1.424 4.245
 0.817 -1.425 4.245
 0.83 -1.425 4.243
 0.843 -1.426 4.243
 0.855 -1.424 4.237
 0.867 -1.424 4.233
 0.882 -1.426 4.238
 0.897 -1.43 4.246
 0.91 -1.431 4.246
 0.923 -1.432 4.246
 0.938 -1.434 4.251
 0.951 -1.435 4.249
 0.961 -1.431 4.235
 0.974 -1.431 4.234
 0.987 -1.432 4.233
 1.001 -1.433 4.232
 1.013 -1.431 4.226
 1.028 -1.435 4.233
 1.042 -1.437 4.236
 1.056 -1.438 4.238
 1.07 -1.439 4.238
 1.084 -1.442 4.242
 1.098 -1.443 4.242
 1.11 -1.441 4.235
 1.123 -1.442 4.234
 1.136 -1.442 4.232
 1.15 -1.443 4.23
 1.163 -1.443 4.227
 1.178 -1.446 4.233
 1.191 -1.446 4.231
 1.205 -1.447 4.228
 1.218 -1.447 4.226
 1.233 -1.45 4.231
 1.247 -1.452 4.232
 1.261 -1.452 4.231
 1.276 -1.454 4.232
 1.289 -1.455 4.23
 1.301 -1.454 4.224
 1.314 -1.453 4.218
 1.328 -1.454 4.218
 1.341 -1.455 4.216
 1.356 -1.456 4.217
 1.37 -1.458 4.217
 1.384 -1.459 4.217
 1.398 -1.46 4.216
 1.413 -1.462 4.219
 1.428 -1.464 4.219
 1.442 -1.465 4.219
 1.456 -1.466 4.218
 1.472 -1.469 4.22
 1.486 -1.469 4.218
 1.5 -1.471 4.218
 1.515 -1.472 4.218
 1.531 -1.475 4.221
 1.545 -1.476 4.219
 1.559 -1.477 4.218
 1.576 -1.48 4.222
 1.589 -1.481 4.219
 1.602 -1.481 4.214
 1.616 -1.481 4.211
 1.631 -1.483 4.211
 1.643 -1.481 4.203
 1.658 -1.483 4.204
 1.674 -1.486 4.205
 1.688 -1.486 4.203
 1.703 -1.488 4.201
 1.717 -1.489 4.199
 1.731 -1.489 4.194
 1.743 -1.488 4.187
 1.757 -1.489 4.184
 1.771 -1.489 4.179
 1.787 -1.491 4.181
 1.802 -1.493 4.181
 1.819 -1.496 4.183
 1.831 -1.495 4.175
 1.843 -1.494 4.166
 1.852 -1.49 4.152
 1.857 -1.484 4.128
 1.861 -1.477 4.102
 1.869 -1.473 4.086
 1.878 -1.469 4.07
 1.881 -1.462 4.045
 1.891 -1.459 4.032
 1.897 -1.454 4.012
 0 0 0
 0 0 0
 0 0 0
 0 0 0
 0 0 0
 0 0 0
 0 0 0
 0 0 0
 0 0 0
 0 0 0
 0 0 0
 0 0 0
 0 0 0
 0 0 0
 0 0 0
 0 0 0
 0 0 0
 0 0 0
 0 0 0
 0 0 0
 0 0 0
 0 0 0
 0 0 0
 0 0 0
 1.823 -1.195 3.166
 1.831 -1.193 3.156
 1.844 -1.194 3.154
 1.847 -1.19 3.135
 1.85 -1.185 3.118
 1.847 -1.176 3.089
 1.858 -1.177 3.085
 1.862 -1.173 3.069
 0 0 0
 0 0 0
 -2.493 -1.59 4.328
 -2.475 -1.588 4.329
 -2.456 -1.585 4.328
 -2.435 -1.581 4.324
 -2.413 -1.576 4.318
 -2.402 -1.578 4.33
 -2.383 -1.575 4.33
 -2.372 -1.578 4.343
 -2.36 -1.579 4.354
 -2.337 -1.574 4.346
 -2.317 -1.57 4.341
 -2.301 -1.569 4.345
 -2.278 -1.563 4.336
 -2.259 -1.56 4.333
 -2.245 -1.56 4.341
 -2.226 -1.557 4.337
 -2.213 -1.558 4.348
 -2.194 -1.555 4.343
 -2.177 -1.553 4.344
 -2.161 -1.552 4.346
 -2.146 -1.551 4.351
 -2.124 -1.546 4.343
 -2.109 -1.545 4.346
 -2.095 -1.546 4.353
 -2.073 -1.539 4.341
 -2.055 -1.536 4.339
 -2.039 -1.535 4.34
 -2.02 -1.531 4.336
 -2 -1.527 4.329
 -1.985 -1.527 4.334
 -1.968 -1.524 4.333
 -1.951 -1.522 4.33
 -1.936 -1.521 4.334
 -1.92 -1.519 4.334
 -1.904 -1.518 4.334
 -1.887 -1.515 4.333
 -1.873 -1.515 4.337
 -1.858 -1.514 4.34
 -1.842 -1.513 4.342
 -1.826 -1.511 4.341
 -1.811 -1.51 4.343
 -1.793 -1.507 4.339
 -1.776 -1.504 4.335
 -1.761 -1.503 4.338
 -1.746 -1.502 4.339
 -1.728 -1.499 4.333
 -1.714 -1.499 4.338
 -1.701 -1.499 4.344
 -1.684 -1.496 4.34
 -1.668 -1.495 4.339
 -1.654 -1.494 4.343
 -1.638 -1.492 4.34
 -1.62 -1.488 4.333
 -1.604 -1.486 4.33
 -1.587 -1.483 4.327
 -1.572 -1.481 4.325
 -1.556 -1.479 4.323
 -1.539 -1.476 4.319
 -1.524 -1.474 4.318
 -1.511 -1.475 4.323
 -1.496 -1.474 4.324
 -1.481 -1.472 4.323
 -1.466 -1.471 4.323
 -1.452 -1.471 4.326
 -1.435 -1.467 4.318
 -1.421 -1.466 4.319
 -1.406 -1.464 4.318
 -1.391 -1.463 4.317
 -1.375 -1.46 4.314
 -1.362 -1.46 4.316
 -1.346 -1.458 4.314
 -1.332 -1.457 4.314
 -1.318 -1.456 4.314
 -1.303 -1.455 4.314
 -1.288 -1.453 4.312
 -1.276 -1.454 4.317
 -1.262 -1.454 4.32
 -1.248 -1.453 4.321
 -1.232 -1.45 4.316
 -1.219 -1.45 4.318
 -1.203 -1.446 4.311
 -1.188 -1.444 4.307
 -1.174 -1.443 4.307
 -1.161 -1.444 4.312
 -1.146 -1.442 4.307
 -1.132 -1.441 4.307
 -1.117 -1.438 4.302
 -1.103 -1.437 4.303
 -1.089 -1.437 4.303
 -1.075 -1.435 4.302
 -1.061 -1.434 4.3
 -1.048 -1.434 4.303
 -1.033 -1.431 4.298
 -1.019 -1.431 4.299
 -1.007 -1.431 4.302
 -0.993 -1.431 4.305
 -0.979 -1.43 4.302
 -0.965 -1.428 4.301
 -0.951 -1.426 4.296
 -0.937 -1.425 4.295
 -0.923 -1.423 4.292
 -0.91 -1.424 4.297
 -0.898 -1.425 4.3
 -0.885 -1.425 4.304
 -0.871 -1.424 4.303
 -0.858 -1.424 4.304
 -0.845 -1.424 4.307
 -0.832 -1.424 4.308
 -0.818 -1.422 4.304
 -0.803 -1.42 4.299
 -0.789 -1.417 4.294
 -0.776 -1.416 4.291
 -0.762 -1.415 4.29
 -0.749 -1.415 4.292
 -0.736 -1.415 4.295
 -0.724 -1.417 4.301
 -0.709 -1.413 4.291
 -0.696 -1.412 4.29
 -0.682 -1.411 4.287
 -0.669 -1.41 4.285
 -0.655 -1.408 4.28
 -0.643 -1.409 4.285
 -0.63 -1.408 4.285
 -0.616 -1.407 4.284
 -0.604 -1.409 4.289
 -0.591 -1.408 4.289
 -0.578 -1.407 4.286
 -0.565 -1.407 4.289
 -0.552 -1.407 4.288
 -0.538 -1.404 4.28
 -0.525 -1.403 4.278
 -0.512 -1.404 4.283
 -0.498 -1.4 4.273
 -0.485 -1.4 4.272
 -0.473 -1.402 4.279
 -0.461 -1.402 4.28
 -0.448 -1.402 4.282
 -0.436 -1.406 4.294
 -0.424 -1.408 4.301
 -0.411 -1.407 4.301
 -0.398 -1.408 4.302
 -0.385 -1.407 4.301
 -0.372 -1.404 4.294
 -0.358 -1.401 4.285
 -0.345 -1.4 4.283
 -0.332 -1.4 4.283
 -0.319 -1.397 4.275
 -0.306 -1.398 4.278
 -0.294 -1.398 4.279
 -0.281 -1.399 4.281
 -0.268 -1.398 4.28
 -0.256 -1.399 4.283
 -0.243 -1.399 4.281
 -0.23 -1.399 4.283
 -0.217 -1.399 4.283
 -0.205 -1.399 4.284
 -0.192 -1.399 4.285
 -0.179 -1.399 4.284
 -0.166 -1.399 4.283
 -0.154 -1.398 4.282
 -0.141 -1.398 4.282
 -0.128 -1.395 4.274
 -0.115 -1.397 4.28
 -0.102 -1.395 4.272
 -0.09 -1.394 4.27
 -0.077 -1.392 4.264
 -0.064 -1.394 4.269
 -0.052 -1.393 4.266
 -0.039 -1.393 4.267
 -0.026 -1.394 4.271
 -0.014 -1.397 4.278
 -0.001 -1.395 4.272
 0.011 -1.394 4.27
 0.023 -1.396 4.274
 0.036 -1.394 4.27
 0.049 -1.393 4.266
 0.061 -1.394 4.269
 0.074 -1.393 4.266
 0.087 -1.394 4.268
 0.099 -1.395 4.269
 0.112 -1.393 4.264
 0.125 -1.393 4.264
 0.137 -1.394 4.265
 0.15 -1.394 4.265
 0.163 -1.394 4.265
 0.176 -1.396 4.271
 0.188 -1.395 4.268
 0.201 -1.395 4.266
 0.213 -1.396 4.267
 0.226 -1.395 4.265
 0.239 -1.396 4.265
 0.252 -1.396 4.267
 0.264 -1.395 4.263
 0.276 -1.393 4.256
 0.289 -1.393 4.254
 0.302 -1.393 4.254
 0.314 -1.392 4.251
 0.327 -1.395 4.258
 0.339 -1.392 4.249
 0.352 -1.394 4.251
 0.365 -1.394 4.25
 0.378 -1.395 4.254
 0.39 -1.394 4.248
 0.404 -1.397 4.259
 0.416 -1.396 4.253
 0.428 -1.395 4.248
 0.441 -1.395 4.248
 0.454 -1.397 4.252
 0.467 -1.397 4.251
 0.48 -1.397 4.251
 0.493 -1.4 4.257
 0.506 -1.401 4.259
 0.519 -1.401 4.257
 0.531 -1.399 4.249
 0.544 -1.4 4.252
 0.556 -1.398 4.245
 0.568 -1.397 4.238
 0.581 -1.397 4.238
 0.595 -1.4 4.244
 0.608 -1.4 4.245
 0.62 -1.4 4.243
 0.633 -1.401 4.242
 0.647 -1.403 4.247
 0.66 -1.403 4.246
 0.673 -1.404 4.248
 0.688 -1.408 4.258
 0.701 -1.41 4.262
 0.714 -1.411 4.261
 0.728 -1.412 4.264
 0.741 -1.413 4.264
 0.753 -1.411 4.256
 0.765 -1.41 4.252
 0.777 -1.409 4.245
 0.79 -1.41 4.245
 0.803 -1.41 4.243
 0.815 -1.41 4.241
 0.829 -1.411 4.242
 0.843 -1.413 4.245
 0.855 -1.412 4.241
 0.867 -1.411 4.236
 0.881 -1.413 4.239
 0.896 -1.416 4.245
 0.908 -1.415 4.242
 0.922 -1.416 4.241
 0.936 -1.418 4.245
 0.949 -1.419 4.245
 0.959 -1.415 4.232
 0.974 -1.417 4.235
 0.987 -1.419 4.236
 1.001 -1.42 4.238
 1.014 -1.42 4.233
 1.029 -1.423 4.241
 1.042 -1.424 4.24
 1.056 -1.424 4.239
 1.068 -1.424 4.234
 1.083 -1.427 4.24
 1.096 -1.427 4.238
 1.108 -1.425 4.23
