1.095 -1.647 3.92
1.128 -1.659 3.942
1.148 -1.652 3.919
1.163 -1.639 3.882
1.194 -1.648 3.896
1.221 -1.652 3.898
1.251 -1.658 3.907
1.28 -1.665 3.914
1.29 -1.646 3.863
1.324 -1.658 3.883
1.339 -1.646 3.846
1.376 -1.661 3.875
1.392 -1.651 3.843
1.425 -1.661 3.858
1.436 -1.645 3.813
1.456 -1.64 3.792
1.5 -1.662 3.835
1.498 -1.633 3.759
1.543 -1.655 3.8
1.555 -1.642 3.762
1.583 -1.645 3.76
1.621 -1.66 3.783
1.649 -1.664 3.782
1.688 -1.677 3.803
1.683 -1.648 3.726
1.714 -1.654 3.731
1.747 -1.662 3.739
1.736 -1.63 3.654
1.684 -1.559 3.485
1.731 -1.58 3.523
1.754 -1.581 3.512
1.759 -1.564 3.466
1.75 -1.536 3.392
1.748 -1.515 3.335
0 0 0
1.682 -1.421 3.107
1.705 -1.423 3.1
1.675 -1.381 2.999
1.681 -1.369 2.963
1.674 -1.347 2.905
1.674 -1.331 2.86
1.648 -1.296 2.774
1.652 -1.284 2.738
1.656 -1.273 2.704
1.672 -1.271 2.689
-2.086 -1.579 3.483
-2.111 -1.616 3.578
-2.095 -1.623 3.606
-2.099 -1.646 3.669
-2.067 -1.641 3.669
-1.992 -1.601 3.591
-1.994 -1.622 3.651
-1.966 -1.62 3.658
-1.952 -1.629 3.689
-1.913 -1.618 3.674
-1.918 -1.643 3.743
-1.886 -1.637 3.74
-1.876 -1.651 3.782
-1.806 -1.611 3.701
-1.786 -1.615 3.72
-1.772 -1.625 3.754
-1.748 -1.626 3.766
-1.727 -1.629 3.783
-1.713 -1.64 3.819
-1.662 -1.615 3.769
-1.655 -1.632 3.82
-1.63 -1.633 3.83
-1.594 -1.621 3.811
-1.582 -1.635 3.852
-1.543 -1.621 3.827
-1.525 -1.628 3.853
-1.481 -1.607 3.812
-1.455 -1.606 3.817
-1.472 -1.652 3.936
-1.418 -1.62 3.866
-1.39 -1.616 3.865
-1.379 -1.632 3.911
-1.349 -1.626 3.903
-1.313 -1.613 3.879
-1.306 -1.634 3.937
-1.284 -1.638 3.953
-1.258 -1.637 3.958
-1.236 -1.641 3.974
-1.183 -1.604 3.89
-1.147 -1.588 3.858
-1.151 -1.628 3.96
-1.131 -1.636 3.985
-1.078 -1.594 3.89
-1.066 -1.613 3.94
-1.056 -1.635 4
-1.015 -1.61 3.944
-1 -1.626 3.988
-0.969 -1.616 3.969
-0.948 -1.621 3.986
-0.915 -1.608 3.958
-0.895 -1.616 3.983
-0.875 -1.624 4.007
-0.85 -1.623 4.009
-0.818 -1.609 3.979
-0.795 -1.614 3.994
-0.772 -1.617 4.006
-0.75 -1.622 4.023
-0.717 -1.603 3.98
-0.701 -1.623 4.033
-0.67 -1.609 4
-0.658 -1.638 4.077
-0.624 -1.615 4.022
-0.6 -1.617 4.03
-0.576 -1.619 4.038
-0.549 -1.614 4.026
-0.527 -1.62 4.045
-0.495 -1.596 3.988
-0.471 -1.599 3.997
-0.452 -1.617 4.044
-0.433 -1.639 4.101
-0.406 -1.631 4.083
-0.38 -1.627 4.075
-0.357 -1.637 4.101
-0.328 -1.616 4.05
-0.304 -1.617 4.055
-0.284 -1.643 4.12
-0.258 -1.635 4.103
-0.235 -1.654 4.151
-0.209 -1.642 4.121
-0.182 -1.627 4.083
-0.157 -1.625 4.079
-0.133 -1.63 4.093
-0.107 -1.623 4.074
-0.083 -1.622 4.074
-0.058 -1.611 4.046
-0.034 -1.636 4.107
-0.009 -1.625 4.079
0.015 -1.642 4.121
0.04 -1.623 4.075
0.064 -1.609 4.038
0.089 -1.625 4.078
0.113 -1.62 4.066
0.138 -1.616 4.053
0.163 -1.628 4.083
0.187 -1.616 4.052
0.213 -1.63 4.084
0.237 -1.626 4.073
0.261 -1.624 4.067
0.285 -1.618 4.051
0.309 -1.616 4.044
0.336 -1.626 4.068
0.356 -1.606 4.013
0.382 -1.615 4.035
0.409 -1.625 4.057
0.441 -1.652 4.123
0.454 -1.61 4.013
0.482 -1.622 4.043
0.507 -1.622 4.038
0.536 -1.635 4.068
0.565 -1.647 4.096
0.582 -1.625 4.038
0.61 -1.634 4.057
0.632 -1.628 4.037
0.655 -1.624 4.023
0.682 -1.63 4.034
0.708 -1.632 4.037
0.74 -1.648 4.071
0.755 -1.627 4.017
0.784 -1.636 4.033
0.812 -1.643 4.046
0.829 -1.629 4.006
0.857 -1.634 4.014
0.89 -1.65 4.049
0.914 -1.648 4.039
0.936 -1.643 4.021
0.963 -1.646 4.023
0.991 -1.652 4.032
1.012 -1.645 4.01
1.034 -1.64 3.992
1.052 -1.631 3.964
1.077 -1.631 3.958
1.112 -1.646 3.987
1.129 -1.636 3.956
1.161 -1.645 3.973
1.19 -1.651 3.979
1.205 -1.637 3.94
1.26 -1.678 4.031
1.267 -1.655 3.967
1.293 -1.656 3.963
1.32 -1.658 3.961
1.327 -1.636 3.899
1.379 -1.67 3.972
1.396 -1.66 3.941
1.395 -1.63 3.861
1.439 -1.652 3.905
1.452 -1.638 3.864
1.485 -1.647 3.876
1.504 -1.641 3.854
1.554 -1.668 3.907
1.55 -1.637 3.827
1.577 -1.64 3.822
1.607 -1.645 3.826
1.628 -1.642 3.808
1.628 -1.618 3.742
1.665 -1.63 3.761
1.689 -1.629 3.75
1.753 -1.666 3.825
1.758 -1.648 3.772
1.758 -1.625 3.708
1.771 -1.615 3.674
1.716 -1.544 3.502
1.766 -1.567 3.545
1.739 -1.523 3.434
1.769 -1.529 3.438
0 0 0
0 0 0
1.683 -1.401 3.117
1.719 -1.413 3.134
1.688 -1.371 3.03
1.674 -1.343 2.959
1.688 -1.339 2.938
1.668 -1.307 2.859
1.67 -1.293 2.818
1.684 -1.289 2.798
1.67 -1.264 2.733
1.64 -1.228 2.645
-2.204 -1.642 3.69
-2.067 -1.558 3.513
-2.121 -1.619 3.662
-2.1 -1.621 3.68
-2.077 -1.624 3.698
-2.052 -1.624 3.711
-2.03 -1.626 3.727
-2.003 -1.625 3.737
-1.979 -1.626 3.751
-1.953 -1.626 3.761
-1.93 -1.628 3.777
-1.903 -1.627 3.785
-1.879 -1.628 3.798
-1.853 -1.627 3.807
-1.828 -1.627 3.818
-1.799 -1.624 3.821
-1.773 -1.624 3.831
-1.748 -1.624 3.839
-1.722 -1.624 3.849
-1.696 -1.623 3.858
-1.671 -1.623 3.867
-1.645 -1.622 3.873
-1.62 -1.623 3.884
-1.594 -1.623 3.892
-1.568 -1.622 3.899
-1.541 -1.62 3.903
-1.517 -1.621 3.914
-1.49 -1.619 3.918
-1.463 -1.617 3.92
-1.438 -1.617 3.928
-1.414 -1.618 3.94
-1.387 -1.617 3.943
-1.361 -1.616 3.949
-1.338 -1.618 3.961
-1.312 -1.617 3.966
-1.286 -1.616 3.97
-1.261 -1.617 3.979
-1.235 -1.615 3.981
-1.21 -1.616 3.989
-1.185 -1.616 3.996
-1.16 -1.616 4.001
-1.135 -1.616 4.007
-1.111 -1.618 4.019
-1.084 -1.615 4.015
-1.059 -1.614 4.021
-1.035 -1.616 4.031
-1.009 -1.615 4.031
-0.984 -1.615 4.037
-0.96 -1.617 4.047
-0.936 -1.619 4.058
-0.912 -1.62 4.065
-0.888 -1.623 4.077
-0.863 -1.624 4.084
-0.838 -1.625 4.089
-0.811 -1.621 4.084
-0.785 -1.619 4.083
-0.76 -1.618 4.085
-0.734 -1.618 4.086
-0.71 -1.619 4.095
-0.686 -1.621 4.103
-0.66 -1.621 4.104
-0.635 -1.619 4.103
-0.609 -1.618 4.103
-0.583 -1.615 4.098
-0.558 -1.614 4.098
-0.532 -1.614 4.1
-0.508 -1.615 4.106
-0.484 -1.618 4.117
-0.46 -1.622 4.127
-0.435 -1.624 4.135
-0.411 -1.626 4.142
-0.385 -1.624 4.139
-0.36 -1.624 4.14
-0.335 -1.623 4.138
-0.309 -1.62 4.134
-0.284 -1.623 4.141
-0.26 -1.625 4.149
-0.234 -1.624 4.146
-0.209 -1.624 4.147
-0.185 -1.626 4.154
-0.159 -1.624 4.149
-0.134 -1.623 4.146
-0.109 -1.621 4.142
-0.084 -1.622 4.143
-0.059 -1.618 4.135
-0.034 -1.62 4.139
-0.009 -1.621 4.143
0.015 -1.623 4.147
0.04 -1.622 4.143
0.065 -1.624 4.147
0.09 -1.62 4.137
0.115 -1.62 4.136
0.14 -1.621 4.138
0.165 -1.623 4.142
0.191 -1.623 4.141
0.216 -1.625 4.145
0.241 -1.624 4.139
0.265 -1.621 4.13
0.29 -1.619 4.125
0.315 -1.619 4.121
0.339 -1.618 4.117
0.364 -1.618 4.115
0.39 -1.621 4.121
0.415 -1.621 4.118
0.44 -1.62 4.115
0.465 -1.621 4.113
0.491 -1.624 4.117
0.516 -1.624 4.116
0.541 -1.625 4.116
0.567 -1.628 4.12
0.592 -1.628 4.117
0.617 -1.627 4.109
0.641 -1.626 4.105
0.666 -1.626 4.099
0.691 -1.626 4.097
0.717 -1.627 4.096
0.742 -1.628 4.094
0.768 -1.629 4.093
0.794 -1.632 4.095
0.818 -1.63 4.086
0.843 -1.631 4.082
0.869 -1.631 4.078
0.893 -1.63 4.07
0.919 -1.631 4.067
0.945 -1.633 4.068
0.971 -1.634 4.065
0.998 -1.638 4.07
1.023 -1.639 4.064
1.048 -1.638 4.057
1.073 -1.638 4.051
1.099 -1.639 4.048
1.123 -1.638 4.038
1.15 -1.64 4.036
1.176 -1.641 4.033
1.203 -1.644 4.033
1.23 -1.646 4.031
1.256 -1.647 4.026
1.281 -1.647 4.018
1.307 -1.648 4.013
1.33 -1.645 4
1.355 -1.645 3.992
1.38 -1.645 3.983
1.406 -1.646 3.978
1.431 -1.646 3.968
1.456 -1.645 3.958
1.48 -1.645 3.949
1.506 -1.645 3.94
1.53 -1.644 3.931
1.554 -1.643 3.918
1.578 -1.642 3.906
1.604 -1.643 3.899
1.628 -1.642 3.887
1.653 -1.642 3.877
1.679 -1.642 3.868
1.703 -1.642 3.857
1.723 -1.637 3.835
1.742 -1.631 3.811
1.752 -1.617 3.768
1.756 -1.598 3.713
1.762 -1.582 3.664
1.764 -1.563 3.609
1.764 -1.542 3.551
1.768 -1.525 3.5
1.779 -1.515 3.466
1.734 -1.458 3.325
1.695 -1.407 3.198
1.679 -1.376 3.118
1.678 -1.359 3.068
1.685 -1.348 3.033
1.682 -1.329 2.981
1.673 -1.306 2.919
1.668 -1.287 2.865
1.664 -1.269 2.815
1.661 -1.253 2.769
1.657 -1.235 2.719
1.641 -1.21 2.654
-2.196 -1.611 3.687
-2.182 -1.62 3.72
-2.158 -1.621 3.735
-2.136 -1.623 3.753
-2.111 -1.625 3.769
-2.085 -1.624 3.779
-2.061 -1.625 3.794
-2.032 -1.623 3.801
-2.008 -1.624 3.815
-1.982 -1.624 3.826
-1.958 -1.626 3.841
-1.929 -1.623 3.845
-1.904 -1.624 3.859
-1.878 -1.623 3.868
-1.85 -1.622 3.875
-1.823 -1.62 3.882
-1.799 -1.622 3.895
-1.773 -1.622 3.906
-1.747 -1.622 3.915
-1.723 -1.623 3.928
-1.698 -1.624 3.939
-1.671 -1.622 3.945
-1.645 -1.622 3.954
-1.619 -1.622 3.963
-1.592 -1.621 3.968
-1.565 -1.619 3.972
-1.54 -1.62 3.984
-1.513 -1.619 3.989
-1.486 -1.617 3.992
-1.46 -1.617 4
-1.436 -1.618 4.011
-1.409 -1.616 4.014
-1.382 -1.616 4.02
-1.359 -1.618 4.032
-1.332 -1.617 4.037
-1.306 -1.616 4.041
-1.281 -1.616 4.049
-1.254 -1.615 4.052
-1.228 -1.614 4.057
-1.203 -1.615 4.065
-1.177 -1.614 4.068
-1.151 -1.613 4.073
-1.126 -1.614 4.081
-1.099 -1.612 4.081
-1.073 -1.61 4.083
-1.048 -1.612 4.092
-1.022 -1.61 4.093
-0.997 -1.611 4.101
-0.973 -1.613 4.111
-0.949 -1.617 4.125
-0.924 -1.617 4.131
-0.9 -1.62 4.143
-0.875 -1.62 4.148
-0.849 -1.621 4.153
-0.822 -1.617 4.146
-0.796 -1.615 4.147
-0.77 -1.614 4.148
-0.744 -1.614 4.151
-0.719 -1.614 4.155
-0.694 -1.616 4.163
-0.668 -1.615 4.164
-0.642 -1.613 4.162
-0.616 -1.612 4.161
-0.59 -1.61 4.159
-0.565 -1.609 4.16
-0.539 -1.61 4.164
-0.514 -1.611 4.169
-0.49 -1.614 4.18
-0.466 -1.617 4.19
-0.44 -1.618 4.194
-0.415 -1.618 4.196
-0.389 -1.616 4.193
-0.364 -1.616 4.193
-0.338 -1.614 4.19
-0.312 -1.613 4.188
-0.288 -1.616 4.198
-0.263 -1.62 4.208
-0.237 -1.62 4.21
-0.212 -1.619 4.209
-0.187 -1.621 4.215
-0.161 -1.618 4.208
-0.135 -1.616 4.202
-0.11 -1.613 4.194
-0.085 -1.613 4.195
-0.059 -1.61 4.188
-0.034 -1.613 4.193
-0.009 -1.613 4.195
0.016 -1.614 4.198
0.041 -1.613 4.195
0.066 -1.615 4.199
0.091 -1.613 4.191
0.117 -1.612 4.189
0.142 -1.613 4.19
0.167 -1.615 4.194
0.193 -1.614 4.19
0.218 -1.613 4.187
0.243 -1.613 4.185
0.268 -1.611 4.177
0.293 -1.609 4.172
0.318 -1.609 4.169
0.343 -1.608 4.166
0.368 -1.608 4.163
0.394 -1.611 4.168
0.419 -1.61 4.164
0.444 -1.61 4.162
0.47 -1.612 4.162
0.495 -1.613 4.164
0.521 -1.614 4.162
0.546 -1.614 4.161
0.572 -1.617 4.163
0.597 -1.616 4.159
0.622 -1.616 4.155
0.648 -1.616 4.152
0.673 -1.616 4.147
0.699 -1.618 4.148
0.724 -1.619 4.147
0.75 -1.62 4.145
0.776 -1.621 4.144
0.802 -1.623 4.146
0.827 -1.622 4.138
0.853 -1.622 4.134
0.878 -1.623 4.131
0.903 -1.622 4.123
0.928 -1.622 4.117
0.955 -1.624 4.117
0.98 -1.624 4.113
1.007 -1.627 4.115
1.033 -1.628 4.11
1.059 -1.629 4.107
1.084 -1.629 4.101
1.111 -1.631 4.1
1.136 -1.63 4.09
1.162 -1.632 4.089
1.189 -1.633 4.085
1.216 -1.636 4.086
1.244 -1.639 4.086
1.27 -1.64 4.081
1.296 -1.64 4.075
1.322 -1.641 4.068
1.346 -1.64 4.058
1.372 -1.639 4.049
1.398 -1.64 4.043
1.424 -1.641 4.037
1.45 -1.641 4.029
1.474 -1.64 4.019
1.499 -1.639 4.008
1.525 -1.64 4
1.551 -1.64 3.992
1.576 -1.64 3.981
1.6 -1.639 3.969
1.626 -1.64 3.962
1.649 -1.637 3.945
1.672 -1.635 3.931
1.697 -1.634 3.918
1.72 -1.632 3.904
1.738 -1.625 3.877
1.756 -1.618 3.85
1.766 -1.605 3.808
1.769 -1.586 3.751
1.775 -1.569 3.701
1.778 -1.55 3.647
1.778 -1.53 3.588
1.778 -1.51 3.529
1.79 -1.501 3.497
1.729 -1.431 3.323
1.678 -1.371 3.173
1.67 -1.348 3.109
1.68 -1.339 3.078
1.687 -1.328 3.044
1.686 -1.312 2.996
1.678 -1.29 2.935
1.672 -1.27 2.88
1.666 -1.251 2.827
1.662 -1.233 2.776
1.681 -1.234 2.767
1.691 -1.227 2.741
-2.221 -1.604 3.739
-2.252 -1.645 3.849
-2.192 -1.62 3.803
-2.167 -1.622 3.82
-2.144 -1.624 3.837
-2.116 -1.622 3.846
-2.093 -1.625 3.864
-2.064 -1.623 3.871
-2.037 -1.622 3.881
-2.009 -1.62 3.888
-1.984 -1.621 3.902
-1.956 -1.62 3.91
-1.931 -1.621 3.923
-1.905 -1.621 3.935
-1.879 -1.621 3.945
-1.852 -1.621 3.954
-1.826 -1.621 3.965
-1.801 -1.621 3.976
-1.774 -1.62 3.984
-1.749 -1.622 3.997
-1.723 -1.622 4.007
-1.694 -1.619 4.01
-1.668 -1.619 4.018
-1.641 -1.618 4.025
-1.613 -1.616 4.029
-1.586 -1.615 4.037
-1.561 -1.617 4.048
-1.533 -1.615 4.052
-1.507 -1.614 4.058
-1.481 -1.614 4.065
-1.454 -1.613 4.073
-1.429 -1.614 4.081
-1.402 -1.613 4.086
-1.377 -1.613 4.095
-1.349 -1.612 4.099
-1.323 -1.611 4.102
-1.296 -1.61 4.108
-1.271 -1.611 4.116
-1.245 -1.611 4.123
-1.22 -1.612 4.133
-1.195 -1.613 4.14
-1.169 -1.612 4.145
-1.142 -1.612 4.15
-1.115 -1.61 4.151
-1.089 -1.609 4.154
-1.063 -1.609 4.159
-1.036 -1.608 4.162
-1.012 -1.609 4.171
-0.987 -1.611 4.181
-0.962 -1.613 4.19
-0.937 -1.614 4.196
-0.912 -1.616 4.206
-0.886 -1.615 4.21
-0.86 -1.615 4.214
-0.833 -1.613 4.211
-0.806 -1.612 4.212
-0.78 -1.61 4.213
-0.754 -1.609 4.214
-0.727 -1.608 4.213
-0.702 -1.609 4.22
-0.676 -1.607 4.219
-0.649 -1.605 4.217
-0.623 -1.604 4.215
-0.597 -1.603 4.215
-0.571 -1.603 4.218
-0.546 -1.604 4.223
-0.521 -1.605 4.228
-0.496 -1.607 4.237
-0.471 -1.61 4.246
-0.445 -1.609 4.246
-0.419 -1.607 4.243
-0.392 -1.605 4.239
-0.367 -1.605 4.24
-0.341 -1.602 4.234
-0.315 -1.601 4.232
-0.29 -1.603 4.238
-0.264 -1.605 4.246
-0.239 -1.605 4.246
-0.213 -1.605 4.248
-0.188 -1.606 4.252
-0.162 -1.605 4.248
-0.136 -1.603 4.242
-0.111 -1.601 4.237
-0.085 -1.6 4.235
-0.059 -1.598 4.231
-0.034 -1.6 4.235
-0.009 -1.601 4.238
0.016 -1.602 4.24
0.041 -1.602 4.239
0.067 -1.603 4.242
0.092 -1.601 4.236
0.118 -1.6 4.232
0.143 -1.601 4.233
0.169 -1.602 4.235
0.194 -1.601 4.231
0.22 -1.6 4.227
0.245 -1.599 4.225
0.27 -1.597 4.216
0.295 -1.596 4.212
0.321 -1.596 4.21
0.346 -1.596 4.209
0.371 -1.596 4.207
0.397 -1.597 4.208
0.422 -1.598 4.206
0.448 -1.597 4.202
0.473 -1.598 4.202
0.499 -1.599 4.201
0.525 -1.6 4.201
0.55 -1.6 4.198
0.576 -1.602 4.199
0.601 -1.601 4.194
0.627 -1.602 4.193
0.653 -1.603 4.191
0.678 -1.602 4.187
0.704 -1.604 4.187
0.73 -1.605 4.186
0.755 -1.605 4.182
0.781 -1.606 4.179
0.808 -1.608 4.182
0.833 -1.608 4.175
0.858 -1.607 4.168
0.884 -1.607 4.164
0.909 -1.607 4.158
0.934 -1.607 4.153
0.961 -1.609 4.153
0.987 -1.61 4.151
1.015 -1.614 4.156
1.041 -1.615 4.152
1.068 -1.617 4.15
1.093 -1.617 4.144
1.121 -1.619 4.145
1.146 -1.618 4.135
1.172 -1.62 4.132
1.199 -1.621 4.129
1.227 -1.624 4.131
1.255 -1.627 4.129
1.281 -1.627 4.123
1.307 -1.628 4.118
1.333 -1.629 4.112
1.358 -1.628 4.102
1.384 -1.628 4.094
1.412 -1.63 4.092
1.439 -1.632 4.087
1.465 -1.632 4.081
1.491 -1.632 4.072
1.517 -1.633 4.064
1.542 -1.632 4.054
1.569 -1.634 4.049
1.594 -1.633 4.037
1.619 -1.632 4.026
1.646 -1.633 4.019
1.67 -1.631 4.004
1.693 -1.629 3.989
1.717 -1.628 3.975
1.738 -1.623 3.953
1.752 -1.612 3.918
1.767 -1.603 3.885
1.776 -1.588 3.837
1.779 -1.569 3.781
1.787 -1.555 3.735
1.794 -1.54 3.688
1.793 -1.518 3.625
1.793 -1.499 3.568
0 0 0
0 0 0
1.659 -1.334 3.145
1.669 -1.326 3.115
1.681 -1.319 3.089
1.688 -1.308 3.053
1.688 -1.292 3.006
1.68 -1.271 2.947
1.673 -1.251 2.89
1.666 -1.231 2.833
1.662 -1.215 2.784
1.649 -1.192 2.721
1.663 -1.188 2.703
-2.253 -1.6 3.803
-2.286 -1.643 3.918
-2.226 -1.619 3.873
-2.203 -1.622 3.892
-2.176 -1.621 3.904
-2.149 -1.621 3.915
-2.122 -1.621 3.928
-2.092 -1.619 3.934
-2.065 -1.618 3.944
-2.036 -1.616 3.95
-2.01 -1.617 3.964
-1.985 -1.618 3.979
-1.961 -1.619 3.994
-1.935 -1.62 4.005
-1.908 -1.62 4.017
-1.882 -1.62 4.027
-1.854 -1.619 4.034
-1.827 -1.619 4.045
-1.799 -1.618 4.052
-1.774 -1.618 4.063
-1.746 -1.617 4.071
-1.719 -1.617 4.079
-1.692 -1.616 4.086
-1.665 -1.616 4.095
-1.638 -1.615 4.102
-1.611 -1.615 4.11
-1.585 -1.615 4.119
-1.557 -1.613 4.123
-1.53 -1.612 4.129
-1.503 -1.612 4.136
-1.476 -1.611 4.143
-1.449 -1.611 4.15
-1.423 -1.611 4.157
-1.397 -1.611 4.166
-1.369 -1.609 4.167
-1.342 -1.609 4.173
-1.315 -1.607 4.177
-1.289 -1.607 4.183
-1.261 -1.606 4.185
-1.236 -1.607 4.196
-1.209 -1.607 4.201
-1.183 -1.607 4.207
-1.158 -1.607 4.215
-1.131 -1.606 4.218
-1.104 -1.606 4.224
-1.078 -1.606 4.228
-1.051 -1.605 4.23
-1.024 -1.603 4.232
-0.998 -1.604 4.239
-0.972 -1.603 4.242
-0.946 -1.603 4.247
-0.921 -1.605 4.255
-0.895 -1.605 4.26
-0.868 -1.605 4.263
-0.841 -1.603 4.264
-0.814 -1.602 4.263
-0.787 -1.6 4.262
-0.761 -1.598 4.262
-0.734 -1.596 4.259
-0.708 -1.596 4.262
-0.681 -1.595 4.263
-0.655 -1.594 4.262
-0.628 -1.593 4.262
-0.602 -1.592 4.264
-0.577 -1.593 4.268
-0.551 -1.593 4.272
-0.525 -1.593 4.273
-0.5 -1.594 4.28
-0.474 -1.596 4.286
-0.448 -1.595 4.285
-0.421 -1.593 4.281
-0.395 -1.591 4.279
-0.369 -1.59 4.277
-0.343 -1.588 4.274
-0.317 -1.586 4.27
-0.291 -1.588 4.275
-0.266 -1.589 4.278
-0.24 -1.588 4.277
-0.214 -1.586 4.274
-0.188 -1.587 4.276
-0.162 -1.585 4.272
-0.137 -1.583 4.268
-0.111 -1.583 4.267
-0.085 -1.583 4.267
-0.06 -1.582 4.263
-0.034 -1.583 4.266
-0.008 -1.584 4.269
0.016 -1.583 4.265
0.042 -1.582 4.264
0.067 -1.584 4.268
0.093 -1.583 4.264
0.118 -1.581 4.259
0.144 -1.582 4.259
0.17 -1.582 4.26
0.195 -1.582 4.257
0.221 -1.581 4.254
0.246 -1.581 4.251
0.271 -1.579 4.245
0.297 -1.578 4.242
0.322 -1.578 4.238
0.347 -1.577 4.233
0.373 -1.578 4.235
0.399 -1.58 4.238
0.425 -1.58 4.235
0.45 -1.579 4.231
0.476 -1.581 4.232
0.501 -1.581 4.23
0.527 -1.581 4.227
0.553 -1.582 4.225
0.579 -1.583 4.226
0.604 -1.582 4.219
0.629 -1.581 4.214
0.655 -1.582 4.213
0.681 -1.583 4.211
0.707 -1.584 4.211
0.733 -1.586 4.211
0.759 -1.586 4.209
0.785 -1.587 4.206
0.811 -1.589 4.205
0.836 -1.588 4.2
0.862 -1.588 4.195
0.888 -1.59 4.194
0.914 -1.59 4.191
0.94 -1.591 4.186
0.967 -1.592 4.186
0.993 -1.594 4.185
1.021 -1.597 4.185
1.047 -1.597 4.181
1.073 -1.599 4.179
1.099 -1.599 4.173
1.127 -1.601 4.173
1.152 -1.601 4.166
1.179 -1.603 4.164
1.206 -1.605 4.163
1.235 -1.608 4.165
1.263 -1.611 4.165
1.29 -1.613 4.161
1.317 -1.614 4.159
1.343 -1.614 4.15
1.369 -1.614 4.142
1.394 -1.613 4.133
1.422 -1.616 4.131
1.449 -1.617 4.125
1.476 -1.618 4.121
1.503 -1.619 4.113
1.529 -1.619 4.106
1.556 -1.62 4.099
1.584 -1.622 4.094
1.609 -1.622 4.084
1.635 -1.622 4.074
1.663 -1.623 4.068
1.686 -1.621 4.052
1.709 -1.618 4.036
1.732 -1.615 4.017
1.75 -1.608 3.991
1.761 -1.595 3.947
1.775 -1.585 3.911
1.784 -1.57 3.865
1.789 -1.553 3.811
1.8 -1.541 3.771
1.812 -1.53 3.734
1.813 -1.51 3.674
0 0 0
0 0 0
0 0 0
1.664 -1.317 3.163
1.676 -1.31 3.136
1.689 -1.304 3.11
1.694 -1.292 3.072
1.694 -1.276 3.024
1.687 -1.256 2.966
1.678 -1.235 2.905
1.668 -1.213 2.844
1.664 -1.196 2.794
1.669 -1.187 2.762
1.646 -1.157 2.682
-2.32 -1.622 3.927
-2.283 -1.614 3.923
-2.259 -1.616 3.941
-2.236 -1.619 3.961
-2.207 -1.618 3.97
-2.18 -1.618 3.983
-2.152 -1.617 3.993
-2.122 -1.615 4
-2.094 -1.614 4.009
-2.065 -1.613 4.018
-2.038 -1.612 4.028
-2.011 -1.612 4.04
-1.986 -1.613 4.055
-1.961 -1.615 4.07
-1.933 -1.615 4.08
-1.908 -1.616 4.094
-1.882 -1.617 4.106
-1.855 -1.617 4.117
-1.826 -1.615 4.123
-1.8 -1.616 4.135
-1.772 -1.614 4.14
-1.743 -1.613 4.146
-1.715 -1.611 4.152
-1.687 -1.61 4.159
-1.659 -1.609 4.166
-1.633 -1.61 4.175
-1.606 -1.61 4.184
-1.579 -1.609 4.191
-1.552 -1.609 4.199
-1.525 -1.609 4.206
-1.498 -1.609 4.214
-1.471 -1.608 4.221
-1.445 -1.609 4.23
-1.418 -1.609 4.238
-1.389 -1.606 4.237
-1.362 -1.605 4.243
-1.334 -1.604 4.245
-1.306 -1.602 4.248
-1.278 -1.601 4.252
-1.253 -1.602 4.261
-1.224 -1.6 4.262
-1.197 -1.599 4.266
-1.17 -1.598 4.27
-1.143 -1.597 4.272
-1.116 -1.597 4.277
-1.089 -1.596 4.28
-1.062 -1.595 4.283
-1.035 -1.594 4.287
-1.008 -1.594 4.291
-0.981 -1.592 4.289
-0.954 -1.591 4.293
-0.928 -1.592 4.298
-0.9 -1.589 4.297
-0.874 -1.589 4.299
-0.847 -1.588 4.301
-0.819 -1.585 4.297
-0.792 -1.584 4.297
-0.766 -1.583 4.298
-0.738 -1.58 4.295
-0.712 -1.579 4.296
-0.685 -1.579 4.297
-0.658 -1.576 4.293
-0.632 -1.576 4.295
-0.606 -1.575 4.296
-0.58 -1.575 4.299
-0.554 -1.575 4.302
-0.528 -1.575 4.305
-0.501 -1.575 4.305
-0.476 -1.576 4.311
-0.449 -1.575 4.309
-0.423 -1.573 4.306
-0.397 -1.572 4.305
-0.371 -1.571 4.304
-0.344 -1.568 4.298
-0.318 -1.567 4.296
-0.292 -1.567 4.296
-0.266 -1.567 4.299
-0.24 -1.566 4.296
-0.214 -1.565 4.294
-0.189 -1.564 4.293
-0.163 -1.563 4.29
-0.137 -1.56 4.282
-0.111 -1.56 4.282
-0.085 -1.561 4.285
-0.06 -1.56 4.282
-0.034 -1.561 4.285
-0.008 -1.562 4.287
0.016 -1.561 4.284
0.042 -1.559 4.279
0.068 -1.56 4.28
0.093 -1.559 4.279
0.119 -1.558 4.273
0.144 -1.558 4.273
0.17 -1.559 4.273
0.196 -1.558 4.27
0.221 -1.557 4.266
0.247 -1.556 4.263
0.272 -1.556 4.261
0.298 -1.556 4.258
0.323 -1.554 4.25
0.348 -1.553 4.247
0.374 -1.555 4.249
0.399 -1.554 4.246
0.425 -1.555 4.245
0.451 -1.556 4.244
0.477 -1.557 4.244
0.502 -1.558 4.245
0.528 -1.559 4.244
0.554 -1.559 4.243
0.58 -1.561 4.244
0.606 -1.561 4.24
0.631 -1.559 4.232
0.656 -1.56 4.23
0.682 -1.561 4.229
0.708 -1.562 4.228
0.734 -1.563 4.227
0.76 -1.564 4.225
0.786 -1.565 4.223
0.812 -1.565 4.219
0.838 -1.565 4.215
0.864 -1.565 4.211
0.891 -1.567 4.212
0.917 -1.568 4.21
0.944 -1.57 4.21
0.97 -1.572 4.208
0.997 -1.574 4.207
1.024 -1.575 4.206
1.05 -1.576 4.203
1.076 -1.577 4.198
1.103 -1.578 4.194
1.13 -1.58 4.194
1.156 -1.58 4.187
1.182 -1.581 4.184
1.211 -1.584 4.185
1.239 -1.587 4.186
1.266 -1.589 4.184
1.294 -1.591 4.183
1.322 -1.593 4.181
1.348 -1.593 4.173
1.374 -1.594 4.168
1.401 -1.595 4.161
1.429 -1.597 4.159
1.456 -1.598 4.153
1.483 -1.6 4.149
1.51 -1.6 4.142
1.537 -1.601 4.135
1.564 -1.602 4.128
1.593 -1.605 4.126
1.62 -1.606 4.119
1.647 -1.607 4.112
1.674 -1.608 4.106
1.697 -1.605 4.088
1.72 -1.602 4.069
1.741 -1.597 4.047
1.758 -1.589 4.017
1.769 -1.576 3.973
1.783 -1.566 3.937
1.792 -1.551 3.89
1.797 -1.534 3.836
1.804 -1.519 3.788
1.813 -1.506 3.745
0 0 0
0 0 0
0 0 0
0 0 0
1.664 -1.296 3.17
1.681 -1.292 3.151
1.693 -1.285 3.125
1.699 -1.274 3.087
1.702 -1.261 3.045
1.695 -1.242 2.988
1.685 -1.22 2.924
1.673 -1.197 2.86
1.666 -1.179 2.805
1.662 -1.162 2.756
1.665 -1.152 2.72
-2.341 -1.608 3.972
-2.312 -1.608 3.984
-2.29 -1.612 4.006
-2.268 -1.615 4.029
-2.24 -1.615 4.04
-2.211 -1.614 4.051
-2.183 -1.613 4.062
-2.152 -1.61 4.066
-2.123 -1.609 4.076
-2.095 -1.608 4.085
-2.068 -1.609 4.098
-2.042 -1.61 4.112
-2.018 -1.612 4.13
-1.993 -1.614 4.147
-1.965 -1.614 4.156
-1.938 -1.614 4.168
-1.911 -1.614 4.179
-1.883 -1.614 4.189
-1.853 -1.612 4.194
-1.752 -1.547 4.033
-1.724 -1.545 4.038
-1.695 -1.542 4.04
-1.668 -1.541 4.047
-1.639 -1.539 4.049
-1.68 -1.603 4.228
-1.655 -1.604 4.24
-1.628 -1.605 4.251
-1.6 -1.604 4.258
-1.573 -1.604 4.265
-1.546 -1.604 4.273
-1.517 -1.602 4.278
-1.489 -1.601 4.282
-1.461 -1.6 4.287
-1.434 -1.6 4.295
-1.404 -1.597 4.293
-1.376 -1.595 4.297
-1.347 -1.593 4.297
-1.319 -1.591 4.299
-1.291 -1.591 4.305
-1.265 -1.591 4.313
-1.236 -1.588 4.311
-1.209 -1.588 4.317
-1.181 -1.587 4.32
-1.153 -1.585 4.319
-1.126 -1.584 4.323
-1.099 -1.584 4.328
-1.071 -1.582 4.329
-1.043 -1.58 4.329
-1.016 -1.579 4.331
-0.987 -1.576 4.327
-0.96 -1.575 4.33
-0.933 -1.574 4.331
-0.905 -1.572 4.329
-0.878 -1.57 4.329
-0.851 -1.57 4.332
-0.823 -1.567 4.328
-0.796 -1.566 4.329
-0.769 -1.565 4.33
-0.742 -1.562 4.326
-0.715 -1.56 4.324
-0.688 -1.559 4.323
-0.661 -1.556 4.319
-0.634 -1.555 4.317
-0.607 -1.553 4.316
-0.581 -1.553 4.317
-0.555 -1.553 4.321
-0.529 -1.553 4.323
-0.503 -1.553 4.324
-0.477 -1.553 4.328
-0.45 -1.552 4.327
-0.424 -1.55 4.323
-0.397 -1.549 4.321
-0.371 -1.547 4.318
-0.345 -1.545 4.314
-0.318 -1.544 4.311
-0.292 -1.543 4.309
-0.267 -1.543 4.311
-0.241 -1.542 4.31
-0.215 -1.541 4.308
-0.189 -1.541 4.307
-0.163 -1.539 4.302
-0.137 -1.536 4.295
-0.111 -1.535 4.293
-0.085 -1.536 4.294
-0.06 -1.536 4.294
-0.034 -1.536 4.295
-0.008 -1.535 4.293
0.017 -1.534 4.289
0.042 -1.533 4.286
0.068 -1.532 4.283
0.093 -1.532 4.283
0.119 -1.533 4.282
0.145 -1.531 4.278
0.17 -1.531 4.276
0.196 -1.531 4.276
0.221 -1.531 4.273
0.246 -1.529 4.267
0.272 -1.53 4.267
0.298 -1.53 4.264
0.323 -1.528 4.257
0.348 -1.527 4.254
0.374 -1.529 4.257
0.4 -1.529 4.254
0.425 -1.53 4.255
0.451 -1.53 4.253
0.477 -1.531 4.253
0.503 -1.532 4.253
0.528 -1.533 4.251
0.554 -1.533 4.248
0.58 -1.533 4.247
0.605 -1.533 4.242
0.63 -1.532 4.235
0.656 -1.533 4.235
0.682 -1.534 4.233
0.708 -1.535 4.233
0.734 -1.536 4.231
0.761 -1.538 4.232
0.786 -1.538 4.23
0.812 -1.538 4.226
0.838 -1.539 4.224
0.864 -1.54 4.22
0.891 -1.541 4.219
0.917 -1.543 4.219
0.944 -1.545 4.22
0.971 -1.546 4.218
0.997 -1.548 4.217
1.023 -1.549 4.213
1.05 -1.55 4.21
1.077 -1.551 4.208
1.103 -1.552 4.203
1.13 -1.554 4.203
1.157 -1.555 4.2
1.183 -1.556 4.195
1.211 -1.558 4.194
1.239 -1.561 4.195
1.267 -1.564 4.195
1.295 -1.566 4.194
1.323 -1.568 4.192
1.349 -1.569 4.186
1.377 -1.571 4.184
1.404 -1.572 4.179
1.432 -1.574 4.176
1.46 -1.576 4.173
1.488 -1.578 4.171
1.515 -1.579 4.163
1.542 -1.58 4.157
1.569 -1.58 4.149
1.598 -1.583 4.148
1.625 -1.584 4.141
1.652 -1.585 4.133
1.68 -1.586 4.127
1.703 -1.584 4.111
1.725 -1.58 4.091
1.745 -1.575 4.067
1.763 -1.567 4.037
1.776 -1.556 3.997
1.792 -1.547 3.964
1.802 -1.534 3.92
1.813 -1.522 3.878
1.816 -1.504 3.821
0 0 0
0 0 0
0 0 0
0 0 0
0 0 0
1.667 -1.276 3.183
1.682 -1.272 3.162
1.695 -1.266 3.137
1.7 -1.255 3.097
1.703 -1.242 3.056
1.698 -1.223 3
1.687 -1.201 2.935
1.676 -1.179 2.871
1.67 -1.162 2.818
1.659 -1.141 2.757
1.674 -1.139 2.741
-2.355 -1.591 4.006
-2.365 -1.616 4.084
-2.026 -1.402 3.552
-2.11 -1.477 3.756
-2.175 -1.541 3.932
-2.06 -1.478 3.781
-2.033 -1.477 3.791
-2.004 -1.475 3.795
-1.977 -1.473 3.803
-1.864 -1.407 3.642
-1.925 -1.473 3.824
-1.902 -1.474 3.838
-1.879 -1.477 3.855
-1.856 -1.478 3.87
-1.83 -1.478 3.879
-1.724 -1.412 3.716
-1.779 -1.477 3.898
-1.752 -1.477 3.906
-1.725 -1.475 3.911
-1.7 -1.475 3.921
-1.747 -1.539 4.101
-1.717 -1.536 4.103
-1.689 -1.535 4.108
-1.659 -1.531 4.107
-1.699 -1.594 4.286
-1.672 -1.594 4.295
-1.645 -1.594 4.304
-1.616 -1.593 4.31
-1.589 -1.593 4.318
-1.561 -1.592 4.325
-1.531 -1.59 4.327
-1.502 -1.588 4.329
-1.473 -1.586 4.332
-1.445 -1.585 4.338
-1.414 -1.582 4.334
-1.386 -1.58 4.338
-1.357 -1.578 4.339
-1.329 -1.577 4.343
-1.301 -1.576 4.347
-1.274 -1.576 4.353
-1.245 -1.573 4.351
-1.216 -1.571 4.353
-1.188 -1.57 4.355
-1.16 -1.568 4.355
-1.133 -1.568 4.36
-1.105 -1.566 4.362
-1.077 -1.565 4.363
-1.048 -1.561 4.359
-1.02 -1.559 4.358
-0.99 -1.555 4.351
-0.963 -1.554 4.353
-0.935 -1.551 4.349
-0.907 -1.549 4.348
-0.88 -1.548 4.348
-0.853 -1.547 4.35
-0.825 -1.543 4.344
-0.797 -1.542 4.343
-0.77 -1.54 4.342
-0.742 -1.536 4.335
-0.715 -1.534 4.332
-0.688 -1.534 4.334
-0.661 -1.532 4.332
-0.634 -1.53 4.33
-0.607 -1.528 4.327
-0.581 -1.527 4.326
-0.554 -1.526 4.326
-0.528 -1.526 4.329
-0.502 -1.525 4.326
-0.476 -1.526 4.332
-0.45 -1.525 4.332
-0.423 -1.524 4.33
-0.397 -1.522 4.326
-0.371 -1.52 4.324
-0.344 -1.518 4.319
-0.318 -1.517 4.315
-0.292 -1.515 4.311
-0.266 -1.514 4.311
-0.24 -1.513 4.309
-0.214 -1.512 4.307
-0.188 -1.511 4.305
-0.162 -1.511 4.305
-0.136 -1.509 4.3
-0.111 -1.509 4.3
-0.085 -1.51 4.301
-0.059 -1.51 4.303
-0.034 -1.51 4.301
-0.008 -1.508 4.297
0.017 -1.507 4.294
0.042 -1.505 4.288
0.068 -1.504 4.283
0.093 -1.504 4.282
0.119 -1.505 4.284
0.145 -1.504 4.281
0.17 -1.504 4.28
0.196 -1.505 4.282
0.221 -1.506 4.282
0.247 -1.504 4.275
0.272 -1.504 4.274
0.298 -1.504 4.272
0.323 -1.501 4.262
0.348 -1.501 4.258
0.374 -1.502 4.261
0.399 -1.502 4.257
0.425 -1.503 4.257
0.451 -1.503 4.257
0.476 -1.504 4.256
0.502 -1.505 4.257
0.528 -1.506 4.256
0.554 -1.506 4.254
0.579 -1.507 4.252
0.605 -1.506 4.246
0.63 -1.505 4.24
0.656 -1.506 4.24
0.682 -1.507 4.238
0.708 -1.508 4.237
0.734 -1.51 4.238
0.76 -1.511 4.238
0.786 -1.512 4.236
0.812 -1.512 4.232
0.838 -1.513 4.229
0.864 -1.513 4.225
0.89 -1.514 4.222
0.916 -1.516 4.223
0.943 -1.517 4.222
0.97 -1.519 4.222
0.997 -1.521 4.223
1.023 -1.522 4.218
1.049 -1.522 4.214
1.077 -1.525 4.215
1.103 -1.525 4.21
1.129 -1.526 4.206
1.156 -1.528 4.206
1.183 -1.53 4.203
1.211 -1.532 4.202
1.239 -1.535 4.203
1.266 -1.537 4.201
1.294 -1.538 4.198
1.321 -1.54 4.195
1.348 -1.541 4.19
1.376 -1.543 4.187
1.403 -1.544 4.184
1.431 -1.547 4.182
1.46 -1.549 4.181
1.488 -1.551 4.178
1.515 -1.553 4.174
1.543 -1.555 4.17
1.571 -1.556 4.163
1.599 -1.558 4.16
1.626 -1.559 4.152
1.653 -1.559 4.144
1.68 -1.56 4.137
1.705 -1.559 4.123
1.728 -1.556 4.106
1.749 -1.552 4.085
1.767 -1.544 4.055
1.781 -1.534 4.018
1.799 -1.528 3.99
1.813 -1.518 3.954
1.822 -1.504 3.906
0 0 0
0 0 0
0 0 0
0 0 0
0 0 0
0 0 0
0 0 0
1.692 -1.258 3.187
1.699 -1.248 3.152
1.702 -1.235 3.109
1.704 -1.222 3.064
1.701 -1.205 3.012
1.689 -1.182 2.944
1.679 -1.162 2.883
1.673 -1.144 2.83
1.662 -1.124 2.768
1.678 -1.122 2.754
0 0 0
-2.397 -1.611 4.151
-1.633 -1.111 2.867
-1.743 -1.2 3.107
-1.812 -1.262 3.281
-1.701 -1.2 3.127
-1.613 -1.152 3.011
-1.591 -1.151 3.017
-1.568 -1.149 3.022
-1.462 -1.085 2.861
-1.527 -1.148 3.037
-1.508 -1.149 3.048
-1.489 -1.15 3.059
-1.47 -1.151 3.07
-1.448 -1.15 3.074
-1.426 -1.148 3.078
-1.484 -1.212 3.257
-1.46 -1.21 3.26
-1.512 -1.271 3.435
-1.565 -1.335 3.618
-1.616 -1.399 3.8
-1.663 -1.462 3.981
-1.706 -1.524 4.159
-1.677 -1.522 4.162
-1.718 -1.584 4.343
-1.689 -1.583 4.349
-1.66 -1.581 4.352
-1.632 -1.581 4.36
-1.602 -1.578 4.362
-1.572 -1.577 4.366
-1.541 -1.573 4.365
-1.512 -1.571 4.367
-1.482 -1.568 4.367
-1.454 -1.568 4.373
-1.423 -1.564 4.369
-1.394 -1.562 4.371
-1.365 -1.56 4.373
-1.335 -1.558 4.373
-1.307 -1.556 4.376
-1.278 -1.554 4.377
-1.248 -1.551 4.374
-1.219 -1.548 4.372
-1.191 -1.547 4.374
-1.162 -1.544 4.373
-1.135 -1.544 4.377
-1.108 -1.544 4.382
-1.079 -1.541 4.379
-1.05 -1.537 4.374
-1.021 -1.534 4.371
-0.992 -1.531 4.366
-0.964 -1.529 4.365
-0.936 -1.527 4.364
-0.908 -1.524 4.361
-0.881 -1.523 4.362
-0.853 -1.521 4.36
-0.825 -1.517 4.352
-0.797 -1.515 4.35
-0.77 -1.513 4.348
-0.742 -1.51 4.342
-0.714 -1.507 4.339
-0.688 -1.507 4.34
-0.661 -1.505 4.338
-0.634 -1.503 4.336
-0.607 -1.501 4.333
-0.581 -1.5 4.333
-0.554 -1.499 4.332
-0.528 -1.5 4.336
-0.502 -1.498 4.333
-0.476 -1.498 4.336
-0.449 -1.498 4.336
-0.423 -1.496 4.332
-0.396 -1.494 4.328
-0.37 -1.493 4.327
-0.344 -1.491 4.324
-0.318 -1.489 4.318
-0.291 -1.488 4.316
-0.266 -1.487 4.315
-0.24 -1.486 4.314
-0.214 -1.485 4.31
-0.188 -1.485 4.311
-0.162 -1.484 4.309
-0.136 -1.483 4.304
-0.111 -1.482 4.304
-0.085 -1.483 4.306
-0.059 -1.483 4.307
-0.033 -1.482 4.304
-0.008 -1.481 4.3
0.017 -1.48 4.296
0.042 -1.477 4.288
0.068 -1.476 4.285
0.093 -1.476 4.283
0.119 -1.477 4.286
0.144 -1.476 4.282
0.17 -1.477 4.282
0.196 -1.477 4.281
0.221 -1.478 4.282
0.246 -1.476 4.276
0.272 -1.477 4.276
0.298 -1.477 4.275
0.323 -1.475 4.267
0.348 -1.474 4.262
0.374 -1.474 4.262
0.399 -1.474 4.259
0.424 -1.474 4.257
0.45 -1.476 4.258
0.476 -1.476 4.258
0.502 -1.478 4.26
0.528 -1.479 4.258
0.553 -1.479 4.257
0.579 -1.479 4.253
0.604 -1.479 4.249
0.629 -1.478 4.244
0.655 -1.479 4.243
0.681 -1.48 4.242
0.707 -1.481 4.24
0.734 -1.483 4.242
0.76 -1.484 4.242
0.786 -1.486 4.244
0.812 -1.486 4.238
0.838 -1.487 4.237
0.864 -1.488 4.234
0.89 -1.488 4.231
0.916 -1.489 4.228
0.943 -1.49 4.227
0.969 -1.492 4.226
0.996 -1.494 4.225
1.022 -1.494 4.221
1.049 -1.495 4.219
1.076 -1.498 4.221
1.103 -1.499 4.217
1.129 -1.5 4.213
1.156 -1.502 4.213
1.184 -1.504 4.211
1.21 -1.505 4.208
1.238 -1.508 4.208
1.266 -1.509 4.206
1.293 -1.511 4.203
1.32 -1.512 4.198
1.347 -1.513 4.195
1.374 -1.515 4.192
1.402 -1.517 4.188
1.431 -1.519 4.188
1.459 -1.522 4.186
1.487 -1.523 4.182
1.515 -1.525 4.179
1.543 -1.527 4.176
1.569 -1.527 4.167
1.598 -1.53 4.166
1.626 -1.532 4.16
1.652 -1.532 4.15
1.679 -1.533 4.143
1.705 -1.532 4.133
1.728 -1.529 4.114
1.75 -1.526 4.095
1.77 -1.521 4.07
1.787 -1.513 4.04
1.807 -1.508 4.015
1.821 -1.499 3.98
1.829 -1.484 3.93
0 0 0
0 0 0
0 0 0
0 0 0
0 0 0
0 0 0
0 0 0
1.693 -1.237 3.196
1.7 -1.227 3.159
1.703 -1.214 3.116
1.706 -1.202 3.074
1.705 -1.187 3.025
1.691 -1.164 2.956
1.681 -1.143 2.894
1.675 -1.126 2.84
1.675 -1.114 2.797
1.67 -1.098 2.747
-0.043 -0.03 0.062
-0.079 -0.054 0.125
-1.158 -0.775 2.034
-1.292 -0.874 2.306
-1.365 -0.935 2.475
-1.258 -0.872 2.314
-1.19 -0.835 2.223
-1.175 -0.835 2.23
-1.159 -0.835 2.234
-1.057 -0.772 2.07
-1.128 -0.834 2.246
-1.113 -0.834 2.251
-1.097 -0.833 2.256
-1.081 -0.832 2.26
-1.063 -0.829 2.257
-1.044 -0.826 2.254
-1.107 -0.888 2.432
-1.166 -0.949 2.605
-1.222 -1.009 2.779
-1.355 -1.136 3.137
-1.482 -1.261 3.492
-1.603 -1.385 3.846
-1.648 -1.446 4.026
-1.69 -1.507 4.204
-1.73 -1.567 4.381
-1.699 -1.565 4.384
-1.668 -1.561 4.384
-1.638 -1.56 4.388
-1.608 -1.557 4.388
-1.578 -1.555 4.392
-1.547 -1.551 4.389
-1.517 -1.549 4.392
-1.487 -1.547 4.392
-1.458 -1.545 4.393
-1.426 -1.541 4.389
-1.398 -1.54 4.394
-1.37 -1.538 4.398
-1.34 -1.535 4.396
-1.312 -1.535 4.4
-1.282 -1.532 4.399
-1.252 -1.528 4.394
-1.221 -1.523 4.387
-1.192 -1.521 4.386
-1.162 -1.518 4.382
-1.135 -1.517 4.385
-1.107 -1.515 4.386
-1.077 -1.512 4.381
-1.049 -1.509 4.378
-1.02 -1.506 4.374
-0.991 -1.503 4.37
-0.963 -1.501 4.37
-0.936 -1.5 4.37
-0.908 -1.497 4.367
-0.88 -1.495 4.366
-0.852 -1.493 4.362
-0.823 -1.489 4.355
-0.796 -1.486 4.351
-0.768 -1.484 4.347
-0.74 -1.481 4.342
-0.713 -1.479 4.339
-0.687 -1.478 4.341
-0.66 -1.478 4.342
-0.633 -1.476 4.339
-0.606 -1.474 4.338
-0.58 -1.473 4.336
-0.553 -1.471 4.332
-0.527 -1.471 4.334
-0.5 -1.469 4.332
-0.474 -1.468 4.331
-0.448 -1.468 4.332
-0.422 -1.466 4.329
-0.395 -1.465 4.326
-0.369 -1.464 4.325
-0.343 -1.463 4.324
-0.317 -1.462 4.322
-0.291 -1.461 4.322
-0.265 -1.46 4.32
-0.239 -1.46 4.318
-0.213 -1.459 4.317
-0.188 -1.458 4.315
-0.162 -1.457 4.313
-0.136 -1.456 4.309
-0.11 -1.455 4.306
-0.085 -1.454 4.304
-0.059 -1.454 4.305
-0.033 -1.453 4.299
-0.008 -1.452 4.298
0.017 -1.452 4.296
0.042 -1.45 4.291
0.068 -1.45 4.289
0.093 -1.449 4.286
0.119 -1.45 4.287
0.144 -1.449 4.283
0.17 -1.449 4.284
0.195 -1.449 4.283
0.221 -1.452 4.288
0.247 -1.45 4.283
0.272 -1.451 4.284
0.298 -1.451 4.281
0.323 -1.449 4.274
0.348 -1.447 4.267
0.373 -1.447 4.263
0.398 -1.446 4.259
0.424 -1.446 4.257
0.449 -1.447 4.256
0.475 -1.448 4.258
0.501 -1.45 4.26
0.527 -1.45 4.257
0.553 -1.451 4.258
0.579 -1.452 4.258
0.604 -1.452 4.253
0.629 -1.452 4.251
0.656 -1.454 4.252
0.681 -1.454 4.249
0.707 -1.454 4.245
0.733 -1.456 4.246
0.759 -1.457 4.246
0.785 -1.458 4.243
0.811 -1.458 4.241
0.837 -1.46 4.24
0.863 -1.46 4.236
0.889 -1.46 4.232
0.915 -1.462 4.232
0.941 -1.463 4.228
0.968 -1.464 4.228
0.994 -1.465 4.226
1.021 -1.467 4.225
1.048 -1.468 4.222
1.075 -1.471 4.224
1.102 -1.472 4.222
1.128 -1.473 4.219
1.156 -1.476 4.219
1.183 -1.477 4.218
1.21 -1.479 4.215
1.238 -1.481 4.214
1.264 -1.482 4.209
1.29 -1.482 4.203
1.317 -1.483 4.199
1.345 -1.485 4.196
1.373 -1.487 4.194
1.4 -1.489 4.192
1.43 -1.492 4.194
1.457 -1.494 4.19
1.485 -1.495 4.186
1.512 -1.497 4.181
1.541 -1.5 4.18
1.567 -1.499 4.17
1.597 -1.502 4.17
1.624 -1.504 4.164
1.651 -1.504 4.156
1.677 -1.504 4.146
1.704 -1.505 4.139
1.728 -1.503 4.122
1.752 -1.501 4.108
1.774 -1.498 4.087
1.797 -1.495 4.071
1.818 -1.491 4.048
1.836 -1.484 4.019
0 0 0
0 0 0
0 0 0
0 0 0
0 0 0
0 0 0
0 0 0
1.398 -1.017 2.685
1.754 -1.259 3.319
1.738 -1.233 3.237
1.698 -1.19 3.115
1.704 -1.18 3.077
1.704 -1.166 3.03
1.692 -1.144 2.964
1.683 -1.125 2.903
1.676 -1.108 2.848
1.702 -1.112 2.849
1.647 -1.064 2.716
-0.065 -0.043 0.099
-0.103 -0.068 0.168
-0.688 -0.452 1.205
-0.843 -0.56 1.503
-0.92 -0.619 1.667
-0.816 -0.556 1.5
-0.768 -0.53 1.433
-0.756 -0.528 1.433
-0.745 -0.528 1.436
-0.646 -0.463 1.262
-0.722 -0.525 1.435
-0.711 -0.524 1.437
-0.699 -0.522 1.435
-0.687 -0.52 1.434
-0.674 -0.517 1.429
-0.659 -0.513 1.422
-0.726 -0.573 1.593
-0.789 -0.631 1.762
-0.925 -0.751 2.106
-1.138 -0.938 2.639
-1.343 -1.123 3.17
-1.539 -1.307 3.701
-1.658 -1.429 4.058
-1.7 -1.489 4.237
-1.738 -1.547 4.412
-1.707 -1.544 4.412
-1.674 -1.539 4.409
-1.643 -1.537 4.41
-1.611 -1.533 4.407
-1.58 -1.53 4.407
-1.548 -1.525 4.401
-1.517 -1.522 4.401
-1.488 -1.52 4.403
-1.458 -1.518 4.403
-1.427 -1.514 4.401
-1.399 -1.513 4.404
-1.37 -1.512 4.408
-1.34 -1.508 4.404
-1.311 -1.507 4.406
-1.281 -1.503 4.403
-1.25 -1.499 4.397
-1.22 -1.495 4.392
-1.191 -1.493 4.39
-1.161 -1.49 4.387
-1.133 -1.488 4.389
-1.106 -1.487 4.391
-1.076 -1.483 4.384
-1.047 -1.48 4.38
-1.018 -1.477 4.376
-0.99 -1.475 4.373
-0.962 -1.473 4.373
-0.934 -1.471 4.371
-0.906 -1.469 4.369
-0.879 -1.467 4.367
-0.85 -1.464 4.362
-0.822 -1.461 4.358
-0.795 -1.458 4.354
-0.767 -1.456 4.351
-0.739 -1.453 4.346
-0.713 -1.452 4.345
-0.686 -1.451 4.346
-0.66 -1.451 4.346
-0.632 -1.448 4.341
-0.606 -1.447 4.341
-0.579 -1.445 4.338
-0.552 -1.443 4.334
-0.526 -1.441 4.332
-0.5 -1.442 4.335
-0.473 -1.44 4.332
-0.447 -1.439 4.331
-0.421 -1.438 4.329
-0.395 -1.437 4.329
-0.368 -1.435 4.324
-0.343 -1.435 4.326
-0.317 -1.434 4.324
-0.291 -1.434 4.323
-0.265 -1.432 4.32
-0.239 -1.431 4.318
-0.213 -1.43 4.315
-0.187 -1.43 4.315
-0.161 -1.429 4.312
-0.136 -1.428 4.308
-0.11 -1.429 4.312
-0.084 -1.427 4.308
-0.059 -1.428 4.309
-0.033 -1.427 4.306
-0.008 -1.427 4.307
0.017 -1.425 4.301
0.043 -1.424 4.298
0.068 -1.424 4.296
0.094 -1.423 4.292
0.119 -1.424 4.294
0.144 -1.422 4.288
0.17 -1.423 4.29
0.196 -1.424 4.29
0.221 -1.426 4.296
0.247 -1.426 4.293
0.273 -1.426 4.292
0.298 -1.425 4.288
0.323 -1.424 4.282
0.348 -1.421 4.272
0.373 -1.42 4.267
0.398 -1.42 4.264
0.424 -1.42 4.262
0.449 -1.42 4.259
0.475 -1.422 4.263
0.501 -1.423 4.262
0.526 -1.422 4.258
0.552 -1.423 4.258
0.578 -1.425 4.258
0.603 -1.424 4.255
0.629 -1.426 4.255
0.655 -1.427 4.256
0.681 -1.428 4.254
0.707 -1.428 4.251
0.733 -1.43 4.252
0.759 -1.431 4.253
0.785 -1.432 4.249
0.812 -1.435 4.254
0.838 -1.435 4.251
0.863 -1.434 4.243
0.888 -1.434 4.237
0.915 -1.435 4.237
0.939 -1.433 4.226
0.966 -1.436 4.227
0.993 -1.438 4.228
1.02 -1.439 4.228
1.047 -1.441 4.226
1.075 -1.444 4.229
1.101 -1.444 4.225
1.127 -1.445 4.221
1.155 -1.448 4.223
1.182 -1.45 4.221
1.209 -1.45 4.217
1.236 -1.453 4.216
1.263 -1.454 4.213
1.288 -1.453 4.204
1.315 -1.454 4.199
1.343 -1.457 4.198
1.372 -1.459 4.198
1.399 -1.461 4.195
1.429 -1.465 4.2
1.458 -1.468 4.198
1.485 -1.469 4.193
1.511 -1.469 4.186
1.54 -1.472 4.185
1.566 -1.472 4.175
1.594 -1.473 4.171
1.622 -1.475 4.166
1.648 -1.475 4.157
1.675 -1.475 4.148
1.701 -1.475 4.138
1.726 -1.475 4.126
1.751 -1.474 4.114
1.776 -1.472 4.099
1.8 -1.471 4.084
1.825 -1.47 4.072
0 0 0
0 0 0
0 0 0
0 0 0
0 0 0
0 0 0
0 0 0
0 0 0
0 0 0
1.758 -1.24 3.334
1.736 -1.21 3.241
1.692 -1.165 3.11
1.699 -1.156 3.075
1.702 -1.144 3.033
1.691 -1.123 2.968
1.681 -1.104 2.906
1.675 -1.087 2.852
1.657 -1.063 2.779
1.675 -1.063 2.769
-0.07 -0.046 0.109
-0.112 -0.073 0.183
-0.296 -0.192 0.512
-0.388 -0.254 0.687
-0.472 -0.313 0.851
-0.372 -0.249 0.678
-0.344 -0.234 0.637
-0.338 -0.233 0.635
-0.33 -0.23 0.63
-0.233 -0.165 0.449
-0.31 -0.222 0.611
-0.304 -0.221 0.609
-0.293 -0.216 0.596
-0.285 -0.213 0.589
-0.275 -0.208 0.577
-0.266 -0.204 0.568
-0.416 -0.323 0.909
-0.562 -0.442 1.254
-0.778 -0.621 1.772
-1.143 -0.925 2.656
-1.422 -1.168 3.365
-1.617 -1.348 3.896
-1.733 -1.466 4.25
-1.773 -1.525 4.429
-1.741 -1.521 4.428
-1.709 -1.517 4.426
-1.676 -1.513 4.422
-1.644 -1.51 4.422
-1.611 -1.505 4.417
-1.58 -1.502 4.414
-1.547 -1.497 4.408
-1.517 -1.495 4.409
-1.488 -1.493 4.413
-1.458 -1.491 4.413
-1.427 -1.487 4.409
-1.398 -1.485 4.411
-1.369 -1.484 4.413
-1.338 -1.48 4.409
-1.309 -1.478 4.409
-1.28 -1.475 4.408
-1.25 -1.472 4.404
-1.219 -1.468 4.398
-1.19 -1.465 4.396
-1.161 -1.462 4.394
-1.133 -1.461 4.394
-1.104 -1.459 4.393
-1.075 -1.455 4.388
-1.046 -1.452 4.384
-1.017 -1.449 4.379
-0.988 -1.446 4.374
-0.96 -1.444 4.373
-0.932 -1.442 4.37
-0.905 -1.44 4.37
-0.877 -1.438 4.369
-0.849 -1.436 4.364
-0.822 -1.434 4.362
-0.794 -1.431 4.358
-0.767 -1.429 4.355
-0.739 -1.426 4.349
-0.712 -1.425 4.35
-0.685 -1.424 4.35
-0.659 -1.423 4.351
-0.632 -1.421 4.345
-0.605 -1.42 4.347
-0.579 -1.418 4.343
-0.551 -1.415 4.336
-0.525 -1.413 4.332
-0.499 -1.413 4.335
-0.472 -1.411 4.331
-0.446 -1.41 4.327
-0.42 -1.41 4.329
-0.394 -1.41 4.331
-0.368 -1.408 4.326
-0.342 -1.408 4.328
-0.316 -1.407 4.327
-0.29 -1.406 4.325
-0.264 -1.405 4.321
-0.238 -1.403 4.317
-0.212 -1.402 4.313
-0.187 -1.402 4.314
-0.161 -1.4 4.309
-0.135 -1.398 4.304
-0.11 -1.4 4.31
-0.084 -1.4 4.309
-0.059 -1.4 4.31
-0.033 -1.4 4.309
-0.007 -1.402 4.316
0.017 -1.4 4.31
0.043 -1.398 4.303
0.068 -1.398 4.302
0.094 -1.397 4.297
0.119 -1.397 4.296
0.144 -1.395 4.29
0.17 -1.397 4.294
0.196 -1.397 4.293
0.221 -1.4 4.3
0.247 -1.399 4.298
0.273 -1.4 4.298
0.298 -1.4 4.296
0.323 -1.399 4.291
0.348 -1.396 4.281
0.373 -1.394 4.273
0.398 -1.394 4.269
0.424 -1.394 4.266
0.449 -1.394 4.264
0.475 -1.396 4.269
0.501 -1.396 4.266
0.526 -1.396 4.262
0.552 -1.397 4.263
0.578 -1.398 4.264
0.603 -1.398 4.259
0.63 -1.401 4.264
0.656 -1.402 4.265
0.681 -1.402 4.262
0.707 -1.402 4.257
0.733 -1.404 4.261
0.759 -1.405 4.259
0.785 -1.406 4.257
0.813 -1.41 4.264
0.839 -1.41 4.26
0.863 -1.408 4.25
0.888 -1.407 4.242
0.914 -1.408 4.241
0.938 -1.406 4.229
0.965 -1.408 4.229
0.992 -1.41 4.23
1.019 -1.412 4.231
1.046 -1.413 4.229
1.073 -1.415 4.229
1.1 -1.417 4.226
1.126 -1.418 4.223
1.153 -1.42 4.223
1.18 -1.421 4.22
1.207 -1.422 4.218
1.234 -1.424 4.215
1.261 -1.425 4.211
1.286 -1.424 4.202
1.312 -1.425 4.198
1.34 -1.427 4.197
1.368 -1.429 4.195
1.396 -1.431 4.194
1.426 -1.436 4.199
1.455 -1.438 4.197
1.482 -1.439 4.192
1.51 -1.441 4.188
1.538 -1.443 4.186
1.564 -1.443 4.178
1.592 -1.445 4.173
1.619 -1.446 4.167
1.646 -1.447 4.16
1.672 -1.447 4.149
1.699 -1.447 4.142
1.725 -1.447 4.131
1.751 -1.447 4.122
1.776 -1.447 4.109
1.803 -1.447 4.1
1.827 -1.446 4.085
0 0 0
0 0 0
0 0 0
0 0 0
0 0 0
0 0 0
0 0 0
0 0 0
0 0 0
1.781 -1.234 3.385
1.738 -1.189 3.251
1.687 -1.141 3.108
1.694 -1.131 3.072
1.698 -1.121 3.034
1.693 -1.104 2.978
1.683 -1.085 2.916
1.676 -1.068 2.86
1.663 -1.048 2.795
1.661 -1.036 2.752
-0.169 -0.106 0.279
-0.193 -0.122 0.325
-0.126 -0.081 0.212
-0.12 -0.078 0.205
-0.113 -0.075 0.195
-0.108 -0.072 0.188
-0.091 -0.062 0.159
-0.087 -0.06 0.154
-0.08 -0.056 0.144
-0.072 -0.051 0.129
-0.064 -0.046 0.116
-0.06 -0.044 0.11
-0.051 -0.038 0.092
-0.045 -0.034 0.083
-0.036 -0.028 0.064
-0.109 -0.083 0.225
-0.181 -0.138 0.388
-0.407 -0.315 0.907
-0.701 -0.549 1.599
-1.067 -0.848 2.483
-1.347 -1.085 3.192
-1.615 -1.321 3.899
-1.731 -1.438 4.254
-1.773 -1.496 4.437
-1.74 -1.492 4.435
-1.708 -1.489 4.433
-1.676 -1.486 4.433
-1.644 -1.482 4.429
-1.61 -1.477 4.422
-1.579 -1.473 4.419
-1.546 -1.468 4.414
-1.516 -1.466 4.414
-1.487 -1.464 4.417
-1.457 -1.462 4.416
-1.426 -1.459 4.415
-1.396 -1.456 4.414
-1.367 -1.454 4.414
-1.336 -1.45 4.408
-1.307 -1.448 4.409
-1.277 -1.445 4.406
-1.247 -1.441 4.401
-1.216 -1.437 4.396
-1.187 -1.435 4.393
-1.158 -1.431 4.389
-1.13 -1.43 4.39
-1.103 -1.43 4.394
-1.074 -1.427 4.392
-1.045 -1.425 4.389
-1.017 -1.422 4.387
-0.988 -1.419 4.38
-0.96 -1.417 4.378
-0.932 -1.415 4.376
-0.904 -1.413 4.376
-0.877 -1.411 4.373
-0.849 -1.409 4.37
-0.821 -1.407 4.369
-0.794 -1.405 4.365
-0.766 -1.403 4.362
-0.739 -1.4 4.358
-0.712 -1.399 4.357
-0.685 -1.398 4.356
-0.659 -1.397 4.356
-0.631 -1.394 4.351
-0.605 -1.395 4.355
-0.579 -1.393 4.353
-0.552 -1.39 4.346
-0.525 -1.387 4.339
-0.499 -1.389 4.346
-0.472 -1.385 4.337
-0.445 -1.382 4.33
-0.419 -1.381 4.328
-0.393 -1.381 4.329
-0.367 -1.379 4.324
-0.341 -1.379 4.326
-0.315 -1.379 4.326
-0.29 -1.378 4.325
-0.264 -1.377 4.321
-0.238 -1.376 4.318
-0.212 -1.374 4.314
-0.186 -1.374 4.315
-0.16 -1.372 4.31
-0.135 -1.371 4.307
-0.109 -1.373 4.312
-0.084 -1.372 4.309
-0.058 -1.372 4.309
-0.033 -1.372 4.31
-0.007 -1.376 4.322
0.017 -1.374 4.313
0.043 -1.373 4.31
0.068 -1.373 4.31
0.094 -1.371 4.304
0.119 -1.37 4.3
0.145 -1.369 4.294
0.17 -1.37 4.296
0.195 -1.369 4.292
0.221 -1.372 4.301
0.247 -1.373 4.301
0.273 -1.374 4.303
0.298 -1.374 4.303
0.324 -1.374 4.301
0.348 -1.371 4.289
0.373 -1.369 4.281
0.399 -1.369 4.277
0.424 -1.368 4.272
0.449 -1.367 4.266
0.475 -1.369 4.271
0.5 -1.368 4.266
0.525 -1.368 4.262
0.551 -1.369 4.263
0.577 -1.372 4.267
0.603 -1.372 4.265
0.63 -1.375 4.27
0.656 -1.376 4.27
0.681 -1.376 4.268
0.707 -1.376 4.262
0.733 -1.378 4.265
0.759 -1.379 4.263
0.785 -1.379 4.259
0.813 -1.384 4.27
0.839 -1.384 4.267
0.863 -1.382 4.255
0.888 -1.381 4.249
0.914 -1.382 4.247
0.938 -1.38 4.235
0.965 -1.381 4.233
0.991 -1.383 4.232
1.018 -1.384 4.232
1.045 -1.386 4.232
1.072 -1.387 4.23
1.098 -1.389 4.228
1.126 -1.391 4.228
1.153 -1.393 4.228
1.179 -1.393 4.222
1.205 -1.394 4.218
1.232 -1.396 4.217
1.258 -1.396 4.209
1.282 -1.394 4.198
1.309 -1.396 4.195
1.338 -1.398 4.196
1.366 -1.4 4.194
1.394 -1.403 4.193
1.424 -1.407 4.198
1.452 -1.409 4.195
1.479 -1.411 4.193
1.507 -1.412 4.188
1.536 -1.415 4.187
1.562 -1.415 4.18
1.591 -1.418 4.178
1.618 -1.419 4.171
1.645 -1.419 4.164
1.671 -1.419 4.155
1.699 -1.421 4.15
1.725 -1.42 4.138
1.751 -1.421 4.128
1.778 -1.421 4.12
1.805 -1.422 4.112
0 0 0
0 0 0
0 0 0
0 0 0
0 0 0
0 0 0
0 0 0
0 0 0
0 0 0
0 0 0
1.752 -1.191 3.335
1.723 -1.157 3.229
1.678 -1.114 3.097
1.688 -1.107 3.067
1.694 -1.098 3.032
1.694 -1.085 2.986
1.684 -1.066 2.923
1.675 -1.048 2.865
1.627 -1.007 2.741
1.683 -1.03 2.794
-0.117 -0.073 0.19
-0.142 -0.089 0.237
-0.143 -0.09 0.243
-0.135 -0.086 0.231
-0.128 -0.082 0.222
-0.117 -0.076 0.205
-0.102 -0.068 0.18
-0.094 -0.063 0.167
-0.086 -0.059 0.156
-0.075 -0.052 0.137
-0.068 -0.048 0.124
-0.062 -0.045 0.114
-0.054 -0.039 0.099
-0.047 -0.035 0.086
-0.038 -0.029 0.068
-0.031 -0.024 0.054
-0.181 -0.136 0.39
-0.485 -0.368 1.086
-0.779 -0.598 1.781
-1.144 -0.891 2.667
-1.496 -1.183 3.554
-1.688 -1.355 4.083
-1.731 -1.411 4.262
-1.772 -1.467 4.443
-1.737 -1.462 4.437
-1.705 -1.458 4.434
-1.674 -1.456 4.436
-1.64 -1.451 4.428
-1.608 -1.447 4.423
-1.577 -1.444 4.422
-1.546 -1.44 4.42
-1.515 -1.437 4.419
-1.486 -1.436 4.422
-1.456 -1.433 4.422
-1.426 -1.431 4.421
-1.396 -1.428 4.42
-1.366 -1.426 4.421
-1.336 -1.423 4.418
-1.306 -1.421 4.416
-1.277 -1.418 4.414
-1.246 -1.414 4.408
-1.216 -1.41 4.403
-1.186 -1.407 4.398
-1.157 -1.404 4.393
-1.128 -1.402 4.394
-1.101 -1.401 4.396
-1.072 -1.399 4.394
-1.044 -1.396 4.391
-1.015 -1.394 4.388
-0.986 -1.39 4.381
-0.959 -1.389 4.381
-0.931 -1.387 4.379
-0.904 -1.386 4.38
-0.876 -1.383 4.376
-0.847 -1.38 4.371
-0.821 -1.38 4.373
-0.793 -1.377 4.368
-0.766 -1.376 4.367
-0.738 -1.373 4.363
-0.712 -1.373 4.366
-0.685 -1.372 4.364
-0.659 -1.371 4.364
-0.631 -1.368 4.356
-0.605 -1.369 4.363
-0.578 -1.366 4.356
-0.55 -1.362 4.345
-0.523 -1.357 4.333
-0.498 -1.359 4.342
-0.471 -1.356 4.333
-0.444 -1.354 4.327
-0.418 -1.353 4.328
-0.393 -1.354 4.332
-0.366 -1.351 4.325
-0.341 -1.352 4.327
-0.315 -1.352 4.327
-0.289 -1.35 4.323
-0.263 -1.349 4.321
-0.237 -1.349 4.321
-0.212 -1.347 4.318
-0.186 -1.348 4.319
-0.16 -1.347 4.317
-0.135 -1.345 4.312
-0.109 -1.346 4.313
-0.084 -1.345 4.312
-0.058 -1.343 4.306
-0.032 -1.344 4.308
-0.007 -1.349 4.324
0.017 -1.345 4.312
0.043 -1.346 4.312
0.069 -1.347 4.315
0.094 -1.345 4.308
0.119 -1.343 4.302
0.145 -1.342 4.297
0.17 -1.344 4.304
0.196 -1.347 4.309
0.222 -1.351 4.323
0.248 -1.353 4.327
0.274 -1.354 4.328
0.299 -1.352 4.322
0.324 -1.35 4.313
0.349 -1.347 4.299
0.373 -1.343 4.285
0.398 -1.342 4.28
0.424 -1.342 4.277
0.448 -1.338 4.262
0.474 -1.342 4.271
0.499 -1.34 4.265
0.524 -1.34 4.259
0.55 -1.341 4.262
0.578 -1.347 4.278
0.603 -1.347 4.273
0.63 -1.349 4.276
0.657 -1.352 4.282
0.681 -1.35 4.273
0.706 -1.349 4.266
0.733 -1.351 4.268
0.76 -1.354 4.274
0.783 -1.351 4.258
0.815 -1.36 4.285
0.839 -1.359 4.276
0.863 -1.356 4.262
0.888 -1.355 4.254
0.914 -1.355 4.249
0.937 -1.352 4.236
0.964 -1.354 4.235
0.99 -1.355 4.234
1.017 -1.356 4.232
1.044 -1.359 4.233
1.07 -1.36 4.231
1.096 -1.36 4.226
1.124 -1.362 4.227
1.15 -1.364 4.225
1.176 -1.364 4.22
1.203 -1.365 4.216
1.229 -1.366 4.212
1.254 -1.366 4.204
1.28 -1.365 4.195
1.307 -1.367 4.193
1.334 -1.369 4.192
1.363 -1.372 4.193
1.391 -1.374 4.194
1.421 -1.378 4.196
1.449 -1.38 4.195
1.478 -1.383 4.196
1.506 -1.385 4.193
1.534 -1.386 4.189
1.561 -1.388 4.183
1.589 -1.389 4.179
1.615 -1.39 4.171
1.642 -1.39 4.163
1.669 -1.391 4.156
1.697 -1.393 4.151
1.723 -1.393 4.142
1.75 -1.393 4.133
1.777 -1.394 4.126
1.806 -1.396 4.121
0 0 0
0 0 0
0 0 0
0 0 0
0 0 0
0 0 0
0 0 0
0 0 0
0 0 0
0 0 0
1.739 -1.161 3.317
1.714 -1.13 3.219
1.673 -1.09 3.094
1.685 -1.084 3.068
1.693 -1.077 3.036
1.694 -1.065 2.993
1.687 -1.048 2.934
1.676 -1.03 2.873
1.682 -1.022 2.84
1.677 -1.007 2.79
-0.221 -0.133 0.37
-0.138 -0.084 0.23
-0.153 -0.095 0.261
-0.141 -0.088 0.243
-0.132 -0.083 0.23
-0.119 -0.077 0.21
-0.107 -0.07 0.19
-0.096 -0.063 0.172
-0.088 -0.059 0.159
-0.076 -0.052 0.138
-0.069 -0.047 0.126
-0.061 -0.043 0.111
-0.052 -0.038 0.096
-0.046 -0.034 0.085
-0.037 -0.027 0.066
-0.109 -0.08 0.226
-0.337 -0.248 0.74
-0.639 -0.475 1.437
-1.006 -0.758 2.31
-1.369 -1.046 3.201
-1.643 -1.274 3.913
-1.76 -1.386 4.266
-1.801 -1.44 4.444
-1.77 -1.438 4.447
-1.736 -1.433 4.441
-1.703 -1.429 4.438
-1.673 -1.427 4.44
-1.64 -1.423 4.434
-1.607 -1.418 4.428
-1.575 -1.415 4.426
-1.544 -1.411 4.424
-1.512 -1.407 4.419
-1.482 -1.405 4.419
-1.453 -1.403 4.421
-1.424 -1.402 4.423
-1.393 -1.398 4.418
-1.364 -1.397 4.422
-1.335 -1.395 4.422
-1.305 -1.392 4.418
-1.275 -1.389 4.415
-1.244 -1.385 4.408
-1.214 -1.381 4.403
-1.184 -1.378 4.399
-1.155 -1.375 4.395
-1.127 -1.373 4.395
