 -0.963 -1.63 3.935
 -0.926 -1.608 3.887
 -0.921 -1.642 3.974
 -0.887 -1.625 3.936
 -0.861 -1.623 3.935
 -0.837 -1.622 3.938
 -0.812 -1.622 3.942
 -0.788 -1.622 3.947
 -0.764 -1.624 3.954
 -0.742 -1.63 3.972
 -0.717 -1.628 3.972
 -0.693 -1.628 3.975
 -0.67 -1.632 3.988
 -0.643 -1.627 3.978
 -0.615 -1.618 3.96
 -0.599 -1.639 4.014
 -0.572 -1.632 3.999
 -0.547 -1.632 4.002
 -0.523 -1.633 4.007
 -0.495 -1.621 3.979
 -0.473 -1.63 4.004
 -0.443 -1.611 3.961
 -0.426 -1.637 4.026
 -0.396 -1.616 3.977
 -0.376 -1.632 4.017
 -0.35 -1.628 4.01
 -0.325 -1.625 4.003
 -0.304 -1.64 4.041
 -0.277 -1.628 4.012
 -0.254 -1.633 4.027
 -0.228 -1.625 4.008
 -0.205 -1.637 4.037
 -0.181 -1.643 4.053
 -0.155 -1.626 4.011
 -0.132 -1.647 4.064
 -0.106 -1.63 4.023
 -0.082 -1.625 4.01
 -0.058 -1.626 4.013
 -0.033 -1.613 3.981
 -0.009 -1.625 4.009
 0.015 -1.626 4.012
 0.039 -1.625 4.008
 0.063 -1.63 4.022
 0.087 -1.614 3.98
 0.112 -1.635 4.033
 0.138 -1.645 4.056
 0.159 -1.616 3.983
 0.186 -1.638 4.035
 0.208 -1.617 3.982
 0.232 -1.617 3.981
 0.258 -1.63 4.012
 0.281 -1.62 3.985
 0.307 -1.629 4.005
 0.332 -1.631 4.009
 0.356 -1.631 4.006
 0.378 -1.624 3.987
 0.405 -1.631 4.004
 0.43 -1.636 4.013
 0.448 -1.612 3.95
 0.48 -1.639 4.014
 0.498 -1.617 3.959
 0.522 -1.617 3.954
 0.551 -1.631 3.986
 0.574 -1.628 3.975
 0.601 -1.637 3.993
 0.624 -1.631 3.976
 0.651 -1.639 3.993
 0.674 -1.635 3.978
 0.696 -1.631 3.964
 0.733 -1.659 4.028
 0.752 -1.645 3.99
 0.769 -1.63 3.949
 0.801 -1.646 3.983
 0.819 -1.633 3.948
 0.846 -1.638 3.954
 0.866 -1.631 3.932
 0.891 -1.631 3.928
 0.924 -1.646 3.959
 0.946 -1.643 3.947
 0.969 -1.641 3.936
 0.992 -1.638 3.924
 1.012 -1.632 3.902
 1.046 -1.646 3.931
 1.063 -1.634 3.897
 1.094 -1.644 3.914
 1.124 -1.654 3.93
 1.14 -1.64 3.892
 1.165 -1.642 3.889
 1.179 -1.627 3.846
 1.209 -1.636 3.861
 1.23 -1.631 3.843
 1.269 -1.65 3.879
 1.303 -1.663 3.902
 1.329 -1.664 3.897
 1.344 -1.651 3.86
 1.373 -1.657 3.866
 1.398 -1.658 3.859
 1.413 -1.646 3.824
 1.435 -1.644 3.81
 1.47 -1.656 3.829
 1.482 -1.642 3.789
 1.516 -1.652 3.803
 1.534 -1.645 3.778
 1.56 -1.647 3.774
 1.58 -1.642 3.753
 1.598 -1.636 3.728
 1.629 -1.643 3.735
 1.662 -1.651 3.744
 1.657 -1.623 3.67
 1.682 -1.624 3.662
 1.721 -1.638 3.684
 1.75 -1.642 3.683
 1.768 -1.637 3.659
 1.785 -1.63 3.633
 1.842 -1.659 3.688
 1.865 -1.658 3.675
 1.877 -1.648 3.64
 1.865 -1.616 3.557
 1.863 -1.594 3.498
 1.853 -1.566 3.424
 1.874 -1.564 3.41
 1.864 -1.536 3.338
 1.843 -1.501 3.249
 1.857 -1.495 3.224
 1.85 -1.472 3.163
 1.835 -1.442 3.089
 1.829 -1.421 3.032
 1.807 -1.388 2.951
 1.831 -1.391 2.946
 -2.155 -1.631 3.598
 -2.127 -1.629 3.606
 -2.102 -1.629 3.619
 -2.096 -1.643 3.663
 -2.055 -1.631 3.648
 -2.033 -1.634 3.666
 -2.013 -1.638 3.686
 -1.972 -1.625 3.668
 -1.961 -1.637 3.707
 -1.928 -1.63 3.702
 -1.924 -1.648 3.754
 -1.878 -1.63 3.725
 -1.858 -1.634 3.744
 -1.862 -1.661 3.816
 -1.845 -1.668 3.844
 -1.803 -1.653 3.82
 -1.736 -1.614 3.739
 -1.718 -1.621 3.765
 -1.714 -1.641 3.821
 -1.675 -1.628 3.8
 -1.644 -1.621 3.793
 -1.625 -1.628 3.817
 -1.587 -1.614 3.794
 -1.593 -1.646 3.879
 -1.553 -1.631 3.851
 -1.524 -1.627 3.85
 -1.503 -1.631 3.869
 -1.493 -1.647 3.915
 -1.459 -1.637 3.899
 -1.418 -1.62 3.866
 -1.417 -1.648 3.94
 -1.381 -1.635 3.917
 -1.346 -1.623 3.894
 -1.325 -1.627 3.912
 -1.3 -1.627 3.919
 -1.281 -1.635 3.946
 -1.244 -1.619 3.913
 -1.234 -1.639 3.969
 -1.202 -1.629 3.951
 -1.187 -1.643 3.992
 -1.158 -1.638 3.986
 -1.123 -1.623 3.955
 -1.096 -1.62 3.953
 -1.072 -1.622 3.962
 -1.048 -1.623 3.971
 -1.019 -1.616 3.96
 -0.996 -1.619 3.973
 -0.981 -1.635 4.015
 -0.952 -1.629 4.006
 -0.923 -1.622 3.993
 -0.902 -1.627 4.011
 -0.881 -1.636 4.037
 -0.843 -1.611 3.98
 -0.82 -1.614 3.99
 -0.803 -1.63 4.035
 -0.783 -1.639 4.062
 -0.752 -1.626 4.033
 -0.728 -1.628 4.041
 -0.701 -1.624 4.034
 -0.675 -1.621 4.03
 -0.649 -1.618 4.025
 -0.629 -1.629 4.057
 -0.605 -1.631 4.065
 -0.576 -1.621 4.042
 -0.554 -1.628 4.063
 -0.532 -1.636 4.085
 -0.506 -1.635 4.085
 -0.477 -1.619 4.048
 -0.459 -1.641 4.106
 -0.427 -1.615 4.041
 -0.404 -1.624 4.066
 -0.378 -1.616 4.047
 -0.351 -1.608 4.029
 -0.331 -1.63 4.085
 -0.305 -1.622 4.068
 -0.28 -1.623 4.07
 -0.257 -1.634 4.1
 -0.23 -1.617 4.058
 -0.208 -1.638 4.111
 -0.181 -1.615 4.055
 -0.157 -1.626 4.083
 -0.133 -1.632 4.097
 -0.108 -1.637 4.111
 -0.082 -1.615 4.054
 -0.058 -1.634 4.103
 -0.033 -1.615 4.054
 -0.009 -1.614 4.053
 0.015 -1.616 4.057
 0.039 -1.615 4.055
 0.064 -1.619 4.063
 0.088 -1.616 4.055
 0.114 -1.626 4.079
 0.138 -1.621 4.065
 0.164 -1.631 4.09
 0.189 -1.637 4.105
 0.209 -1.602 4.016
 0.235 -1.614 4.044
 0.262 -1.625 4.07
 0.286 -1.624 4.065
 0.311 -1.626 4.068
 0.336 -1.625 4.064
 0.36 -1.625 4.063
 0.385 -1.624 4.057
 0.409 -1.622 4.05
 0.433 -1.621 4.045
 0.457 -1.618 4.034
 0.482 -1.621 4.04
 0.508 -1.625 4.047
 0.528 -1.612 4.012
 0.557 -1.625 4.041
 0.582 -1.625 4.037
 0.608 -1.63 4.046
 0.629 -1.619 4.015
 0.653 -1.619 4.012
 0.685 -1.636 4.049
 0.712 -1.643 4.063
 0.733 -1.634 4.037
 0.761 -1.639 4.046
 0.783 -1.635 4.03
 0.812 -1.644 4.049
 0.829 -1.627 4.003
 0.861 -1.642 4.033
 0.885 -1.64 4.024
 0.905 -1.632 4
 0.934 -1.64 4.013
 0.953 -1.629 3.982
 0.983 -1.639 4.001
 1.011 -1.644 4.008
 1.034 -1.642 3.996
 1.056 -1.636 3.976
 1.085 -1.643 3.986
 1.094 -1.62 3.924
 1.134 -1.643 3.973
 1.155 -1.638 3.954
 1.19 -1.651 3.98
 1.207 -1.641 3.949
 1.231 -1.64 3.939
 1.265 -1.651 3.959
 1.281 -1.641 3.927
 1.314 -1.651 3.944
 1.329 -1.639 3.907
 1.36 -1.647 3.918
 1.406 -1.671 3.967
 1.41 -1.647 3.901
 1.43 -1.641 3.88
 1.455 -1.641 3.871
 1.482 -1.644 3.868
 1.504 -1.642 3.855
 1.515 -1.626 3.81
 1.55 -1.637 3.826
 1.573 -1.636 3.814
 1.6 -1.639 3.811
 1.633 -1.646 3.819
 1.655 -1.644 3.805
 1.66 -1.625 3.75
 1.685 -1.625 3.741
 1.72 -1.635 3.753
 1.738 -1.629 3.728
 1.768 -1.634 3.729
 1.77 -1.614 3.672
 1.821 -1.637 3.716
 1.857 -1.648 3.729
 1.845 -1.616 3.644
 1.868 -1.615 3.632
 1.878 -1.602 3.591
 1.863 -1.57 3.507
 1.871 -1.557 3.466
 1.87 -1.537 3.411
 1.886 -1.531 3.387
 1.862 -1.493 3.291
 1.892 -1.5 3.293
 1.858 -1.456 3.185
 1.841 -1.426 3.108
 1.834 -1.404 3.05
 1.839 -1.391 3.011
 1.803 -1.349 2.908
 -2.174 -1.62 3.641
 -2.156 -1.625 3.664
 -2.135 -1.629 3.685
 -2.108 -1.628 3.695
 -2.083 -1.628 3.708
 -2.058 -1.628 3.72
 -2.033 -1.629 3.733
 -2.01 -1.631 3.749
 -1.986 -1.632 3.764
 -1.96 -1.632 3.774
 -1.934 -1.631 3.784
 -1.91 -1.633 3.798
 -1.887 -1.634 3.813
 -1.863 -1.636 3.827
 -1.839 -1.637 3.841
 -1.814 -1.638 3.853
 -1.788 -1.638 3.863
 -1.761 -1.636 3.869
 -1.733 -1.634 3.872
 -1.705 -1.632 3.878
 -1.68 -1.632 3.887
 -1.653 -1.63 3.893
 -1.627 -1.63 3.901
 -1.602 -1.63 3.911
 -1.577 -1.631 3.921
 -1.552 -1.631 3.931
 -1.526 -1.63 3.936
 -1.499 -1.629 3.941
 -1.472 -1.627 3.946
 -1.447 -1.627 3.954
 -1.42 -1.625 3.956
 -1.394 -1.625 3.964
 -1.37 -1.626 3.973
 -1.345 -1.627 3.983
 -1.318 -1.625 3.985
 -1.294 -1.627 3.996
 -1.269 -1.627 4.003
 -1.244 -1.627 4.011
 -1.219 -1.628 4.019
 -1.194 -1.628 4.025
 -1.167 -1.626 4.026
 -1.141 -1.624 4.029
 -1.115 -1.623 4.031
 -1.089 -1.623 4.035
 -1.064 -1.622 4.04
 -1.038 -1.622 4.045
 -1.013 -1.622 4.05
 -0.988 -1.622 4.055
 -0.962 -1.62 4.055
 -0.937 -1.621 4.062
 -0.912 -1.621 4.066
 -0.886 -1.62 4.069
 -0.86 -1.619 4.07
 -0.835 -1.619 4.075
 -0.81 -1.618 4.076
 -0.785 -1.618 4.081
 -0.76 -1.619 4.087
 -0.736 -1.621 4.094
 -0.71 -1.62 4.096
 -0.685 -1.62 4.1
 -0.661 -1.621 4.106
 -0.635 -1.62 4.107
 -0.61 -1.621 4.112
 -0.585 -1.621 4.114
 -0.56 -1.621 4.117
 -0.535 -1.62 4.116
 -0.51 -1.62 4.119
 -0.484 -1.619 4.119
 -0.459 -1.62 4.122
 -0.434 -1.619 4.122
 -0.409 -1.618 4.123
 -0.384 -1.619 4.126
 -0.359 -1.62 4.13
 -0.334 -1.618 4.128
 -0.309 -1.619 4.131
 -0.284 -1.62 4.135
 -0.259 -1.622 4.14
 -0.234 -1.621 4.138
 -0.209 -1.621 4.14
 -0.184 -1.622 4.143
 -0.159 -1.622 4.143
 -0.134 -1.619 4.137
 -0.109 -1.62 4.139
 -0.084 -1.619 4.136
 -0.059 -1.617 4.131
 -0.034 -1.615 4.127
 -0.009 -1.615 4.127
 0.015 -1.614 4.123
 0.04 -1.614 4.124
 0.065 -1.615 4.125
 0.09 -1.616 4.127
 0.115 -1.616 4.126
 0.14 -1.618 4.131
 0.165 -1.617 4.127
 0.19 -1.616 4.123
 0.215 -1.617 4.124
 0.24 -1.617 4.123
 0.264 -1.615 4.117
 0.29 -1.618 4.121
 0.315 -1.618 4.121
 0.34 -1.619 4.12
 0.365 -1.619 4.117
 0.39 -1.62 4.117
 0.414 -1.619 4.113
 0.44 -1.62 4.113
 0.464 -1.618 4.107
 0.489 -1.619 4.104
 0.514 -1.619 4.102
 0.539 -1.62 4.102
 0.564 -1.621 4.101
 0.589 -1.621 4.099
 0.615 -1.623 4.099
 0.64 -1.623 4.097
 0.666 -1.625 4.097
 0.691 -1.627 4.098
 0.717 -1.628 4.098
 0.743 -1.629 4.096
 0.768 -1.63 4.094
 0.792 -1.629 4.087
 0.817 -1.629 4.081
 0.842 -1.629 4.077
 0.867 -1.629 4.072
 0.892 -1.629 4.067
 0.918 -1.63 4.065
 0.943 -1.629 4.058
 0.968 -1.63 4.055
 0.994 -1.631 4.051
 1.019 -1.632 4.048
 1.045 -1.633 4.044
 1.07 -1.633 4.038
 1.095 -1.633 4.033
 1.12 -1.633 4.027
 1.146 -1.634 4.021
 1.17 -1.633 4.013
 1.196 -1.634 4.009
 1.221 -1.634 4.003
 1.247 -1.636 3.999
 1.274 -1.638 3.996
 1.302 -1.642 3.998
 1.328 -1.643 3.994
 1.355 -1.645 3.992
 1.381 -1.646 3.986
 1.405 -1.645 3.974
 1.428 -1.643 3.961
 1.453 -1.642 3.951
 1.477 -1.641 3.94
 1.501 -1.64 3.928
 1.527 -1.641 3.922
 1.552 -1.64 3.911
 1.576 -1.639 3.9
 1.601 -1.639 3.891
 1.626 -1.64 3.882
 1.65 -1.639 3.87
 1.674 -1.638 3.858
 1.697 -1.636 3.843
 1.72 -1.634 3.828
 1.745 -1.634 3.817
 1.768 -1.632 3.803
 1.791 -1.63 3.788
 1.816 -1.63 3.778
 1.837 -1.627 3.758
 1.85 -1.617 3.724
 1.861 -1.605 3.685
 1.868 -1.59 3.641
 1.869 -1.57 3.583
 1.87 -1.551 3.529
 1.874 -1.536 3.481
 1.875 -1.518 3.429
 1.873 -1.497 3.372
 1.859 -1.469 3.295
 1.851 -1.445 3.23
 1.842 -1.421 3.166
 1.839 -1.402 3.112
 1.837 -1.385 3.062
 1.847 -1.376 3.032
 1.827 -1.346 2.955
 -2.222 -1.63 3.73
 -2.187 -1.623 3.728
 -2.168 -1.628 3.752
 -2.142 -1.628 3.764
 -2.117 -1.629 3.778
 -2.089 -1.628 3.788
 -2.063 -1.628 3.799
 -2.037 -1.627 3.81
 -2.012 -1.628 3.824
 -1.987 -1.629 3.837
 -1.96 -1.628 3.846
 -1.935 -1.628 3.858
 -1.912 -1.631 3.875
 -1.888 -1.632 3.89
 -1.861 -1.632 3.899
 -1.837 -1.633 3.912
 -1.812 -1.633 3.923
 -1.783 -1.631 3.928
 -1.755 -1.629 3.932
 -1.728 -1.628 3.939
 -1.702 -1.628 3.948
 -1.675 -1.627 3.955
 -1.648 -1.625 3.962
 -1.622 -1.625 3.97
 -1.597 -1.626 3.981
 -1.572 -1.626 3.99
 -1.545 -1.625 3.995
 -1.519 -1.625 4.003
 -1.492 -1.624 4.008
 -1.467 -1.624 4.017
 -1.439 -1.622 4.02
 -1.413 -1.621 4.026
 -1.387 -1.621 4.032
 -1.361 -1.621 4.04
 -1.334 -1.619 4.043
 -1.31 -1.62 4.053
 -1.283 -1.62 4.058
 -1.259 -1.621 4.067
 -1.234 -1.622 4.078
 -1.209 -1.622 4.084
 -1.183 -1.622 4.088
 -1.157 -1.622 4.095
 -1.129 -1.619 4.094
 -1.103 -1.618 4.096
 -1.077 -1.617 4.1
 -1.05 -1.615 4.1
 -1.025 -1.615 4.106
 -1 -1.616 4.112
 -0.973 -1.614 4.113
 -0.949 -1.616 4.123
 -0.924 -1.617 4.129
 -0.898 -1.615 4.13
 -0.872 -1.615 4.133
 -0.846 -1.615 4.137
 -0.82 -1.613 4.137
 -0.795 -1.613 4.141
 -0.769 -1.614 4.146
 -0.744 -1.614 4.151
 -0.719 -1.614 4.155
 -0.693 -1.614 4.157
 -0.668 -1.615 4.162
 -0.642 -1.614 4.163
 -0.617 -1.614 4.167
 -0.591 -1.613 4.167
 -0.566 -1.613 4.17
 -0.54 -1.612 4.17
 -0.515 -1.613 4.174
 -0.489 -1.611 4.171
 -0.464 -1.612 4.176
 -0.438 -1.611 4.175
 -0.413 -1.61 4.174
 -0.388 -1.609 4.175
 -0.362 -1.61 4.179
 -0.337 -1.609 4.176
 -0.312 -1.609 4.179
 -0.287 -1.61 4.183
 -0.261 -1.611 4.187
 -0.236 -1.61 4.184
 -0.211 -1.61 4.185
 -0.185 -1.611 4.187
 -0.16 -1.61 4.187
 -0.135 -1.608 4.182
 -0.11 -1.609 4.184
 -0.084 -1.609 4.184
 -0.059 -1.607 4.179
 -0.034 -1.605 4.174
 -0.009 -1.605 4.174
 0.016 -1.604 4.171
 0.041 -1.604 4.171
 0.066 -1.605 4.172
 0.091 -1.605 4.172
 0.116 -1.605 4.17
 0.141 -1.607 4.176
 0.167 -1.606 4.172
 0.192 -1.606 4.17
 0.217 -1.607 4.171
 0.242 -1.607 4.17
 0.267 -1.606 4.165
 0.293 -1.608 4.169
 0.318 -1.608 4.168
 0.343 -1.609 4.167
 0.368 -1.609 4.166
 0.394 -1.61 4.166
 0.419 -1.61 4.165
 0.444 -1.611 4.163
 0.469 -1.61 4.159
 0.494 -1.611 4.157
 0.52 -1.611 4.156
 0.545 -1.611 4.153
 0.571 -1.613 4.153
 0.596 -1.613 4.15
 0.621 -1.613 4.148
 0.646 -1.613 4.145
 0.672 -1.615 4.146
 0.698 -1.616 4.145
 0.724 -1.617 4.143
 0.75 -1.619 4.143
 0.775 -1.62 4.141
 0.8 -1.619 4.133
 0.826 -1.619 4.131
 0.852 -1.621 4.13
 0.877 -1.621 4.126
 0.903 -1.622 4.122
 0.929 -1.623 4.12
 0.954 -1.622 4.114
 0.98 -1.623 4.11
 1.005 -1.624 4.106
 1.031 -1.625 4.103
 1.058 -1.627 4.103
 1.083 -1.628 4.098
 1.109 -1.627 4.091
 1.134 -1.628 4.085
 1.16 -1.628 4.08
 1.185 -1.628 4.072
 1.212 -1.63 4.07
 1.238 -1.631 4.066
 1.264 -1.632 4.063
 1.291 -1.634 4.059
 1.318 -1.636 4.057
 1.345 -1.637 4.052
 1.371 -1.639 4.049
 1.398 -1.64 4.043
 1.423 -1.639 4.033
 1.447 -1.638 4.022
 1.472 -1.637 4.011
 1.497 -1.637 4.002
 1.521 -1.636 3.99
 1.548 -1.637 3.984
 1.572 -1.636 3.972
 1.597 -1.636 3.962
 1.623 -1.636 3.952
 1.649 -1.637 3.945
 1.673 -1.635 3.932
 1.698 -1.635 3.921
 1.722 -1.634 3.908
 1.746 -1.632 3.894
 1.77 -1.631 3.881
 1.792 -1.629 3.864
 1.814 -1.625 3.846
 1.835 -1.622 3.826
 1.85 -1.613 3.795
 1.861 -1.601 3.755
 1.869 -1.587 3.71
 1.874 -1.57 3.66
 1.875 -1.551 3.604
 1.877 -1.534 3.552
 1.882 -1.518 3.504
 1.884 -1.501 3.454
 1.879 -1.479 3.39
 1.856 -1.443 3.297
 1.845 -1.418 3.227
 1.838 -1.396 3.167
 1.838 -1.38 3.118
 1.836 -1.363 3.069
 1.835 -1.347 3.021
 1.835 -1.332 2.976
 -2.251 -1.625 3.79
 -2.214 -1.617 3.784
 -2.201 -1.627 3.819
 -2.174 -1.627 3.832
 -2.147 -1.626 3.843
 -2.119 -1.625 3.852
 -2.094 -1.626 3.866
 -2.066 -1.625 3.875
 -2.04 -1.625 3.887
 -2.016 -1.626 3.902
 -1.989 -1.625 3.912
 -1.961 -1.624 3.919
 -1.937 -1.626 3.935
 -1.913 -1.627 3.95
 -1.887 -1.628 3.961
 -1.861 -1.628 3.974
 -1.836 -1.629 3.987
 -1.808 -1.628 3.993
 -1.781 -1.627 4
 -1.752 -1.624 4.004
 -1.726 -1.625 4.014
 -1.698 -1.622 4.018
 -1.67 -1.621 4.024
 -1.643 -1.62 4.032
 -1.618 -1.621 4.042
 -1.591 -1.62 4.048
 -1.564 -1.619 4.055
 -1.538 -1.619 4.063
 -1.51 -1.617 4.066
 -1.484 -1.617 4.074
 -1.457 -1.616 4.079
 -1.43 -1.615 4.085
 -1.403 -1.614 4.09
 -1.378 -1.615 4.099
 -1.351 -1.613 4.102
 -1.325 -1.614 4.11
 -1.299 -1.613 4.116
 -1.273 -1.614 4.124
 -1.248 -1.615 4.134
 -1.223 -1.615 4.141
 -1.196 -1.615 4.146
 -1.171 -1.615 4.153
 -1.144 -1.614 4.155
 -1.118 -1.613 4.16
 -1.091 -1.612 4.161
 -1.063 -1.609 4.159
 -1.037 -1.609 4.164
 -1.011 -1.608 4.167
 -0.983 -1.605 4.166
 -0.958 -1.607 4.174
 -0.933 -1.608 4.181
 -0.907 -1.606 4.182
 -0.88 -1.605 4.184
 -0.854 -1.605 4.186
 -0.828 -1.603 4.185
 -0.802 -1.603 4.188
 -0.776 -1.602 4.191
 -0.751 -1.603 4.196
 -0.725 -1.603 4.201
 -0.699 -1.602 4.203
 -0.674 -1.603 4.206
 -0.648 -1.602 4.208
 -0.622 -1.602 4.212
 -0.596 -1.6 4.208
 -0.57 -1.6 4.21
 -0.544 -1.599 4.211
 -0.519 -1.599 4.212
 -0.493 -1.597 4.211
 -0.468 -1.599 4.216
 -0.442 -1.598 4.216
 -0.416 -1.597 4.215
 -0.39 -1.597 4.217
 -0.365 -1.597 4.219
 -0.339 -1.596 4.218
 -0.314 -1.596 4.219
 -0.289 -1.597 4.223
 -0.263 -1.597 4.225
 -0.237 -1.596 4.223
 -0.212 -1.596 4.223
 -0.187 -1.596 4.224
 -0.161 -1.595 4.222
 -0.135 -1.594 4.219
 -0.11 -1.594 4.219
 -0.085 -1.594 4.219
 -0.059 -1.593 4.217
 -0.034 -1.592 4.214
 -0.009 -1.592 4.214
 0.016 -1.591 4.211
 0.041 -1.591 4.212
 0.066 -1.591 4.211
 0.092 -1.592 4.211
 0.117 -1.59 4.207
 0.143 -1.593 4.213
 0.168 -1.592 4.209
 0.193 -1.592 4.208
 0.219 -1.593 4.209
 0.244 -1.594 4.21
 0.269 -1.592 4.204
 0.295 -1.593 4.205
 0.32 -1.594 4.205
 0.346 -1.595 4.206
 0.371 -1.596 4.206
 0.397 -1.597 4.206
 0.422 -1.598 4.206
 0.448 -1.598 4.204
 0.473 -1.597 4.199
 0.498 -1.598 4.198
 0.524 -1.598 4.196
 0.549 -1.598 4.192
 0.575 -1.599 4.192
 0.601 -1.6 4.19
 0.626 -1.6 4.188
 0.652 -1.6 4.185
 0.678 -1.602 4.186
 0.704 -1.603 4.185
 0.729 -1.603 4.182
 0.755 -1.605 4.181
 0.781 -1.606 4.179
 0.806 -1.605 4.174
 0.832 -1.606 4.171
 0.859 -1.608 4.171
 0.885 -1.609 4.169
 0.911 -1.61 4.166
 0.937 -1.611 4.163
 0.962 -1.611 4.157
 0.988 -1.612 4.155
 1.014 -1.612 4.15
 1.041 -1.614 4.149
 1.067 -1.616 4.148
 1.094 -1.618 4.147
 1.12 -1.618 4.14
 1.146 -1.618 4.135
 1.172 -1.619 4.131
 1.198 -1.619 4.125
 1.224 -1.621 4.121
 1.251 -1.622 4.117
 1.278 -1.624 4.115
 1.305 -1.626 4.112
 1.333 -1.628 4.11
 1.359 -1.629 4.105
 1.386 -1.631 4.101
 1.412 -1.631 4.094
 1.438 -1.631 4.085
 1.463 -1.63 4.076
 1.489 -1.63 4.066
 1.515 -1.631 4.059
 1.541 -1.631 4.051
 1.568 -1.632 4.045
 1.593 -1.632 4.035
 1.618 -1.631 4.024
 1.645 -1.632 4.015
 1.67 -1.632 4.006
 1.695 -1.63 3.992
 1.72 -1.63 3.982
 1.745 -1.63 3.97
 1.769 -1.628 3.955
 1.792 -1.626 3.939
 1.813 -1.622 3.919
 1.832 -1.616 3.894
 1.85 -1.609 3.866
 1.863 -1.598 3.829
 1.87 -1.584 3.783
 1.876 -1.568 3.733
 1.881 -1.552 3.683
 1.883 -1.533 3.629
 1.885 -1.515 3.575
 1.889 -1.5 3.527
 1.89 -1.482 3.473
 1.88 -1.456 3.4
 1.836 -1.405 3.27
 1.827 -1.382 3.204
 1.828 -1.366 3.157
 1.832 -1.353 3.116
 1.837 -1.342 3.077
 1.83 -1.322 3.021
 1.828 -1.305 2.972
 -2.261 -1.606 3.816
 -2.255 -1.621 3.864
 -2.232 -1.623 3.883
 -2.204 -1.622 3.894
 -2.175 -1.621 3.902
 -2.147 -1.62 3.912
 -2.121 -1.62 3.925
 -2.094 -1.62 3.937
 -2.068 -1.62 3.95
 -2.043 -1.621 3.964
 -2.017 -1.622 3.978
 -1.988 -1.62 3.984
 -1.963 -1.621 3.998
 -1.938 -1.623 4.013
 -1.911 -1.622 4.022
 -1.884 -1.622 4.033
 -1.859 -1.624 4.047
 -1.83 -1.622 4.052
 -1.803 -1.621 4.06
 -1.775 -1.619 4.067
 -1.749 -1.62 4.077
 -1.72 -1.618 4.082
 -1.693 -1.617 4.089
 -1.665 -1.616 4.096
 -1.639 -1.616 4.105
 -1.612 -1.615 4.112
 -1.584 -1.614 4.117
 -1.557 -1.613 4.124
 -1.529 -1.612 4.128
 -1.503 -1.611 4.135
 -1.475 -1.61 4.139
 -1.448 -1.609 4.146
 -1.421 -1.608 4.15
 -1.395 -1.608 4.158
 -1.368 -1.608 4.163
 -1.341 -1.607 4.17
 -1.314 -1.607 4.175
 -1.288 -1.606 4.18
 -1.261 -1.606 4.186
 -1.235 -1.605 4.191
 -1.208 -1.604 4.194
 -1.181 -1.604 4.2
 -1.155 -1.603 4.204
 -1.128 -1.603 4.208
 -1.101 -1.601 4.209
 -1.072 -1.597 4.206
 -1.046 -1.597 4.209
 -1.019 -1.596 4.212
 -0.992 -1.594 4.212
 -0.967 -1.595 4.219
 -0.941 -1.595 4.225
 -0.914 -1.594 4.227
 -0.888 -1.593 4.227
 -0.861 -1.591 4.227
 -0.834 -1.589 4.225
 -0.808 -1.589 4.228
 -0.781 -1.587 4.228
 -0.755 -1.587 4.23
 -0.73 -1.587 4.235
 -0.703 -1.586 4.236
 -0.677 -1.585 4.237
 -0.651 -1.586 4.24
 -0.626 -1.585 4.243
 -0.599 -1.583 4.239
 -0.573 -1.583 4.242
 -0.547 -1.583 4.243
 -0.521 -1.581 4.243
 -0.495 -1.58 4.242
 -0.47 -1.581 4.246
 -0.444 -1.58 4.244
 -0.418 -1.578 4.242
 -0.392 -1.578 4.243
 -0.366 -1.578 4.245
 -0.341 -1.577 4.245
 -0.315 -1.578 4.247
 -0.29 -1.579 4.251
 -0.264 -1.579 4.251
 -0.238 -1.578 4.25
 -0.213 -1.577 4.25
 -0.187 -1.578 4.251
 -0.162 -1.577 4.249
 -0.136 -1.575 4.245
 -0.11 -1.575 4.245
 -0.085 -1.575 4.245
 -0.059 -1.574 4.242
 -0.034 -1.573 4.24
 -0.008 -1.574 4.243
 0.016 -1.573 4.239
 0.042 -1.573 4.239
 0.067 -1.573 4.238
 0.092 -1.573 4.237
 0.118 -1.571 4.232
 0.143 -1.574 4.238
 0.169 -1.574 4.236
 0.194 -1.574 4.235
 0.22 -1.575 4.236
 0.245 -1.575 4.236
 0.271 -1.574 4.232
 0.296 -1.575 4.232
 0.322 -1.576 4.232
 0.347 -1.576 4.233
 0.373 -1.578 4.235
 0.399 -1.579 4.234
 0.425 -1.58 4.236
 0.45 -1.581 4.234
 0.475 -1.579 4.228
 0.501 -1.579 4.225
 0.527 -1.58 4.224
 0.552 -1.579 4.218
 0.578 -1.58 4.219
 0.604 -1.582 4.22
 0.63 -1.584 4.221
 0.656 -1.584 4.218
 0.682 -1.585 4.218
 0.708 -1.586 4.216
 0.733 -1.586 4.212
 0.759 -1.587 4.211
 0.786 -1.589 4.211
 0.812 -1.59 4.208
 0.837 -1.59 4.205
 0.864 -1.592 4.204
 0.89 -1.593 4.203
 0.916 -1.593 4.198
 0.943 -1.595 4.197
 0.969 -1.595 4.194
 0.995 -1.597 4.192
 1.021 -1.597 4.188
 1.048 -1.599 4.186
 1.075 -1.601 4.185
 1.102 -1.603 4.185
 1.129 -1.605 4.182
 1.156 -1.606 4.179
 1.182 -1.607 4.174
 1.208 -1.607 4.168
 1.235 -1.609 4.165
 1.261 -1.608 4.158
 1.288 -1.611 4.157
 1.316 -1.613 4.155
 1.344 -1.615 4.153
 1.37 -1.616 4.146
 1.398 -1.618 4.144
 1.425 -1.619 4.138
 1.451 -1.619 4.131
 1.477 -1.62 4.124
 1.504 -1.621 4.117
 1.531 -1.621 4.111
 1.557 -1.622 4.103
 1.585 -1.624 4.099
 1.612 -1.625 4.091
 1.638 -1.624 4.08
 1.664 -1.624 4.071
 1.69 -1.625 4.062
 1.715 -1.623 4.049
 1.74 -1.623 4.036
 1.765 -1.622 4.024
 1.789 -1.62 4.009
 1.811 -1.617 3.99
 1.83 -1.611 3.964
 1.848 -1.604 3.936
 1.863 -1.594 3.902
 1.872 -1.581 3.858
 1.878 -1.565 3.807
 1.884 -1.55 3.759
 1.888 -1.532 3.705
 1.891 -1.515 3.652
 1.894 -1.498 3.6
 1.9 -1.485 3.556
 1.901 -1.467 3.503
 0 0 0
 1.808 -1.362 3.229
 1.803 -1.342 3.171
 1.819 -1.338 3.15
 1.83 -1.33 3.12
 1.837 -1.321 3.086
 1.84 -1.308 3.044
 1.785 -1.255 2.91
 -2.318 -1.62 3.923
 -2.314 -1.636 3.976
 -2.259 -1.616 3.941
 -2.233 -1.617 3.956
 -2.204 -1.616 3.965
 -2.177 -1.615 3.977
 -2.15 -1.616 3.99
 -2.123 -1.615 4.001
 -2.097 -1.616 4.015
 -2.073 -1.619 4.033
 -2.047 -1.619 4.046
 -2.017 -1.617 4.052
 -1.992 -1.618 4.067
 -1.965 -1.618 4.078
 -1.936 -1.616 4.084
 -1.907 -1.615 4.092
 -1.882 -1.617 4.106
 -1.853 -1.615 4.112
 -1.825 -1.614 4.121
 -1.797 -1.613 4.128
 -1.77 -1.613 4.137
 -1.741 -1.611 4.141
 -1.713 -1.61 4.148
 -1.685 -1.609 4.155
 -1.658 -1.608 4.162
 -1.631 -1.608 4.171
 -1.603 -1.607 4.176
 -1.575 -1.606 4.181
 -1.547 -1.604 4.185
 -1.519 -1.603 4.191
 -1.491 -1.601 4.194
 -1.463 -1.6 4.198
 -1.435 -1.598 4.202
 -1.408 -1.597 4.208
 -1.381 -1.597 4.213
 -1.354 -1.596 4.219
 -1.326 -1.595 4.222
 -1.299 -1.594 4.227
 -1.271 -1.593 4.229
 -1.245 -1.593 4.236
 -1.218 -1.591 4.239
 -1.191 -1.592 4.245
 -1.164 -1.59 4.248
 -1.137 -1.589 4.252
 -1.109 -1.587 4.249
 -1.08 -1.582 4.243
 -1.052 -1.581 4.245
 -1.025 -1.579 4.246
 -0.998 -1.578 4.248
 -0.972 -1.578 4.252
 -0.946 -1.579 4.258
 -0.92 -1.577 4.26
 -0.893 -1.576 4.261
 -0.866 -1.574 4.259
 -0.838 -1.572 4.258
 -0.812 -1.571 4.26
 -0.785 -1.57 4.259
 -0.759 -1.568 4.259
 -0.733 -1.569 4.265
 -0.706 -1.568 4.264
 -0.68 -1.566 4.263
 -0.654 -1.566 4.265
 -0.628 -1.566 4.267
 -0.601 -1.563 4.263
 -0.575 -1.563 4.265
 -0.549 -1.563 4.267
 -0.523 -1.562 4.267
 -0.497 -1.56 4.265
 -0.471 -1.559 4.265
 -0.445 -1.558 4.263
 -0.419 -1.556 4.26
 -0.393 -1.555 4.26
 -0.367 -1.556 4.262
 -0.341 -1.556 4.265
 -0.316 -1.556 4.266
 -0.29 -1.557 4.269
 -0.265 -1.556 4.268
 -0.239 -1.555 4.266
 -0.213 -1.554 4.264
 -0.187 -1.554 4.265
 -0.162 -1.554 4.265
 -0.136 -1.553 4.262
 -0.11 -1.553 4.263
 -0.085 -1.553 4.263
 -0.059 -1.552 4.261
 -0.034 -1.551 4.257
 -0.008 -1.552 4.259
 0.016 -1.551 4.256
 0.042 -1.551 4.256
 0.067 -1.55 4.255
 0.093 -1.551 4.256
 0.118 -1.55 4.252
 0.144 -1.552 4.256
 0.169 -1.552 4.254
 0.195 -1.551 4.252
 0.22 -1.552 4.253
 0.246 -1.552 4.252
 0.271 -1.551 4.247
 0.297 -1.552 4.247
 0.323 -1.553 4.25
 0.348 -1.554 4.248
 0.374 -1.555 4.25
 0.4 -1.555 4.248
 0.425 -1.556 4.249
 0.451 -1.557 4.247
 0.476 -1.556 4.242
 0.502 -1.556 4.24
 0.528 -1.558 4.242
 0.553 -1.557 4.238
 0.579 -1.559 4.238
 0.606 -1.561 4.24
 0.632 -1.562 4.24
 0.658 -1.563 4.238
 0.684 -1.564 4.238
 0.71 -1.565 4.236
 0.736 -1.565 4.233
 0.762 -1.566 4.232
 0.788 -1.568 4.231
 0.814 -1.569 4.229
 0.84 -1.569 4.227
 0.867 -1.571 4.227
 0.893 -1.573 4.226
 0.92 -1.574 4.223
 0.946 -1.575 4.222
 0.973 -1.576 4.219
 0.999 -1.577 4.217
 1.026 -1.578 4.214
 1.053 -1.58 4.214
 1.08 -1.582 4.212
 1.107 -1.584 4.212
 1.135 -1.586 4.211
 1.162 -1.588 4.209
 1.188 -1.589 4.205
 1.215 -1.59 4.201
 1.242 -1.591 4.198
 1.268 -1.592 4.192
 1.296 -1.594 4.189
 1.323 -1.595 4.186
 1.351 -1.597 4.184
 1.378 -1.599 4.18
 1.407 -1.601 4.178
 1.434 -1.603 4.175
 1.462 -1.604 4.17
 1.489 -1.606 4.164
 1.516 -1.607 4.159
 1.544 -1.608 4.153
 1.57 -1.609 4.146
 1.599 -1.611 4.142
 1.626 -1.612 4.136
 1.652 -1.612 4.126
 1.679 -1.613 4.118
 1.706 -1.613 4.11
 1.732 -1.613 4.098
 1.757 -1.612 4.086
 1.783 -1.612 4.074
 1.807 -1.61 4.058
 1.827 -1.605 4.035
 1.845 -1.597 4.006
 1.861 -1.589 3.972
 1.872 -1.576 3.931
 1.881 -1.562 3.885
 1.887 -1.547 3.834
 1.894 -1.532 3.787
 1.9 -1.517 3.737
 1.905 -1.501 3.688
 1.908 -1.485 3.635
 1.916 -1.473 3.594
 0 0 0
 0 0 0
 0 0 0
 1.802 -1.32 3.176
 1.82 -1.317 3.159
 1.83 -1.309 3.128
 1.837 -1.299 3.093
 1.849 -1.293 3.067
 1.832 -1.267 2.994
 -2.339 -1.607 3.968
 -2.341 -1.628 4.032
 -2.294 -1.614 4.013
 -2.267 -1.615 4.027
 -2.238 -1.613 4.036
 -2.21 -1.613 4.048
 -2.18 -1.611 4.056
 -2.152 -1.611 4.067
 -2.125 -1.611 4.08
 -2.101 -1.613 4.098
 -2.074 -1.614 4.111
 -2.044 -1.612 4.117
 -2.018 -1.612 4.13
 -1.99 -1.612 4.141
 -1.96 -1.61 4.147
 -1.931 -1.608 4.153
 -1.904 -1.609 4.165
 -1.875 -1.607 4.171
 -1.847 -1.606 4.178
 -1.817 -1.604 4.183
 -1.789 -1.603 4.191
 -1.76 -1.602 4.197
 -1.731 -1.599 4.2
 -1.702 -1.598 4.205
 -1.674 -1.597 4.211
 -1.646 -1.596 4.218
 -1.617 -1.593 4.221
 -1.588 -1.592 4.226
 -1.56 -1.591 4.232
 -1.532 -1.59 4.236
 -1.503 -1.587 4.237
 -1.474 -1.586 4.24
 -1.446 -1.584 4.243
 -1.417 -1.581 4.244
 -1.389 -1.58 4.248
 -1.362 -1.579 4.253
 -1.334 -1.577 4.255
 -1.306 -1.576 4.258
 -1.278 -1.574 4.26
 -1.251 -1.574 4.266
 -1.223 -1.573 4.268
 -1.197 -1.572 4.273
 -1.169 -1.571 4.276
 -1.142 -1.569 4.277
 -1.113 -1.566 4.274
 -1.085 -1.564 4.272
 -1.057 -1.562 4.272
 -1.03 -1.56 4.273
 -1.003 -1.559 4.274
 -0.976 -1.558 4.277
 -0.949 -1.557 4.279
 -0.922 -1.555 4.279
 -0.894 -1.553 4.278
 -0.867 -1.552 4.277
 -0.84 -1.55 4.276
 -0.814 -1.549 4.278
 -0.787 -1.547 4.276
 -0.76 -1.546 4.276
 -0.734 -1.545 4.279
 -0.707 -1.544 4.277
 -0.681 -1.542 4.277
 -0.655 -1.542 4.28
 -0.628 -1.541 4.279
 -0.602 -1.539 4.277
 -0.576 -1.539 4.28
 -0.55 -1.539 4.28
 -0.523 -1.537 4.278
 -0.497 -1.536 4.278
 -0.471 -1.535 4.277
 -0.445 -1.533 4.274
 -0.419 -1.531 4.271
 -0.393 -1.531 4.272
 -0.367 -1.531 4.272
 -0.341 -1.531 4.274
 -0.316 -1.531 4.276
 -0.29 -1.53 4.275
 -0.264 -1.53 4.274
 -0.239 -1.529 4.273
 -0.213 -1.528 4.272
 -0.187 -1.528 4.273
 -0.162 -1.529 4.274
 -0.136 -1.528 4.272
 -0.11 -1.528 4.271
 -0.085 -1.527 4.271
 -0.059 -1.526 4.267
 -0.034 -1.525 4.264
 -0.008 -1.525 4.264
 0.016 -1.524 4.262
 0.042 -1.524 4.261
 0.067 -1.525 4.262
 0.093 -1.525 4.262
 0.118 -1.525 4.26
 0.144 -1.526 4.263
 0.169 -1.526 4.261
 0.195 -1.525 4.258
 0.22 -1.525 4.257
 0.246 -1.526 4.257
 0.271 -1.526 4.255
 0.297 -1.527 4.256
 0.323 -1.528 4.259
 0.349 -1.53 4.261
 0.375 -1.531 4.263
 0.4 -1.532 4.262
 0.426 -1.533 4.262
 0.451 -1.532 4.258
 0.477 -1.531 4.251
 0.502 -1.53 4.247
 0.528 -1.531 4.248
 0.553 -1.531 4.245
 0.58 -1.533 4.246
 0.606 -1.536 4.25
 0.632 -1.537 4.25
 0.658 -1.538 4.248
 0.684 -1.539 4.247
 0.71 -1.539 4.245
 0.736 -1.54 4.243
 0.763 -1.542 4.244
 0.789 -1.544 4.245
 0.815 -1.544 4.242
 0.842 -1.545 4.24
 0.868 -1.547 4.239
 0.895 -1.548 4.238
 0.921 -1.549 4.237
 0.948 -1.552 4.238
 0.975 -1.553 4.236
 1.002 -1.555 4.236
 1.028 -1.555 4.231
 1.055 -1.557 4.23
 1.082 -1.559 4.228
 1.109 -1.561 4.228
 1.137 -1.563 4.228
 1.165 -1.566 4.228
 1.192 -1.567 4.225
 1.219 -1.569 4.222
 1.246 -1.57 4.219
 1.273 -1.571 4.215
 1.301 -1.573 4.212
 1.328 -1.575 4.211
 1.356 -1.577 4.209
 1.384 -1.579 4.206
 1.412 -1.581 4.204
 1.44 -1.583 4.201
 1.468 -1.585 4.197
 1.496 -1.587 4.193
 1.524 -1.588 4.187
 1.551 -1.589 4.182
 1.579 -1.591 4.177
 1.607 -1.593 4.172
 1.636 -1.595 4.169
 1.663 -1.596 4.162
 1.691 -1.597 4.154
 1.718 -1.598 4.147
 1.744 -1.597 4.136
 1.77 -1.597 4.123
 1.796 -1.597 4.114
 1.82 -1.595 4.098
 1.839 -1.588 4.068
 1.854 -1.579 4.035
 1.868 -1.568 3.996
 1.876 -1.554 3.949
 1.885 -1.54 3.902
 1.894 -1.527 3.856
 1.903 -1.514 3.813
 1.91 -1.5 3.767
 1.919 -1.488 3.724
 1.924 -1.473 3.675
 0 0 0
 0 0 0
 0 0 0
 0 0 0
 1.798 -1.295 3.177
 1.82 -1.295 3.166
 1.831 -1.288 3.138
 1.838 -1.278 3.102
 1.852 -1.273 3.079
 1.85 -1.258 3.03
 0 0 0
 -2.326 -1.59 4.016
 -2.327 -1.609 4.079
 -2.298 -1.609 4.091
 -2.268 -1.607 4.1
 -2.241 -1.608 4.115
 -2.208 -1.604 4.118
 -2.182 -1.605 4.133
 -2.155 -1.606 4.147
 -2.129 -1.607 4.162
 -2.1 -1.606 4.171
 -2.069 -1.604 4.178
 -2.041 -1.603 4.187
 -2.011 -1.602 4.194
 -1.981 -1.6 4.201
 -1.952 -1.598 4.207
 -1.924 -1.598 4.218
 -1.894 -1.596 4.224
 -1.865 -1.594 4.229
 -1.834 -1.591 4.231
 -1.804 -1.59 4.236
 -1.775 -1.588 4.242
 -1.745 -1.585 4.244
 -1.716 -1.584 4.249
 -1.687 -1.582 4.253
 -1.658 -1.581 4.259
 -1.628 -1.577 4.259
 -1.599 -1.576 4.263
 -1.57 -1.574 4.267
 -1.541 -1.572 4.271
 -1.511 -1.569 4.27
 -1.483 -1.568 4.274
 -1.454 -1.565 4.275
 -1.424 -1.563 4.275
 -1.395 -1.56 4.276
 -1.368 -1.559 4.28
 -1.339 -1.557 4.281
 -1.311 -1.555 4.283
 -1.282 -1.553 4.282
 -1.255 -1.552 4.287
 -1.226 -1.55 4.287
 -1.199 -1.548 4.289
 -1.171 -1.547 4.292
 -1.144 -1.546 4.295
 -1.115 -1.543 4.292
 -1.087 -1.541 4.291
 -1.059 -1.539 4.29
 -1.031 -1.536 4.289
 -1.003 -1.533 4.286
 -0.976 -1.532 4.286
 -0.949 -1.53 4.286
 -0.921 -1.528 4.285
 -0.894 -1.526 4.284
 -0.867 -1.525 4.285
 -0.84 -1.523 4.283
 -0.813 -1.523 4.285
 -0.786 -1.521 4.284
 -0.76 -1.519 4.283
 -0.733 -1.518 4.283
 -0.707 -1.517 4.284
 -0.68 -1.516 4.282
 -0.654 -1.515 4.284
 -0.627 -1.513 4.282
 -0.601 -1.512 4.282
 -0.575 -1.513 4.285
 -0.549 -1.512 4.285
 -0.523 -1.51 4.283
 -0.497 -1.51 4.285
 -0.471 -1.509 4.285
 -0.445 -1.507 4.281
 -0.419 -1.506 4.28
 -0.393 -1.507 4.283
 -0.367 -1.506 4.283
 -0.341 -1.505 4.282
 -0.316 -1.506 4.284
 -0.29 -1.504 4.28
 -0.264 -1.503 4.278
 -0.238 -1.502 4.277
 -0.213 -1.502 4.277
 -0.187 -1.502 4.278
 -0.161 -1.503 4.281
 -0.136 -1.502 4.278
 -0.11 -1.502 4.279
 -0.085 -1.501 4.277
 -0.059 -1.5 4.274
 -0.033 -1.499 4.27
 -0.008 -1.499 4.271
 0.017 -1.498 4.269
 0.042 -1.499 4.269
 0.068 -1.498 4.267
 0.093 -1.499 4.268
 0.118 -1.498 4.266
 0.144 -1.499 4.267
 0.17 -1.499 4.266
 0.195 -1.499 4.264
 0.22 -1.499 4.264
 0.246 -1.5 4.265
 0.272 -1.5 4.263
 0.297 -1.501 4.263
 0.323 -1.503 4.266
 0.349 -1.504 4.269
 0.375 -1.505 4.269
 0.4 -1.505 4.267
 0.426 -1.506 4.266
 0.451 -1.506 4.263
 0.476 -1.504 4.255
 0.502 -1.503 4.251
 0.528 -1.505 4.252
 0.553 -1.505 4.251
 0.579 -1.507 4.252
 0.606 -1.509 4.256
 0.632 -1.511 4.256
 0.658 -1.511 4.254
 0.684 -1.512 4.252
 0.71 -1.513 4.25
 0.736 -1.514 4.25
 0.763 -1.516 4.251
 0.789 -1.517 4.251
 0.816 -1.519 4.251
 0.842 -1.52 4.25
 0.868 -1.521 4.246
 0.894 -1.522 4.245
 0.921 -1.523 4.242
 0.948 -1.526 4.245
 0.975 -1.527 4.243
 1.002 -1.529 4.243
 1.028 -1.53 4.24
 1.056 -1.532 4.24
 1.082 -1.532 4.235
 1.11 -1.535 4.236
 1.137 -1.537 4.237
 1.165 -1.54 4.237
 1.193 -1.542 4.236
 1.22 -1.544 4.234
 1.247 -1.545 4.231
 1.275 -1.546 4.228
 1.302 -1.548 4.226
 1.33 -1.55 4.223
 1.359 -1.553 4.223
 1.386 -1.555 4.22
 1.414 -1.557 4.218
 1.443 -1.559 4.216
 1.471 -1.561 4.212
 1.498 -1.562 4.208
 1.527 -1.564 4.205
 1.555 -1.566 4.2
 1.583 -1.568 4.195
 1.612 -1.57 4.193
 1.641 -1.573 4.191
 1.67 -1.575 4.186
 1.698 -1.577 4.181
 1.726 -1.578 4.174
 1.752 -1.578 4.164
 1.779 -1.578 4.154
 1.805 -1.578 4.143
 1.828 -1.574 4.123
 1.845 -1.567 4.092
 1.861 -1.558 4.057
 1.872 -1.546 4.014
 1.881 -1.532 3.967
 1.892 -1.52 3.925
 1.901 -1.506 3.879
 1.912 -1.495 3.839
 1.921 -1.483 3.796
 1.93 -1.471 3.753
 0 0 0
 0 0 0
 0 0 0
 0 0 0
 0 0 0
 1.791 -1.269 3.172
 1.815 -1.27 3.166
 1.83 -1.266 3.143
 1.84 -1.258 3.113
 1.831 -1.238 3.052
 1.841 -1.231 3.022
 -2.422 -1.608 4.131
 -2.379 -1.598 4.118
 -2.359 -1.604 4.146
 -2.328 -1.602 4.154
 -2.297 -1.6 4.163
 -2.27 -1.601 4.178
 -2.236 -1.597 4.18
 -2.21 -1.598 4.196
 -2.182 -1.598 4.208
 -2.154 -1.598 4.221
 -2.121 -1.595 4.224
 -2.091 -1.593 4.232
 -2.059 -1.59 4.235
 -2.028 -1.587 4.239
 -1.997 -1.585 4.243
 -1.967 -1.583 4.25
 -1.937 -1.582 4.257
 -1.908 -1.58 4.263
 -1.878 -1.578 4.268
 -1.846 -1.575 4.269
 -1.816 -1.573 4.273
 -1.787 -1.571 4.28
 -1.756 -1.568 4.281
 -1.726 -1.566 4.285
 -1.697 -1.564 4.289
 -1.667 -1.562 4.292
 -1.636 -1.558 4.289
 -1.606 -1.555 4.291
 -1.576 -1.553 4.292
 -1.546 -1.551 4.294
 -1.515 -1.547 4.291
 -1.487 -1.545 4.294
 -1.458 -1.543 4.295
 -1.428 -1.54 4.296
 -1.399 -1.538 4.297
 -1.371 -1.537 4.3
 -1.342 -1.534 4.3
 -1.313 -1.532 4.3
 -1.284 -1.528 4.297
 -1.255 -1.526 4.298
 -1.227 -1.524 4.298
 -1.199 -1.523 4.301
 -1.171 -1.521 4.302
 -1.144 -1.52 4.303
 -1.116 -1.517 4.302
 -1.087 -1.515 4.3
 -1.059 -1.512 4.297
 -1.031 -1.51 4.298
 -1.003 -1.508 4.295
 -0.976 -1.505 4.293
 -0.948 -1.504 4.294
 -0.921 -1.502 4.294
 -0.893 -1.5 4.29
 -0.866 -1.498 4.29
 -0.839 -1.496 4.289
 -0.813 -1.495 4.289
 -0.785 -1.493 4.287
 -0.759 -1.492 4.288
 -0.733 -1.491 4.288
 -0.706 -1.49 4.289
 -0.68 -1.489 4.289
 -0.653 -1.488 4.289
 -0.627 -1.487 4.287
 -0.601 -1.486 4.288
 -0.575 -1.486 4.29
 -0.549 -1.485 4.29
 -0.523 -1.484 4.289
 -0.497 -1.483 4.29
 -0.471 -1.483 4.291
 -0.444 -1.481 4.288
 -0.418 -1.48 4.286
 -0.393 -1.48 4.288
 -0.367 -1.48 4.29
 -0.341 -1.479 4.288
 -0.315 -1.478 4.287
 -0.289 -1.477 4.284
 -0.263 -1.476 4.281
 -0.238 -1.475 4.279
 -0.212 -1.475 4.28
 -0.187 -1.475 4.282
 -0.161 -1.476 4.285
 -0.136 -1.475 4.283
 -0.11 -1.475 4.282
 -0.084 -1.474 4.281
 -0.059 -1.473 4.277
 -0.033 -1.472 4.273
 -0.008 -1.472 4.273
 0.017 -1.471 4.271
 0.042 -1.471 4.271
 0.068 -1.472 4.271
 0.093 -1.472 4.272
 0.119 -1.472 4.271
 0.144 -1.472 4.27
 0.169 -1.472 4.269
 0.195 -1.471 4.266
 0.22 -1.472 4.266
 0.246 -1.473 4.267
 0.271 -1.473 4.267
 0.297 -1.474 4.268
 0.323 -1.476 4.272
 0.349 -1.477 4.271
 0.374 -1.477 4.27
 0.4 -1.478 4.269
 0.426 -1.478 4.268
 0.451 -1.478 4.266
 0.476 -1.477 4.261
 0.502 -1.477 4.257
 0.528 -1.478 4.258
 0.553 -1.479 4.257
 0.579 -1.48 4.257
 0.606 -1.483 4.261
 0.632 -1.484 4.26
 0.658 -1.484 4.259
 0.683 -1.485 4.256
 0.709 -1.485 4.254
 0.736 -1.487 4.254
 0.762 -1.489 4.257
 0.789 -1.491 4.256
 0.815 -1.492 4.255
 0.841 -1.493 4.254
 0.867 -1.493 4.25
 0.893 -1.494 4.247
 0.919 -1.495 4.244
 0.947 -1.498 4.247
 0.974 -1.5 4.248
 1.001 -1.501 4.247
 1.028 -1.503 4.246
 1.056 -1.505 4.247
 1.081 -1.505 4.24
 1.109 -1.508 4.241
 1.137 -1.511 4.244
 1.165 -1.513 4.243
 1.192 -1.514 4.241
 1.22 -1.517 4.241
 1.247 -1.518 4.238
 1.274 -1.52 4.235
 1.302 -1.521 4.232
 1.33 -1.524 4.232
 1.359 -1.527 4.232
 1.387 -1.529 4.229
 1.415 -1.531 4.227
 1.444 -1.534 4.227
 1.472 -1.535 4.224
 1.5 -1.537 4.219
 1.528 -1.539 4.217
 1.556 -1.541 4.212
 1.584 -1.543 4.208
 1.614 -1.546 4.207
 1.644 -1.549 4.207
 1.673 -1.551 4.203
 1.702 -1.553 4.199
 1.73 -1.555 4.192
 1.757 -1.555 4.184
 1.784 -1.555 4.174
 1.81 -1.555 4.162
 1.833 -1.551 4.142
 1.851 -1.544 4.112
 1.867 -1.536 4.079
 1.88 -1.525 4.039
 1.89 -1.513 3.995
 1.902 -1.502 3.955
 1.913 -1.49 3.912
 1.922 -1.478 3.869
 1.932 -1.466 3.826
 0 0 0
 0 0 0
 0 0 0
 0 0 0
 0 0 0
 0 0 0
 1.791 -1.247 3.178
 1.816 -1.249 3.174
 1.832 -1.245 3.153
 1.841 -1.238 3.122
 1.879 -1.248 3.138
 1.842 -1.211 3.031
 -2.43 -1.585 4.153
 -2.41 -1.591 4.182
 -2.388 -1.595 4.208
 -2.357 -1.594 4.217
 -2.326 -1.592 4.225
 -2.298 -1.592 4.24
 -2.263 -1.587 4.24
 -2.234 -1.587 4.252
 -2.204 -1.586 4.261
 -2.174 -1.585 4.27
 -2.138 -1.579 4.266
 -2.107 -1.577 4.272
 -2.073 -1.573 4.273
 -2.041 -1.57 4.276
 -2.011 -1.568 4.283
 -1.98 -1.566 4.287
 -1.949 -1.563 4.292
 -1.919 -1.562 4.298
 -1.888 -1.559 4.3
 -1.854 -1.554 4.298
 -1.824 -1.552 4.301
 -1.794 -1.55 4.305
 -1.761 -1.545 4.302
 -1.731 -1.543 4.305
 -1.701 -1.541 4.308
 -1.67 -1.538 4.309
 -1.639 -1.534 4.306
 -1.608 -1.531 4.307
 -1.578 -1.528 4.306
 -1.548 -1.525 4.306
 -1.517 -1.522 4.305
 -1.488 -1.52 4.308
 -1.459 -1.517 4.308
 -1.429 -1.515 4.308
 -1.4 -1.512 4.309
 -1.372 -1.511 4.311
 -1.342 -1.507 4.307
 -1.313 -1.504 4.306
 -1.283 -1.501 4.305
 -1.255 -1.5 4.306
 -1.227 -1.497 4.306
 -1.2 -1.497 4.31
 -1.172 -1.495 4.311
 -1.144 -1.493 4.312
 -1.116 -1.491 4.31
 -1.087 -1.488 4.308
 -1.058 -1.485 4.304
 -1.031 -1.483 4.304
 -1.002 -1.481 4.3
 -0.975 -1.478 4.297
 -0.947 -1.476 4.297
 -0.92 -1.475 4.297
 -0.893 -1.473 4.296
 -0.866 -1.471 4.295
 -0.839 -1.47 4.295
 -0.812 -1.469 4.296
 -0.785 -1.467 4.294
 -0.758 -1.465 4.292
 -0.732 -1.464 4.293
 -0.705 -1.463 4.293
 -0.679 -1.462 4.294
 -0.652 -1.46 4.291
 -0.626 -1.459 4.29
 -0.6 -1.459 4.292
 -0.574 -1.458 4.293
 -0.548 -1.457 4.29
 -0.522 -1.456 4.292
 -0.496 -1.456 4.292
 -0.47 -1.455 4.292
 -0.444 -1.454 4.29
 -0.418 -1.453 4.289
 -0.392 -1.453 4.291
 -0.366 -1.453 4.292
 -0.34 -1.451 4.289
 -0.315 -1.45 4.287
 -0.289 -1.449 4.284
 -0.263 -1.447 4.281
 -0.237 -1.447 4.279
 -0.212 -1.446 4.279
 -0.186 -1.447 4.282
 -0.161 -1.448 4.285
 -0.135 -1.448 4.285
 -0.11 -1.447 4.284
 -0.084 -1.447 4.284
 -0.059 -1.446 4.281
 -0.033 -1.445 4.278
 -0.008 -1.445 4.277
 0.017 -1.445 4.276
 0.042 -1.445 4.276
 0.068 -1.446 4.278
 0.093 -1.446 4.279
 0.119 -1.446 4.275
 0.144 -1.446 4.274
 0.169 -1.445 4.271
 0.195 -1.444 4.267
 0.22 -1.444 4.266
 0.246 -1.446 4.269
 0.271 -1.446 4.268
 0.297 -1.447 4.269
 0.323 -1.449 4.273
 0.348 -1.449 4.273
 0.374 -1.449 4.27
 0.399 -1.45 4.27
 0.425 -1.45 4.267
 0.45 -1.45 4.264
 0.476 -1.45 4.261
 0.501 -1.45 4.259
 0.527 -1.451 4.259
 0.553 -1.452 4.26
 0.579 -1.453 4.26
 0.605 -1.455 4.263
 0.631 -1.456 4.261
 0.657 -1.457 4.261
 0.683 -1.458 4.259
 0.709 -1.458 4.257
 0.735 -1.46 4.258
 0.762 -1.462 4.26
 0.788 -1.463 4.258
 0.814 -1.464 4.257
 0.841 -1.465 4.256
 0.866 -1.465 4.252
 0.893 -1.467 4.251
 0.919 -1.468 4.248
 0.946 -1.47 4.25
 0.973 -1.472 4.249
 1 -1.473 4.248
 1.027 -1.475 4.247
 1.054 -1.477 4.248
 1.08 -1.477 4.243
 1.108 -1.48 4.245
 1.136 -1.483 4.247
 1.164 -1.485 4.246
 1.191 -1.487 4.246
 1.219 -1.49 4.246
 1.246 -1.491 4.242
 1.274 -1.493 4.243
 1.302 -1.495 4.242
 1.33 -1.497 4.239
 1.359 -1.5 4.24
 1.387 -1.503 4.239
 1.415 -1.504 4.234
 1.443 -1.506 4.232
 1.471 -1.508 4.23
 1.499 -1.51 4.226
 1.528 -1.512 4.223
 1.556 -1.514 4.219
 1.585 -1.516 4.216
 1.614 -1.519 4.216
 1.644 -1.522 4.215
 1.673 -1.524 4.212
 1.702 -1.527 4.209
 1.731 -1.528 4.203
 1.758 -1.529 4.195
 1.785 -1.529 4.185
 1.811 -1.529 4.173
 1.833 -1.525 4.153
 1.851 -1.518 4.121
 1.869 -1.511 4.091
 1.882 -1.501 4.053
 1.893 -1.489 4.01
 1.908 -1.481 3.976
 1.927 -1.475 3.95
 1.938 -1.464 3.908
 0 0 0
 0 0 0
 0 0 0
 0 0 0
 0 0 0
 0 0 0
 0 0 0
 1.791 -1.225 3.185
 1.813 -1.226 3.176
 1.832 -1.224 3.161
 1.842 -1.217 3.131
 1.88 -1.228 3.147
 1.859 -1.2 3.066
 -2.49 -1.596 4.267
 -2.452 -1.59 4.265
 -2.414 -1.584 4.264
 -2.382 -1.582 4.271
 -2.348 -1.578 4.275
 -2.318 -1.578 4.287
 -2.281 -1.572 4.285
 -2.252 -1.572 4.296
 -2.221 -1.57 4.303
 -2.187 -1.566 4.306
 -2.15 -1.56 4.3
 -2.118 -1.557 4.305
 -2.083 -1.552 4.302
 -2.05 -1.549 4.304
 -2.018 -1.546 4.308
 -1.987 -1.543 4.312
 -1.954 -1.539 4.312
 -1.923 -1.537 4.316
 -1.891 -1.534 4.318
 -1.858 -1.53 4.315
 -1.827 -1.527 4.318
 -1.797 -1.525 4.323
 -1.764 -1.521 4.319
 -1.733 -1.517 4.319
 -1.703 -1.515 4.322
 -1.671 -1.511 4.319
 -1.639 -1.507 4.316
 -1.608 -1.504 4.315
 -1.577 -1.5 4.313
 -1.546 -1.497 4.312
 -1.517 -1.494 4.312
 -1.488 -1.492 4.314
 -1.458 -1.49 4.315
 -1.429 -1.488 4.316
 -1.4 -1.485 4.316
 -1.371 -1.483 4.317
 -1.341 -1.48 4.314
 -1.312 -1.477 4.313
 -1.283 -1.474 4.312
 -1.254 -1.472 4.312
 -1.226 -1.47 4.312
 -1.198 -1.469 4.314
 -1.171 -1.467 4.315
 -1.143 -1.466 4.316
 -1.115 -1.464 4.315
 -1.087 -1.461 4.314
 -1.058 -1.458 4.311
 -1.03 -1.456 4.309
 -1.001 -1.453 4.304
 -0.974 -1.451 4.302
 -0.946 -1.448 4.299
 -0.919 -1.446 4.298
 -0.891 -1.444 4.295
 -0.864 -1.443 4.295
 -0.837 -1.441 4.294
 -0.811 -1.44 4.296
 -0.784 -1.439 4.294
 -0.758 -1.438 4.296
 -0.731 -1.437 4.295
 -0.705 -1.436 4.297
 -0.678 -1.435 4.297
 -0.652 -1.434 4.297
 -0.625 -1.432 4.294
 -0.599 -1.432 4.296
 -0.573 -1.431 4.295
 -0.547 -1.429 4.293
 -0.521 -1.429 4.293
 -0.495 -1.428 4.292
 -0.469 -1.428 4.294
 -0.443 -1.427 4.294
 -0.417 -1.427 4.295
 -0.392 -1.427 4.297
 -0.366 -1.426 4.298
 -0.34 -1.425 4.295
 -0.314 -1.424 4.293
 -0.288 -1.422 4.288
 -0.263 -1.421 4.285
 -0.237 -1.421 4.286
 -0.211 -1.42 4.285
 -0.186 -1.421 4.286
 -0.16 -1.42 4.286
 -0.135 -1.42 4.286
 -0.109 -1.419 4.284
 -0.084 -1.42 4.285
 -0.058 -1.419 4.282
 -0.033 -1.418 4.28
 -0.007 -1.419 4.281
 0.017 -1.42 4.284
 0.042 -1.42 4.284
 0.068 -1.421 4.288
 0.093 -1.422 4.289
 0.119 -1.421 4.285
 0.144 -1.42 4.28
 0.17 -1.419 4.277
 0.195 -1.418 4.274
 0.22 -1.419 4.273
 0.246 -1.419 4.272
 0.271 -1.418 4.267
 0.296 -1.418 4.266
 0.322 -1.419 4.268
 0.347 -1.419 4.265
 0.373 -1.42 4.266
 0.399 -1.421 4.269
 0.424 -1.422 4.267
 0.449 -1.421 4.262
 0.475 -1.422 4.261
 0.5 -1.422 4.259
 0.526 -1.422 4.257
 0.552 -1.422 4.255
 0.578 -1.424 4.257
 0.604 -1.425 4.258
 0.629 -1.426 4.257
 0.656 -1.428 4.258
 0.682 -1.43 4.26
 0.708 -1.431 4.261
 0.735 -1.433 4.263
 0.762 -1.436 4.266
 0.788 -1.436 4.263
 0.813 -1.437 4.26
 0.84 -1.437 4.258
 0.865 -1.438 4.253
 0.892 -1.439 4.252
 0.918 -1.44 4.25
 0.945 -1.442 4.253
 0.972 -1.444 4.253
 0.999 -1.447 4.254
 1.026 -1.448 4.253
 1.054 -1.45 4.254
 1.08 -1.451 4.25
 1.108 -1.453 4.251
 1.135 -1.455 4.25
 1.163 -1.457 4.25
 1.191 -1.46 4.251
 1.219 -1.462 4.252
 1.246 -1.464 4.248
 1.274 -1.466 4.249
 1.302 -1.468 4.247
 1.33 -1.47 4.246
 1.358 -1.473 4.245
 1.386 -1.475 4.243
 1.414 -1.476 4.239
 1.442 -1.478 4.237
 1.47 -1.48 4.234
 1.498 -1.482 4.231
 1.527 -1.484 4.229
 1.555 -1.486 4.226
 1.584 -1.489 4.224
 1.614 -1.492 4.223
 1.643 -1.494 4.221
 1.672 -1.496 4.217
 1.701 -1.499 4.214
 1.73 -1.5 4.208
 1.758 -1.501 4.201
 1.784 -1.502 4.192
 1.81 -1.501 4.179
 1.833 -1.498 4.161
 1.851 -1.491 4.131
 1.869 -1.485 4.101
 1.884 -1.475 4.064
 1.896 -1.465 4.025
 1.911 -1.457 3.99
 1.93 -1.452 3.965
 0 0 0
 0 0 0
 0 0 0
 0 0 0
 0 0 0
 0 0 0
 0 0 0
 0 0 0
 1.782 -1.197 3.176
 1.808 -1.201 3.175
 1.833 -1.203 3.169
 1.844 -1.196 3.14
 1.868 -1.199 3.135
 1.852 -1.175 3.061
 0 0 0
 -2.493 -1.587 4.347
 -2.431 -1.566 4.303
 -2.395 -1.562 4.305
 -2.36 -1.558 4.307
 -2.329 -1.557 4.317
 -2.294 -1.552 4.318
 -2.264 -1.551 4.327
 -2.232 -1.549 4.335
 -2.197 -1.545 4.335
 -2.157 -1.537 4.325
 -2.123 -1.532 4.324
 -2.086 -1.526 4.318
 -2.051 -1.521 4.315
 -2.018 -1.518 4.318
 -1.986 -1.515 4.319
 -1.953 -1.511 4.32
 -1.922 -1.509 4.323
 -1.89 -1.506 4.324
 -1.857 -1.502 4.323
 -1.826 -1.499 4.325
 -1.796 -1.496 4.327
 -1.763 -1.492 4.324
 -1.731 -1.489 4.324
 -1.701 -1.486 4.327
 -1.67 -1.483 4.325
 -1.638 -1.479 4.321
 -1.606 -1.475 4.319
 -1.575 -1.471 4.316
 -1.545 -1.468 4.316
 -1.515 -1.466 4.316
 -1.486 -1.464 4.319
 -1.457 -1.462 4.32
 -1.428 -1.459 4.32
 -1.398 -1.456 4.318
 -1.369 -1.454 4.318
 -1.339 -1.451 4.315
 -1.31 -1.449 4.316
 -1.282 -1.446 4.316
 -1.253 -1.444 4.314
 -1.224 -1.442 4.314
 -1.197 -1.441 4.318
 -1.169 -1.439 4.317
 -1.141 -1.437 4.317
 -1.113 -1.435 4.317
 -1.085 -1.434 4.317
 -1.057 -1.43 4.313
 -1.029 -1.429 4.313
 -1.001 -1.426 4.309
 -0.973 -1.424 4.309
 -0.945 -1.422 4.305
 -0.918 -1.42 4.304
 -0.891 -1.418 4.302
 -0.864 -1.416 4.3
 -0.836 -1.414 4.299
 -0.81 -1.413 4.301
 -0.783 -1.412 4.3
 -0.757 -1.411 4.301
 -0.731 -1.41 4.301
 -0.704 -1.41 4.303
 -0.678 -1.409 4.302
 -0.652 -1.407 4.302
 -0.625 -1.406 4.299
 -0.599 -1.405 4.3
 -0.572 -1.403 4.297
 -0.546 -1.403 4.297
 -0.521 -1.402 4.299
 -0.494 -1.401 4.296
 -0.469 -1.401 4.3
 -0.443 -1.401 4.302
 -0.417 -1.4 4.301
 -0.391 -1.4 4.301
 -0.366 -1.399 4.3
 -0.339 -1.397 4.294
 -0.314 -1.396 4.293
 -0.288 -1.395 4.291
 -0.262 -1.394 4.288
 -0.237 -1.394 4.289
 -0.211 -1.393 4.287
 -0.185 -1.392 4.285
 -0.16 -1.391 4.283
 -0.134 -1.391 4.283
 -0.109 -1.391 4.282
 -0.084 -1.392 4.284
 -0.058 -1.391 4.283
 -0.033 -1.391 4.283
 -0.007 -1.392 4.284
 0.017 -1.394 4.29
 0.043 -1.394 4.291
 0.068 -1.396 4.296
 0.094 -1.397 4.298
 0.119 -1.395 4.292
 0.144 -1.393 4.285
 0.17 -1.394 4.284
 0.195 -1.393 4.28
 0.22 -1.393 4.278
 0.246 -1.392 4.276
 0.271 -1.391 4.269
 0.296 -1.39 4.266
 0.322 -1.392 4.269
 0.347 -1.391 4.265
 0.372 -1.392 4.266
 0.399 -1.394 4.271
 0.424 -1.395 4.269
 0.449 -1.394 4.263
 0.475 -1.395 4.266
 0.5 -1.396 4.264
 0.526 -1.396 4.262
 0.551 -1.396 4.259
 0.577 -1.397 4.261
 0.603 -1.398 4.259
 0.629 -1.399 4.258
 0.655 -1.4 4.259
 0.682 -1.403 4.263
 0.708 -1.405 4.265
 0.735 -1.407 4.268
 0.762 -1.41 4.272
 0.788 -1.41 4.269
 0.813 -1.411 4.266
 0.839 -1.411 4.263
 0.865 -1.412 4.26
 0.892 -1.413 4.258
 0.917 -1.413 4.255
 0.945 -1.416 4.258
 0.972 -1.418 4.258
 0.999 -1.419 4.258
 1.026 -1.421 4.257
 1.053 -1.423 4.258
 1.079 -1.423 4.252
 1.107 -1.426 4.254
 1.134 -1.427 4.252
 1.161 -1.429 4.252
 1.189 -1.432 4.252
 1.217 -1.434 4.254
 1.244 -1.436 4.251
 1.273 -1.438 4.252
 1.3 -1.44 4.25
 1.328 -1.442 4.248
 1.356 -1.444 4.247
 1.384 -1.446 4.244
 1.412 -1.447 4.241
 1.44 -1.449 4.238
 1.468 -1.452 4.236
 1.496 -1.454 4.233
 1.526 -1.456 4.233
 1.554 -1.458 4.23
 1.583 -1.461 4.228
 1.613 -1.464 4.227
 1.642 -1.467 4.226
 1.671 -1.468 4.222
 1.7 -1.471 4.219
 1.728 -1.472 4.214
 1.757 -1.474 4.207
 1.784 -1.474 4.199
 1.81 -1.474 4.186
 1.833 -1.471 4.169
 1.853 -1.466 4.143
 1.872 -1.46 4.116
 1.887 -1.451 4.079
 1.904 -1.444 4.048
 1.92 -1.437 4.017
 0 0 0
 0 0 0
 0 0 0
 0 0 0
 0 0 0
 0 0 0
 0 0 0
 0 0 0
 0 0 0
 1.774 -1.171 3.168
 1.804 -1.177 3.174
 1.829 -1.179 3.17
 1.843 -1.174 3.145
 1.891 -1.192 3.18
 1.861 -1.159 3.083
 -2.55 -1.575 4.389
 -2.499 -1.562 4.367
 -2.445 -1.546 4.337
 -2.406 -1.54 4.334
 -2.37 -1.535 4.334
 -2.336 -1.533 4.34
 -2.302 -1.529 4.343
 -2.268 -1.526 4.346
 -2.234 -1.522 4.349
 -2.199 -1.517 4.347
 -2.158 -1.509 4.336
 -2.122 -1.504 4.332
 -2.087 -1.499 4.329
 -2.051 -1.494 4.325
 -2.018 -1.49 4.327
 -1.986 -1.487 4.327
 -1.952 -1.483 4.327
 -1.921 -1.48 4.328
 -1.889 -1.477 4.33
 -1.856 -1.473 4.328
 -1.825 -1.47 4.331
 -1.794 -1.467 4.332
 -1.761 -1.464 4.33
 -1.731 -1.461 4.331
 -1.701 -1.459 4.334
 -1.669 -1.455 4.331
 -1.637 -1.451 4.329
 -1.605 -1.447 4.324
 -1.573 -1.443 4.32
 -1.542 -1.439 4.317
 -1.513 -1.437 4.318
 -1.483 -1.434 4.319
 -1.454 -1.432 4.32
 -1.425 -1.43 4.321
 -1.396 -1.428 4.321
 -1.367 -1.426 4.322
 -1.338 -1.423 4.32
 -1.309 -1.421 4.32
 -1.281 -1.419 4.321
 -1.252 -1.416 4.319
 -1.223 -1.414 4.319
 -1.197 -1.414 4.324
 -1.169 -1.412 4.324
 -1.141 -1.41 4.324
 -1.113 -1.409 4.325
 -1.085 -1.408 4.326
 -1.057 -1.404 4.322
 -1.029 -1.403 4.322
 -1.002 -1.401 4.321
 -0.974 -1.399 4.32
 -0.946 -1.396 4.315
 -0.918 -1.394 4.314
 -0.891 -1.392 4.31
 -0.863 -1.39 4.307
 -0.836 -1.387 4.304
 -0.81 -1.387 4.307
 -0.783 -1.385 4.305
 -0.757 -1.385 4.306
 -0.73 -1.384 4.307
 -0.704 -1.384 4.31
 -0.678 -1.382 4.308
 -0.651 -1.382 4.309
 -0.625 -1.38 4.307
 -0.599 -1.379 4.307
 -0.572 -1.377 4.302
 -0.546 -1.376 4.302
 -0.52 -1.376 4.303
 -0.494 -1.374 4.299
 -0.468 -1.374 4.302
 -0.443 -1.375 4.306
 -0.417 -1.373 4.302
 -0.391 -1.373 4.303
 -0.364 -1.37 4.295
 -0.338 -1.368 4.289
 -0.313 -1.367 4.289
 -0.287 -1.368 4.291
 -0.262 -1.366 4.289
 -0.236 -1.367 4.292
 -0.211 -1.367 4.292
 -0.185 -1.366 4.29
 -0.16 -1.364 4.285
 -0.134 -1.364 4.285
 -0.109 -1.364 4.284
 -0.083 -1.364 4.284
 -0.058 -1.363 4.282
 -0.033 -1.364 4.283
 -0.007 -1.364 4.284
 0.017 -1.366 4.291
 0.043 -1.367 4.294
 0.068 -1.372 4.308
 0.094 -1.373 4.309
 0.119 -1.371 4.304
 0.145 -1.369 4.295
 0.17 -1.369 4.293
 0.195 -1.367 4.286
 0.221 -1.367 4.284
 0.246 -1.365 4.278
 0.27 -1.363 4.269
 0.296 -1.362 4.265
 0.321 -1.364 4.269
 0.346 -1.363 4.263
 0.372 -1.364 4.265
 0.398 -1.367 4.273
 0.424 -1.367 4.271
 0.448 -1.366 4.263
 0.475 -1.368 4.268
 0.5 -1.369 4.267
 0.526 -1.369 4.264
 0.551 -1.368 4.259
 0.577 -1.37 4.263
 0.603 -1.371 4.262
 0.628 -1.372 4.261
 0.655 -1.374 4.263
 0.682 -1.377 4.271
 0.708 -1.379 4.274
 0.735 -1.381 4.276
 0.762 -1.384 4.281
 0.788 -1.385 4.277
 0.813 -1.384 4.271
 0.839 -1.384 4.267
 0.865 -1.385 4.265
 0.891 -1.386 4.263
 0.917 -1.386 4.259
 0.944 -1.389 4.261
 0.971 -1.391 4.262
 0.998 -1.392 4.262
 1.025 -1.394 4.261
 1.052 -1.395 4.26
 1.078 -1.396 4.255
 1.105 -1.398 4.255
 1.132 -1.399 4.252
 1.159 -1.4 4.25
 1.186 -1.402 4.249
 1.214 -1.405 4.25
 1.242 -1.406 4.248
 1.27 -1.409 4.25
 1.298 -1.411 4.249
 1.326 -1.414 4.249
 1.354 -1.415 4.247
 1.383 -1.418 4.247
 1.411 -1.42 4.245
 1.439 -1.422 4.243
 1.467 -1.424 4.24
 1.495 -1.426 4.238
 1.524 -1.428 4.236
 1.553 -1.43 4.234
 1.582 -1.433 4.233
 1.611 -1.436 4.231
 1.641 -1.438 4.23
 1.669 -1.44 4.225
 1.698 -1.442 4.22
 1.726 -1.443 4.215
 1.755 -1.445 4.21
 1.782 -1.446 4.202
 1.808 -1.445 4.19
 1.833 -1.444 4.176
 1.854 -1.439 4.152
 1.875 -1.435 4.129
 1.892 -1.428 4.098
 1.911 -1.424 4.072
 0 0 0
 0 0 0
 0 0 0
 0 0 0
 0 0 0
 0 0 0
 0 0 0
 0 0 0
 0 0 0
 0 0 0
 0 0 0
 1.807 -1.157 3.186
 1.831 -1.159 3.179
 1.844 -1.154 3.155
 1.886 -1.167 3.179
