 0.405 -1.572 4.236
 0.418 -1.571 4.231
 0.43 -1.571 4.228
 0.443 -1.571 4.229
 0.455 -1.57 4.223
 0.468 -1.569 4.22
 0.48 -1.568 4.216
 0.494 -1.57 4.219
 0.507 -1.57 4.22
 0.52 -1.573 4.226
 0.533 -1.574 4.227
 0.546 -1.575 4.226
 0.558 -1.573 4.221
 0.571 -1.573 4.219
 0.584 -1.572 4.216
 0.597 -1.573 4.217
 0.609 -1.573 4.215
 0.622 -1.573 4.213
 0.635 -1.574 4.212
 0.65 -1.578 4.223
 0.663 -1.579 4.222
 0.676 -1.581 4.228
 0.69 -1.583 4.231
 0.703 -1.583 4.227
 0.714 -1.58 4.218
 0.727 -1.58 4.216
 0.74 -1.58 4.214
 0.753 -1.58 4.212
 0.767 -1.583 4.216
 0.779 -1.582 4.214
 0.792 -1.582 4.211
 0.805 -1.583 4.211
 0.818 -1.583 4.21
 0.83 -1.583 4.205
 0.843 -1.583 4.203
 0.856 -1.582 4.199
 0.868 -1.581 4.193
 0.881 -1.581 4.192
 0.894 -1.583 4.193
 0.908 -1.583 4.193
 0.922 -1.586 4.197
 0.935 -1.587 4.197
 0.949 -1.588 4.197
 0.962 -1.589 4.196
 0.975 -1.589 4.194
 0.989 -1.59 4.194
 1.002 -1.591 4.194
 1.016 -1.594 4.198
 1.031 -1.596 4.201
 1.044 -1.597 4.201
 1.056 -1.595 4.193
 1.07 -1.596 4.194
 1.081 -1.595 4.186
 1.094 -1.595 4.183
 1.108 -1.595 4.181
 1.121 -1.596 4.179
 1.134 -1.596 4.177
 1.146 -1.595 4.171
 1.16 -1.596 4.171
 1.171 -1.594 4.161
 1.187 -1.598 4.169
 1.201 -1.6 4.17
 1.216 -1.602 4.174
 1.229 -1.603 4.171
 1.247 -1.609 4.183
 1.258 -1.607 4.175
 1.27 -1.606 4.168
 1.284 -1.606 4.166
 1.296 -1.605 4.16
 1.308 -1.605 4.155
 1.323 -1.607 4.156
 1.338 -1.609 4.158
 1.35 -1.608 4.152
 1.365 -1.61 4.154
 1.377 -1.61 4.148
 1.39 -1.61 4.145
 1.403 -1.61 4.14
 1.417 -1.611 4.139
 1.431 -1.612 4.137
 1.443 -1.611 4.132
 1.457 -1.612 4.13
 1.47 -1.612 4.126
 1.483 -1.613 4.122
 1.499 -1.615 4.125
 1.513 -1.617 4.125
 1.528 -1.618 4.124
 1.541 -1.619 4.121
 1.557 -1.622 4.124
 1.568 -1.62 4.115
 1.58 -1.618 4.106
 1.594 -1.619 4.104
 1.609 -1.622 4.105
 1.62 -1.62 4.095
 1.634 -1.621 4.093
 1.649 -1.622 4.092
 1.66 -1.62 4.082
 1.672 -1.619 4.075
 1.685 -1.619 4.069
 1.696 -1.617 4.06
 1.711 -1.619 4.059
 1.724 -1.62 4.056
 1.738 -1.62 4.052
 1.752 -1.621 4.048
 1.765 -1.621 4.043
 1.774 -1.618 4.03
 1.788 -1.618 4.025
 1.797 -1.615 4.013
 1.808 -1.613 4.001
 1.822 -1.614 3.999
 1.834 -1.613 3.992
 1.843 -1.61 3.977
 1.854 -1.608 3.968
 1.863 -1.605 3.955
 1.867 -1.597 3.931
 1.87 -1.588 3.903
 1.871 -1.579 3.874
 1.868 -1.566 3.835
 1.869 -1.556 3.807
 1.872 -1.548 3.782
 1.877 -1.542 3.76
 1.881 -1.536 3.739
 1.889 -1.532 3.724
 1.89 -1.523 3.696
 1.892 -1.514 3.671
 1.892 -1.505 3.642
 1.893 -1.496 3.615
 1.893 -1.487 3.587
 1.898 -1.482 3.569
 0 0 0
 0 0 0
 0 0 0
 0 0 0
 0 0 0
 0 0 0
 0 0 0
 0 0 0
 1.838 -1.359 3.222
 1.839 -1.351 3.198
 1.84 -1.344 3.177
 1.846 -1.34 3.162
 1.853 -1.338 3.15
 1.851 -1.329 3.123
 1.846 -1.317 3.09
 1.844 -1.309 3.064
 1.837 -1.297 3.031
 1.844 -1.294 3.019
 1.815 -1.267 2.948
 -2.339 -1.637 3.942
 -2.275 -1.601 3.862
 -2.286 -1.619 3.911
 -2.274 -1.619 3.92
 -2.263 -1.621 3.931
 -2.252 -1.623 3.941
 -2.236 -1.621 3.944
 -2.224 -1.622 3.952
 -2.208 -1.62 3.955
 -2.193 -1.619 3.958
 -2.179 -1.619 3.963
 -2.163 -1.617 3.964
 -2.15 -1.617 3.972
 -2.134 -1.615 3.973
 -2.124 -1.618 3.986
 -2.113 -1.62 3.996
 -2.102 -1.622 4.008
 -2.09 -1.623 4.016
 -2.075 -1.622 4.019
 -2.063 -1.622 4.027
 -2.047 -1.621 4.028
 -2.028 -1.617 4.024
 -2.015 -1.617 4.03
 -2.003 -1.618 4.038
 -1.987 -1.616 4.039
 -1.974 -1.616 4.045
 -1.963 -1.618 4.056
 -1.948 -1.616 4.057
 -1.936 -1.617 4.065
 -1.925 -1.62 4.076
 -1.909 -1.618 4.076
 -1.897 -1.619 4.084
 -1.886 -1.621 4.095
 -1.872 -1.62 4.099
 -1.858 -1.62 4.103
 -1.845 -1.621 4.11
 -1.83 -1.619 4.111
 -1.814 -1.616 4.109
 -1.801 -1.617 4.116
 -1.785 -1.615 4.115
 -1.772 -1.615 4.12
 -1.759 -1.616 4.127
 -1.741 -1.612 4.121
 -1.728 -1.612 4.126
 -1.715 -1.612 4.132
 -1.701 -1.612 4.136
 -1.687 -1.61 4.136
 -1.676 -1.612 4.147
 -1.66 -1.61 4.145
 -1.645 -1.609 4.147
 -1.632 -1.609 4.152
 -1.618 -1.608 4.153
 -1.605 -1.608 4.158
 -1.59 -1.607 4.159
 -1.577 -1.607 4.164
 -1.562 -1.605 4.163
 -1.548 -1.605 4.167
 -1.534 -1.604 4.169
 -1.524 -1.607 4.181
 -1.511 -1.608 4.186
 -1.498 -1.608 4.191
 -1.486 -1.61 4.199
 -1.471 -1.608 4.199
 -1.454 -1.604 4.192
 -1.44 -1.602 4.192
 -1.427 -1.603 4.198
 -1.414 -1.603 4.201
 -1.402 -1.604 4.208
 -1.387 -1.602 4.206
 -1.371 -1.599 4.202
 -1.357 -1.599 4.204
 -1.342 -1.596 4.2
 -1.328 -1.595 4.202
 -1.317 -1.598 4.212
 -1.307 -1.602 4.226
 -1.292 -1.6 4.225
 -1.281 -1.603 4.236
 -1.267 -1.602 4.236
 -1.253 -1.6 4.235
 -1.237 -1.597 4.23
 -1.223 -1.596 4.23
 -1.21 -1.596 4.233
 -1.196 -1.596 4.235
 -1.184 -1.598 4.243
 -1.17 -1.596 4.243
 -1.159 -1.599 4.253
 -1.144 -1.596 4.247
 -1.131 -1.597 4.253
 -1.117 -1.595 4.252
 -1.104 -1.596 4.256
 -1.089 -1.592 4.249
 -1.077 -1.594 4.257
 -1.061 -1.59 4.249
 -1.046 -1.587 4.242
 -1.032 -1.586 4.242
 -1.02 -1.588 4.25
 -1.005 -1.585 4.245
 -0.993 -1.586 4.25
 -0.982 -1.59 4.264
 -0.968 -1.588 4.261
 -0.953 -1.586 4.257
 -0.941 -1.586 4.261
 -0.927 -1.586 4.262
 -0.912 -1.582 4.252
 -0.899 -1.582 4.255
 -0.885 -1.581 4.254
 -0.87 -1.577 4.248
 -0.857 -1.577 4.248
 -0.844 -1.577 4.251
 -0.831 -1.578 4.254
 -0.817 -1.576 4.251
 -0.806 -1.579 4.262
 -0.793 -1.579 4.264
 -0.779 -1.577 4.26
 -0.766 -1.577 4.261
 -0.754 -1.579 4.268
 -0.74 -1.577 4.265
 -0.726 -1.575 4.263
 -0.714 -1.577 4.268
 -0.701 -1.576 4.267
 -0.688 -1.576 4.269
 -0.674 -1.573 4.264
 -0.661 -1.573 4.266
 -0.647 -1.572 4.263
 -0.634 -1.572 4.264
 -0.621 -1.57 4.26
 -0.607 -1.568 4.258
 -0.594 -1.568 4.258
 -0.582 -1.569 4.263
 -0.569 -1.57 4.265
 -0.555 -1.568 4.261
 -0.543 -1.57 4.268
 -0.529 -1.568 4.264
 -0.516 -1.565 4.258
 -0.503 -1.565 4.258
 -0.49 -1.565 4.26
 -0.476 -1.563 4.254
 -0.464 -1.564 4.26
 -0.451 -1.564 4.261
 -0.438 -1.564 4.26
 -0.425 -1.564 4.262
 -0.413 -1.564 4.263
 -0.399 -1.563 4.261
 -0.386 -1.562 4.259
 -0.373 -1.561 4.257
 -0.36 -1.561 4.258
 -0.347 -1.56 4.256
 -0.335 -1.56 4.257
 -0.322 -1.561 4.259
 -0.309 -1.561 4.261
 -0.296 -1.559 4.256
 -0.283 -1.561 4.26
 -0.27 -1.56 4.258
 -0.258 -1.561 4.261
 -0.245 -1.558 4.255
 -0.232 -1.559 4.258
 -0.219 -1.558 4.255
 -0.206 -1.558 4.255
 -0.193 -1.556 4.251
 -0.181 -1.557 4.253
 -0.168 -1.557 4.253
 -0.155 -1.556 4.25
 -0.142 -1.555 4.25
 -0.129 -1.555 4.249
 -0.117 -1.557 4.254
 -0.104 -1.556 4.252
 -0.091 -1.556 4.253
 -0.079 -1.558 4.257
 -0.066 -1.557 4.255
 -0.053 -1.556 4.253
 -0.04 -1.556 4.252
 -0.027 -1.555 4.25
 -0.015 -1.555 4.25
 -0.002 -1.554 4.247
 0.01 -1.554 4.245
 0.023 -1.553 4.244
 0.035 -1.556 4.252
 0.048 -1.554 4.245
 0.061 -1.554 4.245
 0.073 -1.553 4.243
 0.086 -1.554 4.244
 0.099 -1.552 4.237
 0.112 -1.553 4.24
 0.124 -1.556 4.248
 0.137 -1.557 4.25
 0.15 -1.558 4.253
 0.163 -1.558 4.253
 0.176 -1.559 4.253
 0.188 -1.557 4.248
 0.201 -1.557 4.247
 0.214 -1.555 4.242
 0.226 -1.557 4.246
 0.239 -1.555 4.239
 0.252 -1.555 4.24
 0.264 -1.556 4.24
 0.277 -1.556 4.24
 0.29 -1.556 4.239
 0.303 -1.557 4.241
 0.315 -1.556 4.238
 0.328 -1.557 4.238
 0.341 -1.557 4.239
 0.354 -1.557 4.237
 0.367 -1.558 4.239
 0.379 -1.558 4.237
 0.392 -1.557 4.233
 0.405 -1.557 4.234
 0.418 -1.558 4.234
 0.43 -1.557 4.231
 0.443 -1.557 4.23
 0.456 -1.557 4.227
 0.468 -1.557 4.226
 0.481 -1.556 4.223
 0.494 -1.558 4.226
 0.508 -1.561 4.232
 0.521 -1.562 4.235
 0.534 -1.563 4.235
 0.547 -1.563 4.234
 0.559 -1.562 4.231
 0.572 -1.563 4.23
 0.585 -1.564 4.232
 0.598 -1.564 4.229
 0.611 -1.564 4.229
 0.624 -1.564 4.227
 0.636 -1.563 4.223
 0.65 -1.566 4.228
 0.663 -1.566 4.226
 0.676 -1.567 4.227
 0.689 -1.567 4.226
 0.701 -1.566 4.222
 0.713 -1.565 4.215
 0.727 -1.566 4.217
 0.74 -1.567 4.216
 0.753 -1.568 4.219
 0.767 -1.571 4.223
 0.78 -1.571 4.223
 0.794 -1.572 4.223
 0.807 -1.574 4.224
 0.82 -1.574 4.222
 0.833 -1.574 4.221
 0.846 -1.574 4.22
 0.858 -1.573 4.213
 0.87 -1.571 4.207
 0.883 -1.572 4.207
 0.896 -1.572 4.204
 0.909 -1.572 4.201
 0.923 -1.574 4.205
 0.937 -1.576 4.207
 0.95 -1.577 4.206
 0.963 -1.578 4.206
 0.976 -1.578 4.204
 0.989 -1.578 4.202
 1.003 -1.579 4.201
 1.017 -1.581 4.204
 1.031 -1.583 4.207
 1.045 -1.585 4.208
 1.057 -1.584 4.203
 1.071 -1.585 4.201
 1.082 -1.582 4.191
 1.095 -1.582 4.188
 1.107 -1.582 4.185
 1.121 -1.583 4.184
 1.134 -1.583 4.181
 1.147 -1.583 4.178
 1.16 -1.584 4.177
 1.173 -1.583 4.172
 1.188 -1.587 4.179
 1.205 -1.592 4.187
 1.22 -1.595 4.193
 1.234 -1.596 4.192
 1.25 -1.6 4.2
 1.262 -1.598 4.19
 1.274 -1.597 4.184
 1.287 -1.597 4.181
 1.299 -1.596 4.173
 1.312 -1.596 4.171
 1.327 -1.598 4.172
 1.339 -1.598 4.168
 1.353 -1.598 4.165
 1.367 -1.6 4.166
 1.38 -1.6 4.16
 1.395 -1.602 4.162
 1.408 -1.602 4.16
 1.423 -1.604 4.16
 1.438 -1.607 4.163
 1.452 -1.608 4.161
 1.465 -1.607 4.156
 1.478 -1.607 4.151
 1.491 -1.607 4.147
 1.504 -1.608 4.144
 1.518 -1.608 4.141
 1.533 -1.61 4.142
 1.548 -1.612 4.142
 1.563 -1.614 4.143
 1.575 -1.614 4.137
 1.586 -1.612 4.127
 1.6 -1.612 4.124
 1.614 -1.613 4.12
 1.624 -1.61 4.109
 1.639 -1.612 4.108
 1.655 -1.615 4.112
 1.667 -1.614 4.104
 1.682 -1.616 4.104
 1.696 -1.616 4.1
 1.706 -1.614 4.089
 1.72 -1.614 4.085
 1.733 -1.615 4.081
 1.746 -1.614 4.075
 1.76 -1.615 4.072
 1.775 -1.617 4.07
 1.785 -1.614 4.058
 1.797 -1.613 4.05
 1.806 -1.61 4.038
 1.816 -1.607 4.024
 1.83 -1.608 4.022
 1.843 -1.607 4.015
 1.851 -1.603 3.999
 1.859 -1.6 3.984
 1.871 -1.598 3.975
 1.869 -1.586 3.938
 1.871 -1.576 3.909
 1.873 -1.568 3.882
 1.872 -1.557 3.849
 1.872 -1.546 3.816
 1.877 -1.54 3.797
 1.88 -1.532 3.772
 1.885 -1.526 3.751
 1.892 -1.522 3.735
 1.894 -1.513 3.708
 1.897 -1.506 3.685
 1.901 -1.5 3.664
 1.9 -1.49 3.633
 1.899 -1.48 3.603
 1.904 -1.474 3.582
 0 0 0
 0 0 0
 0 0 0
 0 0 0
 0 0 0
 0 0 0
 0 0 0
 0 0 0
 0 0 0
 1.832 -1.335 3.19
 1.843 -1.335 3.185
 1.847 -1.33 3.167
 1.853 -1.327 3.154
 1.85 -1.317 3.125
 1.848 -1.308 3.098
 1.841 -1.296 3.064
 1.834 -1.284 3.029
 1.833 -1.276 3.004
 1.82 -1.26 2.961
 -2.383 -1.654 4.022
 -2.311 -1.613 3.93
 -2.307 -1.62 3.952
 -2.296 -1.622 3.964
 -2.286 -1.624 3.976
 -2.273 -1.624 3.983
 -2.259 -1.624 3.989
 -2.244 -1.623 3.992
 -2.228 -1.622 3.996
 -2.21 -1.618 3.994
 -2.195 -1.617 3.997
 -2.18 -1.616 4.001
 -2.167 -1.616 4.008
 -2.151 -1.614 4.009
 -2.141 -1.617 4.022
 -2.131 -1.62 4.035
 -2.117 -1.62 4.04
 -2.104 -1.62 4.047
 -2.089 -1.619 4.052
 -2.076 -1.619 4.057
 -2.059 -1.616 4.056
 -2.043 -1.615 4.057
 -2.031 -1.616 4.067
 -2.017 -1.615 4.07
 -2.002 -1.614 4.074
 -1.988 -1.614 4.079
 -1.975 -1.614 4.084
 -1.958 -1.612 4.084
 -1.946 -1.613 4.092
 -1.936 -1.616 4.106
 -1.922 -1.616 4.11
 -1.911 -1.618 4.12
 -1.9 -1.62 4.131
 -1.887 -1.62 4.137
 -1.872 -1.618 4.138
 -1.858 -1.618 4.144
 -1.842 -1.616 4.142
 -1.825 -1.613 4.14
 -1.812 -1.614 4.147
 -1.796 -1.611 4.146
 -1.782 -1.611 4.148
 -1.77 -1.612 4.157
 -1.753 -1.609 4.153
 -1.739 -1.608 4.157
 -1.728 -1.61 4.167
 -1.713 -1.609 4.168
 -1.696 -1.606 4.165
 -1.684 -1.608 4.174
 -1.667 -1.604 4.169
 -1.653 -1.603 4.17
 -1.642 -1.606 4.183
 -1.63 -1.607 4.189
 -1.616 -1.607 4.193
 -1.603 -1.607 4.199
 -1.589 -1.606 4.2
 -1.571 -1.602 4.193
 -1.557 -1.601 4.196
 -1.543 -1.6 4.197
 -1.53 -1.601 4.203
 -1.52 -1.604 4.215
 -1.506 -1.604 4.219
 -1.494 -1.605 4.225
 -1.479 -1.603 4.225
 -1.463 -1.601 4.223
 -1.447 -1.597 4.217
 -1.434 -1.598 4.223
 -1.419 -1.596 4.223
 -1.407 -1.597 4.228
 -1.392 -1.595 4.226
 -1.375 -1.591 4.219
 -1.362 -1.591 4.222
 -1.347 -1.59 4.223
 -1.334 -1.59 4.226
 -1.322 -1.592 4.235
 -1.313 -1.597 4.252
 -1.299 -1.595 4.251
 -1.286 -1.596 4.257
 -1.271 -1.594 4.255
 -1.258 -1.594 4.257
 -1.241 -1.589 4.248
 -1.227 -1.589 4.25
 -1.215 -1.59 4.257
 -1.203 -1.591 4.263
 -1.19 -1.591 4.267
 -1.176 -1.591 4.268
 -1.163 -1.591 4.271
 -1.146 -1.586 4.261
 -1.132 -1.584 4.259
 -1.117 -1.583 4.258
 -1.104 -1.583 4.262
 -1.09 -1.581 4.259
 -1.078 -1.583 4.268
 -1.064 -1.582 4.267
 -1.049 -1.58 4.263
 -1.035 -1.578 4.261
 -1.022 -1.578 4.264
 -1.007 -1.575 4.257
 -0.993 -1.574 4.257
 -0.982 -1.577 4.269
 -0.968 -1.575 4.266
 -0.955 -1.575 4.267
 -0.942 -1.576 4.274
 -0.929 -1.576 4.274
 -0.913 -1.571 4.262
 -0.901 -1.572 4.268
 -0.886 -1.57 4.265
 -0.872 -1.567 4.259
 -0.859 -1.568 4.264
 -0.846 -1.568 4.266
 -0.832 -1.567 4.264
 -0.819 -1.565 4.262
 -0.806 -1.566 4.265
 -0.793 -1.565 4.266
 -0.779 -1.564 4.265
 -0.766 -1.564 4.265
 -0.754 -1.565 4.271
 -0.741 -1.566 4.276
 -0.727 -1.563 4.269
 -0.714 -1.564 4.273
 -0.701 -1.563 4.271
 -0.688 -1.563 4.274
 -0.674 -1.56 4.267
 -0.661 -1.561 4.271
 -0.647 -1.56 4.269
 -0.635 -1.56 4.272
 -0.621 -1.559 4.271
 -0.607 -1.557 4.265
 -0.595 -1.557 4.267
 -0.582 -1.558 4.272
 -0.569 -1.557 4.271
 -0.555 -1.555 4.266
 -0.543 -1.558 4.274
 -0.53 -1.556 4.27
 -0.516 -1.553 4.263
 -0.503 -1.552 4.263
 -0.49 -1.553 4.265
 -0.476 -1.549 4.256
 -0.463 -1.548 4.255
 -0.45 -1.549 4.257
 -0.437 -1.548 4.256
 -0.424 -1.548 4.256
 -0.412 -1.549 4.261
 -0.399 -1.549 4.262
 -0.386 -1.549 4.261
 -0.373 -1.548 4.261
 -0.361 -1.55 4.266
 -0.348 -1.55 4.266
 -0.335 -1.55 4.269
 -0.322 -1.55 4.269
 -0.31 -1.55 4.27
 -0.296 -1.547 4.261
 -0.283 -1.546 4.26
 -0.27 -1.545 4.256
 -0.257 -1.546 4.26
 -0.244 -1.544 4.256
 -0.232 -1.545 4.258
 -0.219 -1.544 4.256
 -0.206 -1.544 4.255
 -0.193 -1.543 4.253
 -0.18 -1.542 4.253
 -0.168 -1.542 4.252
 -0.155 -1.543 4.256
 -0.142 -1.545 4.261
 -0.129 -1.543 4.256
 -0.117 -1.546 4.263
 -0.104 -1.545 4.261
 -0.091 -1.544 4.257
 -0.078 -1.544 4.257
 -0.066 -1.545 4.26
 -0.053 -1.544 4.258
 -0.04 -1.544 4.258
 -0.027 -1.543 4.256
 -0.015 -1.543 4.256
 -0.002 -1.542 4.251
 0.01 -1.541 4.25
 0.023 -1.542 4.253
 0.035 -1.545 4.259
 0.048 -1.544 4.256
 0.061 -1.543 4.255
 0.074 -1.542 4.249
 0.086 -1.541 4.246
 0.099 -1.539 4.24
 0.112 -1.539 4.24
 0.124 -1.541 4.247
 0.137 -1.544 4.253
 0.15 -1.545 4.255
 0.163 -1.545 4.257
 0.176 -1.546 4.257
 0.188 -1.545 4.253
 0.201 -1.542 4.246
 0.213 -1.541 4.241
 0.226 -1.541 4.242
 0.239 -1.54 4.238
 0.251 -1.54 4.237
 0.264 -1.542 4.242
 0.277 -1.543 4.244
 0.29 -1.543 4.244
 0.303 -1.545 4.248
 0.316 -1.544 4.245
 0.328 -1.543 4.24
 0.341 -1.544 4.241
 0.354 -1.543 4.239
 0.366 -1.543 4.237
 0.379 -1.544 4.238
 0.392 -1.543 4.234
 0.404 -1.543 4.234
 0.418 -1.545 4.236
 0.431 -1.546 4.239
 0.444 -1.548 4.242
 0.457 -1.548 4.242
 0.47 -1.548 4.242
 0.482 -1.547 4.236
 0.494 -1.545 4.231
 0.507 -1.546 4.231
 0.52 -1.547 4.233
 0.533 -1.548 4.232
 0.546 -1.547 4.229
 0.559 -1.549 4.232
 0.572 -1.549 4.231
 0.585 -1.55 4.233
 0.598 -1.551 4.233
 0.611 -1.552 4.236
 0.624 -1.552 4.233
 0.636 -1.551 4.228
 0.65 -1.553 4.233
 0.663 -1.553 4.229
 0.676 -1.555 4.233
 0.689 -1.555 4.231
 0.702 -1.556 4.232
 0.714 -1.554 4.225
 0.728 -1.555 4.227
 0.74 -1.555 4.224
 0.754 -1.558 4.229
 0.768 -1.559 4.231
 0.781 -1.56 4.231
 0.794 -1.561 4.231
 0.807 -1.56 4.227
 0.819 -1.559 4.223
 0.832 -1.56 4.222
 0.846 -1.561 4.224
 0.858 -1.56 4.218
 0.871 -1.559 4.214
 0.884 -1.56 4.212
 0.896 -1.559 4.209
 0.909 -1.559 4.205
 0.923 -1.561 4.208
 0.936 -1.563 4.21
 0.95 -1.565 4.212
 0.964 -1.566 4.213
 0.977 -1.567 4.212
 0.99 -1.567 4.209
 1.005 -1.569 4.213
 1.018 -1.57 4.212
 1.032 -1.571 4.213
 1.045 -1.572 4.212
 1.059 -1.573 4.213
 1.072 -1.574 4.212
 1.084 -1.573 4.206
 1.097 -1.572 4.201
 1.11 -1.573 4.199
 1.123 -1.573 4.196
 1.135 -1.572 4.19
 1.149 -1.572 4.189
 1.163 -1.574 4.19
 1.176 -1.574 4.187
 1.191 -1.577 4.192
 1.207 -1.581 4.199
 1.222 -1.584 4.204
 1.236 -1.585 4.203
 1.252 -1.589 4.208
 1.263 -1.587 4.2
 1.276 -1.586 4.194
 1.288 -1.586 4.19
 1.301 -1.585 4.185
 1.314 -1.585 4.181
 1.327 -1.586 4.179
 1.341 -1.587 4.177
 1.354 -1.587 4.174
 1.369 -1.589 4.175
 1.382 -1.589 4.17
 1.397 -1.591 4.173
 1.411 -1.592 4.171
 1.426 -1.595 4.174
 1.441 -1.596 4.174
 1.455 -1.598 4.174
 1.469 -1.599 4.172
 1.483 -1.599 4.169
 1.496 -1.6 4.166
 1.509 -1.599 4.161
 1.523 -1.601 4.161
 1.537 -1.602 4.159
 1.553 -1.604 4.161
 1.569 -1.607 4.163
 1.582 -1.607 4.158
 1.593 -1.605 4.148
 1.607 -1.606 4.148
 1.62 -1.606 4.141
 1.631 -1.603 4.13
 1.646 -1.605 4.131
 1.663 -1.61 4.136
 1.675 -1.608 4.129
 1.689 -1.609 4.126
 1.704 -1.61 4.124
 1.716 -1.61 4.118
 1.729 -1.609 4.111
 1.742 -1.609 4.105
 1.754 -1.609 4.099
 1.767 -1.608 4.092
 1.781 -1.609 4.089
 1.792 -1.607 4.08
 1.805 -1.607 4.073
 1.814 -1.603 4.058
 1.823 -1.6 4.046
 1.838 -1.601 4.042
 1.847 -1.598 4.028
 1.855 -1.594 4.012
 1.864 -1.591 3.999
 1.876 -1.589 3.99
 1.873 -1.576 3.951
 1.877 -1.568 3.926
 1.877 -1.558 3.895
 1.875 -1.546 3.859
 1.872 -1.534 3.822
 1.875 -1.526 3.796
 1.88 -1.519 3.776
 1.886 -1.514 3.757
 1.891 -1.508 3.737
 1.893 -1.501 3.711
 1.898 -1.495 3.691
 1.9 -1.487 3.666
 1.901 -1.478 3.639
 0 0 0
 0 0 0
 0 0 0
 0 0 0
 0 0 0
 0 0 0
 0 0 0
 0 0 0
 0 0 0
 0 0 0
 0 0 0
 1.831 -1.324 3.193
 1.843 -1.324 3.188
 1.844 -1.318 3.167
 1.851 -1.315 3.155
 1.85 -1.307 3.129
 1.849 -1.298 3.103
 1.845 -1.288 3.073
 1.838 -1.276 3.039
 1.85 -1.277 3.035
 1.841 -1.264 2.999
 -2.37 -1.631 4.003
 0 0 0
 -2.324 -1.618 3.986
 -2.307 -1.616 3.987
 -2.297 -1.618 4
 -2.284 -1.619 4.008
 -2.272 -1.62 4.018
 -2.259 -1.621 4.025
 -2.245 -1.62 4.031
 -2.228 -1.618 4.032
 -2.216 -1.619 4.041
 -2.198 -1.616 4.039
 -2.182 -1.614 4.042
 -2.167 -1.613 4.045
 -2.159 -1.617 4.06
 -2.146 -1.618 4.068
 -2.132 -1.617 4.074
 -2.119 -1.618 4.082
 -2.105 -1.618 4.087
 -2.09 -1.617 4.09
 -2.075 -1.616 4.093
 -2.059 -1.614 4.094
 -2.047 -1.615 4.103
 -2.03 -1.613 4.103
 -2.015 -1.611 4.105
 -2 -1.61 4.108
 -1.987 -1.611 4.115
 -1.969 -1.607 4.112
 -1.958 -1.61 4.123
 -1.948 -1.612 4.134
 -1.932 -1.61 4.134
 -1.92 -1.611 4.143
 -1.911 -1.615 4.159
 -1.895 -1.613 4.159
 -1.877 -1.61 4.156
 -1.864 -1.61 4.161
 -1.848 -1.608 4.161
 -1.832 -1.606 4.16
 -1.821 -1.608 4.171
 -1.807 -1.608 4.175
 -1.794 -1.608 4.181
 -1.781 -1.609 4.188
 -1.764 -1.605 4.184
 -1.75 -1.605 4.188
 -1.738 -1.607 4.198
 -1.722 -1.604 4.196
 -1.707 -1.603 4.197
 -1.695 -1.604 4.204
 -1.677 -1.6 4.199
 -1.662 -1.599 4.2
 -1.653 -1.603 4.214
 -1.639 -1.602 4.218
 -1.624 -1.601 4.219
 -1.613 -1.603 4.229
 -1.598 -1.602 4.231
 -1.581 -1.598 4.224
 -1.568 -1.598 4.228
 -1.554 -1.598 4.233
 -1.539 -1.597 4.232
 -1.527 -1.599 4.241
 -1.514 -1.598 4.245
 -1.5 -1.598 4.249
 -1.485 -1.597 4.248
 -1.471 -1.596 4.25
 -1.455 -1.592 4.245
 -1.442 -1.594 4.252
 -1.427 -1.591 4.25
 -1.413 -1.591 4.252
 -1.398 -1.589 4.251
 -1.382 -1.585 4.244
 -1.367 -1.584 4.243
 -1.353 -1.583 4.245
 -1.339 -1.582 4.247
 -1.326 -1.582 4.25
 -1.316 -1.587 4.266
 -1.301 -1.585 4.264
 -1.288 -1.585 4.268
 -1.273 -1.582 4.264
 -1.26 -1.584 4.27
 -1.243 -1.579 4.261
 -1.23 -1.579 4.263
 -1.217 -1.579 4.267
 -1.206 -1.582 4.278
 -1.191 -1.58 4.277
 -1.178 -1.58 4.278
 -1.164 -1.579 4.279
 -1.149 -1.576 4.275
 -1.133 -1.574 4.271
 -1.119 -1.572 4.268
 -1.106 -1.573 4.273
 -1.093 -1.573 4.276
 -1.08 -1.573 4.28
 -1.066 -1.572 4.278
 -1.051 -1.57 4.275
 -1.037 -1.567 4.272
 -1.023 -1.566 4.27
 -1.007 -1.561 4.26
 -0.993 -1.561 4.263
 -0.982 -1.564 4.272
 -0.968 -1.562 4.271
 -0.955 -1.562 4.272
 -0.943 -1.564 4.278
 -0.928 -1.562 4.276
 -0.913 -1.558 4.268
 -0.9 -1.558 4.271
 -0.887 -1.557 4.27
 -0.873 -1.557 4.27
 -0.86 -1.557 4.273
 -0.847 -1.557 4.274
 -0.833 -1.556 4.274
 -0.82 -1.554 4.272
 -0.806 -1.552 4.268
 -0.793 -1.552 4.27
 -0.78 -1.552 4.271
 -0.766 -1.551 4.27
 -0.753 -1.551 4.271
 -0.741 -1.554 4.281
 -0.727 -1.552 4.278
 -0.714 -1.551 4.277
 -0.701 -1.551 4.28
 -0.689 -1.553 4.285
 -0.674 -1.548 4.274
 -0.661 -1.549 4.278
 -0.648 -1.547 4.275
 -0.635 -1.548 4.277
 -0.621 -1.546 4.274
 -0.608 -1.546 4.274
 -0.595 -1.545 4.275
 -0.583 -1.547 4.28
 -0.569 -1.545 4.276
 -0.556 -1.544 4.274
 -0.543 -1.545 4.279
 -0.529 -1.542 4.271
 -0.516 -1.54 4.267
 -0.503 -1.54 4.267
 -0.49 -1.539 4.266
 -0.475 -1.535 4.256
 -0.463 -1.535 4.256
 -0.45 -1.535 4.259
 -0.437 -1.534 4.256
 -0.424 -1.535 4.259
 -0.411 -1.535 4.261
 -0.399 -1.535 4.261
 -0.385 -1.533 4.258
 -0.373 -1.533 4.259
 -0.36 -1.534 4.262
 -0.347 -1.535 4.266
 -0.335 -1.536 4.269
 -0.322 -1.537 4.271
 -0.309 -1.536 4.269
 -0.296 -1.534 4.264
 -0.283 -1.533 4.263
 -0.27 -1.532 4.259
 -0.257 -1.533 4.263
 -0.245 -1.533 4.263
 -0.232 -1.533 4.264
 -0.219 -1.531 4.259
 -0.206 -1.531 4.26
 -0.193 -1.531 4.261
 -0.18 -1.531 4.261
 -0.168 -1.531 4.261
 -0.155 -1.533 4.266
 -0.142 -1.533 4.267
 -0.129 -1.53 4.257
 -0.117 -1.531 4.261
 -0.104 -1.531 4.26
 -0.091 -1.529 4.256
 -0.078 -1.53 4.259
 -0.066 -1.533 4.266
 -0.053 -1.532 4.263
 -0.04 -1.532 4.263
 -0.027 -1.531 4.262
 -0.015 -1.531 4.261
 -0.002 -1.53 4.258
 0.01 -1.53 4.259
 0.023 -1.53 4.257
 0.035 -1.531 4.26
 0.048 -1.529 4.256
 0.061 -1.529 4.253
 0.074 -1.527 4.248
 0.086 -1.527 4.248
 0.099 -1.527 4.246
 0.112 -1.526 4.245
 0.124 -1.528 4.25
 0.137 -1.53 4.254
 0.15 -1.531 4.256
 0.163 -1.531 4.255
 0.176 -1.531 4.255
 0.188 -1.53 4.251
 0.201 -1.529 4.248
 0.213 -1.528 4.244
 0.226 -1.528 4.246
 0.239 -1.528 4.243
 0.252 -1.529 4.246
 0.265 -1.53 4.248
 0.278 -1.532 4.251
 0.291 -1.533 4.254
 0.304 -1.534 4.255
 0.316 -1.533 4.251
 0.329 -1.532 4.248
 0.341 -1.532 4.249
 0.354 -1.53 4.242
 0.367 -1.531 4.242
 0.379 -1.531 4.241
 0.392 -1.531 4.241
 0.405 -1.53 4.238
 0.418 -1.532 4.242
 0.431 -1.533 4.243
 0.444 -1.534 4.244
 0.456 -1.533 4.241
 0.469 -1.533 4.24
 0.481 -1.532 4.235
 0.494 -1.531 4.231
 0.507 -1.533 4.234
 0.52 -1.533 4.234
 0.533 -1.535 4.236
 0.546 -1.536 4.237
 0.559 -1.537 4.24
 0.572 -1.536 4.234
 0.585 -1.536 4.234
 0.597 -1.535 4.23
 0.61 -1.536 4.23
 0.623 -1.537 4.23
 0.636 -1.538 4.231
 0.65 -1.54 4.236
 0.663 -1.54 4.234
 0.676 -1.542 4.238
 0.689 -1.541 4.234
 0.702 -1.542 4.234
 0.714 -1.541 4.229
 0.729 -1.544 4.236
 0.741 -1.543 4.23
 0.754 -1.545 4.233
 0.768 -1.547 4.236
 0.781 -1.547 4.235
 0.793 -1.546 4.23
 0.806 -1.546 4.229
 0.819 -1.545 4.223
 0.831 -1.545 4.22
 0.845 -1.546 4.222
 0.858 -1.547 4.22
 0.871 -1.547 4.219
 0.885 -1.549 4.222
 0.898 -1.549 4.219
 0.911 -1.55 4.219
 0.924 -1.55 4.216
 0.937 -1.55 4.215
 0.951 -1.552 4.216
 0.964 -1.553 4.217
 0.977 -1.553 4.215
 0.991 -1.555 4.218
 1.005 -1.557 4.22
 1.018 -1.556 4.215
 1.031 -1.558 4.215
 1.044 -1.558 4.213
 1.058 -1.559 4.214
 1.072 -1.56 4.212
 1.086 -1.561 4.214
 1.099 -1.561 4.211
 1.112 -1.563 4.211
 1.125 -1.563 4.208
 1.138 -1.563 4.205
 1.151 -1.563 4.202
 1.166 -1.565 4.204
 1.179 -1.565 4.201
 1.194 -1.568 4.206
 1.21 -1.572 4.212
 1.224 -1.573 4.214
 1.237 -1.574 4.211
 1.252 -1.576 4.214
 1.264 -1.574 4.205
 1.276 -1.573 4.2
 1.29 -1.574 4.198
 1.303 -1.574 4.195
 1.317 -1.575 4.193
 1.329 -1.575 4.188
 1.343 -1.576 4.187
 1.355 -1.575 4.182
 1.37 -1.577 4.182
 1.383 -1.576 4.177
 1.399 -1.58 4.182
 1.413 -1.581 4.182
 1.429 -1.584 4.186
 1.443 -1.586 4.186
 1.458 -1.588 4.187
 1.472 -1.589 4.185
 1.485 -1.589 4.182
 1.499 -1.59 4.18
 1.512 -1.589 4.174
 1.527 -1.591 4.173
 1.542 -1.594 4.176
 1.557 -1.595 4.176
 1.572 -1.597 4.177
 1.586 -1.598 4.173
 1.598 -1.597 4.166
 1.611 -1.597 4.161
 1.624 -1.597 4.157
 1.635 -1.594 4.146
 1.653 -1.599 4.152
 1.668 -1.6 4.152
 1.681 -1.601 4.148
 1.695 -1.601 4.144
 1.709 -1.602 4.142
 1.721 -1.601 4.134
 1.734 -1.601 4.129
 1.745 -1.598 4.117
 1.759 -1.599 4.113
 1.772 -1.6 4.11
 1.785 -1.599 4.103
 1.798 -1.599 4.097
 1.811 -1.599 4.091
 1.821 -1.596 4.08
 1.83 -1.592 4.064
 1.844 -1.594 4.062
 1.851 -1.588 4.042
 1.861 -1.586 4.031
 1.868 -1.58 4.011
 1.877 -1.577 3.997
 1.874 -1.564 3.958
 1.879 -1.557 3.936
 1.88 -1.547 3.905
 1.881 -1.538 3.875
 1.88 -1.527 3.842
 1.884 -1.52 3.818
 1.889 -1.514 3.798
 1.895 -1.509 3.779
 1.9 -1.503 3.759
 1.901 -1.495 3.732
 1.908 -1.49 3.715
 1.913 -1.485 3.696
 0 0 0
 0 0 0
 0 0 0
 0 0 0
 0 0 0
 0 0 0
 0 0 0
 0 0 0
 0 0 0
 0 0 0
 0 0 0
 0 0 0
 1.826 -1.309 3.187
 1.84 -1.311 3.187
 1.841 -1.304 3.165
 1.846 -1.3 3.149
 1.848 -1.294 3.129
 1.849 -1.288 3.108
 1.844 -1.277 3.076
 1.84 -1.267 3.046
 1.799 -1.232 2.955
 1.791 -1.22 2.92
 0 0 0
 0 0 0
 -2.342 -1.617 4.022
 -2.324 -1.614 4.021
 -2.309 -1.613 4.026
 -2.294 -1.612 4.031
 -2.282 -1.613 4.04
 -2.271 -1.615 4.05
 -2.258 -1.616 4.06
 -2.243 -1.615 4.064
 -2.231 -1.616 4.072
 -2.216 -1.615 4.077
 -2.199 -1.613 4.077
 -2.184 -1.612 4.082
 -2.172 -1.613 4.09
 -2.161 -1.616 4.103
 -2.146 -1.614 4.105
 -2.134 -1.616 4.116
 -2.121 -1.616 4.122
 -2.106 -1.616 4.127
 -2.087 -1.611 4.122
 -2.073 -1.611 4.127
 -2.058 -1.61 4.13
 -2.041 -1.608 4.13
 -2.025 -1.606 4.13
 -2.01 -1.605 4.133
 -1.995 -1.604 4.137
 -1.981 -1.603 4.14
 -1.971 -1.606 4.153
 -1.961 -1.609 4.167
 -1.948 -1.61 4.174
 -1.936 -1.612 4.184
 -1.924 -1.613 4.193
 -1.906 -1.609 4.189
 -1.891 -1.608 4.192
 -1.876 -1.607 4.193
 -1.858 -1.604 4.19
 -1.845 -1.603 4.194
 -1.833 -1.606 4.205
 -1.82 -1.605 4.21
 -1.808 -1.607 4.218
 -1.796 -1.609 4.229
 -1.78 -1.607 4.228
 -1.765 -1.606 4.23
 -1.753 -1.607 4.238
 -1.734 -1.602 4.229
 -1.716 -1.597 4.222
 -1.7 -1.595 4.222
 -1.683 -1.593 4.219
 -1.666 -1.589 4.214
 -1.657 -1.594 4.23
 -1.646 -1.595 4.24
 -1.631 -1.595 4.242
 -1.62 -1.597 4.251
 -1.605 -1.596 4.254
 -1.588 -1.592 4.248
 -1.575 -1.593 4.254
 -1.561 -1.592 4.257
 -1.546 -1.59 4.255
 -1.533 -1.591 4.261
 -1.518 -1.589 4.261
 -1.503 -1.588 4.261
 -1.488 -1.587 4.262
 -1.475 -1.587 4.266
 -1.461 -1.586 4.267
 -1.449 -1.587 4.275
 -1.433 -1.585 4.272
 -1.419 -1.584 4.275
 -1.404 -1.582 4.272
 -1.387 -1.578 4.265
 -1.373 -1.577 4.267
 -1.359 -1.577 4.268
 -1.345 -1.576 4.271
 -1.331 -1.576 4.273
 -1.32 -1.578 4.283
 -1.306 -1.577 4.283
 -1.293 -1.578 4.288
 -1.278 -1.575 4.285
 -1.266 -1.577 4.293
 -1.249 -1.574 4.286
 -1.235 -1.572 4.286
 -1.221 -1.571 4.286
 -1.208 -1.572 4.291
 -1.191 -1.567 4.282
 -1.178 -1.567 4.284
 -1.162 -1.564 4.279
 -1.147 -1.561 4.272
 -1.133 -1.559 4.272
 -1.119 -1.559 4.274
 -1.106 -1.559 4.277
 -1.094 -1.561 4.284
 -1.082 -1.563 4.293
 -1.068 -1.561 4.29
 -1.053 -1.559 4.287
 -1.039 -1.557 4.285
 -1.025 -1.556 4.284
 -1.008 -1.551 4.272
 -0.995 -1.551 4.275
 -0.983 -1.553 4.283
 -0.97 -1.552 4.282
 -0.956 -1.551 4.281
 -0.943 -1.551 4.284
 -0.929 -1.549 4.281
 -0.914 -1.547 4.277
 -0.901 -1.546 4.277
 -0.887 -1.546 4.277
 -0.874 -1.546 4.281
 -0.861 -1.546 4.283
 -0.847 -1.544 4.279
 -0.833 -1.542 4.277
 -0.819 -1.541 4.275
 -0.805 -1.538 4.269
 -0.792 -1.539 4.273
 -0.78 -1.54 4.277
 -0.767 -1.54 4.279
 -0.753 -1.539 4.279
 -0.742 -1.543 4.292
 -0.728 -1.541 4.288
 -0.715 -1.539 4.284
 -0.702 -1.539 4.287
 -0.689 -1.541 4.293
 -0.675 -1.537 4.284
 -0.661 -1.536 4.282
 -0.648 -1.535 4.282
 -0.635 -1.535 4.282
 -0.621 -1.534 4.279
 -0.608 -1.532 4.277
 -0.595 -1.533 4.282
 -0.583 -1.535 4.287
 -0.569 -1.533 4.283
 -0.556 -1.531 4.278
 -0.543 -1.532 4.283
 -0.529 -1.529 4.275
 -0.516 -1.527 4.27
 -0.503 -1.527 4.271
 -0.489 -1.525 4.268
 -0.475 -1.521 4.258
 -0.462 -1.521 4.259
 -0.45 -1.522 4.261
 -0.437 -1.521 4.259
 -0.424 -1.521 4.262
 -0.411 -1.522 4.266
 -0.399 -1.522 4.267
 -0.386 -1.521 4.265
 -0.373 -1.522 4.268
 -0.36 -1.523 4.269
 -0.348 -1.523 4.272
 -0.335 -1.524 4.275
 -0.322 -1.524 4.276
 -0.309 -1.523 4.273
 -0.296 -1.522 4.271
 -0.283 -1.522 4.271
 -0.27 -1.52 4.266
 -0.257 -1.519 4.265
 -0.244 -1.52 4.268
 -0.232 -1.52 4.266
 -0.219 -1.518 4.263
 -0.206 -1.519 4.266
 -0.193 -1.519 4.267
 -0.18 -1.519 4.265
 -0.168 -1.519 4.267
 -0.155 -1.52 4.271
 -0.142 -1.519 4.268
 -0.129 -1.517 4.261
 -0.116 -1.518 4.264
 -0.104 -1.517 4.262
 -0.091 -1.517 4.261
 -0.078 -1.517 4.262
 -0.066 -1.519 4.268
 -0.053 -1.518 4.264
 -0.04 -1.518 4.265
 -0.027 -1.518 4.265
 -0.014 -1.517 4.262
 -0.002 -1.517 4.26
 0.01 -1.518 4.264
 0.023 -1.516 4.259
 0.035 -1.515 4.256
 0.048 -1.517 4.259
 0.061 -1.516 4.257
 0.074 -1.513 4.249
 0.086 -1.514 4.251
 0.099 -1.514 4.25
 0.112 -1.514 4.25
 0.124 -1.514 4.251
 0.137 -1.517 4.256
 0.15 -1.518 4.261
 0.163 -1.518 4.261
 0.176 -1.516 4.254
 0.188 -1.516 4.253
 0.201 -1.515 4.25
 0.213 -1.514 4.245
 0.226 -1.515 4.248
 0.239 -1.515 4.248
 0.252 -1.516 4.25
 0.265 -1.518 4.254
 0.278 -1.519 4.256
 0.291 -1.52 4.258
 0.304 -1.521 4.261
 0.316 -1.52 4.255
 0.329 -1.519 4.251
 0.342 -1.521 4.256
 0.354 -1.519 4.25
 0.367 -1.519 4.249
 0.38 -1.52 4.25
 0.392 -1.519 4.248
 0.405 -1.518 4.242
 0.418 -1.519 4.245
 0.431 -1.52 4.245
 0.443 -1.52 4.243
 0.456 -1.519 4.242
 0.469 -1.519 4.24
 0.482 -1.52 4.239
 0.494 -1.519 4.236
 0.507 -1.521 4.24
 0.52 -1.52 4.237
 0.533 -1.522 4.241
 0.546 -1.523 4.242
 0.56 -1.525 4.244
 0.572 -1.523 4.239
 0.585 -1.525 4.243
 0.598 -1.524 4.238
 0.61 -1.524 4.236
 0.623 -1.525 4.236
 0.637 -1.526 4.239
 0.65 -1.527 4.24
 0.663 -1.528 4.24
 0.677 -1.531 4.247
 0.69 -1.53 4.242
 0.703 -1.531 4.244
 0.715 -1.53 4.237
 0.728 -1.53 4.237
 0.74 -1.528 4.229
 0.754 -1.53 4.232
 0.767 -1.531 4.233
 0.78 -1.533 4.235
 0.793 -1.532 4.232
 0.806 -1.532 4.229
 0.818 -1.531 4.225
 0.831 -1.532 4.224
 0.845 -1.533 4.225
 0.858 -1.535 4.227
 0.872 -1.537 4.23
 0.886 -1.538 4.231
 0.899 -1.538 4.228
 0.912 -1.539 4.229
 0.925 -1.538 4.224
 0.938 -1.539 4.223
 0.951 -1.54 4.223
 0.964 -1.54 4.221
 0.977 -1.54 4.219
 0.992 -1.543 4.223
 1.006 -1.544 4.225
 1.018 -1.543 4.218
 1.031 -1.544 4.219
 1.044 -1.544 4.215
 1.057 -1.545 4.214
 1.07 -1.544 4.21
 1.083 -1.545 4.209
 1.098 -1.547 4.211
 1.112 -1.549 4.214
 1.126 -1.55 4.214
 1.139 -1.551 4.212
 1.153 -1.553 4.214
 1.167 -1.554 4.213
 1.181 -1.554 4.212
 1.195 -1.556 4.214
 1.212 -1.561 4.223
 1.226 -1.562 4.223
 1.239 -1.563 4.222
 1.253 -1.564 4.221
 1.265 -1.563 4.215
 1.278 -1.562 4.209
 1.292 -1.563 4.208
 1.304 -1.563 4.203
 1.317 -1.563 4.199
 1.329 -1.562 4.193
 1.342 -1.561 4.187
 1.355 -1.562 4.185
 1.37 -1.564 4.187
 1.383 -1.564 4.183
 1.399 -1.567 4.187
 1.414 -1.569 4.189
 1.43 -1.572 4.193
 1.444 -1.574 4.193
 1.46 -1.577 4.197
 1.475 -1.579 4.198
 1.489 -1.58 4.196
 1.502 -1.58 4.192
 1.514 -1.579 4.185
 1.528 -1.579 4.182
 1.544 -1.582 4.185
 1.559 -1.584 4.185
 1.574 -1.586 4.186
 1.589 -1.587 4.186
 1.604 -1.589 4.186
 1.617 -1.589 4.18
 1.629 -1.588 4.172
 1.641 -1.587 4.165
 1.658 -1.59 4.169
 1.671 -1.59 4.164
 1.684 -1.59 4.16
 1.699 -1.592 4.159
 1.713 -1.593 4.156
 1.725 -1.591 4.148
 1.738 -1.591 4.142
 1.749 -1.589 4.131
 1.763 -1.59 4.129
 1.777 -1.59 4.124
 1.79 -1.59 4.119
 1.803 -1.591 4.114
 1.816 -1.59 4.106
 1.824 -1.586 4.091
 1.834 -1.582 4.077
 1.845 -1.581 4.068
 1.849 -1.573 4.042
 1.86 -1.572 4.033
 1.866 -1.566 4.013
 1.875 -1.562 3.997
 1.873 -1.55 3.96
 1.879 -1.545 3.941
 1.88 -1.534 3.909
 1.882 -1.526 3.883
 1.882 -1.516 3.85
 1.888 -1.511 3.832
 1.896 -1.507 3.816
 1.901 -1.501 3.797
 1.904 -1.494 3.771
 1.911 -1.489 3.754
 1.915 -1.483 3.732
 0 0 0
 0 0 0
 0 0 0
 0 0 0
 0 0 0
 0 0 0
 0 0 0
 0 0 0
 0 0 0
 0 0 0
 0 0 0
 0 0 0
 0 0 0
 0 0 0
 1.837 -1.299 3.187
 1.837 -1.291 3.163
 1.843 -1.288 3.148
 1.848 -1.284 3.133
 1.854 -1.28 3.119
 1.847 -1.269 3.085
 1.844 -1.259 3.057
 1.866 -1.267 3.07
 1.798 -1.214 2.936
 -2.407 -1.629 4.077
 0 0 0
 -2.36 -1.616 4.058
 -2.341 -1.612 4.056
 -2.323 -1.609 4.055
 -2.307 -1.608 4.059
 -2.298 -1.611 4.073
 -2.286 -1.612 4.083
 -2.274 -1.614 4.093
 -2.261 -1.614 4.101
 -2.245 -1.613 4.103
 -2.23 -1.612 4.107
 -2.212 -1.609 4.106
 -2.197 -1.608 4.11
 -2.184 -1.609 4.119
 -2.175 -1.612 4.134
 -2.163 -1.614 4.144
 -2.151 -1.615 4.153
 -2.136 -1.614 4.158
 -2.12 -1.613 4.16
 -2.1 -1.608 4.152
 -2.083 -1.605 4.152
 -2.066 -1.603 4.152
 -2.052 -1.602 4.156
 -2.037 -1.602 4.16
 -2.023 -1.602 4.166
 -2.009 -1.601 4.17
 -1.997 -1.602 4.179
 -1.984 -1.603 4.186
 -1.972 -1.605 4.196
 -1.959 -1.605 4.203
 -1.947 -1.606 4.211
 -1.932 -1.606 4.215
 -1.914 -1.602 4.212
 -1.9 -1.602 4.215
 -1.884 -1.6 4.217
 -1.866 -1.597 4.212
 -1.855 -1.598 4.222
 -1.844 -1.601 4.235
 -1.83 -1.601 4.237
 -1.818 -1.602 4.247
 -1.806 -1.604 4.256
 -1.789 -1.601 4.254
 -1.775 -1.6 4.257
 -1.763 -1.603 4.267
 -1.745 -1.598 4.26
 -1.727 -1.594 4.255
 -1.711 -1.592 4.253
 -1.693 -1.589 4.249
 -1.675 -1.584 4.242
 -1.665 -1.588 4.255
 -1.652 -1.589 4.262
 -1.639 -1.588 4.265
 -1.626 -1.59 4.274
 -1.613 -1.589 4.277
 -1.596 -1.586 4.273
 -1.582 -1.586 4.278
 -1.568 -1.586 4.28
 -1.553 -1.584 4.28
 -1.539 -1.583 4.282
 -1.523 -1.581 4.281
 -1.509 -1.58 4.282
 -1.494 -1.58 4.284
 -1.48 -1.579 4.286
 -1.466 -1.578 4.288
 -1.453 -1.578 4.292
 -1.437 -1.576 4.288
 -1.422 -1.574 4.288
 -1.407 -1.573 4.288
 -1.391 -1.569 4.281
 -1.377 -1.569 4.284
 -1.362 -1.568 4.284
 -1.348 -1.566 4.283
 -1.332 -1.563 4.279
 -1.319 -1.564 4.284
 -1.305 -1.563 4.284
 -1.292 -1.564 4.29
 -1.277 -1.562 4.288
 -1.266 -1.564 4.299
 -1.251 -1.562 4.296
 -1.236 -1.56 4.294
 -1.222 -1.559 4.293
 -1.209 -1.559 4.298
 -1.193 -1.556 4.291
 -1.179 -1.556 4.293
 -1.164 -1.552 4.287
 -1.148 -1.55 4.283
 -1.134 -1.548 4.282
 -1.119 -1.547 4.279
 -1.106 -1.545 4.279
 -1.093 -1.546 4.285
 -1.081 -1.549 4.293
 -1.067 -1.547 4.291
 -1.053 -1.546 4.292
 -1.04 -1.545 4.292
 -1.026 -1.544 4.292
 -1.01 -1.54 4.282
 -0.996 -1.539 4.283
 -0.984 -1.541 4.29
 -0.97 -1.54 4.288
 -0.957 -1.539 4.29
 -0.943 -1.539 4.292
 -0.93 -1.538 4.291
 -0.915 -1.536 4.286
 -0.902 -1.535 4.287
 -0.888 -1.534 4.286
 -0.875 -1.535 4.29
 -0.862 -1.534 4.291
 -0.848 -1.532 4.286
 -0.833 -1.53 4.282
 -0.82 -1.529 4.282
 -0.805 -1.525 4.272
 -0.791 -1.524 4.272
 -0.778 -1.524 4.274
 -0.765 -1.524 4.276
 -0.752 -1.523 4.273
 -0.741 -1.527 4.286
 -0.727 -1.525 4.285
 -0.713 -1.524 4.282
 -0.7 -1.524 4.284
 -0.688 -1.525 4.288
 -0.674 -1.523 4.283
 -0.66 -1.521 4.279
 -0.647 -1.521 4.28
 -0.634 -1.521 4.282
 -0.621 -1.521 4.283
 -0.608 -1.519 4.281
 -0.595 -1.521 4.286
 -0.583 -1.522 4.29
 -0.569 -1.52 4.287
 -0.556 -1.518 4.281
 -0.543 -1.519 4.286
 -0.53 -1.518 4.285
 -0.516 -1.516 4.28
 -0.503 -1.514 4.276
 -0.489 -1.513 4.273
 -0.475 -1.508 4.26
 -0.462 -1.507 4.259
 -0.449 -1.507 4.26
 -0.436 -1.506 4.257
 -0.424 -1.507 4.262
 -0.411 -1.509 4.267
 -0.398 -1.508 4.266
 -0.385 -1.508 4.266
 -0.373 -1.509 4.27
 -0.36 -1.509 4.272
 -0.347 -1.51 4.274
 -0.335 -1.511 4.278
 -0.322 -1.511 4.279
 -0.309 -1.509 4.274
 -0.296 -1.508 4.27
 -0.283 -1.507 4.27
 -0.269 -1.505 4.263
 -0.257 -1.504 4.261
 -0.244 -1.505 4.264
 -0.231 -1.505 4.265
 -0.218 -1.503 4.259
 -0.206 -1.504 4.263
 -0.193 -1.504 4.265
 -0.18 -1.504 4.264
 -0.167 -1.505 4.267
 -0.155 -1.507 4.274
 -0.142 -1.506 4.271
 -0.129 -1.505 4.267
 -0.116 -1.505 4.269
 -0.104 -1.505 4.267
 -0.091 -1.503 4.263
 -0.078 -1.503 4.263
 -0.065 -1.505 4.267
 -0.053 -1.503 4.263
 -0.04 -1.503 4.261
 -0.027 -1.503 4.262
 -0.014 -1.501 4.257
 -0.002 -1.502 4.258
 0.01 -1.504 4.264
 0.023 -1.503 4.263
 0.036 -1.503 4.261
 0.048 -1.506 4.27
 0.061 -1.505 4.266
 0.074 -1.503 4.261
 0.087 -1.504 4.263
 0.099 -1.505 4.264
 0.112 -1.503 4.259
 0.125 -1.503 4.257
 0.137 -1.503 4.257
 0.15 -1.504 4.261
 0.163 -1.504 4.259
 0.175 -1.503 4.256
 0.188 -1.503 4.255
 0.201 -1.502 4.252
 0.213 -1.5 4.245
 0.226 -1.501 4.248
 0.239 -1.502 4.249
 0.252 -1.503 4.253
 0.265 -1.506 4.26
 0.278 -1.507 4.263
 0.291 -1.509 4.267
 0.304 -1.51 4.269
 0.317 -1.509 4.265
 0.329 -1.507 4.259
 0.342 -1.509 4.262
 0.354 -1.506 4.253
 0.367 -1.505 4.25
 0.379 -1.506 4.25
 0.392 -1.506 4.251
 0.404 -1.503 4.241
 0.417 -1.503 4.24
 0.43 -1.504 4.241
 0.443 -1.504 4.238
 0.455 -1.504 4.237
 0.468 -1.506 4.241
 0.481 -1.505 4.239
 0.494 -1.505 4.235
 0.507 -1.506 4.237
 0.519 -1.506 4.235
 0.532 -1.506 4.237
 0.546 -1.508 4.241
 0.559 -1.511 4.245
 0.572 -1.51 4.242
 0.585 -1.512 4.246
 0.598 -1.511 4.243
 0.611 -1.513 4.245
 0.624 -1.514 4.245
 0.638 -1.515 4.247
 0.65 -1.515 4.244
 0.663 -1.515 4.244
 0.677 -1.517 4.247
 0.689 -1.516 4.243
 0.703 -1.518 4.247
 0.715 -1.517 4.243
 0.728 -1.518 4.242
 0.74 -1.516 4.234
 0.754 -1.517 4.237
 0.767 -1.519 4.239
 0.781 -1.521 4.243
 0.794 -1.521 4.24
 0.806 -1.52 4.236
 0.819 -1.519 4.23
 0.831 -1.518 4.224
 0.844 -1.518 4.223
 0.858 -1.521 4.229
 0.872 -1.524 4.233
 0.886 -1.526 4.237
 0.9 -1.527 4.237
 0.914 -1.529 4.24
 0.926 -1.527 4.233
 0.939 -1.527 4.23
 0.951 -1.527 4.227
 0.964 -1.526 4.223
 0.977 -1.527 4.223
 0.991 -1.529 4.225
 1.007 -1.533 4.233
 1.019 -1.533 4.229
 1.032 -1.533 4.227
 1.044 -1.531 4.22
 1.057 -1.531 4.217
 1.069 -1.53 4.209
 1.082 -1.531 4.209
 1.097 -1.533 4.214
 1.112 -1.536 4.218
 1.126 -1.538 4.219
 1.14 -1.538 4.217
 1.154 -1.54 4.219
 1.167 -1.54 4.217
 1.181 -1.542 4.218
 1.195 -1.543 4.217
 1.21 -1.546 4.223
 1.225 -1.548 4.225
 1.239 -1.549 4.223
 1.253 -1.55 4.223
 1.266 -1.551 4.222
 1.28 -1.551 4.22
 1.293 -1.552 4.218
 1.307 -1.553 4.216
 1.319 -1.552 4.209
 1.331 -1.551 4.203
 1.343 -1.55 4.197
 1.356 -1.55 4.192
 1.37 -1.55 4.19
 1.383 -1.551 4.188
 1.399 -1.553 4.191
 1.413 -1.555 4.191
 1.43 -1.559 4.197
 1.445 -1.561 4.198
 1.461 -1.564 4.202
 1.476 -1.566 4.205
 1.492 -1.569 4.207
 1.505 -1.569 4.204
 1.517 -1.568 4.195
 1.531 -1.569 4.194
 1.545 -1.569 4.191
 1.559 -1.571 4.191
 1.574 -1.572 4.189
 1.59 -1.575 4.193
 1.605 -1.577 4.193
 1.618 -1.577 4.189
 1.63 -1.575 4.18
 1.644 -1.576 4.176
 1.659 -1.578 4.177
 1.671 -1.577 4.17
 1.686 -1.578 4.168
 1.7 -1.579 4.164
 1.714 -1.58 4.162
 1.727 -1.579 4.156
 1.741 -1.58 4.153
 1.752 -1.579 4.143
 1.768 -1.58 4.143
 1.779 -1.579 4.135
 1.793 -1.579 4.129
 1.806 -1.58 4.125
 1.82 -1.58 4.12
 1.83 -1.577 4.108
 1.838 -1.573 4.091
 1.849 -1.571 4.08
 1.852 -1.562 4.052
 1.861 -1.559 4.039
 1.866 -1.552 4.016
 1.876 -1.55 4.005
 1.876 -1.539 3.97
 1.883 -1.535 3.954
 1.882 -1.523 3.918
 1.886 -1.517 3.895
 1.886 -1.506 3.862
 1.892 -1.501 3.844
 1.898 -1.496 3.825
 1.906 -1.493 3.81
 1.91 -1.486 3.788
 0 0 0
 0 0 0
 0 0 0
 0 0 0
 0 0 0
 0 0 0
 0 0 0
 0 0 0
 0 0 0
 0 0 0
 0 0 0
 0 0 0
 0 0 0
 0 0 0
 0 0 0
 0 0 0
 1.837 -1.287 3.189
 1.837 -1.28 3.166
 1.844 -1.278 3.154
 1.849 -1.274 3.139
 1.855 -1.27 3.125
 1.847 -1.258 3.088
 1.844 -1.249 3.06
 1.856 -1.25 3.057
 1.859 -1.245 3.039
 0 0 0
 -2.403 -1.622 4.107
 -2.364 -1.604 4.069
 -2.349 -1.604 4.075
 -2.335 -1.604 4.082
 -2.325 -1.606 4.095
 -2.315 -1.609 4.108
 -2.307 -1.614 4.127
 -2.293 -1.613 4.133
 -2.275 -1.61 4.131
 -2.256 -1.607 4.129
 -2.241 -1.606 4.134
 -2.225 -1.604 4.135
 -2.212 -1.605 4.144
 -2.201 -1.607 4.155
 -2.192 -1.611 4.17
 -2.179 -1.611 4.178
 -2.167 -1.613 4.189
 -2.152 -1.612 4.193
 -2.135 -1.61 4.193
 -2.115 -1.605 4.187
 -2.101 -1.605 4.193
 -2.081 -1.601 4.188
 -2.066 -1.6 4.19
 -2.049 -1.597 4.189
 -2.034 -1.597 4.194
 -2.02 -1.596 4.198
 -2.01 -1.599 4.211
 -1.996 -1.599 4.216
 -1.987 -1.603 4.233
 -1.975 -1.605 4.243
 -1.96 -1.604 4.246
 -1.944 -1.602 4.246
 -1.926 -1.599 4.242
 -1.911 -1.598 4.245
 -1.894 -1.595 4.243
 -1.876 -1.591 4.239
 -1.864 -1.593 4.248
 -1.851 -1.593 4.254
 -1.836 -1.592 4.256
 -1.823 -1.594 4.265
 -1.811 -1.595 4.274
 -1.796 -1.593 4.274
 -1.783 -1.595 4.283
 -1.77 -1.595 4.288
 -1.751 -1.59 4.281
 -1.733 -1.587 4.276
 -1.717 -1.584 4.274
 -1.7 -1.581 4.269
 -1.683 -1.578 4.265
 -1.672 -1.58 4.277
 -1.658 -1.581 4.282
 -1.644 -1.58 4.285
 -1.632 -1.582 4.294
 -1.617 -1.58 4.294
 -1.6 -1.577 4.289
 -1.586 -1.576 4.292
 -1.572 -1.576 4.294
 -1.555 -1.573 4.291
 -1.541 -1.572 4.293
 -1.526 -1.571 4.294
 -1.511 -1.57 4.294
 -1.496 -1.568 4.293
 -1.482 -1.567 4.295
 -1.467 -1.566 4.296
 -1.452 -1.564 4.295
 -1.436 -1.561 4.29
 -1.422 -1.56 4.291
 -1.407 -1.559 4.29
 -1.391 -1.556 4.287
 -1.377 -1.555 4.288
 -1.363 -1.555 4.29
 -1.348 -1.553 4.289
 -1.332 -1.551 4.285
 -1.32 -1.551 4.291
 -1.306 -1.551 4.294
 -1.293 -1.551 4.298
 -1.278 -1.549 4.294
 -1.266 -1.551 4.303
 -1.251 -1.549 4.301
 -1.237 -1.548 4.3
 -1.222 -1.547 4.301
 -1.21 -1.547 4.305
 -1.195 -1.545 4.302
 -1.18 -1.543 4.3
 -1.164 -1.539 4.292
 -1.149 -1.537 4.289
 -1.134 -1.536 4.288
 -1.119 -1.533 4.284
 -1.106 -1.533 4.284
 -1.093 -1.534 4.291
 -1.081 -1.535 4.296
 -1.067 -1.534 4.296
 -1.053 -1.533 4.296
 -1.04 -1.533 4.297
 -1.026 -1.532 4.299
 -1.011 -1.529 4.293
 -0.997 -1.528 4.291
 -0.984 -1.529 4.296
 -0.971 -1.528 4.297
 -0.957 -1.526 4.294
 -0.943 -1.525 4.293
 -0.93 -1.525 4.295
 -0.915 -1.523 4.292
 -0.901 -1.521 4.289
 -0.888 -1.521 4.289
 -0.875 -1.521 4.292
 -0.861 -1.519 4.288
 -0.846 -1.516 4.282
 -0.832 -1.514 4.279
 -0.818 -1.513 4.278
 -0.803 -1.509 4.269
 -0.79 -1.509 4.271
 -0.778 -1.51 4.275
 -0.765 -1.511 4.278
 -0.751 -1.509 4.276
 -0.74 -1.513 4.288
 -0.727 -1.513 4.29
 -0.713 -1.511 4.286
 -0.7 -1.511 4.287
 -0.688 -1.512 4.292
 -0.674 -1.51 4.289
 -0.66 -1.509 4.286
 -0.647 -1.508 4.285
 -0.634 -1.508 4.287
 -0.621 -1.507 4.285
 -0.607 -1.505 4.282
 -0.594 -1.506 4.284
 -0.582 -1.506 4.285
 -0.568 -1.504 4.281
 -0.554 -1.501 4.276
 -0.541 -1.502 4.277
 -0.529 -1.502 4.279
 -0.516 -1.502 4.279
 -0.502 -1.5 4.275
 -0.489 -1.499 4.275
 -0.475 -1.496 4.268
 -0.462 -1.495 4.264
 -0.449 -1.495 4.266
 -0.436 -1.494 4.263
 -0.423 -1.494 4.264
 -0.411 -1.495 4.268
 -0.398 -1.494 4.267
 -0.385 -1.494 4.267
 -0.373 -1.497 4.276
 -0.36 -1.497 4.278
 -0.347 -1.497 4.278
 -0.335 -1.498 4.281
 -0.322 -1.499 4.284
 -0.309 -1.496 4.277
 -0.296 -1.495 4.276
 -0.283 -1.495 4.276
 -0.269 -1.492 4.266
 -0.256 -1.489 4.26
 -0.244 -1.491 4.265
 -0.231 -1.491 4.265
 -0.218 -1.489 4.259
 -0.205 -1.49 4.265
 -0.193 -1.491 4.267
 -0.18 -1.49 4.263
 -0.167 -1.491 4.267
 -0.155 -1.494 4.275
 -0.142 -1.493 4.274
 -0.129 -1.491 4.268
 -0.116 -1.492 4.272
 -0.104 -1.492 4.27
 -0.091 -1.49 4.266
 -0.078 -1.49 4.265
 -0.065 -1.491 4.269
 -0.052 -1.49 4.266
 -0.04 -1.489 4.263
 -0.027 -1.491 4.267
 -0.014 -1.49 4.264
 -0.002 -1.49 4.266
 0.01 -1.491 4.267
 0.023 -1.49 4.265
 0.036 -1.489 4.26
 0.048 -1.491 4.265
 0.061 -1.49 4.263
 0.074 -1.489 4.26
 0.087 -1.489 4.261
 0.099 -1.49 4.262
 0.112 -1.491 4.264
 0.125 -1.49 4.26
 0.137 -1.49 4.26
 0.15 -1.492 4.266
 0.163 -1.492 4.265
 0.175 -1.489 4.257
 0.188 -1.489 4.255
 0.201 -1.489 4.254
 0.213 -1.485 4.244
 0.226 -1.486 4.245
 0.239 -1.487 4.246
 0.252 -1.49 4.254
 0.265 -1.492 4.259
 0.278 -1.494 4.265
 0.291 -1.496 4.27
 0.304 -1.497 4.272
 0.317 -1.496 4.268
 0.329 -1.494 4.262
 0.342 -1.496 4.265
 0.354 -1.494 4.258
 0.367 -1.494 4.257
 0.38 -1.493 4.255
 0.393 -1.494 4.257
 0.405 -1.491 4.247
 0.417 -1.49 4.242
 0.43 -1.491 4.243
 0.443 -1.492 4.245
 0.456 -1.492 4.244
 0.469 -1.493 4.246
 0.481 -1.493 4.245
 0.494 -1.492 4.24
 0.506 -1.491 4.235
 0.518 -1.49 4.231
 0.532 -1.492 4.235
 0.546 -1.495 4.242
 0.559 -1.496 4.244
 0.572 -1.496 4.243
 0.585 -1.498 4.247
 0.597 -1.497 4.242
 0.61 -1.497 4.241
 0.623 -1.498 4.242
 0.637 -1.5 4.245
 0.649 -1.499 4.242
 0.663 -1.501 4.244
 0.676 -1.503 4.248
 0.689 -1.503 4.246
 0.703 -1.505 4.249
 0.715 -1.504 4.246
 0.728 -1.505 4.245
 0.74 -1.503 4.238
 0.754 -1.504 4.24
 0.767 -1.506 4.242
 0.781 -1.507 4.243
 0.793 -1.507 4.24
 0.806 -1.506 4.236
 0.818 -1.505 4.231
 0.83 -1.504 4.227
 0.844 -1.505 4.226
 0.858 -1.508 4.232
 0.872 -1.51 4.236
 0.886 -1.512 4.239
 0.9 -1.514 4.241
 0.914 -1.516 4.244
 0.926 -1.515 4.24
 0.939 -1.514 4.235
 0.951 -1.514 4.231
 0.964 -1.513 4.226
 0.978 -1.515 4.229
 0.992 -1.517 4.231
 1.007 -1.52 4.239
 1.02 -1.52 4.235
 1.033 -1.52 4.233
 1.044 -1.518 4.222
 1.057 -1.517 4.219
 1.068 -1.515 4.21
 1.082 -1.518 4.213
 1.097 -1.52 4.217
 1.112 -1.523 4.222
 1.126 -1.525 4.224
 1.14 -1.526 4.225
 1.154 -1.527 4.222
 1.167 -1.527 4.222
 1.181 -1.529 4.222
 1.195 -1.53 4.221
 1.209 -1.531 4.222
 1.224 -1.534 4.225
 1.237 -1.534 4.223
 1.252 -1.537 4.226
 1.267 -1.538 4.227
 1.281 -1.54 4.227
 1.294 -1.54 4.225
 1.308 -1.541 4.224
 1.319 -1.538 4.213
 1.331 -1.537 4.206
 1.344 -1.538 4.204
 1.357 -1.538 4.199
 1.371 -1.538 4.196
 1.384 -1.539 4.195
 1.399 -1.54 4.195
 1.413 -1.541 4.194
 1.429 -1.545 4.2
 1.445 -1.547 4.202
 1.461 -1.551 4.208
 1.476 -1.553 4.21
 1.492 -1.555 4.211
 1.505 -1.556 4.208
 1.517 -1.555 4.201
 1.53 -1.555 4.196
 1.545 -1.556 4.195
 1.559 -1.557 4.194
 1.574 -1.558 4.193
 1.589 -1.561 4.195
 1.606 -1.564 4.199
 1.619 -1.564 4.195
 1.633 -1.565 4.191
 1.647 -1.566 4.19
 1.663 -1.568 4.19
 1.675 -1.567 4.182
 1.689 -1.568 4.181
 1.702 -1.567 4.173
 1.717 -1.569 4.173
 1.732 -1.57 4.172
 1.746 -1.571 4.168
 1.757 -1.569 4.159
 1.773 -1.572 4.16
 1.786 -1.571 4.153
 1.796 -1.569 4.142
 1.81 -1.57 4.138
 1.823 -1.569 4.131
 1.832 -1.566 4.118
 1.84 -1.561 4.1
 1.851 -1.559 4.089
 1.852 -1.549 4.057
 1.863 -1.548 4.047
 1.87 -1.543 4.029
 1.878 -1.538 4.013
 1.88 -1.53 3.984
 1.889 -1.526 3.97
 1.886 -1.513 3.93
 1.889 -1.506 3.904
 1.889 -1.496 3.874
 1.892 -1.488 3.847
 1.897 -1.482 3.827
 1.911 -1.483 3.824
 1.916 -1.477 3.803
 0 0 0
 0 0 0
 0 0 0
 0 0 0
 0 0 0
 0 0 0
 0 0 0
 0 0 0
 0 0 0
 0 0 0
 0 0 0
 0 0 0
 0 0 0
 0 0 0
 0 0 0
 0 0 0
 1.843 -1.28 3.203
 1.842 -1.273 3.178
 1.848 -1.269 3.164
 1.853 -1.265 3.148
 1.857 -1.261 3.133
 1.853 -1.251 3.102
 1.852 -1.243 3.076
 1.807 -1.206 2.979
 1.838 -1.221 3.009
 -2.418 -1.608 4.105
 -2.395 -1.602 4.097
 -2.376 -1.599 4.096
 -2.363 -1.599 4.104
 -2.346 -1.597 4.106
 -2.333 -1.598 4.115
 -2.324 -1.602 4.13
 -2.32 -1.608 4.154
 -2.307 -1.609 4.162
 -2.294 -1.61 4.17
 -2.277 -1.607 4.172
 -2.26 -1.606 4.174
 -2.242 -1.603 4.172
 -2.227 -1.602 4.177
 -2.213 -1.602 4.182
 -2.201 -1.603 4.193
 -2.191 -1.607 4.208
 -2.178 -1.608 4.216
 -2.165 -1.608 4.223
 -2.149 -1.607 4.226
 -2.13 -1.603 4.223
 -2.116 -1.603 4.227
 -2.098 -1.6 4.225
 -2.083 -1.599 4.23
 -2.065 -1.596 4.227
 -2.053 -1.598 4.237
 -2.04 -1.598 4.244
 -2.028 -1.6 4.254
 -2.012 -1.598 4.255
 -2.002 -1.601 4.269
 -1.988 -1.601 4.275
 -1.97 -1.598 4.272
 -1.952 -1.595 4.268
 -1.932 -1.59 4.26
 -1.916 -1.588 4.261
 -1.896 -1.583 4.253
 -1.88 -1.581 4.253
 -1.869 -1.584 4.265
 -1.857 -1.585 4.274
 -1.842 -1.584 4.277
 -1.831 -1.587 4.288
 -1.818 -1.587 4.294
 -1.8 -1.584 4.29
 -1.788 -1.585 4.298
 -1.773 -1.584 4.301
 -1.755 -1.581 4.296
 -1.74 -1.579 4.297
 -1.724 -1.577 4.296
 -1.706 -1.573 4.289
 -1.689 -1.57 4.287
 -1.676 -1.571 4.292
 -1.659 -1.568 4.289
 -1.646 -1.568 4.294
 -1.634 -1.569 4.302
 -1.619 -1.568 4.303
 -1.603 -1.566 4.301
 -1.59 -1.567 4.308
 -1.574 -1.565 4.306
 -1.558 -1.562 4.302
 -1.542 -1.559 4.299
 -1.527 -1.558 4.3
 -1.511 -1.556 4.297
 -1.497 -1.556 4.3
 -1.483 -1.555 4.303
 -1.467 -1.553 4.3
 -1.452 -1.551 4.299
 -1.436 -1.548 4.296
 -1.422 -1.548 4.298
 -1.407 -1.546 4.296
 -1.393 -1.545 4.297
 -1.379 -1.545 4.301
 -1.366 -1.544 4.303
 -1.35 -1.542 4.301
 -1.334 -1.54 4.296
 -1.321 -1.54 4.3
 -1.307 -1.539 4.302
 -1.294 -1.539 4.305
 -1.278 -1.536 4.3
 -1.267 -1.539 4.311
 -1.251 -1.536 4.307
 -1.236 -1.533 4.302
 -1.221 -1.531 4.299
 -1.208 -1.532 4.303
 -1.193 -1.53 4.302
 -1.179 -1.53 4.303
 -1.165 -1.527 4.3
 -1.149 -1.525 4.295
 -1.136 -1.525 4.298
 -1.12 -1.521 4.291
 -1.106 -1.52 4.29
 -1.094 -1.521 4.296
 -1.082 -1.524 4.305
 -1.067 -1.521 4.302
 -1.053 -1.52 4.301
 -1.04 -1.519 4.301
 -1.026 -1.519 4.302
 -1.01 -1.514 4.292
 -0.996 -1.514 4.292
 -0.984 -1.514 4.297
 -0.971 -1.515 4.301
 -0.957 -1.513 4.298
 -0.943 -1.513 4.299
 -0.929 -1.511 4.296
 -0.915 -1.509 4.294
 -0.9 -1.506 4.287
 -0.886 -1.505 4.287
 -0.873 -1.505 4.289
 -0.859 -1.503 4.284
 -0.844 -1.5 4.277
 -0.831 -1.499 4.278
 -0.817 -1.498 4.276
 -0.803 -1.495 4.269
 -0.79 -1.496 4.273
 -0.778 -1.497 4.279
 -0.765 -1.497 4.281
 -0.751 -1.496 4.28
 -0.74 -1.499 4.288
 -0.727 -1.499 4.29
 -0.713 -1.498 4.289
 -0.7 -1.497 4.289
 -0.688 -1.499 4.296
 -0.674 -1.498 4.294
 -0.661 -1.497 4.292
 -0.647 -1.495 4.287
 -0.634 -1.493 4.286
 -0.62 -1.492 4.283
 -0.607 -1.491 4.28
 -0.593 -1.49 4.28
 -0.581 -1.491 4.283
 -0.568 -1.49 4.282
 -0.554 -1.487 4.275
 -0.541 -1.487 4.275
 -0.528 -1.488 4.281
 -0.515 -1.488 4.282
 -0.502 -1.486 4.278
 -0.489 -1.487 4.28
 -0.476 -1.485 4.276
 -0.463 -1.484 4.275
 -0.45 -1.484 4.275
 -0.437 -1.483 4.273
 -0.424 -1.483 4.273
 -0.411 -1.485 4.279
 -0.398 -1.482 4.273
 -0.385 -1.482 4.272
 -0.373 -1.484 4.28
 -0.36 -1.484 4.28
 -0.347 -1.483 4.278
 -0.334 -1.484 4.282
 -0.322 -1.486 4.288
 -0.308 -1.483 4.28
 -0.296 -1.484 4.283
 -0.283 -1.484 4.285
 -0.27 -1.481 4.277
 -0.256 -1.478 4.268
 -0.244 -1.479 4.272
 -0.231 -1.478 4.27
 -0.218 -1.476 4.264
 -0.205 -1.477 4.267
 -0.193 -1.478 4.27
 -0.18 -1.477 4.268
 -0.167 -1.479 4.272
 -0.154 -1.479 4.273
 -0.142 -1.478 4.27
 -0.129 -1.477 4.268
 -0.116 -1.477 4.268
 -0.103 -1.477 4.267
 -0.091 -1.477 4.267
 -0.078 -1.477 4.269
 -0.065 -1.478 4.27
 -0.052 -1.477 4.269
 -0.04 -1.477 4.267
 -0.027 -1.477 4.269
 -0.014 -1.476 4.265
 -0.001 -1.476 4.265
 0.01 -1.477 4.267
 0.023 -1.475 4.26
 0.036 -1.474 4.258
 0.048 -1.475 4.261
 0.061 -1.475 4.26
