 0.302 -1.602 3.941
 0.328 -1.615 3.969
 0.354 -1.621 3.983
 0.377 -1.619 3.976
 0.403 -1.626 3.991
 0.422 -1.605 3.937
 0.452 -1.627 3.987
 0.47 -1.607 3.935
 0.495 -1.609 3.937
 0.519 -1.608 3.934
 0.556 -1.648 4.027
 0.566 -1.605 3.918
 0.596 -1.621 3.956
 0.624 -1.632 3.977
 0.642 -1.616 3.936
 0.668 -1.621 3.944
 0.704 -1.649 4.007
 0.715 -1.619 3.93
 0.744 -1.628 3.949
 0.767 -1.626 3.939
 0.804 -1.653 4
 0.823 -1.64 3.965
 0.842 -1.63 3.935
 0.867 -1.633 3.937
 0.89 -1.63 3.925
 0.912 -1.625 3.909
 0.943 -1.638 3.934
 0.955 -1.617 3.877
 0.994 -1.641 3.931
 1.019 -1.642 3.927
 1.033 -1.626 3.883
 1.056 -1.624 3.872
 1.094 -1.644 3.914
 1.118 -1.644 3.907
 1.142 -1.643 3.898
 1.144 -1.613 3.819
 1.191 -1.643 3.886
 1.224 -1.655 3.906
 1.24 -1.644 3.874
 1.277 -1.66 3.903
 1.272 -1.623 3.808
 1.322 -1.655 3.877
 1.346 -1.655 3.868
 1.369 -1.652 3.855
 1.38 -1.637 3.81
 1.406 -1.638 3.805
 1.417 -1.623 3.761
 1.462 -1.647 3.808
 1.48 -1.64 3.784
 1.488 -1.622 3.733
 1.531 -1.642 3.771
 1.569 -1.657 3.796
 1.575 -1.638 3.742
 1.58 -1.617 3.686
 1.634 -1.648 3.747
 1.638 -1.628 3.691
 1.688 -1.654 3.739
 1.7 -1.642 3.702
 1.713 -1.631 3.667
 1.754 -1.646 3.691
 1.78 -1.647 3.684
 1.789 -1.634 3.642
 1.799 -1.621 3.602
 1.803 -1.603 3.552
 1.787 -1.568 3.464
 1.811 -1.569 3.455
 1.799 -1.539 3.378
 1.814 -1.533 3.352
 1.795 -1.498 3.264
 1.781 -1.468 3.188
 1.758 -1.432 3.099
 1.807 -1.454 3.136
 1.789 -1.423 3.059
 1.772 -1.393 2.983
 1.738 -1.351 2.882
 1.763 -1.354 2.878
 1.742 -1.324 2.802
 -2.15 -1.627 3.59
 -2.108 -1.614 3.573
 -2.085 -1.615 3.588
 -2.036 -1.597 3.559
 -2.049 -1.626 3.637
 -2.05 -1.647 3.695
 -1.983 -1.614 3.632
 -1.967 -1.621 3.659
 -1.978 -1.651 3.738
 -1.936 -1.637 3.719
 -1.93 -1.653 3.766
 -1.872 -1.625 3.713
 -1.86 -1.636 3.749
 -1.831 -1.633 3.752
 -1.822 -1.647 3.795
 -1.795 -1.646 3.803
 -1.749 -1.627 3.768
 -1.722 -1.624 3.772
 -1.686 -1.614 3.757
 -1.671 -1.624 3.789
 -1.654 -1.632 3.818
 -1.617 -1.62 3.8
 -1.598 -1.625 3.821
 -1.569 -1.621 3.82
 -1.534 -1.611 3.804
 -1.505 -1.606 3.801
 -1.505 -1.633 3.873
 -1.475 -1.628 3.869
 -1.43 -1.605 3.822
 -1.413 -1.614 3.852
 -1.38 -1.605 3.837
 -1.378 -1.631 3.908
 -1.356 -1.635 3.924
 -1.307 -1.605 3.858
 -1.304 -1.632 3.932
 -1.275 -1.627 3.925
 -1.248 -1.624 3.925
 -1.234 -1.638 3.967
 -1.197 -1.623 3.936
 -1.166 -1.615 3.922
 -1.135 -1.605 3.905
 -1.125 -1.627 3.963
 -1.085 -1.604 3.912
 -1.065 -1.61 3.935
 -1.05 -1.625 3.977
 -1.032 -1.637 4.011
 -0.992 -1.612 3.955
 -0.958 -1.597 3.923
 -0.939 -1.605 3.948
 -0.922 -1.619 3.987
 -0.908 -1.639 4.04
 -0.866 -1.607 3.965
 -0.839 -1.602 3.958
 -0.826 -1.626 4.02
 -0.802 -1.627 4.027
 -0.765 -1.601 3.968
 -0.756 -1.635 4.055
 -0.721 -1.612 4
 -0.697 -1.614 4.01
 -0.674 -1.618 4.023
 -0.651 -1.622 4.037
 -0.623 -1.615 4.021
 -0.606 -1.633 4.069
 -0.584 -1.643 4.097
 -0.552 -1.621 4.046
 -0.519 -1.597 3.986
 -0.498 -1.607 4.015
 -0.473 -1.607 4.017
 -0.458 -1.638 4.098
 -0.43 -1.628 4.073
 -0.407 -1.634 4.09
 -0.379 -1.623 4.064
 -0.351 -1.606 4.022
 -0.331 -1.627 4.078
 -0.3 -1.594 3.997
 -0.277 -1.602 4.018
 -0.255 -1.622 4.069
 -0.23 -1.616 4.055
 -0.206 -1.619 4.062
 -0.179 -1.6 4.015
 -0.158 -1.635 4.106
 -0.132 -1.624 4.076
 -0.108 -1.638 4.112
 -0.082 -1.612 4.047
 -0.058 -1.622 4.072
 -0.033 -1.612 4.048
 -0.009 -1.629 4.091
 0.015 -1.617 4.059
 0.039 -1.614 4.052
 0.065 -1.633 4.099
 0.089 -1.631 4.092
 0.113 -1.613 4.047
 0.138 -1.618 4.058
 0.161 -1.608 4.032
 0.185 -1.599 4.009
 0.211 -1.614 4.044
 0.235 -1.613 4.042
 0.262 -1.63 4.083
 0.284 -1.613 4.039
 0.309 -1.613 4.036
 0.336 -1.627 4.068
 0.357 -1.612 4.028
 0.385 -1.624 4.058
 0.403 -1.601 3.996
 0.43 -1.612 4.021
 0.458 -1.622 4.044
 0.485 -1.63 4.063
 0.507 -1.624 4.043
 0.534 -1.63 4.057
 0.556 -1.62 4.029
 0.576 -1.608 3.995
 0.607 -1.627 4.038
 0.627 -1.615 4.006
 0.659 -1.635 4.05
 0.687 -1.642 4.066
 0.705 -1.627 4.023
 0.731 -1.629 4.025
 0.748 -1.614 3.982
 0.778 -1.623 4.002
 0.802 -1.624 3.999
 0.836 -1.642 4.039
 0.86 -1.64 4.028
 0.885 -1.64 4.024
 0.904 -1.63 3.995
 0.93 -1.632 3.995
 0.945 -1.617 3.952
 0.972 -1.621 3.956
 1.002 -1.629 3.969
 1.026 -1.629 3.964
 1.06 -1.643 3.993
 1.069 -1.62 3.929
 1.107 -1.64 3.972
 1.122 -1.626 3.932
 1.137 -1.612 3.891
 1.169 -1.622 3.91
 1.202 -1.635 3.933
 1.237 -1.648 3.957
 1.254 -1.637 3.924
 1.273 -1.63 3.9
 1.315 -1.652 3.947
 1.329 -1.638 3.905
 1.344 -1.627 3.87
 1.388 -1.65 3.917
 1.41 -1.646 3.9
 1.42 -1.629 3.852
 1.468 -1.657 3.908
 1.462 -1.622 3.818
 1.5 -1.637 3.843
 1.527 -1.639 3.839
 1.545 -1.633 3.815
 1.576 -1.639 3.821
 1.594 -1.632 3.795
 1.59 -1.603 3.719
 1.662 -1.651 3.82
 1.673 -1.637 3.778
 1.678 -1.619 3.726
 1.723 -1.638 3.761
 1.731 -1.622 3.713
 1.779 -1.645 3.754
 1.806 -1.647 3.748
 1.804 -1.623 3.682
 1.84 -1.632 3.693
 1.776 -1.556 3.508
 1.827 -1.579 3.55
 1.816 -1.55 3.473
 1.816 -1.531 3.419
 1.783 -1.484 3.304
 1.788 -1.47 3.261
 1.771 -1.438 3.18
 1.778 -1.427 3.144
 1.78 -1.411 3.098
 1.745 -1.367 2.991
 1.797 -1.391 3.033
 1.757 -1.345 2.921
 1.749 -1.324 2.864
 1.749 -1.309 2.82
 -2.185 -1.628 3.659
 -2.155 -1.625 3.664
 -2.122 -1.619 3.663
 -2.097 -1.619 3.676
 -2.071 -1.619 3.686
 -2.049 -1.621 3.704
 -2.026 -1.623 3.72
 -2.002 -1.624 3.735
 -1.978 -1.625 3.748
 -1.951 -1.624 3.757
 -1.924 -1.623 3.764
 -1.901 -1.624 3.779
 -1.875 -1.624 3.79
 -1.852 -1.627 3.806
 -1.829 -1.629 3.821
 -1.805 -1.63 3.834
 -1.776 -1.627 3.837
 -1.748 -1.624 3.84
 -1.719 -1.62 3.841
 -1.691 -1.618 3.844
 -1.665 -1.618 3.854
 -1.642 -1.62 3.867
 -1.618 -1.621 3.879
 -1.591 -1.619 3.883
 -1.569 -1.622 3.9
 -1.544 -1.622 3.909
 -1.516 -1.62 3.912
 -1.489 -1.618 3.916
 -1.464 -1.618 3.923
 -1.436 -1.615 3.925
 -1.409 -1.613 3.927
 -1.383 -1.612 3.932
 -1.359 -1.614 3.943
 -1.336 -1.616 3.955
 -1.31 -1.615 3.96
 -1.286 -1.616 3.969
 -1.261 -1.617 3.978
 -1.237 -1.618 3.987
 -1.211 -1.617 3.992
 -1.186 -1.617 3.998
 -1.16 -1.615 4
 -1.133 -1.613 4.001
 -1.109 -1.614 4.009
 -1.085 -1.616 4.02
 -1.059 -1.616 4.023
 -1.034 -1.615 4.028
 -1.01 -1.616 4.036
 -0.982 -1.612 4.031
 -0.957 -1.613 4.036
 -0.933 -1.613 4.043
 -0.908 -1.614 4.05
 -0.883 -1.615 4.056
 -0.86 -1.618 4.067
 -0.834 -1.616 4.068
 -0.809 -1.616 4.072
 -0.784 -1.616 4.074
 -0.759 -1.616 4.079
 -0.734 -1.616 4.083
 -0.707 -1.613 4.08
 -0.682 -1.613 4.081
 -0.658 -1.614 4.087
 -0.632 -1.613 4.088
 -0.607 -1.611 4.087
 -0.582 -1.612 4.092
 -0.557 -1.612 4.095
 -0.532 -1.611 4.094
 -0.507 -1.612 4.099
 -0.482 -1.613 4.103
 -0.457 -1.613 4.104
 -0.432 -1.613 4.106
 -0.407 -1.612 4.107
 -0.382 -1.612 4.108
 -0.357 -1.612 4.11
 -0.332 -1.612 4.112
 -0.308 -1.614 4.118
 -0.284 -1.618 4.129
 -0.258 -1.616 4.125
 -0.233 -1.615 4.123
 -0.208 -1.616 4.126
 -0.183 -1.615 4.126
 -0.158 -1.613 4.12
 -0.133 -1.614 4.122
 -0.108 -1.615 4.127
 -0.084 -1.616 4.129
 -0.059 -1.617 4.131
 -0.034 -1.615 4.128
 -0.009 -1.617 4.131
 0.015 -1.618 4.133
 0.04 -1.618 4.133
 0.065 -1.615 4.125
 0.09 -1.617 4.128
 0.115 -1.615 4.124
 0.14 -1.614 4.12
 0.164 -1.612 4.113
 0.189 -1.612 4.112
 0.214 -1.612 4.11
 0.239 -1.612 4.111
 0.263 -1.61 4.103
 0.288 -1.612 4.105
 0.313 -1.612 4.106
 0.338 -1.612 4.103
 0.363 -1.611 4.098
 0.388 -1.612 4.098
 0.413 -1.612 4.097
 0.438 -1.613 4.095
 0.462 -1.613 4.093
 0.488 -1.614 4.093
 0.513 -1.617 4.097
 0.538 -1.615 4.09
 0.563 -1.616 4.088
 0.588 -1.618 4.09
 0.613 -1.618 4.087
 0.638 -1.619 4.086
 0.665 -1.622 4.09
 0.69 -1.623 4.088
 0.714 -1.622 4.082
 0.74 -1.623 4.079
 0.765 -1.623 4.077
 0.79 -1.624 4.075
 0.816 -1.625 4.073
 0.841 -1.626 4.069
 0.867 -1.627 4.068
 0.891 -1.627 4.062
 0.916 -1.626 4.055
 0.941 -1.626 4.051
 0.968 -1.63 4.055
 0.993 -1.63 4.048
 1.018 -1.63 4.044
 1.043 -1.629 4.035
 1.069 -1.631 4.034
 1.093 -1.63 4.024
 1.118 -1.631 4.02
 1.142 -1.629 4.009
 1.168 -1.631 4.007
 1.193 -1.631 4
 1.219 -1.631 3.995
 1.245 -1.633 3.992
 1.272 -1.635 3.99
 1.298 -1.636 3.985
 1.323 -1.637 3.978
 1.349 -1.637 3.973
 1.375 -1.639 3.968
 1.4 -1.639 3.96
 1.426 -1.639 3.953
 1.45 -1.639 3.943
 1.474 -1.638 3.933
 1.498 -1.636 3.919
 1.524 -1.637 3.913
 1.549 -1.637 3.904
 1.574 -1.637 3.895
 1.597 -1.635 3.881
 1.623 -1.636 3.874
 1.647 -1.635 3.861
 1.67 -1.633 3.847
 1.693 -1.632 3.834
 1.72 -1.634 3.828
 1.744 -1.633 3.816
 1.768 -1.632 3.803
 1.788 -1.627 3.781
 1.805 -1.621 3.755
 1.813 -1.605 3.709
 1.818 -1.589 3.658
 1.82 -1.57 3.604
 1.824 -1.553 3.554
 1.824 -1.533 3.498
 1.829 -1.517 3.451
 1.819 -1.491 3.379
 1.791 -1.45 3.274
 1.775 -1.419 3.194
 1.77 -1.398 3.136
 1.772 -1.384 3.093
 1.77 -1.366 3.042
 1.77 -1.35 2.996
 1.763 -1.329 2.938
 1.766 -1.317 2.9
 1.742 -1.284 2.818
 -2.203 -1.616 3.699
 -2.184 -1.621 3.723
 -2.156 -1.619 3.732
 -2.128 -1.618 3.74
 -2.102 -1.617 3.751
 -2.079 -1.62 3.769
 -2.057 -1.622 3.787
 -2.033 -1.624 3.802
 -2.01 -1.626 3.819
 -1.982 -1.625 3.827
 -1.955 -1.623 3.835
 -1.929 -1.623 3.845
 -1.901 -1.622 3.853
 -1.878 -1.624 3.868
 -1.856 -1.627 3.887
 -1.833 -1.629 3.903
 -1.805 -1.627 3.908
 -1.777 -1.626 3.915
 -1.748 -1.622 3.916
 -1.718 -1.619 3.918
 -1.691 -1.617 3.923
 -1.667 -1.618 3.935
 -1.641 -1.618 3.944
 -1.612 -1.615 3.944
 -1.589 -1.617 3.959
 -1.564 -1.618 3.97
 -1.535 -1.615 3.971
 -1.508 -1.614 3.976
 -1.484 -1.615 3.987
 -1.456 -1.612 3.989
 -1.428 -1.61 3.989
 -1.404 -1.611 3.999
 -1.379 -1.612 4.011
 -1.355 -1.613 4.02
 -1.329 -1.613 4.027
 -1.304 -1.614 4.036
 -1.28 -1.615 4.047
 -1.255 -1.616 4.054
 -1.229 -1.615 4.059
 -1.203 -1.615 4.066
 -1.177 -1.614 4.069
 -1.149 -1.611 4.066
 -1.123 -1.61 4.072
 -1.099 -1.612 4.081
 -1.073 -1.611 4.085
 -1.047 -1.61 4.087
 -1.022 -1.611 4.094
 -0.995 -1.609 4.095
 -0.97 -1.609 4.1
 -0.945 -1.609 4.105
 -0.92 -1.611 4.114
 -0.895 -1.612 4.121
 -0.871 -1.613 4.127
 -0.844 -1.611 4.127
 -0.819 -1.61 4.13
 -0.792 -1.609 4.13
 -0.767 -1.609 4.134
 -0.742 -1.609 4.137
 -0.716 -1.607 4.137
 -0.69 -1.607 4.14
 -0.666 -1.609 4.147
 -0.64 -1.608 4.148
 -0.614 -1.607 4.148
 -0.589 -1.608 4.153
 -0.564 -1.608 4.157
 -0.539 -1.607 4.157
 -0.514 -1.608 4.162
 -0.488 -1.608 4.165
 -0.463 -1.608 4.167
 -0.438 -1.607 4.166
 -0.412 -1.607 4.167
 -0.387 -1.607 4.169
 -0.362 -1.607 4.169
 -0.336 -1.605 4.166
 -0.311 -1.606 4.17
 -0.286 -1.608 4.176
 -0.26 -1.604 4.168
 -0.235 -1.605 4.17
 -0.21 -1.607 4.178
 -0.185 -1.608 4.18
 -0.16 -1.608 4.18
 -0.135 -1.609 4.185
 -0.11 -1.61 4.188
 -0.084 -1.609 4.185
 -0.059 -1.609 4.185
 -0.034 -1.608 4.182
 -0.009 -1.609 4.185
 0.016 -1.609 4.184
 0.041 -1.611 4.188
 0.066 -1.609 4.182
 0.091 -1.61 4.183
 0.116 -1.608 4.179
 0.141 -1.607 4.175
 0.166 -1.605 4.167
 0.191 -1.605 4.167
 0.217 -1.604 4.165
 0.242 -1.604 4.163
 0.267 -1.604 4.159
 0.292 -1.605 4.162
 0.317 -1.607 4.164
 0.342 -1.606 4.16
 0.367 -1.606 4.157
 0.393 -1.606 4.155
 0.418 -1.606 4.153
 0.443 -1.606 4.152
 0.468 -1.607 4.151
 0.494 -1.609 4.153
 0.519 -1.61 4.152
 0.544 -1.609 4.147
 0.569 -1.609 4.143
 0.595 -1.61 4.144
 0.62 -1.611 4.142
 0.647 -1.614 4.146
 0.673 -1.616 4.147
 0.698 -1.617 4.146
 0.723 -1.616 4.14
 0.748 -1.616 4.135
 0.773 -1.615 4.129
 0.798 -1.615 4.125
 0.824 -1.617 4.125
 0.85 -1.618 4.122
 0.876 -1.619 4.12
 0.902 -1.62 4.117
 0.928 -1.621 4.115
 0.953 -1.622 4.112
 0.981 -1.625 4.115
 1.005 -1.624 4.107
 1.031 -1.625 4.103
 1.056 -1.624 4.095
 1.082 -1.625 4.091
 1.107 -1.624 4.083
 1.133 -1.626 4.08
 1.157 -1.625 4.072
 1.184 -1.626 4.068
 1.209 -1.626 4.062
 1.236 -1.628 4.058
 1.261 -1.628 4.052
 1.288 -1.63 4.05
 1.314 -1.631 4.043
 1.339 -1.631 4.036
 1.365 -1.632 4.03
 1.393 -1.635 4.031
 1.419 -1.635 4.021
 1.446 -1.637 4.019
 1.472 -1.637 4.011
 1.497 -1.637 4.002
 1.521 -1.636 3.989
 1.548 -1.637 3.984
 1.571 -1.635 3.97
 1.597 -1.635 3.961
 1.621 -1.634 3.948
 1.646 -1.634 3.937
 1.67 -1.633 3.925
 1.693 -1.631 3.911
 1.717 -1.629 3.896
 1.742 -1.629 3.886
 1.766 -1.628 3.872
 1.786 -1.623 3.852
 1.804 -1.616 3.824
 1.818 -1.607 3.79
 1.822 -1.589 3.737
 1.826 -1.571 3.684
 1.829 -1.553 3.63
 1.835 -1.538 3.584
 1.836 -1.519 3.528
 1.843 -1.505 3.486
 1.827 -1.474 3.402
 1.786 -1.424 3.275
 1.767 -1.391 3.188
 1.764 -1.372 3.133
 1.769 -1.359 3.094
 1.77 -1.344 3.049
 1.769 -1.328 3.001
 1.762 -1.308 2.945
 1.755 -1.288 2.888
 1.751 -1.271 2.84
 -2.245 -1.621 3.78
 -2.236 -1.634 3.822
 -2.191 -1.619 3.802
 -2.162 -1.617 3.809
 -2.134 -1.616 3.818
 -2.11 -1.618 3.835
 -2.084 -1.618 3.848
 -2.06 -1.62 3.864
 -2.036 -1.622 3.88
 -2.008 -1.62 3.888
 -1.98 -1.618 3.895
 -1.953 -1.618 3.905
 -1.926 -1.617 3.913
 -1.903 -1.619 3.93
 -1.881 -1.623 3.95
 -1.858 -1.625 3.966
 -1.832 -1.626 3.977
 -1.804 -1.624 3.984
 -1.776 -1.622 3.988
 -1.745 -1.618 3.988
 -1.717 -1.616 3.994
 -1.692 -1.617 4.004
 -1.666 -1.617 4.015
 -1.637 -1.614 4.016
 -1.613 -1.616 4.03
 -1.587 -1.616 4.038
 -1.556 -1.612 4.035
 -1.53 -1.61 4.041
 -1.505 -1.611 4.052
 -1.476 -1.609 4.054
 -1.448 -1.606 4.054
 -1.423 -1.607 4.065
 -1.397 -1.607 4.072
 -1.371 -1.607 4.079
 -1.345 -1.607 4.086
 -1.32 -1.608 4.095
 -1.296 -1.61 4.106
 -1.271 -1.611 4.117
 -1.245 -1.611 4.122
 -1.219 -1.611 4.128
 -1.193 -1.611 4.136
 -1.165 -1.608 4.134
 -1.139 -1.607 4.138
 -1.114 -1.608 4.146
 -1.088 -1.608 4.152
 -1.061 -1.606 4.152
 -1.036 -1.607 4.158
 -1.009 -1.605 4.159
 -0.983 -1.605 4.163
 -0.957 -1.605 4.169
 -0.932 -1.605 4.175
 -0.906 -1.606 4.181
 -0.881 -1.606 4.185
 -0.855 -1.605 4.188
 -0.828 -1.604 4.189
 -0.802 -1.602 4.188
 -0.776 -1.603 4.193
 -0.751 -1.603 4.197
 -0.724 -1.6 4.192
 -0.698 -1.599 4.194
 -0.672 -1.6 4.198
 -0.646 -1.597 4.194
 -0.62 -1.595 4.192
 -0.595 -1.597 4.201
 -0.57 -1.598 4.207
 -0.544 -1.598 4.209
 -0.519 -1.599 4.213
 -0.493 -1.599 4.214
 -0.467 -1.597 4.212
 -0.441 -1.595 4.209
 -0.415 -1.595 4.209
 -0.39 -1.595 4.213
 -0.365 -1.596 4.217
 -0.339 -1.595 4.216
 -0.314 -1.596 4.22
 -0.289 -1.598 4.226
 -0.263 -1.594 4.217
 -0.237 -1.594 4.217
 -0.212 -1.594 4.219
 -0.186 -1.595 4.221
 -0.161 -1.594 4.219
 -0.136 -1.596 4.224
 -0.11 -1.596 4.226
 -0.085 -1.596 4.226
 -0.059 -1.595 4.224
 -0.034 -1.595 4.224
 -0.009 -1.597 4.226
 0.016 -1.596 4.225
 0.041 -1.598 4.229
 0.067 -1.596 4.225
 0.092 -1.597 4.224
 0.117 -1.596 4.221
 0.143 -1.595 4.219
 0.168 -1.594 4.214
 0.193 -1.594 4.214
 0.219 -1.594 4.211
 0.244 -1.593 4.209
 0.269 -1.592 4.204
 0.295 -1.594 4.206
 0.32 -1.594 4.206
 0.345 -1.594 4.203
 0.371 -1.594 4.201
 0.396 -1.595 4.2
 0.422 -1.595 4.199
 0.447 -1.595 4.197
 0.473 -1.596 4.197
 0.498 -1.597 4.197
 0.524 -1.598 4.196
 0.549 -1.597 4.191
 0.574 -1.597 4.188
 0.6 -1.599 4.188
 0.626 -1.6 4.187
 0.652 -1.602 4.189
 0.678 -1.603 4.188
 0.704 -1.604 4.187
 0.729 -1.604 4.183
 0.755 -1.604 4.179
 0.78 -1.604 4.175
 0.806 -1.605 4.173
 0.832 -1.607 4.172
 0.858 -1.606 4.166
 0.884 -1.607 4.164
 0.91 -1.608 4.162
 0.937 -1.611 4.163
 0.963 -1.612 4.162
 0.991 -1.617 4.168
 1.017 -1.617 4.163
 1.043 -1.618 4.159
 1.068 -1.617 4.15
 1.093 -1.616 4.143
 1.119 -1.616 4.136
 1.145 -1.618 4.134
 1.171 -1.618 4.128
 1.198 -1.619 4.124
 1.223 -1.619 4.117
 1.249 -1.62 4.112
 1.275 -1.62 4.105
 1.301 -1.621 4.1
 1.327 -1.621 4.093
 1.354 -1.623 4.091
 1.38 -1.624 4.083
 1.409 -1.628 4.085
 1.436 -1.628 4.079
 1.464 -1.631 4.078
 1.49 -1.632 4.071
 1.517 -1.633 4.064
 1.541 -1.631 4.051
 1.569 -1.633 4.047
 1.593 -1.632 4.035
 1.619 -1.632 4.025
 1.645 -1.632 4.017
 1.67 -1.631 4.005
 1.694 -1.629 3.99
 1.718 -1.628 3.976
 1.74 -1.625 3.958
 1.764 -1.623 3.944
 1.786 -1.62 3.926
 1.804 -1.613 3.899
 1.818 -1.603 3.863
 1.828 -1.59 3.821
 1.831 -1.571 3.764
 1.835 -1.553 3.71
 1.838 -1.536 3.657
 1.845 -1.522 3.613
 1.851 -1.507 3.566
 1.86 -1.496 3.528
 1.849 -1.468 3.451
 1.785 -1.4 3.28
 1.758 -1.362 3.18
 1.762 -1.349 3.138
 1.768 -1.337 3.1
 1.77 -1.324 3.058
 1.772 -1.31 3.014
 1.766 -1.29 2.958
 1.775 -1.282 2.93
 1.743 -1.245 2.834
 -2.308 -1.639 3.895
 -2.244 -1.613 3.847
 -2.223 -1.617 3.868
 -2.194 -1.615 3.877
 -2.167 -1.615 3.888
 -2.143 -1.617 3.906
 -2.116 -1.616 3.917
 -2.092 -1.618 3.933
 -2.067 -1.62 3.949
 -2.039 -1.618 3.957
 -2.011 -1.617 3.966
 -1.985 -1.617 3.977
 -1.957 -1.617 3.987
 -1.933 -1.618 4.001
 -1.91 -1.621 4.02
 -1.885 -1.622 4.034
 -1.859 -1.623 4.046
 -1.832 -1.623 4.055
 -1.804 -1.621 4.061
 -1.773 -1.618 4.063
 -1.746 -1.617 4.07
 -1.719 -1.616 4.078
 -1.691 -1.616 4.086
 -1.662 -1.613 4.087
 -1.637 -1.614 4.099
 -1.61 -1.613 4.107
 -1.579 -1.609 4.105
 -1.552 -1.608 4.109
 -1.526 -1.608 4.119
 -1.496 -1.605 4.118
 -1.468 -1.602 4.12
 -1.442 -1.603 4.129
 -1.416 -1.602 4.135
 -1.391 -1.604 4.146
 -1.365 -1.605 4.156
 -1.339 -1.605 4.164
 -1.315 -1.607 4.176
 -1.29 -1.609 4.188
 -1.263 -1.608 4.191
 -1.235 -1.606 4.193
 -1.21 -1.607 4.202
 -1.182 -1.605 4.202
 -1.154 -1.602 4.201
 -1.127 -1.601 4.204
 -1.101 -1.602 4.212
 -1.073 -1.599 4.21
 -1.046 -1.598 4.211
 -1.02 -1.597 4.214
 -0.994 -1.597 4.219
 -0.967 -1.595 4.22
 -0.941 -1.595 4.224
 -0.915 -1.596 4.23
 -0.889 -1.595 4.233
 -0.863 -1.595 4.237
 -0.837 -1.595 4.241
 -0.81 -1.593 4.239
 -0.784 -1.593 4.243
 -0.758 -1.593 4.247
 -0.731 -1.59 4.243
 -0.704 -1.589 4.243
 -0.679 -1.589 4.247
 -0.652 -1.587 4.245
 -0.626 -1.586 4.244
 -0.6 -1.587 4.249
 -0.575 -1.587 4.254
 -0.549 -1.586 4.253
 -0.523 -1.586 4.254
 -0.497 -1.585 4.253
 -0.47 -1.583 4.252
 -0.444 -1.58 4.246
 -0.419 -1.581 4.251
 -0.393 -1.582 4.254
 -0.367 -1.582 4.255
 -0.341 -1.581 4.254
 -0.316 -1.581 4.257
 -0.29 -1.581 4.257
 -0.264 -1.577 4.248
 -0.239 -1.578 4.252
 -0.213 -1.578 4.251
 -0.187 -1.578 4.252
 -0.162 -1.577 4.249
 -0.136 -1.579 4.255
 -0.111 -1.578 4.255
 -0.085 -1.579 4.256
 -0.06 -1.578 4.253
 -0.034 -1.578 4.255
 -0.008 -1.578 4.255
 0.016 -1.577 4.251
 0.042 -1.579 4.254
 0.067 -1.578 4.251
 0.093 -1.578 4.25
 0.118 -1.576 4.246
 0.144 -1.577 4.247
 0.169 -1.576 4.242
 0.195 -1.577 4.244
 0.22 -1.577 4.242
 0.246 -1.577 4.24
 0.271 -1.575 4.235
 0.296 -1.576 4.236
 0.322 -1.577 4.237
 0.347 -1.577 4.234
 0.373 -1.578 4.234
 0.399 -1.579 4.234
 0.425 -1.58 4.235
 0.45 -1.58 4.233
 0.476 -1.581 4.233
 0.502 -1.582 4.232
 0.527 -1.582 4.229
 0.553 -1.582 4.226
 0.578 -1.58 4.219
 0.604 -1.582 4.219
 0.63 -1.583 4.218
 0.656 -1.585 4.221
 0.682 -1.586 4.219
 0.708 -1.588 4.22
 0.735 -1.589 4.22
 0.761 -1.59 4.218
 0.787 -1.591 4.216
 0.812 -1.591 4.211
 0.839 -1.592 4.211
 0.864 -1.592 4.204
 0.89 -1.592 4.201
 0.916 -1.593 4.199
 0.943 -1.596 4.201
 0.97 -1.598 4.2
 0.998 -1.601 4.203
 1.024 -1.603 4.201
 1.051 -1.604 4.199
 1.076 -1.603 4.19
 1.102 -1.603 4.184
 1.128 -1.604 4.179
 1.154 -1.604 4.174
 1.18 -1.604 4.169
 1.207 -1.606 4.165
 1.234 -1.607 4.161
 1.261 -1.608 4.157
 1.286 -1.608 4.15
 1.313 -1.609 4.145
 1.339 -1.61 4.14
 1.367 -1.612 4.137
 1.394 -1.613 4.132
 1.423 -1.617 4.134
 1.451 -1.62 4.132
 1.48 -1.622 4.13
 1.506 -1.623 4.123
 1.533 -1.624 4.117
 1.559 -1.623 4.106
 1.586 -1.625 4.101
 1.612 -1.624 4.09
 1.638 -1.625 4.082
 1.664 -1.625 4.072
 1.69 -1.625 4.062
 1.714 -1.622 4.046
 1.739 -1.622 4.035
 1.763 -1.62 4.019
 1.785 -1.617 4.001
 1.805 -1.611 3.976
 1.821 -1.603 3.944
 1.829 -1.587 3.896
 1.836 -1.571 3.845
 1.838 -1.552 3.788
 1.841 -1.534 3.732
 1.844 -1.516 3.678
 1.852 -1.504 3.636
 1.859 -1.49 3.591
 1.867 -1.478 3.55
 0 0 0
 1.757 -1.356 3.237
 1.742 -1.329 3.16
 1.759 -1.325 3.14
 1.765 -1.314 3.102
 1.77 -1.302 3.065
 1.774 -1.29 3.026
 1.769 -1.272 2.972
 1.752 -1.245 2.898
 1.76 -1.237 2.869
 -2.296 -1.605 3.886
 -2.303 -1.628 3.957
 -2.255 -1.613 3.933
 -2.227 -1.612 3.944
 -2.2 -1.612 3.957
 -2.175 -1.614 3.974
 -2.148 -1.614 3.987
 -2.123 -1.615 4.001
 -2.097 -1.617 4.016
 -2.069 -1.616 4.026
 -2.039 -1.613 4.032
 -2.013 -1.614 4.045
 -1.986 -1.614 4.056
 -1.96 -1.614 4.068
 -1.935 -1.616 4.084
 -1.909 -1.617 4.097
 -1.882 -1.617 4.106
 -1.854 -1.616 4.115
 -1.826 -1.615 4.122
 -1.797 -1.613 4.126
 -1.769 -1.612 4.135
 -1.742 -1.612 4.144
 -1.714 -1.611 4.15
 -1.685 -1.608 4.154
 -1.658 -1.609 4.163
 -1.631 -1.608 4.171
 -1.601 -1.604 4.17
 -1.573 -1.604 4.177
 -1.547 -1.604 4.186
 -1.519 -1.602 4.19
 -1.49 -1.6 4.191
 -1.463 -1.6 4.199
 -1.435 -1.598 4.202
 -1.409 -1.599 4.211
 -1.382 -1.598 4.216
 -1.355 -1.598 4.223
 -1.331 -1.6 4.236
 -1.305 -1.601 4.244
 -1.276 -1.598 4.244
 -1.248 -1.597 4.247
 -1.222 -1.598 4.255
 -1.194 -1.595 4.255
 -1.167 -1.594 4.257
 -1.139 -1.592 4.259
 -1.113 -1.592 4.265
 -1.084 -1.589 4.261
 -1.056 -1.586 4.26
 -1.029 -1.585 4.262
 -1.003 -1.586 4.268
 -0.976 -1.585 4.27
 -0.949 -1.584 4.273
 -0.923 -1.583 4.276
 -0.896 -1.581 4.275
 -0.869 -1.58 4.275
 -0.842 -1.579 4.277
 -0.815 -1.577 4.276
 -0.789 -1.577 4.28
 -0.763 -1.578 4.284
 -0.736 -1.575 4.28
 -0.709 -1.573 4.278
 -0.682 -1.572 4.279
 -0.656 -1.57 4.276
 -0.629 -1.568 4.274
 -0.603 -1.568 4.277
 -0.577 -1.569 4.282
 -0.551 -1.568 4.283
 -0.525 -1.567 4.283
 -0.499 -1.566 4.281
 -0.473 -1.565 4.28
 -0.446 -1.563 4.276
 -0.42 -1.563 4.279
 -0.395 -1.564 4.282
 -0.369 -1.564 4.285
 -0.343 -1.562 4.281
 -0.317 -1.561 4.28
 -0.291 -1.56 4.277
 -0.265 -1.557 4.27
 -0.239 -1.557 4.272
 -0.213 -1.557 4.271
 -0.188 -1.557 4.273
 -0.162 -1.556 4.27
 -0.136 -1.556 4.272
 -0.111 -1.556 4.271
 -0.085 -1.557 4.273
 -0.059 -1.556 4.271
 -0.034 -1.557 4.274
 -0.008 -1.557 4.274
 0.016 -1.556 4.27
 0.042 -1.557 4.272
 0.067 -1.555 4.267
 0.093 -1.554 4.265
 0.118 -1.553 4.261
 0.144 -1.554 4.261
 0.169 -1.553 4.258
 0.195 -1.555 4.263
 0.221 -1.556 4.262
 0.247 -1.557 4.265
 0.272 -1.557 4.262
 0.298 -1.557 4.262
 0.323 -1.557 4.26
 0.349 -1.557 4.257
 0.374 -1.557 4.255
 0.4 -1.558 4.256
 0.426 -1.56 4.258
 0.452 -1.56 4.256
 0.478 -1.561 4.257
 0.504 -1.562 4.256
 0.529 -1.561 4.251
 0.555 -1.561 4.246
 0.58 -1.56 4.242
 0.606 -1.561 4.241
 0.632 -1.562 4.24
 0.658 -1.564 4.24
 0.684 -1.564 4.239
 0.71 -1.566 4.239
 0.736 -1.567 4.237
 0.762 -1.568 4.236
 0.789 -1.569 4.234
 0.814 -1.568 4.229
 0.841 -1.57 4.23
 0.867 -1.571 4.226
 0.893 -1.572 4.224
 0.92 -1.575 4.226
 0.948 -1.578 4.231
 0.975 -1.58 4.229
 1.002 -1.582 4.23
 1.029 -1.583 4.228
 1.055 -1.584 4.223
 1.081 -1.583 4.216
 1.107 -1.584 4.211
 1.134 -1.585 4.209
 1.161 -1.587 4.206
 1.188 -1.589 4.204
 1.215 -1.59 4.201
 1.242 -1.591 4.197
 1.269 -1.593 4.194
 1.296 -1.593 4.188
 1.323 -1.595 4.185
 1.35 -1.596 4.18
 1.378 -1.599 4.179
 1.405 -1.599 4.173
 1.434 -1.603 4.175
 1.462 -1.604 4.17
 1.491 -1.608 4.17
 1.518 -1.608 4.163
 1.545 -1.61 4.157
 1.571 -1.609 4.147
 1.599 -1.612 4.144
 1.625 -1.611 4.134
 1.653 -1.612 4.127
 1.681 -1.614 4.122
 1.707 -1.614 4.112
 1.731 -1.612 4.097
 1.757 -1.612 4.085
 1.78 -1.609 4.067
 1.801 -1.605 4.046
 1.818 -1.596 4.014
 1.832 -1.586 3.977
 1.838 -1.57 3.925
 1.845 -1.554 3.874
 1.848 -1.535 3.816
 1.854 -1.52 3.767
 1.86 -1.505 3.719
 1.872 -1.495 3.683
 1.882 -1.484 3.644
 0 0 0
 0 0 0
 0 0 0
 1.743 -1.307 3.168
 1.759 -1.304 3.148
 1.767 -1.294 3.114
 1.773 -1.283 3.078
 1.779 -1.273 3.041
 1.777 -1.257 2.993
 1.768 -1.236 2.932
 1.764 -1.22 2.882
 -2.332 -1.602 3.957
 -2.307 -1.604 3.975
 -2.284 -1.607 3.995
 -2.259 -1.609 4.012
 -2.23 -1.608 4.022
 -2.204 -1.609 4.038
 -2.178 -1.609 4.051
 -2.15 -1.609 4.063
 -2.125 -1.611 4.079
 -2.099 -1.612 4.094
 -2.07 -1.611 4.103
 -2.045 -1.612 4.118
 -2.017 -1.612 4.129
 -1.99 -1.612 4.14
 -1.963 -1.612 4.153
 -1.935 -1.612 4.162
 -1.907 -1.611 4.171
 -1.88 -1.611 4.181
 -1.852 -1.611 4.191
 -1.823 -1.609 4.196
 -1.796 -1.609 4.207
 -1.768 -1.609 4.216
 -1.739 -1.607 4.22
 -1.71 -1.605 4.224
 -1.682 -1.604 4.231
 -1.652 -1.602 4.235
 -1.621 -1.598 4.232
 -1.594 -1.598 4.241
 -1.566 -1.597 4.247
 -1.536 -1.594 4.248
 -1.507 -1.592 4.25
 -1.481 -1.592 4.258
 -1.45 -1.588 4.256
 -1.423 -1.588 4.261
 -1.396 -1.587 4.268
 -1.369 -1.587 4.274
 -1.343 -1.588 4.284
 -1.317 -1.589 4.293
 -1.287 -1.586 4.292
 -1.259 -1.584 4.292
 -1.233 -1.584 4.3
 -1.203 -1.581 4.297
 -1.174 -1.578 4.295
 -1.146 -1.575 4.293
 -1.119 -1.575 4.298
 -1.09 -1.571 4.292
 -1.062 -1.568 4.291
 -1.035 -1.568 4.295
 -1.009 -1.569 4.302
 -0.982 -1.568 4.304
 -0.955 -1.566 4.305
 -0.928 -1.565 4.306
 -0.9 -1.563 4.304
 -0.872 -1.561 4.303
 -0.846 -1.56 4.304
 -0.819 -1.558 4.303
 -0.792 -1.557 4.304
 -0.765 -1.556 4.305
 -0.738 -1.554 4.303
 -0.711 -1.551 4.298
 -0.684 -1.55 4.298
 -0.657 -1.549 4.298
 -0.631 -1.547 4.297
 -0.604 -1.546 4.297
 -0.578 -1.546 4.299
 -0.552 -1.546 4.3
 -0.526 -1.545 4.299
 -0.5 -1.543 4.298
 -0.474 -1.543 4.3
 -0.447 -1.542 4.298
 -0.421 -1.542 4.3
 -0.395 -1.541 4.299
 -0.369 -1.541 4.299
 -0.343 -1.538 4.294
 -0.317 -1.537 4.292
 -0.291 -1.535 4.287
 -0.265 -1.533 4.282
 -0.239 -1.533 4.284
 -0.213 -1.532 4.282
 -0.188 -1.532 4.283
 -0.162 -1.532 4.284
 -0.136 -1.533 4.286
 -0.111 -1.532 4.284
 -0.085 -1.532 4.284
 -0.059 -1.531 4.282
 -0.034 -1.531 4.282
 -0.008 -1.531 4.281
 0.016 -1.53 4.278
 0.042 -1.531 4.28
 0.068 -1.53 4.277
 0.093 -1.53 4.275
 0.119 -1.529 4.273
 0.144 -1.529 4.271
 0.17 -1.529 4.27
 0.196 -1.531 4.274
 0.221 -1.532 4.275
 0.247 -1.532 4.275
 0.273 -1.533 4.275
 0.298 -1.532 4.272
 0.324 -1.532 4.27
 0.349 -1.531 4.264
 0.375 -1.532 4.265
 0.4 -1.533 4.264
 0.426 -1.533 4.264
 0.452 -1.533 4.261
 0.478 -1.536 4.265
 0.504 -1.536 4.263
 0.529 -1.536 4.259
 0.555 -1.536 4.257
 0.581 -1.537 4.256
 0.606 -1.536 4.252
 0.632 -1.537 4.251
 0.658 -1.538 4.25
 0.685 -1.539 4.249
 0.71 -1.54 4.247
 0.737 -1.542 4.248
 0.763 -1.543 4.248
 0.79 -1.545 4.247
 0.815 -1.545 4.243
 0.842 -1.547 4.245
 0.869 -1.548 4.242
 0.895 -1.548 4.238
 0.922 -1.551 4.24
 0.949 -1.553 4.242
 0.976 -1.555 4.24
 1.002 -1.556 4.238
 1.03 -1.558 4.238
 1.056 -1.559 4.234
 1.083 -1.56 4.231
 1.109 -1.56 4.225
 1.136 -1.562 4.225
 1.164 -1.565 4.226
 1.191 -1.566 4.223
 1.218 -1.568 4.22
 1.247 -1.571 4.221
 1.275 -1.573 4.22
 1.301 -1.574 4.214
 1.329 -1.576 4.213
 1.357 -1.578 4.211
 1.385 -1.58 4.209
 1.413 -1.582 4.206
 1.442 -1.585 4.206
 1.47 -1.587 4.202
 1.499 -1.589 4.2
 1.527 -1.592 4.197
 1.555 -1.593 4.191
 1.581 -1.593 4.182
 1.609 -1.595 4.179
 1.637 -1.596 4.171
 1.664 -1.597 4.165
 1.693 -1.599 4.16
 1.719 -1.599 4.15
 1.744 -1.597 4.136
 1.77 -1.597 4.124
 1.79 -1.592 4.1
 1.81 -1.586 4.075
 1.825 -1.576 4.038
 1.836 -1.563 3.994
 1.842 -1.546 3.94
 1.85 -1.532 3.892
 1.853 -1.514 3.835
 1.861 -1.5 3.789
 1.866 -1.485 3.74
 1.878 -1.475 3.703
 0 0 0
 0 0 0
 0 0 0
 0 0 0
 1.751 -1.292 3.189
 1.766 -1.287 3.168
 1.775 -1.279 3.136
 1.783 -1.269 3.102
 1.787 -1.258 3.063
 1.789 -1.244 3.019
 1.78 -1.224 2.959
 1.797 -1.222 2.943
 -2.365 -1.598 4.023
 -2.32 -1.586 4.007
 -1.826 -1.263 3.198
 -1.826 -1.279 3.248
 -1.803 -1.278 3.257
 -1.781 -1.278 3.268
 -1.848 -1.343 3.444
 -1.913 -1.408 3.622
 -1.891 -1.409 3.637
 -1.954 -1.475 3.819
 -2.012 -1.539 3.997
 -1.987 -1.54 4.01
 -1.96 -1.54 4.021
 -2.014 -1.604 4.201
 -1.905 -1.538 4.038
 -1.877 -1.537 4.045
 -1.85 -1.537 4.055
 -1.822 -1.536 4.063
 -1.795 -1.535 4.071
 -1.843 -1.599 4.251
 -1.816 -1.6 4.265
 -1.787 -1.598 4.27
 -1.757 -1.597 4.274
 -1.728 -1.595 4.28
 -1.699 -1.594 4.285
 -1.668 -1.59 4.285
 -1.637 -1.587 4.284
 -1.61 -1.586 4.292
 -1.58 -1.584 4.294
 -1.549 -1.581 4.293
 -1.52 -1.579 4.296
 -1.492 -1.577 4.3
 -1.461 -1.573 4.296
 -1.433 -1.573 4.302
 -1.406 -1.572 4.307
 -1.377 -1.57 4.311
 -1.35 -1.57 4.317
 -1.323 -1.57 4.324
 -1.293 -1.566 4.318
 -1.264 -1.563 4.317
 -1.236 -1.562 4.321
 -1.208 -1.56 4.322
 -1.178 -1.557 4.319
 -1.15 -1.555 4.319
 -1.123 -1.554 4.322
 -1.094 -1.551 4.318
 -1.065 -1.547 4.315
 -1.038 -1.546 4.316
 -1.012 -1.547 4.323
 -0.985 -1.546 4.326
 -0.957 -1.544 4.324
 -0.93 -1.542 4.324
 -0.902 -1.54 4.323
 -0.873 -1.537 4.317
 -0.847 -1.535 4.317
 -0.82 -1.534 4.319
 -0.793 -1.533 4.319
 -0.766 -1.532 4.319
 -0.739 -1.531 4.319
 -0.711 -1.527 4.312
 -0.684 -1.525 4.309
 -0.658 -1.524 4.308
 -0.631 -1.523 4.308
 -0.605 -1.522 4.308
 -0.579 -1.521 4.311
 -0.552 -1.521 4.31
 -0.526 -1.519 4.308
 -0.499 -1.517 4.306
 -0.473 -1.517 4.307
 -0.447 -1.516 4.305
 -0.421 -1.516 4.307
 -0.395 -1.515 4.305
 -0.369 -1.513 4.302
 -0.343 -1.511 4.299
 -0.317 -1.51 4.297
 -0.29 -1.508 4.291
 -0.265 -1.507 4.289
 -0.239 -1.507 4.29
 -0.213 -1.505 4.287
 -0.187 -1.505 4.286
 -0.162 -1.504 4.285
 -0.136 -1.504 4.286
 -0.11 -1.504 4.286
 -0.085 -1.505 4.287
 -0.059 -1.504 4.287
 -0.034 -1.505 4.288
 -0.008 -1.504 4.286
 0.017 -1.504 4.283
 0.042 -1.504 4.283
 0.068 -1.503 4.28
 0.093 -1.502 4.277
 0.119 -1.501 4.274
 0.144 -1.502 4.275
 0.17 -1.503 4.275
 0.196 -1.504 4.278
 0.221 -1.505 4.279
 0.247 -1.506 4.281
 0.273 -1.506 4.28
 0.298 -1.506 4.277
 0.324 -1.506 4.275
 0.349 -1.505 4.272
 0.375 -1.505 4.27
 0.4 -1.506 4.269
 0.426 -1.506 4.267
 0.451 -1.506 4.264
 0.478 -1.508 4.268
 0.503 -1.508 4.265
 0.529 -1.509 4.264
 0.555 -1.51 4.265
 0.581 -1.512 4.266
 0.607 -1.511 4.26
 0.632 -1.511 4.258
 0.658 -1.511 4.254
 0.684 -1.512 4.252
 0.71 -1.512 4.25
 0.737 -1.515 4.254
 0.764 -1.518 4.256
 0.79 -1.52 4.258
 0.817 -1.521 4.256
 0.843 -1.522 4.255
 0.869 -1.522 4.249
 0.895 -1.523 4.247
 0.922 -1.525 4.249
 0.949 -1.527 4.248
 0.976 -1.528 4.248
 1.003 -1.53 4.248
 1.03 -1.532 4.247
 1.056 -1.533 4.243
 1.084 -1.535 4.242
 1.11 -1.535 4.237
 1.137 -1.536 4.235
 1.165 -1.539 4.236
 1.192 -1.541 4.234
 1.219 -1.543 4.231
 1.248 -1.546 4.233
 1.276 -1.548 4.232
 1.303 -1.549 4.228
 1.331 -1.552 4.228
 1.36 -1.554 4.227
 1.388 -1.557 4.226
 1.416 -1.559 4.224
 1.445 -1.562 4.223
 1.473 -1.563 4.219
 1.502 -1.566 4.219
 1.531 -1.569 4.216
 1.559 -1.57 4.21
 1.586 -1.571 4.203
 1.615 -1.573 4.201
 1.642 -1.574 4.194
 1.671 -1.576 4.189
 1.7 -1.579 4.186
 1.728 -1.58 4.179
 1.753 -1.579 4.166
 1.78 -1.579 4.155
 1.799 -1.573 4.129
 1.819 -1.566 4.102
 1.831 -1.555 4.061
 1.842 -1.542 4.017
 1.849 -1.527 3.965
 1.859 -1.514 3.92
 1.863 -1.497 3.865
 1.874 -1.485 3.824
 1.88 -1.471 3.775
 0 0 0
 0 0 0
 0 0 0
 0 0 0
 0 0 0
 1.748 -1.268 3.191
 1.768 -1.267 3.18
 1.78 -1.261 3.152
 1.791 -1.253 3.123
 1.8 -1.245 3.091
 1.805 -1.234 3.054
 1.77 -1.197 2.95
 1.842 -1.232 3.025
 0 0 0
 -2.392 -1.607 4.141
 -1.363 -0.928 2.391
 -1.388 -0.956 2.472
 -1.371 -0.955 2.479
 -1.355 -0.956 2.488
 -1.428 -1.02 2.664
 -1.497 -1.083 2.838
 -1.478 -1.083 2.847
 -1.546 -1.148 3.027
 -1.61 -1.211 3.202
 -1.589 -1.211 3.213
 -1.649 -1.274 3.39
 -1.79 -1.401 3.739
 -1.763 -1.399 3.745
 -1.736 -1.398 3.75
 -1.789 -1.46 3.929
 -1.762 -1.459 3.937
 -1.734 -1.458 3.941
 -1.783 -1.521 4.122
 -1.831 -1.585 4.308
 -1.801 -1.584 4.313
 -1.77 -1.581 4.316
 -1.741 -1.579 4.32
 -1.711 -1.577 4.324
 -1.681 -1.575 4.326
 -1.65 -1.572 4.328
 -1.622 -1.571 4.333
 -1.592 -1.569 4.336
 -1.56 -1.564 4.332
 -1.53 -1.561 4.332
 -1.5 -1.559 4.334
 -1.469 -1.555 4.33
 -1.441 -1.554 4.333
 -1.412 -1.552 4.337
 -1.383 -1.55 4.338
 -1.354 -1.548 4.339
 -1.327 -1.547 4.344
 -1.295 -1.542 4.336
 -1.266 -1.539 4.334
 -1.238 -1.538 4.337
 -1.209 -1.535 4.336
 -1.18 -1.532 4.332
 -1.151 -1.529 4.33
 -1.123 -1.528 4.331
 -1.094 -1.525 4.328
 -1.066 -1.522 4.325
 -1.038 -1.52 4.325
 -1.012 -1.521 4.332
 -0.985 -1.52 4.335
 -0.957 -1.518 4.333
 -0.929 -1.516 4.332
 -0.902 -1.514 4.33
 -0.873 -1.509 4.322
 -0.845 -1.507 4.32
 -0.819 -1.507 4.322
 -0.792 -1.505 4.32
 -0.765 -1.503 4.32
 -0.738 -1.503 4.321
 -0.711 -1.5 4.318
 -0.684 -1.498 4.314
 -0.657 -1.498 4.316
 -0.631 -1.497 4.316
 -0.604 -1.495 4.315
 -0.578 -1.495 4.316
 -0.552 -1.494 4.315
 -0.525 -1.492 4.314
 -0.499 -1.492 4.314
 -0.473 -1.491 4.315
 -0.447 -1.49 4.312
 -0.421 -1.49 4.314
 -0.395 -1.488 4.31
 -0.368 -1.485 4.305
 -0.342 -1.483 4.3
 -0.316 -1.482 4.296
 -0.29 -1.48 4.293
 -0.264 -1.48 4.293
 -0.239 -1.48 4.294
 -0.213 -1.48 4.295
 -0.187 -1.479 4.294
 -0.161 -1.478 4.29
 -0.136 -1.478 4.29
 -0.11 -1.478 4.29
 -0.085 -1.479 4.293
 -0.059 -1.479 4.295
 -0.033 -1.48 4.296
 -0.008 -1.479 4.294
 0.017 -1.477 4.289
 0.042 -1.476 4.286
 0.068 -1.475 4.281
 0.093 -1.475 4.279
 0.119 -1.473 4.275
 0.144 -1.475 4.279
 0.17 -1.475 4.278
 0.196 -1.476 4.28
 0.221 -1.478 4.282
 0.247 -1.48 4.287
 0.273 -1.48 4.285
 0.298 -1.479 4.282
 0.324 -1.48 4.282
 0.349 -1.48 4.279
 0.375 -1.479 4.276
 0.4 -1.48 4.275
 0.426 -1.48 4.273
 0.451 -1.479 4.269
 0.477 -1.481 4.272
 0.503 -1.481 4.269
 0.529 -1.482 4.268
 0.555 -1.483 4.269
 0.581 -1.485 4.27
 0.606 -1.484 4.265
 0.632 -1.485 4.263
 0.658 -1.485 4.259
 0.683 -1.485 4.256
 0.709 -1.486 4.254
 0.736 -1.488 4.257
 0.763 -1.49 4.259
 0.79 -1.493 4.262
 0.816 -1.493 4.26
 0.842 -1.494 4.257
 0.868 -1.495 4.255
 0.895 -1.496 4.254
 0.922 -1.498 4.255
 0.949 -1.5 4.255
 0.976 -1.502 4.256
 1.002 -1.503 4.253
 1.029 -1.505 4.251
 1.056 -1.506 4.248
 1.083 -1.508 4.248
 1.11 -1.509 4.244
 1.137 -1.511 4.245
 1.166 -1.514 4.246
 1.193 -1.515 4.244
 1.22 -1.517 4.241
 1.248 -1.52 4.243
 1.276 -1.522 4.241
 1.304 -1.524 4.239
 1.333 -1.527 4.24
 1.361 -1.53 4.24
 1.39 -1.532 4.239
 1.419 -1.535 4.239
 1.447 -1.537 4.238
 1.475 -1.539 4.233
 1.503 -1.541 4.229
 1.533 -1.544 4.229
 1.56 -1.544 4.222
 1.587 -1.545 4.215
 1.616 -1.548 4.213
 1.645 -1.55 4.209
 1.673 -1.551 4.204
 1.702 -1.553 4.2
 1.73 -1.555 4.194
 1.757 -1.555 4.185
 1.783 -1.555 4.172
 1.803 -1.549 4.146
 1.823 -1.543 4.12
 1.836 -1.532 4.08
 1.848 -1.52 4.037
 1.856 -1.506 3.988
 1.868 -1.495 3.947
 1.873 -1.479 3.893
 1.884 -1.468 3.854
 0 0 0
 0 0 0
 0 0 0
 0 0 0
 0 0 0
 0 0 0
 1.753 -1.25 3.208
 1.77 -1.247 3.19
 1.785 -1.243 3.168
 1.798 -1.237 3.143
 1.81 -1.231 3.115
 1.818 -1.222 3.083
 0 0 0
 0 0 0
 -0.002 -0.003 -0.008
 -0.023 -0.016 0.027
 -0.943 -0.631 1.654
 -0.955 -0.646 1.7
 -0.94 -0.644 1.701
 -0.928 -0.644 1.705
 -1.007 -0.707 1.88
 -1.077 -0.766 2.043
 -1.062 -0.765 2.046
 -1.134 -0.827 2.221
 -1.201 -0.888 2.391
 -1.183 -0.886 2.394
 -1.332 -1.011 2.741
 -1.558 -1.199 3.262
 -1.534 -1.197 3.265
 -1.592 -1.259 3.445
 -1.725 -1.384 3.798
 -1.699 -1.383 3.803
 -1.671 -1.38 3.805
 -1.795 -1.505 4.16
 -1.842 -1.567 4.344
 -1.811 -1.565 4.347
 -1.78 -1.562 4.348
 -1.75 -1.56 4.353
 -1.719 -1.557 4.354
 -1.688 -1.554 4.354
 -1.657 -1.551 4.355
 -1.628 -1.549 4.359
 -1.597 -1.547 4.36
 -1.566 -1.543 4.357
 -1.535 -1.539 4.355
 -1.504 -1.536 4.355
 -1.473 -1.532 4.349
 -1.442 -1.529 4.348
 -1.413 -1.527 4.349
 -1.384 -1.524 4.349
 -1.354 -1.521 4.347
 -1.325 -1.519 4.348
 -1.295 -1.515 4.343
 -1.266 -1.512 4.342
 -1.236 -1.509 4.34
 -1.208 -1.507 4.339
 -1.179 -1.505 4.339
 -1.151 -1.503 4.339
 -1.123 -1.501 4.339
 -1.095 -1.499 4.339
 -1.066 -1.496 4.335
 -1.038 -1.494 4.335
 -1.011 -1.494 4.339
 -0.985 -1.493 4.342
 -0.956 -1.49 4.338
 -0.929 -1.489 4.338
 -0.901 -1.486 4.334
 -0.872 -1.482 4.328
 -0.845 -1.48 4.325
 -0.818 -1.479 4.327
 -0.791 -1.478 4.326
 -0.764 -1.477 4.326
 -0.738 -1.476 4.326
 -0.711 -1.474 4.324
 -0.683 -1.471 4.32
 -0.657 -1.471 4.323
 -0.631 -1.47 4.323
 -0.604 -1.468 4.319
 -0.578 -1.467 4.319
 -0.551 -1.466 4.319
 -0.525 -1.464 4.315
 -0.498 -1.463 4.315
 -0.473 -1.463 4.317
 -0.446 -1.462 4.315
 -0.42 -1.461 4.314
 -0.394 -1.46 4.313
 -0.368 -1.459 4.309
 -0.342 -1.457 4.305
 -0.315 -1.454 4.3
 -0.29 -1.454 4.299
 -0.264 -1.453 4.297
 -0.238 -1.452 4.296
 -0.212 -1.452 4.297
 -0.187 -1.452 4.298
 -0.161 -1.451 4.295
 -0.135 -1.451 4.293
 -0.11 -1.451 4.295
 -0.084 -1.451 4.296
 -0.059 -1.452 4.297
 -0.033 -1.452 4.297
 -0.008 -1.451 4.295
 0.017 -1.45 4.29
 0.042 -1.448 4.285
 0.068 -1.447 4.281
 0.093 -1.447 4.281
 0.119 -1.447 4.278
 0.144 -1.448 4.281
 0.17 -1.449 4.283
 0.196 -1.451 4.287
 0.221 -1.451 4.286
 0.247 -1.453 4.29
 0.273 -1.453 4.288
 0.298 -1.452 4.285
 0.323 -1.451 4.28
 0.349 -1.451 4.279
 0.374 -1.451 4.275
 0.4 -1.452 4.275
 0.426 -1.452 4.274
 0.451 -1.453 4.274
 0.477 -1.453 4.273
 0.503 -1.454 4.27
 0.528 -1.454 4.269
 0.554 -1.455 4.27
 0.58 -1.457 4.271
 0.606 -1.458 4.27
 0.632 -1.458 4.268
 0.658 -1.458 4.265
 0.683 -1.458 4.262
 0.709 -1.459 4.259
 0.735 -1.46 4.259
 0.762 -1.462 4.26
 0.789 -1.465 4.264
 0.815 -1.466 4.264
 0.842 -1.467 4.262
 0.868 -1.468 4.259
 0.894 -1.469 4.258
 0.921 -1.471 4.258
 0.947 -1.472 4.256
 0.974 -1.474 4.256
 1.001 -1.476 4.256
 1.028 -1.477 4.254
 1.054 -1.477 4.249
 1.082 -1.48 4.25
 1.109 -1.481 4.247
 1.137 -1.484 4.25
 1.165 -1.487 4.253
 1.193 -1.489 4.251
 1.22 -1.491 4.249
 1.248 -1.493 4.249
 1.276 -1.495 4.246
 1.303 -1.496 4.243
 1.332 -1.499 4.245
 1.36 -1.502 4.244
 1.388 -1.504 4.242
 1.417 -1.507 4.242
 1.446 -1.509 4.242
 1.474 -1.511 4.237
 1.502 -1.513 4.235
 1.532 -1.516 4.235
 1.56 -1.517 4.23
 1.588 -1.519 4.225
 1.617 -1.521 4.223
 1.646 -1.524 4.22
 1.674 -1.525 4.213
 1.702 -1.526 4.207
 1.729 -1.527 4.2
 1.757 -1.528 4.192
 1.782 -1.526 4.177
 1.802 -1.521 4.152
 1.823 -1.517 4.129
 1.839 -1.508 4.094
 1.85 -1.496 4.051
 1.864 -1.486 4.014
 1.879 -1.478 3.98
 1.886 -1.463 3.928
 0 0 0
 0 0 0
 0 0 0
 0 0 0
 0 0 0
 0 0 0
 0 0 0
 1.504 -1.055 2.758
 1.765 -1.222 3.187
 1.788 -1.223 3.18
 1.805 -1.22 3.162
 1.82 -1.216 3.139
 1.834 -1.212 3.118
 0 0 0
 0 0 0
 -0.041 -0.028 0.058
 -0.061 -0.041 0.094
 -0.464 -0.305 0.809
 -0.517 -0.344 0.917
 -0.504 -0.34 0.908
 -0.496 -0.339 0.907
 -0.576 -0.398 1.072
 -0.648 -0.453 1.228
 -0.638 -0.452 1.227
 -0.801 -0.574 1.569
 -0.873 -0.634 1.738
 -0.943 -0.694 1.91
 -1.095 -0.817 2.256
 -1.323 -1 2.773
 -1.303 -0.998 2.776
 -1.442 -1.12 3.126
 -1.577 -1.243 3.477
 -1.63 -1.303 3.656
 -1.679 -1.362 3.831
 -1.801 -1.483 4.182
 -1.848 -1.544 4.367
 -1.816 -1.541 4.367
 -1.784 -1.538 4.368
 -1.754 -1.536 4.372
 -1.722 -1.532 4.371
 -1.69 -1.528 4.368
 -1.659 -1.525 4.369
 -1.629 -1.523 4.371
 -1.598 -1.52 4.37
 -1.567 -1.516 4.368
 -1.535 -1.513 4.366
 -1.505 -1.509 4.364
 -1.473 -1.505 4.359
 -1.443 -1.502 4.357
 -1.413 -1.5 4.358
 -1.384 -1.497 4.358
 -1.354 -1.493 4.354
 -1.324 -1.491 4.353
 -1.294 -1.487 4.349
 -1.264 -1.484 4.347
 -1.235 -1.481 4.343
 -1.207 -1.479 4.343
 -1.178 -1.477 4.343
 -1.15 -1.474 4.342
 -1.121 -1.472 4.341
 -1.094 -1.471 4.342
 -1.065 -1.468 4.338
 -1.037 -1.466 4.338
 -1.01 -1.465 4.341
 -0.983 -1.464 4.342
 -0.954 -1.461 4.338
 -0.927 -1.46 4.338
 -0.9 -1.458 4.338
 -0.872 -1.456 4.334
 -0.844 -1.453 4.331
 -0.818 -1.453 4.333
 -0.791 -1.451 4.332
 -0.763 -1.449 4.328
 -0.736 -1.447 4.326
 -0.709 -1.445 4.324
 -0.682 -1.443 4.321
 -0.656 -1.443 4.323
 -0.629 -1.441 4.322
 -0.603 -1.439 4.318
 -0.576 -1.438 4.317
 -0.55 -1.437 4.315
 -0.524 -1.436 4.315
 -0.498 -1.436 4.316
 -0.472 -1.436 4.318
 -0.446 -1.435 4.32
 -0.42 -1.434 4.317
 -0.393 -1.432 4.314
 -0.367 -1.431 4.312
 -0.341 -1.43 4.308
 -0.315 -1.427 4.302
 -0.289 -1.427 4.303
 -0.264 -1.426 4.301
 -0.238 -1.425 4.298
 -0.212 -1.425 4.299
 -0.186 -1.425 4.299
 -0.161 -1.423 4.295
 -0.135 -1.423 4.295
 -0.11 -1.423 4.295
 -0.084 -1.423 4.295
 -0.059 -1.424 4.296
 -0.033 -1.424 4.299
 -0.007 -1.424 4.298
 0.017 -1.424 4.297
 0.043 -1.423 4.295
 0.068 -1.423 4.292
 0.094 -1.423 4.292
 0.119 -1.423 4.29
 0.145 -1.424 4.292
 0.17 -1.424 4.294
 0.196 -1.425 4.293
 0.221 -1.423 4.287
 0.247 -1.424 4.286
 0.272 -1.424 4.287
 0.298 -1.424 4.283
 0.323 -1.423 4.28
 0.349 -1.425 4.285
 0.375 -1.426 4.285
 0.4 -1.425 4.28
 0.426 -1.426 4.28
 0.452 -1.428 4.283
 0.477 -1.427 4.277
 0.502 -1.427 4.274
 0.528 -1.428 4.274
 0.554 -1.429 4.274
 0.58 -1.429 4.273
 0.606 -1.431 4.273
 0.632 -1.432 4.273
 0.658 -1.432 4.272
 0.683 -1.433 4.269
 0.709 -1.434 4.268
 0.736 -1.435 4.268
 0.762 -1.436 4.267
 0.789 -1.438 4.268
 0.815 -1.439 4.267
 0.841 -1.44 4.266
 0.867 -1.441 4.263
 0.894 -1.442 4.262
 0.921 -1.444 4.264
 0.947 -1.446 4.262
 0.974 -1.447 4.26
 1.001 -1.448 4.26
 1.027 -1.45 4.258
 1.054 -1.451 4.256
 1.081 -1.452 4.254
 1.109 -1.455 4.254
 1.137 -1.458 4.257
 1.165 -1.461 4.259
 1.192 -1.462 4.256
 1.22 -1.464 4.255
 1.248 -1.466 4.255
 1.275 -1.467 4.251
 1.302 -1.469 4.248
 1.331 -1.471 4.248
 1.359 -1.473 4.247
 1.387 -1.475 4.244
 1.416 -1.478 4.246
 1.444 -1.481 4.244
 1.473 -1.483 4.242
 1.501 -1.485 4.24
 1.532 -1.489 4.242
 1.559 -1.49 4.237
 1.588 -1.492 4.234
 1.617 -1.494 4.231
 1.646 -1.497 4.228
 1.674 -1.498 4.222
 1.702 -1.5 4.216
 1.73 -1.501 4.209
 1.759 -1.502 4.204
 1.783 -1.5 4.188
 1.804 -1.496 4.165
 1.825 -1.492 4.142
 1.843 -1.485 4.112
 1.855 -1.473 4.069
 1.871 -1.465 4.037
 1.887 -1.458 4.004
 0 0 0
 0 0 0
 0 0 0
 0 0 0
 0.058 -0.045 0.106
 0.058 -0.045 0.106
 0.059 -0.045 0.105
 0.397 -0.28 0.736
 1.273 -0.877 2.338
 1.771 -1.204 3.205
 1.796 -1.207 3.201
 1.814 -1.205 3.185
 1.834 -1.204 3.171
 1.74 -1.13 2.964
 0 0 0
 0 0 0
 0 0 0
 -0.119 -0.077 0.195
 -0.075 -0.05 0.12
 -0.071 -0.048 0.116
 -0.063 -0.043 0.103
 -0.057 -0.04 0.093
 -0.14 -0.096 0.252
 -0.218 -0.151 0.406
 -0.211 -0.148 0.399
 -0.376 -0.266 0.732
 -0.453 -0.324 0.897
 -0.527 -0.381 1.063
 -0.683 -0.5 1.404
 -0.998 -0.741 2.093
 -1.064 -0.801 2.27
 -1.287 -0.982 2.794
 -1.503 -1.163 3.321
 -1.634 -1.283 3.672
 -1.681 -1.339 3.845
 -1.803 -1.458 4.196
 -1.847 -1.516 4.375
 -1.815 -1.512 4.374
 -1.783 -1.509 4.374
 -1.753 -1.507 4.378
 -1.721 -1.503 4.376
 -1.689 -1.5 4.376
 -1.659 -1.498 4.377
 -1.628 -1.495 4.377
 -1.597 -1.492 4.377
 -1.566 -1.488 4.374
 -1.535 -1.485 4.373
 -1.504 -1.481 4.37
 -1.473 -1.478 4.368
 -1.442 -1.474 4.363
 -1.412 -1.471 4.362
 -1.383 -1.469 4.362
 -1.352 -1.465 4.357
 -1.321 -1.461 4.353
 -1.292 -1.458 4.349
 -1.262 -1.455 4.348
 -1.232 -1.451 4.341
 -1.204 -1.449 4.343
 -1.176 -1.448 4.344
 -1.148 -1.445 4.343
 -1.12 -1.444 4.344
 -1.092 -1.443 4.345
 -1.064 -1.44 4.343
 -1.036 -1.439 4.343
 -1.009 -1.438 4.347
 -0.982 -1.436 4.345
 -0.953 -1.433 4.341
 -0.925 -1.431 4.339
 -0.898 -1.429 4.336
 -0.87 -1.426 4.331
 -0.843 -1.425 4.333
 -0.816 -1.425 4.334
 -0.79 -1.423 4.335
 -0.763 -1.422 4.334
 -0.736 -1.421 4.333
 -0.708 -1.418 4.328
 -0.682 -1.417 4.328
 -0.656 -1.416 4.328
 -0.629 -1.415 4.326
 -0.602 -1.413 4.323
 -0.576 -1.411 4.322
 -0.549 -1.41 4.319
 -0.523 -1.409 4.32
 -0.497 -1.409 4.321
 -0.471 -1.409 4.323
 -0.445 -1.409 4.324
 -0.419 -1.407 4.321
 -0.393 -1.405 4.317
 -0.367 -1.404 4.314
 -0.341 -1.402 4.308
 -0.314 -1.399 4.301
 -0.289 -1.4 4.305
 -0.263 -1.399 4.302
 -0.237 -1.397 4.299
 -0.212 -1.398 4.302
 -0.186 -1.398 4.301
 -0.16 -1.396 4.296
 -0.135 -1.395 4.294
 -0.109 -1.395 4.296
 -0.084 -1.396 4.298
 -0.058 -1.397 4.302
 -0.033 -1.399 4.305
 -0.007 -1.4 4.309
 0.017 -1.4 4.308
 0.043 -1.398 4.302
 0.068 -1.397 4.298
 0.094 -1.398 4.3
 0.119 -1.397 4.297
 0.145 -1.398 4.299
 0.17 -1.399 4.301
 0.196 -1.399 4.3
 0.221 -1.396 4.289
 0.247 -1.397 4.291
 0.272 -1.398 4.293
 0.298 -1.398 4.289
 0.323 -1.397 4.287
 0.349 -1.401 4.296
 0.375 -1.401 4.295
 0.4 -1.4 4.287
 0.426 -1.401 4.288
 0.452 -1.403 4.292
 0.477 -1.4 4.282
 0.502 -1.401 4.279
 0.528 -1.402 4.281
 0.554 -1.403 4.281
 0.58 -1.404 4.28
 0.606 -1.405 4.282
 0.633 -1.407 4.283
 0.658 -1.407 4.281
 0.684 -1.408 4.278
 0.71 -1.408 4.277
 0.736 -1.41 4.277
 0.762 -1.41 4.273
 0.788 -1.412 4.274
 0.815 -1.413 4.273
 0.841 -1.413 4.27
 0.866 -1.414 4.266
 0.894 -1.416 4.269
 0.921 -1.418 4.269
 0.948 -1.42 4.27
 0.974 -1.421 4.268
 1.001 -1.423 4.267
 1.028 -1.424 4.265
 1.055 -1.425 4.264
 1.081 -1.426 4.26
 1.108 -1.428 4.26
 1.137 -1.431 4.263
 1.164 -1.432 4.261
 1.192 -1.435 4.261
 1.219 -1.437 4.261
 1.247 -1.438 4.259
 1.274 -1.44 4.256
 1.302 -1.442 4.254
 1.329 -1.443 4.25
 1.357 -1.445 4.249
 1.385 -1.447 4.247
 1.413 -1.449 4.245
 1.442 -1.451 4.243
 1.47 -1.454 4.242
 1.499 -1.456 4.241
 1.529 -1.46 4.242
 1.557 -1.461 4.237
 1.586 -1.464 4.237
 1.615 -1.466 4.235
 1.645 -1.469 4.232
 1.672 -1.47 4.226
 1.7 -1.471 4.22
 1.729 -1.472 4.214
 1.758 -1.475 4.211
 1.783 -1.473 4.196
 1.807 -1.471 4.179
 1.83 -1.468 4.16
 1.849 -1.462 4.133
 1.863 -1.453 4.095
 1.882 -1.447 4.068
 0 0 0
 0 0 0
 0 0 0
 0 0 0
 0 0 0
 0.077 -0.058 0.144
 0.078 -0.058 0.144
 0.059 -0.044 0.106
 0.06 -0.044 0.105
 1.08 -0.731 1.986
 1.771 -1.183 3.213
 1.798 -1.187 3.212
 1.82 -1.187 3.202
 1.841 -1.187 3.19
 1.598 -1.019 2.726
 0 0 0
 0 0 0
 -0.109 -0.069 0.175
 -0.124 -0.079 0.204
 -0.092 -0.06 0.152
 -0.088 -0.057 0.145
 -0.079 -0.052 0.131
 -0.073 -0.049 0.123
 -0.065 -0.044 0.109
 -0.055 -0.038 0.092
 -0.046 -0.033 0.078
 -0.125 -0.088 0.235
 -0.117 -0.083 0.222
 -0.279 -0.199 0.557
 -0.52 -0.374 1.069
 -0.755 -0.55 1.583
 -0.985 -0.728 2.105
 -1.209 -0.906 2.629
 -1.425 -1.082 3.153
 -1.556 -1.199 3.504
 -1.682 -1.315 3.853
 -1.727 -1.371 4.027
 -1.847 -1.488 4.382
 -1.815 -1.485 4.383
 -1.782 -1.481 4.381
 -1.751 -1.478 4.382
 -1.719 -1.475 4.381
 -1.687 -1.471 4.38
 -1.656 -1.468 4.378
 -1.626 -1.465 4.38
 -1.595 -1.463 4.38
 -1.564 -1.459 4.378
 -1.533 -1.456 4.377
 -1.503 -1.453 4.376
 -1.472 -1.449 4.372
 -1.44 -1.445 4.367
 -1.41 -1.442 4.364
 -1.38 -1.44 4.364
 -1.349 -1.435 4.358
 -1.32 -1.433 4.356
 -1.291 -1.43 4.354
 -1.262 -1.428 4.355
 -1.232 -1.425 4.351
 -1.204 -1.423 4.353
 -1.177 -1.422 4.355
 -1.148 -1.419 4.352
 -1.12 -1.418 4.352
 -1.092 -1.416 4.353
 -1.064 -1.414 4.352
 -1.035 -1.411 4.348
 -1.009 -1.411 4.353
 -0.981 -1.409 4.349
 -0.952 -1.405 4.344
 -0.925 -1.404 4.344
 -0.897 -1.402 4.341
 -0.869 -1.399 4.336
 -0.843 -1.4 4.342
 -0.816 -1.398 4.342
 -0.789 -1.397 4.34
 -0.762 -1.395 4.339
 -0.735 -1.394 4.338
 -0.708 -1.391 4.331
 -0.681 -1.39 4.332
 -0.655 -1.389 4.331
 -0.628 -1.386 4.327
 -0.601 -1.384 4.323
 -0.574 -1.383 4.32
 -0.548 -1.381 4.318
 -0.522 -1.381 4.321
 -0.497 -1.382 4.325
 -0.471 -1.382 4.327
 -0.445 -1.383 4.33
 -0.419 -1.381 4.325
 -0.393 -1.379 4.322
 -0.367 -1.378 4.319
 -0.34 -1.376 4.314
 -0.314 -1.373 4.306
 -0.289 -1.374 4.31
 -0.263 -1.372 4.307
 -0.237 -1.37 4.302
 -0.211 -1.371 4.304
 -0.186 -1.371 4.306
 -0.16 -1.369 4.299
 -0.134 -1.368 4.295
 -0.109 -1.368 4.295
 -0.084 -1.368 4.296
 -0.058 -1.369 4.299
 -0.033 -1.371 4.305
 -0.007 -1.373 4.311
 0.017 -1.374 4.315
 0.043 -1.373 4.31
 0.068 -1.372 4.307
 0.094 -1.373 4.309
 0.119 -1.372 4.307
 0.145 -1.373 4.308
 0.171 -1.374 4.309
 0.196 -1.374 4.309
 0.221 -1.371 4.298
 0.247 -1.372 4.298
 0.272 -1.373 4.301
 0.298 -1.372 4.297
 0.323 -1.371 4.292
 0.349 -1.374 4.299
 0.375 -1.375 4.299
 0.4 -1.373 4.292
 0.426 -1.375 4.295
 0.453 -1.379 4.303
 0.477 -1.376 4.292
 0.503 -1.376 4.289
 0.529 -1.377 4.29
 0.554 -1.377 4.287
 0.58 -1.377 4.283
 0.606 -1.379 4.288
 0.633 -1.381 4.29
 0.659 -1.382 4.289
 0.684 -1.382 4.287
 0.71 -1.383 4.285
 0.736 -1.383 4.282
 0.761 -1.383 4.277
 0.788 -1.384 4.276
 0.814 -1.385 4.275
 0.84 -1.386 4.274
 0.867 -1.388 4.273
 0.894 -1.39 4.276
 0.921 -1.392 4.276
 0.948 -1.394 4.279
 0.974 -1.395 4.275
 1.001 -1.396 4.273
 1.027 -1.397 4.271
 1.054 -1.398 4.269
 1.079 -1.398 4.261
 1.107 -1.4 4.262
 1.135 -1.403 4.265
 1.163 -1.405 4.264
 1.19 -1.407 4.264
 1.219 -1.41 4.266
 1.245 -1.41 4.261
 1.273 -1.412 4.258
 1.3 -1.413 4.255
 1.327 -1.414 4.252
 1.356 -1.417 4.251
 1.384 -1.419 4.25
 1.412 -1.421 4.248
 1.441 -1.424 4.248
 1.469 -1.426 4.247
 1.498 -1.428 4.245
 1.528 -1.431 4.246
 1.556 -1.433 4.242
 1.584 -1.435 4.239
 1.613 -1.437 4.235
 1.642 -1.439 4.233
 1.67 -1.441 4.228
 1.698 -1.442 4.221
 1.726 -1.443 4.216
 1.757 -1.447 4.215
 1.782 -1.445 4.201
 1.807 -1.444 4.187
 1.833 -1.444 4.175
 1.857 -1.442 4.159
 1.868 -1.43 4.114
 0 0 0
 0 0 0
 0 0 0
 0 0 0
 0 0 0
 0.101 -0.074 0.194
 0.091 -0.067 0.173
 0.093 -0.067 0.173
 0.081 -0.058 0.147
 0.06 -0.044 0.106
 0.913 -0.608 1.682
 1.771 -1.161 3.218
 1.803 -1.168 3.228
 1.824 -1.168 3.216
 1.845 -1.168 3.204
 1.502 -0.94 2.568
 0 0 0
 0.368 -0.228 0.605
 -0.128 -0.079 0.208
 -0.134 -0.084 0.223
 -0.108 -0.068 0.18
 -0.099 -0.063 0.166
 -0.088 -0.058 0.15
 -0.082 -0.054 0.14
 -0.071 -0.048 0.122
 -0.059 -0.04 0.101
 -0.052 -0.036 0.088
 -0.13 -0.089 0.245
 -0.12 -0.084 0.23
 -0.281 -0.197 0.564
 -0.521 -0.368 1.074
 -0.755 -0.541 1.588
 -0.985 -0.714 2.109
 -1.287 -0.946 2.807
 -1.501 -1.119 3.331
 -1.632 -1.234 3.684
 -1.756 -1.347 4.033
 -1.801 -1.402 4.207
 -1.845 -1.458 4.386
 -1.813 -1.455 4.386
 -1.78 -1.451 4.383
 -1.748 -1.448 4.384
 -1.717 -1.445 4.383
 -1.684 -1.441 4.38
 -1.653 -1.438 4.38
 -1.623 -1.436 4.382
 -1.593 -1.433 4.381
 -1.562 -1.43 4.381
 -1.531 -1.427 4.38
 -1.501 -1.424 4.379
 -1.47 -1.42 4.374
 -1.439 -1.417 4.371
 -1.409 -1.414 4.368
 -1.38 -1.412 4.369
 -1.349 -1.408 4.363
 -1.32 -1.406 4.363
 -1.291 -1.403 4.363
 -1.262 -1.402 4.364
 -1.232 -1.398 4.358
 -1.205 -1.397 4.361
 -1.177 -1.396 4.364
 -1.148 -1.393 4.359
 -1.12 -1.391 4.359
 -1.092 -1.39 4.361
 -1.064 -1.388 4.361
