 -1.117 -1.626 4.039
 -1.091 -1.625 4.041
 -1.058 -1.613 4.018
 -1.032 -1.612 4.02
 -1.012 -1.62 4.044
 -0.99 -1.625 4.064
 -0.955 -1.608 4.026
 -0.93 -1.609 4.032
 -0.897 -1.595 4.001
 -0.885 -1.618 4.064
 -0.859 -1.616 4.063
 -0.845 -1.638 4.123
 -0.812 -1.622 4.086
 -0.778 -1.604 4.045
 -0.758 -1.615 4.077
 -0.733 -1.614 4.079
 -0.714 -1.628 4.117
 -0.679 -1.606 4.065
 -0.659 -1.616 4.093
 -0.632 -1.612 4.087
 -0.607 -1.612 4.089
 -0.584 -1.617 4.103
 -0.561 -1.624 4.124
 -0.538 -1.629 4.14
 -0.512 -1.627 4.137
 -0.488 -1.631 4.149
 -0.458 -1.615 4.111
 -0.434 -1.62 4.124
 -0.412 -1.629 4.151
 -0.381 -1.606 4.092
 -0.36 -1.625 4.143
 -0.336 -1.631 4.159
 -0.309 -1.618 4.129
 -0.284 -1.62 4.135
 -0.259 -1.619 4.133
 -0.234 -1.62 4.135
 -0.209 -1.618 4.133
 -0.182 -1.607 4.105
 -0.159 -1.626 4.153
 -0.134 -1.619 4.137
 -0.109 -1.623 4.147
 -0.084 -1.623 4.146
 -0.059 -1.615 4.126
 -0.033 -1.606 4.104
 -0.009 -1.633 4.172
 0.015 -1.62 4.138
 0.04 -1.614 4.123
 0.066 -1.629 4.162
 0.091 -1.627 4.155
 0.115 -1.613 4.118
 0.14 -1.615 4.121
 0.165 -1.62 4.135
 0.19 -1.615 4.12
 0.216 -1.626 4.147
 0.241 -1.624 4.142
 0.266 -1.624 4.139
 0.291 -1.623 4.135
 0.314 -1.614 4.109
 0.341 -1.626 4.139
 0.366 -1.623 4.129
 0.39 -1.623 4.126
 0.415 -1.62 4.115
 0.436 -1.605 4.076
 0.464 -1.617 4.103
 0.489 -1.618 4.104
 0.517 -1.627 4.124
 0.537 -1.613 4.085
 0.565 -1.621 4.102
 0.594 -1.635 4.133
 0.616 -1.625 4.105
 0.637 -1.615 4.075
 0.666 -1.625 4.097
 0.686 -1.613 4.064
 0.713 -1.62 4.077
 0.743 -1.63 4.099
 0.767 -1.628 4.088
 0.79 -1.623 4.072
 0.812 -1.619 4.057
 0.835 -1.614 4.04
 0.868 -1.629 4.073
 0.888 -1.621 4.048
 0.921 -1.636 4.079
 0.936 -1.618 4.031
 0.968 -1.63 4.054
 0.988 -1.622 4.029
 1.018 -1.63 4.042
 1.043 -1.63 4.037
 1.06 -1.618 4.001
 1.096 -1.635 4.037
 1.126 -1.642 4.048
 1.149 -1.639 4.034
 1.163 -1.624 3.99
 1.194 -1.632 4.003
 1.22 -1.633 4
 1.247 -1.636 3.998
 1.271 -1.634 3.986
 1.292 -1.629 3.967
 1.337 -1.654 4.02
 1.349 -1.638 3.975
 1.379 -1.644 3.981
 1.401 -1.64 3.963
 1.42 -1.634 3.939
 1.449 -1.637 3.94
 1.461 -1.623 3.896
 1.5 -1.639 3.926
 1.501 -1.613 3.855
 1.558 -1.647 3.927
 1.568 -1.631 3.88
 1.605 -1.643 3.9
 1.624 -1.637 3.876
 1.647 -1.635 3.861
 1.668 -1.631 3.842
 1.693 -1.632 3.834
 1.728 -1.641 3.845
 1.731 -1.621 3.787
 1.772 -1.636 3.811
 1.786 -1.626 3.778
 1.814 -1.628 3.773
 1.848 -1.636 3.78
 1.864 -1.629 3.751
 1.86 -1.604 3.684
 1.89 -1.609 3.683
 1.869 -1.571 3.584
 1.88 -1.56 3.548
 1.859 -1.523 3.452
 1.875 -1.518 3.429
 1.872 -1.497 3.37
 1.9 -1.5 3.367
 1.823 -1.423 3.182
 1.856 -1.432 3.19
 1.874 -1.429 3.172
 1.864 -1.405 3.107
 1.84 -1.371 3.02
 1.827 -1.346 2.954
 -2.228 -1.634 3.741
 -2.199 -1.632 3.748
 -2.174 -1.633 3.764
 -2.165 -1.646 3.805
 -2.115 -1.627 3.774
 -2.08 -1.621 3.771
 -2.043 -1.611 3.761
 -2.047 -1.635 3.828
 -2 -1.618 3.799
 -1.959 -1.606 3.783
 -1.966 -1.632 3.856
 -1.924 -1.619 3.836
 -1.919 -1.637 3.889
 -1.877 -1.623 3.867
 -1.844 -1.616 3.862
 -1.836 -1.632 3.91
 -1.828 -1.648 3.959
 -1.787 -1.635 3.937
 -1.758 -1.632 3.939
 -1.731 -1.631 3.946
 -1.702 -1.628 3.949
 -1.673 -1.624 3.95
 -1.633 -1.61 3.925
 -1.632 -1.635 3.993
 -1.614 -1.643 4.022
 -1.566 -1.62 3.975
 -1.548 -1.628 4.003
 -1.507 -1.612 3.973
 -1.486 -1.617 3.993
 -1.453 -1.609 3.98
 -1.448 -1.632 4.044
 -1.411 -1.619 4.022
 -1.388 -1.622 4.036
 -1.354 -1.612 4.017
 -1.334 -1.619 4.043
 -1.306 -1.616 4.042
 -1.287 -1.624 4.067
 -1.26 -1.622 4.071
 -1.23 -1.616 4.062
 -1.204 -1.616 4.067
 -1.181 -1.62 4.083
 -1.155 -1.619 4.088
 -1.14 -1.634 4.131
 -1.098 -1.61 4.076
 -1.074 -1.612 4.088
 -1.049 -1.612 4.094
 -1.026 -1.617 4.11
 -1.003 -1.621 4.126
 -0.967 -1.604 4.088
 -0.953 -1.623 4.141
 -0.926 -1.62 4.138
 -0.893 -1.607 4.108
 -0.873 -1.617 4.139
 -0.849 -1.62 4.15
 -0.823 -1.62 4.154
 -0.792 -1.608 4.128
 -0.774 -1.622 4.169
 -0.744 -1.613 4.148
 -0.717 -1.609 4.142
 -0.693 -1.614 4.158
 -0.665 -1.608 4.146
 -0.64 -1.607 4.145
 -0.617 -1.614 4.165
 -0.591 -1.613 4.166
 -0.57 -1.625 4.2
 -0.537 -1.603 4.145
 -0.515 -1.612 4.171
 -0.488 -1.606 4.158
 -0.462 -1.605 4.159
 -0.442 -1.624 4.208
 -0.414 -1.613 4.183
 -0.388 -1.613 4.184
 -0.364 -1.615 4.192
 -0.341 -1.629 4.229
 -0.31 -1.599 4.152
 -0.285 -1.602 4.16
 -0.261 -1.607 4.175
 -0.237 -1.616 4.201
 -0.213 -1.627 4.23
 -0.185 -1.604 4.17
 -0.16 -1.608 4.182
 -0.135 -1.606 4.177
 -0.11 -1.609 4.185
 -0.085 -1.615 4.201
 -0.059 -1.597 4.154
 -0.034 -1.591 4.138
 -0.009 -1.61 4.186
 0.016 -1.61 4.185
 0.041 -1.616 4.201
 0.066 -1.616 4.2
 0.091 -1.61 4.184
 0.117 -1.617 4.202
 0.143 -1.62 4.21
 0.167 -1.61 4.182
 0.194 -1.622 4.212
 0.217 -1.61 4.178
 0.242 -1.604 4.163
 0.268 -1.612 4.182
 0.294 -1.616 4.189
 0.317 -1.604 4.156
 0.345 -1.616 4.186
 0.366 -1.599 4.139
 0.396 -1.621 4.194
 0.418 -1.607 4.157
 0.446 -1.617 4.178
 0.472 -1.619 4.181
 0.49 -1.596 4.12
 0.517 -1.602 4.132
 0.547 -1.617 4.167
 0.569 -1.608 4.142
 0.595 -1.612 4.147
 0.622 -1.616 4.156
 0.652 -1.626 4.177
 0.671 -1.611 4.135
 0.697 -1.615 4.141
 0.727 -1.624 4.16
 0.749 -1.617 4.139
 0.769 -1.607 4.108
 0.798 -1.614 4.123
 0.825 -1.618 4.128
 0.85 -1.617 4.12
 0.872 -1.613 4.104
 0.898 -1.614 4.101
 0.925 -1.616 4.102
 0.956 -1.626 4.122
 0.98 -1.624 4.113
 1.001 -1.617 4.088
 1.035 -1.632 4.12
 1.054 -1.621 4.088
 1.078 -1.619 4.076
 1.108 -1.627 4.089
 1.134 -1.628 4.085
 1.156 -1.622 4.065
 1.191 -1.637 4.094
 1.213 -1.631 4.074
 1.242 -1.637 4.081
 1.274 -1.645 4.094
 1.288 -1.63 4.048
 1.306 -1.621 4.02
 1.332 -1.622 4.014
 1.365 -1.632 4.03
 1.396 -1.638 4.038
 1.42 -1.636 4.025
 1.44 -1.63 4.002
 1.477 -1.644 4.027
 1.48 -1.619 3.957
 1.524 -1.639 3.998
 1.547 -1.636 3.981
 1.574 -1.638 3.978
 1.59 -1.628 3.943
 1.613 -1.626 3.928
 1.636 -1.624 3.915
 1.672 -1.634 3.929
 1.686 -1.623 3.893
 1.727 -1.638 3.919
 1.748 -1.634 3.898
 1.762 -1.624 3.863
 1.783 -1.62 3.844
 1.813 -1.625 3.844
 1.846 -1.632 3.849
 1.865 -1.626 3.825
 1.871 -1.61 3.775
 1.882 -1.598 3.735
 1.914 -1.604 3.739
 1.884 -1.559 3.621
 1.883 -1.538 3.562
 1.875 -1.513 3.492
 1.881 -1.499 3.448
 1.885 -1.484 3.402
 0 0 0
 0 0 0
 1.838 -1.396 3.167
 1.857 -1.394 3.151
 1.874 -1.391 3.133
 1.857 -1.362 3.057
 1.824 -1.324 2.958
 -2.257 -1.629 3.8
 -2.234 -1.632 3.818
 -2.211 -1.634 3.837
 -2.167 -1.621 3.819
 -2.138 -1.619 3.826
 -2.119 -1.625 3.852
 -2.1 -1.63 3.876
 -2.062 -1.621 3.867
 -2.024 -1.612 3.856
 -2.014 -1.624 3.898
 -1.991 -1.627 3.916
 -1.956 -1.62 3.909
 -1.94 -1.628 3.941
 -1.906 -1.622 3.937
 -1.88 -1.622 3.948
 -1.852 -1.62 3.954
 -1.821 -1.616 3.954
 -1.821 -1.64 4.022
 -1.779 -1.625 3.997
 -1.763 -1.635 4.031
 -1.725 -1.624 4.013
 -1.698 -1.623 4.02
 -1.657 -1.609 3.993
 -1.638 -1.616 4.02
 -1.618 -1.621 4.042
 -1.593 -1.622 4.053
 -1.558 -1.614 4.04
 -1.542 -1.624 4.074
 -1.512 -1.619 4.071
 -1.487 -1.621 4.083
 -1.467 -1.627 4.106
 -1.429 -1.614 4.083
 -1.409 -1.621 4.108
 -1.396 -1.636 4.152
 -1.361 -1.626 4.135
 -1.325 -1.614 4.111
 -1.307 -1.623 4.141
 -1.27 -1.61 4.114
 -1.249 -1.615 4.134
 -1.226 -1.619 4.151
 -1.183 -1.597 4.098
 -1.152 -1.589 4.085
 -1.15 -1.622 4.177
 -1.115 -1.61 4.152
 -1.092 -1.614 4.167
 -1.061 -1.605 4.15
 -1.037 -1.609 4.166
 -1.016 -1.617 4.191
 -0.982 -1.604 4.161
 -0.957 -1.604 4.167
 -0.932 -1.605 4.174
 -0.906 -1.605 4.178
 -0.886 -1.616 4.211
 -0.857 -1.61 4.199
 -0.831 -1.609 4.2
 -0.806 -1.611 4.21
 -0.775 -1.6 4.186
 -0.752 -1.605 4.202
 -0.723 -1.598 4.188
 -0.7 -1.603 4.204
 -0.676 -1.609 4.223
 -0.646 -1.597 4.194
 -0.623 -1.604 4.215
 -0.594 -1.596 4.197
 -0.57 -1.6 4.21
 -0.547 -1.606 4.229
 -0.52 -1.604 4.226
 -0.495 -1.606 4.234
 -0.468 -1.602 4.225
 -0.445 -1.61 4.247
 -0.416 -1.597 4.217
 -0.394 -1.613 4.259
 -0.368 -1.611 4.255
 -0.339 -1.592 4.208
 -0.317 -1.611 4.26
 -0.289 -1.6 4.232
 -0.264 -1.605 4.247
 -0.24 -1.612 4.264
 -0.212 -1.596 4.224
 -0.187 -1.601 4.236
 -0.161 -1.595 4.222
 -0.136 -1.599 4.233
 -0.111 -1.605 4.248
 -0.085 -1.601 4.239
 -0.059 -1.596 4.226
 -0.034 -1.602 4.24
 -0.009 -1.608 4.257
 0.016 -1.609 4.258
 0.042 -1.613 4.269
 0.067 -1.599 4.23
 0.092 -1.596 4.223
 0.119 -1.614 4.27
 0.144 -1.609 4.256
 0.17 -1.608 4.251
 0.194 -1.599 4.227
 0.22 -1.601 4.229
 0.246 -1.605 4.24
 0.27 -1.599 4.223
 0.296 -1.603 4.23
 0.322 -1.604 4.233
 0.348 -1.607 4.238
 0.372 -1.6 4.216
 0.402 -1.619 4.264
 0.422 -1.597 4.204
 0.448 -1.599 4.207
 0.476 -1.607 4.225
 0.502 -1.61 4.231
 0.525 -1.602 4.207
 0.553 -1.608 4.219
 0.581 -1.615 4.235
 0.603 -1.607 4.21
 0.629 -1.607 4.207
 0.654 -1.607 4.202
 0.685 -1.618 4.228
 0.704 -1.604 4.188
 0.737 -1.62 4.226
 0.766 -1.627 4.238
 0.782 -1.609 4.187
 0.808 -1.608 4.181
 0.831 -1.604 4.165
 0.868 -1.626 4.219
 0.887 -1.613 4.179
 0.912 -1.613 4.174
 0.939 -1.615 4.174
 0.962 -1.61 4.157
 0.989 -1.613 4.159
 1.018 -1.619 4.168
 1.041 -1.615 4.151
 1.076 -1.628 4.18
 1.093 -1.616 4.143
 1.125 -1.625 4.158
 1.148 -1.621 4.143
 1.168 -1.614 4.118
 1.19 -1.609 4.098
 1.224 -1.621 4.121
 1.245 -1.614 4.098
 1.275 -1.619 4.104
 1.31 -1.632 4.128
 1.332 -1.627 4.108
 1.358 -1.627 4.101
 1.387 -1.632 4.105
 1.41 -1.629 4.088
 1.434 -1.626 4.073
 1.458 -1.625 4.062
 1.488 -1.63 4.065
 1.518 -1.634 4.068
 1.526 -1.615 4.011
 1.575 -1.64 4.063
 1.585 -1.624 4.014
 1.613 -1.626 4.01
 1.639 -1.626 4.001
 1.653 -1.615 3.965
 1.691 -1.627 3.983
 1.724 -1.634 3.99
 1.748 -1.633 3.977
 1.767 -1.626 3.95
 1.796 -1.63 3.949
 1.818 -1.626 3.929
 1.842 -1.625 3.915
 1.843 -1.603 3.852
 1.876 -1.61 3.858
 1.893 -1.603 3.829
 1.875 -1.567 3.731
 1.889 -1.558 3.699
 1.895 -1.543 3.651
 1.897 -1.525 3.598
 1.884 -1.496 3.516
 1.902 -1.491 3.495
 0 0 0
 0 0 0
 0 0 0
 1.825 -1.364 3.153
 1.867 -1.38 3.177
 1.875 -1.369 3.141
 1.848 -1.334 3.05
 1.842 -1.316 2.995
 -2.273 -1.614 3.836
 -2.218 -1.594 3.801
 -2.221 -1.616 3.865
 -2.208 -1.625 3.901
 -2.175 -1.621 3.903
 -2.12 -1.599 3.863
 -2.141 -1.636 3.964
 -2.083 -1.612 3.917
 -2.074 -1.625 3.962
 -2.019 -1.603 3.919
 -2.033 -1.635 4.009
 -1.984 -1.617 3.976
 -1.959 -1.618 3.991
 -1.92 -1.608 3.975
 -1.911 -1.622 4.022
 -1.895 -1.631 4.055
 -1.861 -1.625 4.051
 -1.811 -1.605 4.01
 -1.82 -1.636 4.098
 -1.788 -1.631 4.096
 -1.756 -1.626 4.093
 -1.729 -1.626 4.104
 -1.686 -1.611 4.074
 -1.663 -1.613 4.089
 -1.641 -1.618 4.11
 -1.619 -1.622 4.13
 -1.59 -1.62 4.132
 -1.547 -1.603 4.097
 -1.553 -1.637 4.193
 -1.503 -1.611 4.135
 -1.475 -1.61 4.14
 -1.451 -1.612 4.153
 -1.416 -1.603 4.137
 -1.401 -1.616 4.178
 -1.373 -1.613 4.179
 -1.353 -1.621 4.206
 -1.318 -1.611 4.187
 -1.293 -1.612 4.197
 -1.266 -1.612 4.203
 -1.235 -1.606 4.193
 -1.199 -1.592 4.164
 -1.182 -1.605 4.204
 -1.155 -1.604 4.205
 -1.12 -1.592 4.179
 -1.104 -1.605 4.221
 -1.074 -1.6 4.213
 -1.044 -1.593 4.2
 -1.027 -1.608 4.243
 -0.995 -1.599 4.225
 -0.96 -1.584 4.19
 -0.95 -1.61 4.265
 -0.916 -1.598 4.236
 -0.895 -1.607 4.264
 -0.866 -1.601 4.252
 -0.836 -1.593 4.236
 -0.817 -1.608 4.28
 -0.791 -1.606 4.279
 -0.764 -1.605 4.28
 -0.731 -1.59 4.244
 -0.711 -1.604 4.283
 -0.682 -1.598 4.27
 -0.657 -1.599 4.278
 -0.626 -1.586 4.246
 -0.599 -1.584 4.241
 -0.568 -1.569 4.204
 -0.547 -1.581 4.239
 -0.52 -1.576 4.229
 -0.496 -1.582 4.247
 -0.47 -1.583 4.252
 -0.445 -1.585 4.26
 -0.42 -1.587 4.266
 -0.394 -1.584 4.26
 -0.366 -1.574 4.235
 -0.341 -1.577 4.244
 -0.316 -1.583 4.26
 -0.29 -1.579 4.252
 -0.262 -1.566 4.216
 -0.237 -1.57 4.23
 -0.214 -1.583 4.265
 -0.188 -1.583 4.266
 -0.162 -1.583 4.267
 -0.135 -1.57 4.231
 -0.111 -1.588 4.281
 -0.085 -1.572 4.238
 -0.059 -1.577 4.252
 -0.034 -1.567 4.224
 -0.008 -1.573 4.24
 0.016 -1.577 4.251
 0.042 -1.581 4.262
 0.067 -1.579 4.254
 0.093 -1.575 4.242
 0.117 -1.564 4.212
 0.143 -1.566 4.217
 0.169 -1.58 4.253
 0.194 -1.569 4.223
 0.22 -1.576 4.239
 0.246 -1.58 4.25
 0.271 -1.574 4.231
 0.298 -1.584 4.258
 0.324 -1.585 4.258
 0.346 -1.572 4.221
 0.375 -1.587 4.258
 0.399 -1.578 4.232
 0.424 -1.577 4.227
 0.451 -1.581 4.236
 0.477 -1.584 4.24
 0.502 -1.583 4.235
 0.529 -1.586 4.242
 0.552 -1.581 4.223
 0.579 -1.585 4.231
 0.605 -1.585 4.227
 0.63 -1.584 4.222
 0.658 -1.591 4.236
 0.681 -1.583 4.211
 0.708 -1.588 4.22
 0.737 -1.595 4.235
 0.756 -1.581 4.194
 0.784 -1.585 4.201
 0.813 -1.592 4.213
 0.841 -1.597 4.222
 0.865 -1.594 4.212
 0.898 -1.607 4.239
 0.924 -1.606 4.233
 0.944 -1.597 4.203
 0.974 -1.604 4.216
 0.999 -1.603 4.207
 1.033 -1.616 4.236
 1.051 -1.604 4.198
 1.077 -1.603 4.191
 1.102 -1.603 4.185
 1.127 -1.602 4.174
 1.165 -1.62 4.215
 1.181 -1.606 4.171
 1.213 -1.614 4.187
 1.244 -1.62 4.195
 1.266 -1.616 4.177
 1.295 -1.619 4.179
 1.321 -1.619 4.17
 1.343 -1.614 4.15
 1.373 -1.619 4.155
 1.413 -1.635 4.189
 1.431 -1.626 4.157
 1.453 -1.622 4.137
 1.47 -1.612 4.103
 1.504 -1.62 4.117
 1.528 -1.619 4.103
 1.561 -1.626 4.113
 1.58 -1.618 4.085
 1.607 -1.62 4.079
 1.635 -1.621 4.073
 1.67 -1.631 4.087
 1.684 -1.618 4.047
 1.712 -1.621 4.042
 1.726 -1.61 4.004
 1.755 -1.612 4
 1.797 -1.627 4.028
 1.811 -1.616 3.99
 1.851 -1.629 4.009
 1.871 -1.623 3.985
 1.875 -1.605 3.928
 1.887 -1.594 3.889
 1.898 -1.581 3.848
 1.888 -1.552 3.765
 1.88 -1.526 3.69
 1.902 -1.524 3.674
 1.901 -1.504 3.615
 1.899 -1.484 3.554
 0 0 0
 0 0 0
 0 0 0
 0 0 0
 1.788 -1.316 3.096
 1.846 -1.342 3.148
 1.874 -1.347 3.148
 1.843 -1.31 3.049
 1.843 -1.295 3.004
 -2.312 -1.616 3.913
 -2.283 -1.614 3.923
 -2.241 -1.604 3.91
 -2.239 -1.621 3.966
 -2.193 -1.608 3.945
 -2.183 -1.62 3.988
 -2.151 -1.616 3.991
 -2.14 -1.628 4.033
 -2.113 -1.628 4.046
 -2.076 -1.621 4.038
 -2.04 -1.614 4.033
 -2.022 -1.621 4.061
 -1.986 -1.614 4.056
 -1.971 -1.624 4.092
 -1.94 -1.62 4.095
 -1.905 -1.614 4.088
 -1.87 -1.606 4.079
 -1.855 -1.616 4.116
 -1.832 -1.62 4.135
 -1.801 -1.617 4.137
 -1.77 -1.613 4.136
 -1.758 -1.626 4.182
 -1.714 -1.61 4.149
 -1.693 -1.616 4.174
 -1.657 -1.607 4.16
 -1.629 -1.605 4.164
 -1.59 -1.594 4.142
 -1.583 -1.613 4.201
 -1.551 -1.608 4.196
 -1.527 -1.611 4.212
 -1.491 -1.601 4.195
 -1.461 -1.597 4.191
 -1.443 -1.607 4.225
 -1.423 -1.615 4.253
 -1.38 -1.596 4.211
 -1.36 -1.603 4.237
 -1.327 -1.596 4.224
 -1.299 -1.594 4.227
 -1.274 -1.596 4.238
 -1.26 -1.612 4.288
 -1.216 -1.59 4.234
 -1.194 -1.595 4.255
 -1.17 -1.598 4.269
 -1.14 -1.594 4.263
 -1.113 -1.592 4.265
 -1.089 -1.597 4.282
 -1.061 -1.593 4.278
 -1.035 -1.595 4.288
 -1.002 -1.584 4.262
 -0.974 -1.582 4.262
 -0.947 -1.579 4.259
 -0.923 -1.583 4.274
 -0.895 -1.579 4.27
 -0.869 -1.581 4.277
 -0.844 -1.582 4.284
 -0.812 -1.571 4.258
 -0.787 -1.574 4.27
 -0.759 -1.57 4.263
 -0.734 -1.571 4.271
 -0.702 -1.558 4.237
 -0.684 -1.576 4.29
 -0.655 -1.568 4.271
 -0.627 -1.564 4.262
 -0.602 -1.566 4.27
 -0.575 -1.563 4.265
 -0.55 -1.565 4.274
 -0.521 -1.555 4.25
 -0.498 -1.564 4.276
 -0.472 -1.564 4.277
 -0.446 -1.561 4.273
 -0.419 -1.559 4.267
 -0.395 -1.564 4.284
 -0.37 -1.567 4.294
 -0.343 -1.564 4.287
 -0.314 -1.549 4.246
 -0.292 -1.566 4.295
 -0.266 -1.564 4.29
 -0.239 -1.558 4.274
 -0.213 -1.557 4.271
 -0.187 -1.551 4.257
 -0.163 -1.565 4.294
 -0.136 -1.55 4.255
 -0.111 -1.558 4.277
 -0.084 -1.545 4.24
 -0.059 -1.552 4.261
 -0.034 -1.552 4.261
 -0.008 -1.555 4.268
 0.016 -1.551 4.258
 0.042 -1.548 4.248
 0.067 -1.549 4.251
 0.093 -1.553 4.261
 0.119 -1.557 4.27
 0.144 -1.551 4.254
 0.169 -1.552 4.255
 0.195 -1.551 4.251
 0.221 -1.555 4.26
 0.244 -1.542 4.224
 0.271 -1.553 4.251
 0.297 -1.554 4.254
 0.321 -1.548 4.234
 0.349 -1.557 4.258
 0.376 -1.562 4.268
 0.403 -1.567 4.281
 0.425 -1.556 4.248
 0.448 -1.548 4.223
 0.477 -1.559 4.251
 0.501 -1.555 4.236
 0.528 -1.557 4.239
 0.556 -1.564 4.256
 0.582 -1.565 4.254
 0.605 -1.559 4.236
 0.634 -1.568 4.256
 0.662 -1.572 4.263
 0.683 -1.563 4.234
 0.709 -1.563 4.232
 0.738 -1.569 4.244
 0.761 -1.566 4.23
 0.791 -1.573 4.246
 0.814 -1.568 4.227
 0.842 -1.572 4.234
 0.865 -1.568 4.217
 0.889 -1.565 4.207
 0.922 -1.578 4.235
 0.949 -1.58 4.236
 0.966 -1.566 4.191
 0.994 -1.57 4.197
 1.029 -1.584 4.228
 1.051 -1.577 4.206
 1.088 -1.594 4.244
 1.104 -1.58 4.2
 1.139 -1.593 4.229
 1.167 -1.595 4.229
 1.192 -1.594 4.219
 1.214 -1.588 4.196
 1.238 -1.586 4.184
 1.27 -1.594 4.198
 1.299 -1.598 4.2
 1.318 -1.589 4.17
 1.358 -1.606 4.205
 1.38 -1.6 4.184
 1.423 -1.62 4.228
 1.435 -1.604 4.177
 1.47 -1.613 4.193
 1.495 -1.612 4.182
 1.517 -1.608 4.162
 1.535 -1.599 4.129
 1.578 -1.616 4.165
 1.6 -1.613 4.147
 1.639 -1.625 4.168
 1.648 -1.607 4.114
 1.679 -1.612 4.117
 1.701 -1.608 4.096
 1.736 -1.617 4.108
 1.748 -1.604 4.065
 1.783 -1.611 4.073
 1.794 -1.598 4.029
 1.833 -1.61 4.047
 1.844 -1.596 4.003
 1.864 -1.591 3.979
 1.898 -1.598 3.985
 1.889 -1.569 3.902
 1.883 -1.543 3.826
 1.89 -1.529 3.779
 1.916 -1.53 3.769
 1.891 -1.49 3.66
 1.885 -1.467 3.591
 0 0 0
 0 0 0
 0 0 0
 0 0 0
 0 0 0
 0 0 0
 1.849 -1.323 3.162
 1.886 -1.334 3.177
 1.859 -1.3 3.083
 1.866 -1.29 3.049
 -2.321 -1.595 3.937
 -2.326 -1.617 4.006
 -2.292 -1.613 4.008
 -2.255 -1.606 4.005
 -2.242 -1.616 4.043
 -2.214 -1.616 4.055
 -2.162 -1.597 4.021
 -2.152 -1.611 4.067
 -2.126 -1.611 4.081
 -2.086 -1.602 4.069
 -2.079 -1.618 4.121
 -2.041 -1.609 4.111
 -2.036 -1.627 4.167
 -1.989 -1.611 4.139
 -1.961 -1.61 4.147
 -1.917 -1.597 4.123
 -1.901 -1.606 4.157
 -1.871 -1.603 4.162
 -1.849 -1.608 4.183
 -1.81 -1.598 4.167
 -1.794 -1.607 4.202
 -1.768 -1.608 4.214
 -1.728 -1.597 4.194
 -1.704 -1.599 4.21
 -1.681 -1.604 4.23
 -1.657 -1.607 4.247
 -1.63 -1.607 4.256
 -1.596 -1.599 4.245
 -1.573 -1.604 4.267
 -1.549 -1.607 4.283
 -1.519 -1.604 4.282
 -1.472 -1.583 4.234
 -1.453 -1.591 4.263
 -1.434 -1.6 4.296
 -1.393 -1.584 4.258
 -1.375 -1.594 4.293
 -1.336 -1.58 4.261
 -1.31 -1.581 4.271
 -1.286 -1.585 4.288
 -1.254 -1.577 4.274
 -1.223 -1.572 4.268
 -1.197 -1.572 4.273
 -1.172 -1.575 4.286
 -1.143 -1.572 4.284
 -1.111 -1.563 4.265
 -1.088 -1.569 4.287
 -1.056 -1.561 4.27
 -1.028 -1.558 4.268
 -1 -1.555 4.263
 -0.983 -1.569 4.308
 -0.949 -1.556 4.277
 -0.922 -1.555 4.279
 -0.896 -1.557 4.288
 -0.867 -1.552 4.278
 -0.839 -1.548 4.272
 -0.812 -1.546 4.269
 -0.786 -1.545 4.271
 -0.755 -1.536 4.25
 -0.733 -1.544 4.274
 -0.706 -1.542 4.272
 -0.679 -1.538 4.264
 -0.654 -1.541 4.278
 -0.63 -1.546 4.292
 -0.602 -1.54 4.279
 -0.577 -1.543 4.291
 -0.55 -1.539 4.281
 -0.524 -1.538 4.282
 -0.496 -1.531 4.263
 -0.472 -1.539 4.287
 -0.444 -1.532 4.27
 -0.416 -1.521 4.241
 -0.393 -1.533 4.278
 -0.367 -1.53 4.269
 -0.343 -1.54 4.299
 -0.315 -1.526 4.262
 -0.289 -1.523 4.254
 -0.266 -1.537 4.296
 -0.239 -1.531 4.279
 -0.213 -1.533 4.285
 -0.187 -1.53 4.277
 -0.161 -1.526 4.267
 -0.136 -1.525 4.264
 -0.11 -1.524 4.261
 -0.084 -1.515 4.235
 -0.059 -1.521 4.254
 -0.034 -1.527 4.269
 -0.008 -1.53 4.278
 0.016 -1.519 4.247
 0.042 -1.525 4.263
 0.067 -1.518 4.243
 0.093 -1.53 4.275
 0.119 -1.527 4.266
 0.144 -1.528 4.267
 0.169 -1.518 4.24
 0.195 -1.525 4.257
 0.221 -1.529 4.268
 0.246 -1.526 4.256
 0.273 -1.533 4.276
 0.295 -1.516 4.227
 0.322 -1.522 4.241
 0.347 -1.521 4.237
 0.373 -1.523 4.239
 0.397 -1.521 4.231
 0.424 -1.525 4.241
 0.45 -1.526 4.239
 0.477 -1.533 4.257
 0.501 -1.528 4.242
 0.529 -1.535 4.259
 0.553 -1.532 4.245
 0.58 -1.534 4.248
 0.607 -1.537 4.253
 0.629 -1.53 4.231
 0.66 -1.543 4.262
 0.681 -1.532 4.229
 0.714 -1.548 4.268
 0.737 -1.541 4.246
 0.76 -1.538 4.232
 0.785 -1.535 4.219
 0.818 -1.55 4.257
 0.843 -1.549 4.25
 0.868 -1.546 4.237
 0.892 -1.543 4.224
 0.923 -1.553 4.246
 0.949 -1.553 4.24
 0.973 -1.551 4.229
 1.002 -1.555 4.235
 1.032 -1.562 4.249
 1.051 -1.552 4.216
 1.082 -1.559 4.228
 1.106 -1.556 4.215
 1.142 -1.57 4.245
 1.169 -1.571 4.243
 1.188 -1.562 4.212
 1.22 -1.57 4.226
 1.248 -1.573 4.226
 1.278 -1.577 4.231
 1.299 -1.572 4.209
 1.33 -1.576 4.214
 1.355 -1.576 4.205
 1.382 -1.576 4.198
 1.423 -1.593 4.235
 1.438 -1.581 4.195
 1.473 -1.59 4.21
 1.498 -1.588 4.198
 1.519 -1.584 4.176
 1.558 -1.596 4.2
 1.588 -1.6 4.202
 1.598 -1.583 4.148
 1.641 -1.6 4.182
 1.665 -1.598 4.167
 1.702 -1.607 4.182
 1.716 -1.595 4.141
 1.748 -1.601 4.146
 1.785 -1.611 4.16
 1.798 -1.598 4.117
 1.828 -1.601 4.114
 1.828 -1.578 4.044
 1.87 -1.592 4.07
 1.883 -1.581 4.03
 1.879 -1.556 3.953
 1.902 -1.554 3.938
 1.92 -1.548 3.911
 1.91 -1.52 3.828
 1.929 -1.515 3.804
 1.945 -1.508 3.774
 0 0 0
 0 0 0
 0 0 0
 0 0 0
 0 0 0
 0 0 0
 0 0 0
 1.867 -1.313 3.199
 1.857 -1.292 3.135
 1.879 -1.292 3.124
 1.843 -1.253 3.019
 -2.387 -1.613 4.061
 -2.343 -1.602 4.046
 -2.343 -1.621 4.108
 -2.3 -1.61 4.094
 -2.257 -1.599 4.08
 -2.223 -1.595 4.081
 -2.213 -1.607 4.126
 -2.189 -1.61 4.147
 -2.175 -1.621 4.186
 -2.12 -1.601 4.145
 -2.097 -1.604 4.166
 -2.071 -1.605 4.18
 -2.055 -1.614 4.217
 -2.021 -1.609 4.215
 -1.97 -1.591 4.176
 -1.95 -1.597 4.203
 -1.925 -1.599 4.219
 -1.896 -1.597 4.226
 -1.857 -1.588 4.212
 -1.845 -1.601 4.258
 -1.802 -1.587 4.23
 -1.779 -1.591 4.25
 -1.765 -1.604 4.294
 -1.747 -1.613 4.327
 -1.691 -1.586 4.264
 -1.66 -1.582 4.263
 -1.643 -1.592 4.299
 -1.606 -1.583 4.283
 -1.568 -1.572 4.261
 -1.55 -1.582 4.296
 -1.53 -1.589 4.324
 -1.486 -1.571 4.282
 -1.452 -1.564 4.27
 -1.432 -1.571 4.297
 -1.387 -1.551 4.249
 -1.37 -1.562 4.288
 -1.337 -1.555 4.275
 -1.312 -1.557 4.288
 -1.28 -1.551 4.277
 -1.256 -1.554 4.292
 -1.23 -1.554 4.299
 -1.199 -1.549 4.291
 -1.174 -1.551 4.301
 -1.145 -1.547 4.298
 -1.116 -1.544 4.294
 -1.088 -1.542 4.294
 -1.059 -1.539 4.29
 -1.034 -1.54 4.298
 -1.001 -1.531 4.279
 -0.973 -1.528 4.275
 -0.947 -1.527 4.277
 -0.918 -1.523 4.271
 -0.894 -1.526 4.283
 -0.866 -1.523 4.28
 -0.837 -1.518 4.268
 -0.811 -1.517 4.271
 -0.784 -1.516 4.271
 -0.763 -1.525 4.3
 -0.732 -1.516 4.276
 -0.709 -1.523 4.299
 -0.681 -1.517 4.285
 -0.656 -1.519 4.295
 -0.627 -1.512 4.278
 -0.605 -1.522 4.311
 -0.571 -1.502 4.256
 -0.549 -1.512 4.287
 -0.52 -1.503 4.263
 -0.498 -1.513 4.293
 -0.469 -1.503 4.268
 -0.443 -1.501 4.265
 -0.42 -1.51 4.291
 -0.393 -1.507 4.285
 -0.366 -1.5 4.265
 -0.342 -1.507 4.287
 -0.315 -1.502 4.274
 -0.29 -1.506 4.286
 -0.263 -1.496 4.26
 -0.238 -1.503 4.281
 -0.215 -1.517 4.32
 -0.187 -1.501 4.274
 -0.161 -1.5 4.272
 -0.136 -1.499 4.271
 -0.11 -1.502 4.279
 -0.085 -1.5 4.275
 -0.059 -1.505 4.287
 -0.034 -1.504 4.284
 -0.008 -1.495 4.26
 0.017 -1.497 4.265
 0.042 -1.495 4.259
 0.068 -1.503 4.279
 0.093 -1.491 4.244
 0.118 -1.497 4.261
 0.144 -1.503 4.278
 0.169 -1.498 4.263
 0.195 -1.5 4.268
 0.22 -1.498 4.261
 0.246 -1.499 4.26
 0.27 -1.494 4.246
 0.296 -1.496 4.249
 0.322 -1.5 4.257
 0.348 -1.499 4.255
 0.375 -1.507 4.274
 0.399 -1.502 4.258
 0.424 -1.498 4.244
 0.451 -1.505 4.261
 0.474 -1.495 4.23
 0.501 -1.502 4.247
 0.531 -1.514 4.279
 0.556 -1.512 4.271
 0.574 -1.491 4.208
 0.603 -1.503 4.237
 0.63 -1.505 4.24
 0.658 -1.512 4.256
 0.684 -1.512 4.254
 0.707 -1.507 4.235
 0.738 -1.518 4.262
 0.764 -1.518 4.258
 0.789 -1.516 4.248
 0.814 -1.517 4.244
 0.841 -1.518 4.243
 0.864 -1.513 4.225
 0.892 -1.518 4.234
 0.919 -1.521 4.237
 0.947 -1.524 4.241
 0.969 -1.519 4.22
 0.998 -1.522 4.225
 1.024 -1.524 4.224
 1.051 -1.526 4.223
 1.077 -1.525 4.215
 1.113 -1.539 4.248
 1.134 -1.532 4.223
 1.162 -1.536 4.227
 1.191 -1.54 4.232
 1.218 -1.541 4.228
 1.244 -1.541 4.221
 1.278 -1.551 4.24
 1.3 -1.545 4.218
 1.336 -1.558 4.244
 1.355 -1.549 4.213
 1.378 -1.546 4.196
 1.409 -1.551 4.202
 1.446 -1.563 4.227
 1.486 -1.577 4.257
 1.503 -1.567 4.221
 1.532 -1.57 4.219
 1.551 -1.562 4.19
 1.582 -1.567 4.193
 1.624 -1.582 4.225
 1.645 -1.576 4.2
 1.67 -1.576 4.188
 1.7 -1.579 4.187
 1.721 -1.573 4.162
 1.762 -1.587 4.187
 1.788 -1.586 4.176
 1.823 -1.593 4.183
 1.825 -1.572 4.117
 1.852 -1.573 4.108
 1.864 -1.56 4.065
 1.854 -1.53 3.975
 1.882 -1.533 3.97
 1.893 -1.52 3.927
 1.908 -1.512 3.895
 1.905 -1.49 3.825
 0 0 0
 0 0 0
 0 0 0
 0 0 0
 0 0 0
 0 0 0
 0 0 0
 0 0 0
 0 0 0
 1.808 -1.251 3.105
 1.862 -1.273 3.151
 1.866 -1.262 3.11
 1.871 -1.251 3.071
 -2.444 -1.623 4.168
 0 0 0
 -2.352 -1.599 4.134
 -2.325 -1.6 4.149
 -2.309 -1.608 4.184
 -2.274 -1.604 4.186
 -2.235 -1.596 4.179
 -2.203 -1.593 4.183
 -2.166 -1.587 4.179
 -2.144 -1.591 4.202
 -2.137 -1.606 4.254
 -2.09 -1.592 4.229
 -2.059 -1.589 4.234
 -2.042 -1.599 4.27
 -1.991 -1.58 4.232
 -1.979 -1.593 4.277
 -1.956 -1.597 4.298
 -1.91 -1.582 4.267
 -1.877 -1.577 4.265
 -1.869 -1.594 4.322
 -1.817 -1.573 4.275
 -1.809 -1.591 4.333
 -1.764 -1.575 4.299
 -1.741 -1.58 4.322
 -1.711 -1.577 4.324
 -1.672 -1.567 4.305
 -1.64 -1.562 4.301
 -1.61 -1.56 4.302
 -1.587 -1.564 4.323
 -1.548 -1.552 4.298
 -1.514 -1.546 4.288
 -1.49 -1.549 4.304
 -1.462 -1.547 4.308
 -1.433 -1.545 4.309
 -1.402 -1.541 4.304
 -1.369 -1.534 4.293
 -1.345 -1.537 4.309
 -1.315 -1.534 4.306
 -1.281 -1.525 4.288
 -1.248 -1.517 4.271
 -1.233 -1.532 4.319
 -1.201 -1.525 4.306
 -1.164 -1.511 4.273
 -1.149 -1.526 4.321
 -1.113 -1.514 4.291
 -1.085 -1.511 4.29
 -1.058 -1.511 4.295
 -1.028 -1.505 4.282
 -1.008 -1.515 4.317
 -0.976 -1.506 4.294
 -0.949 -1.505 4.296
 -0.921 -1.501 4.291
 -0.895 -1.502 4.298
 -0.869 -1.503 4.305
 -0.836 -1.491 4.272
 -0.811 -1.492 4.28
 -0.788 -1.498 4.301
 -0.759 -1.492 4.287
 -0.732 -1.491 4.287
 -0.705 -1.487 4.28
 -0.678 -1.486 4.28
 -0.652 -1.485 4.279
 -0.628 -1.49 4.297
 -0.602 -1.489 4.296
 -0.575 -1.487 4.293
 -0.547 -1.481 4.279
 -0.521 -1.48 4.277
 -0.499 -1.491 4.313
 -0.47 -1.48 4.283
 -0.445 -1.483 4.294
 -0.419 -1.481 4.29
 -0.389 -1.468 4.252
 -0.367 -1.48 4.289
 -0.341 -1.48 4.29
 -0.314 -1.47 4.264
 -0.289 -1.475 4.278
 -0.262 -1.47 4.264
 -0.239 -1.482 4.3
 -0.211 -1.465 4.253
 -0.187 -1.478 4.292
 -0.161 -1.474 4.279
 -0.136 -1.476 4.286
 -0.11 -1.47 4.269
 -0.085 -1.479 4.296
 -0.059 -1.471 4.27
 -0.033 -1.467 4.258
 -0.008 -1.48 4.298
 0.017 -1.469 4.265
 0.042 -1.475 4.281
 0.068 -1.472 4.273
 0.093 -1.472 4.273
 0.119 -1.475 4.281
 0.144 -1.469 4.262
 0.169 -1.468 4.257
 0.195 -1.472 4.266
 0.22 -1.471 4.264
 0.245 -1.468 4.254
 0.272 -1.474 4.269
 0.296 -1.468 4.25
 0.321 -1.466 4.242
 0.349 -1.477 4.27
 0.374 -1.476 4.267
 0.401 -1.482 4.282
 0.422 -1.467 4.235
 0.451 -1.477 4.262
 0.478 -1.483 4.276
 0.503 -1.482 4.272
 0.527 -1.477 4.255
 0.555 -1.483 4.268
 0.58 -1.482 4.262
 0.605 -1.48 4.253
 0.634 -1.488 4.272
 0.658 -1.484 4.259
 0.682 -1.483 4.25
 0.706 -1.478 4.233
 0.736 -1.487 4.256
 0.76 -1.484 4.241
 0.792 -1.497 4.276
 0.814 -1.49 4.249
 0.837 -1.486 4.234
 0.87 -1.498 4.264
 0.892 -1.492 4.242
 0.921 -1.497 4.251
 0.95 -1.502 4.261
 0.977 -1.504 4.259
 0.997 -1.495 4.228
 1.031 -1.507 4.257
 1.055 -1.504 4.244
 1.082 -1.506 4.244
 1.108 -1.506 4.238
 1.136 -1.509 4.24
 1.166 -1.515 4.249
 1.195 -1.518 4.25
 1.213 -1.508 4.216
 1.244 -1.514 4.227
 1.268 -1.512 4.213
 1.301 -1.521 4.23
 1.328 -1.522 4.226
 1.355 -1.523 4.221
 1.386 -1.528 4.228
 1.418 -1.534 4.236
 1.44 -1.529 4.216
 1.476 -1.54 4.236
 1.494 -1.531 4.203
 1.532 -1.543 4.227
 1.56 -1.544 4.222
 1.586 -1.544 4.213
 1.619 -1.55 4.219
 1.646 -1.55 4.211
 1.67 -1.548 4.195
 1.691 -1.543 4.171
 1.735 -1.559 4.206
 1.755 -1.553 4.179
 1.782 -1.554 4.17
 1.814 -1.558 4.17
 1.843 -1.56 4.166
 1.855 -1.548 4.121
 1.874 -1.542 4.094
 1.878 -1.524 4.036
 1.875 -1.501 3.962
 1.911 -1.509 3.974
 1.92 -1.496 3.928
 0 0 0
 0 0 0
 0 0 0
 0 0 0
 0 0 0
 0 0 0
 0 0 0
 0 0 0
 0 0 0
 0 0 0
 1.894 -1.288 3.26
 1.868 -1.256 3.167
 1.882 -1.251 3.144
 1.852 -1.217 3.048
 -2.466 -1.609 4.216
 -2.416 -1.595 4.192
 -2.405 -1.607 4.238
 -2.317 -1.566 4.144
 -2.365 -1.619 4.297
 -2.302 -1.595 4.247
 -2.244 -1.574 4.204
 -2.224 -1.58 4.233
 -2.2 -1.583 4.252
 -2.174 -1.585 4.27
 -2.155 -1.592 4.301
 -2.102 -1.574 4.263
 -2.092 -1.587 4.311
 -2.045 -1.572 4.284
 -2.02 -1.575 4.301
 -2.004 -1.584 4.339
 -1.965 -1.576 4.326
 -1.931 -1.571 4.325
 -1.917 -1.583 4.367
 -1.857 -1.557 4.304
 -1.831 -1.558 4.318
 -1.798 -1.553 4.315
 -1.761 -1.545 4.301
 -1.72 -1.533 4.278
 -1.701 -1.541 4.308
 -1.676 -1.543 4.325
 -1.652 -1.547 4.343
 -1.599 -1.523 4.283
 -1.568 -1.518 4.279
 -1.547 -1.524 4.305
 -1.515 -1.52 4.299
 -1.485 -1.517 4.299
 -1.461 -1.52 4.316
 -1.42 -1.504 4.279
 -1.407 -1.519 4.328
 -1.371 -1.509 4.307
 -1.342 -1.507 4.307
 -1.312 -1.504 4.305
 -1.289 -1.508 4.325
 -1.258 -1.503 4.314
 -1.224 -1.494 4.295
 -1.207 -1.506 4.335
 -1.162 -1.483 4.275
 -1.148 -1.498 4.326
 -1.112 -1.486 4.297
 -1.092 -1.496 4.329
 -1.05 -1.473 4.27
 -1.037 -1.492 4.329
 -0.999 -1.476 4.287
 -0.973 -1.476 4.291
 -0.949 -1.479 4.306
 -0.924 -1.481 4.314
 -0.894 -1.475 4.303
 -0.87 -1.479 4.317
 -0.834 -1.461 4.268
 -0.809 -1.463 4.278
 -0.788 -1.472 4.31
 -0.76 -1.469 4.302
 -0.732 -1.465 4.295
 -0.706 -1.465 4.297
 -0.678 -1.46 4.286
 -0.65 -1.455 4.276
 -0.624 -1.454 4.274
 -0.601 -1.461 4.297
 -0.575 -1.46 4.297
 -0.546 -1.452 4.275
 -0.523 -1.459 4.3
 -0.495 -1.454 4.288
 -0.469 -1.452 4.282
 -0.445 -1.456 4.298
 -0.417 -1.451 4.283
 -0.391 -1.448 4.277
 -0.365 -1.449 4.28
 -0.338 -1.442 4.263
 -0.314 -1.446 4.275
 -0.289 -1.448 4.282
 -0.264 -1.454 4.3
 -0.237 -1.446 4.277
 -0.212 -1.446 4.278
 -0.187 -1.457 4.311
 -0.161 -1.451 4.295
 -0.136 -1.451 4.294
 -0.11 -1.447 4.282
 -0.084 -1.44 4.261
 -0.058 -1.436 4.249
 -0.033 -1.446 4.279
 -0.008 -1.444 4.275
 0.017 -1.441 4.263
 0.042 -1.441 4.264
 0.068 -1.441 4.264
 0.093 -1.441 4.262
 0.119 -1.451 4.292
 0.145 -1.451 4.289
 0.169 -1.444 4.27
 0.195 -1.443 4.265
 0.22 -1.442 4.261
 0.247 -1.451 4.284
 0.271 -1.444 4.262
 0.295 -1.439 4.246
 0.321 -1.442 4.252
 0.345 -1.437 4.237
 0.374 -1.448 4.267
 0.396 -1.438 4.236
 0.425 -1.449 4.265
 0.452 -1.455 4.28
 0.473 -1.442 4.24
 0.503 -1.455 4.275
 0.53 -1.458 4.282
 0.553 -1.452 4.261
 0.577 -1.45 4.25
 0.6 -1.442 4.224
 0.632 -1.458 4.267
 0.658 -1.46 4.27
 0.68 -1.45 4.238
 0.708 -1.457 4.253
 0.732 -1.453 4.238
 0.763 -1.463 4.264
 0.79 -1.466 4.268
 0.81 -1.456 4.234
 0.841 -1.465 4.256
 0.867 -1.466 4.253
 0.895 -1.471 4.263
 0.921 -1.471 4.257
 0.95 -1.475 4.266
 0.976 -1.477 4.265
 1.003 -1.477 4.261
 1.027 -1.475 4.25
 1.052 -1.474 4.24
 1.085 -1.484 4.263
 1.102 -1.472 4.221
 1.136 -1.483 4.247
 1.168 -1.49 4.261
 1.194 -1.491 4.256
 1.222 -1.493 4.256
 1.243 -1.487 4.233
 1.268 -1.485 4.22
 1.297 -1.489 4.224
 1.331 -1.498 4.241
 1.35 -1.49 4.211
 1.378 -1.493 4.212
 1.418 -1.508 4.246
 1.443 -1.506 4.232
 1.467 -1.504 4.219
 1.49 -1.5 4.199
 1.535 -1.519 4.245
 1.552 -1.51 4.209
 1.577 -1.509 4.196
 1.61 -1.515 4.204
 1.652 -1.529 4.234
 1.675 -1.526 4.216
 1.693 -1.518 4.185
 1.726 -1.524 4.192
 1.764 -1.534 4.208
 1.793 -1.536 4.204
 1.813 -1.531 4.178
 1.841 -1.531 4.17
 1.865 -1.529 4.153
 1.87 -1.512 4.095
 1.886 -1.503 4.06
 1.887 -1.484 3.996
 1.905 -1.478 3.968
 0 0 0
 0 0 0
 0 0 0
 0 0 0
 0 0 0
 0 0 0
 0 0 0
 0 0 0
 0 0 0
 0 0 0
 0 0 0
 0 0 0
 1.866 -1.233 3.172
 1.866 -1.219 3.125
 1.854 -1.197 3.057
 0 0 0
 -2.464 -1.597 4.286
 -2.466 -1.618 4.355
 -2.44 -1.62 4.375
 -2.385 -1.603 4.343
 -2.318 -1.577 4.286
 -2.282 -1.573 4.286
 -2.256 -1.575 4.304
 -2.231 -1.577 4.324
 -2.191 -1.569 4.313
 -2.139 -1.552 4.279
 -2.112 -1.553 4.292
 -2.095 -1.561 4.328
 -2.067 -1.562 4.341
 -2.024 -1.55 4.32
 -1.984 -1.541 4.305
 -1.951 -1.537 4.306
 -1.937 -1.548 4.348
 -1.887 -1.531 4.308
 -1.862 -1.533 4.325
 -1.825 -1.525 4.312
 -1.793 -1.522 4.313
 -1.77 -1.525 4.332
 -1.734 -1.518 4.321
 -1.703 -1.515 4.322
 -1.684 -1.523 4.352
 -1.645 -1.513 4.332
 -1.621 -1.516 4.351
 -1.578 -1.501 4.315
 -1.547 -1.498 4.314
 -1.519 -1.497 4.32
 -1.484 -1.489 4.304
 -1.455 -1.487 4.307
 -1.428 -1.486 4.312
 -1.405 -1.491 4.332
 -1.375 -1.487 4.329
 -1.335 -1.473 4.295
 -1.308 -1.473 4.301
 -1.289 -1.481 4.331
 -1.251 -1.469 4.301
 -1.233 -1.478 4.336
 -1.2 -1.47 4.319
 -1.176 -1.474 4.335
 -1.134 -1.454 4.281
 -1.103 -1.449 4.271
 -1.084 -1.458 4.303
 -1.054 -1.453 4.293
 -1.021 -1.444 4.273
 -1 -1.451 4.299
 -0.975 -1.453 4.307
 -0.942 -1.442 4.281
 -0.919 -1.447 4.301
 -0.896 -1.452 4.318
 -0.87 -1.453 4.326
 -0.835 -1.437 4.283
 -0.811 -1.44 4.296
 -0.779 -1.429 4.265
 -0.756 -1.435 4.287
 -0.731 -1.436 4.294
 -0.705 -1.437 4.299
 -0.68 -1.438 4.305
 -0.649 -1.428 4.279
 -0.625 -1.43 4.289
 -0.601 -1.435 4.306
 -0.575 -1.435 4.308
 -0.544 -1.422 4.269
 -0.521 -1.428 4.292
 -0.496 -1.43 4.3
 -0.469 -1.428 4.297
 -0.441 -1.42 4.274
 -0.417 -1.426 4.294
 -0.389 -1.417 4.267
 -0.363 -1.413 4.258
 -0.339 -1.42 4.28
 -0.313 -1.418 4.273
 -0.287 -1.414 4.263
 -0.261 -1.415 4.268
 -0.236 -1.415 4.269
 -0.211 -1.42 4.283
 -0.184 -1.409 4.253
 -0.16 -1.417 4.275
 -0.135 -1.422 4.29
 -0.109 -1.418 4.281
 -0.084 -1.425 4.299
 -0.058 -1.408 4.249
 -0.033 -1.418 4.28
 -0.007 -1.422 4.291
 0.017 -1.415 4.271
 0.042 -1.411 4.258
 0.068 -1.417 4.274
 0.093 -1.418 4.277
 0.119 -1.419 4.28
 0.143 -1.409 4.247
 0.169 -1.411 4.253
 0.194 -1.409 4.246
 0.22 -1.418 4.27
 0.247 -1.424 4.288
 0.272 -1.424 4.285
 0.296 -1.419 4.268
 0.322 -1.419 4.268
 0.347 -1.418 4.262
 0.372 -1.417 4.257
 0.398 -1.42 4.263
 0.424 -1.42 4.261
 0.45 -1.421 4.263
 0.475 -1.421 4.261
 0.499 -1.418 4.249
 0.528 -1.427 4.271
 0.556 -1.434 4.29
 0.58 -1.429 4.271
 0.605 -1.428 4.264
 0.627 -1.422 4.243
 0.654 -1.425 4.25
 0.682 -1.429 4.257
 0.706 -1.426 4.246
 0.73 -1.423 4.233
 0.761 -1.434 4.262
 0.786 -1.434 4.257
 0.812 -1.434 4.251
 0.84 -1.439 4.261
 0.864 -1.436 4.249
 0.889 -1.434 4.239
 0.917 -1.439 4.247
 0.947 -1.444 4.259
 0.971 -1.443 4.249
 0.997 -1.443 4.243
 1.023 -1.443 4.238
 1.049 -1.444 4.234
 1.078 -1.448 4.241
 1.106 -1.451 4.245
 1.135 -1.455 4.251
 1.16 -1.454 4.239
 1.191 -1.46 4.252
 1.215 -1.458 4.239
 1.246 -1.464 4.25
 1.268 -1.46 4.23
 1.303 -1.47 4.252
 1.333 -1.474 4.257
 1.359 -1.474 4.249
 1.381 -1.47 4.228
 1.404 -1.466 4.21
 1.431 -1.467 4.204
 1.471 -1.481 4.237
 1.491 -1.475 4.211
 1.524 -1.482 4.222
 1.556 -1.487 4.229
 1.593 -1.497 4.247
 1.613 -1.491 4.22
 1.64 -1.492 4.213
 1.678 -1.501 4.231
 1.701 -1.498 4.213
 1.733 -1.503 4.216
 1.759 -1.503 4.206
 1.787 -1.503 4.197
 1.819 -1.508 4.2
 1.845 -1.508 4.188
 1.865 -1.502 4.161
 1.872 -1.487 4.108
 1.895 -1.484 4.089
 1.905 -1.472 4.044
 0 0 0
 0 0 0
 0 0 0
 0 0 0
 0 0 0
 0 0 0
 0 0 0
 0 0 0
 0 0 0
 0 0 0
 0 0 0
 0 0 0
 0 0 0
 1.857 -1.205 3.164
 1.862 -1.195 3.125
 1.868 -1.185 3.087
 -2.551 -1.605 4.381
 -2.503 -1.594 4.365
 -2.417 -1.557 4.279
 -2.409 -1.571 4.33
 -2.376 -1.568 4.336
 -2.357 -1.575 4.369
 -2.294 -1.552 4.318
 -2.248 -1.541 4.298
 -2.259 -1.568 4.387
 -2.21 -1.554 4.36
 -2.167 -1.544 4.345
 -2.118 -1.529 4.314
 -2.084 -1.525 4.314
 -2.06 -1.528 4.334
 -2.034 -1.53 4.351
 -1.987 -1.515 4.321
 -1.963 -1.519 4.341
 -1.936 -1.52 4.355
 -1.886 -1.502 4.315
 -1.858 -1.502 4.324
 -1.829 -1.501 4.331
 -1.793 -1.494 4.321
 -1.768 -1.496 4.337
 -1.724 -1.482 4.305
 -1.711 -1.495 4.352
 -1.67 -1.483 4.327
 -1.642 -1.483 4.333
 -1.612 -1.48 4.333
 -1.577 -1.473 4.323
 -1.556 -1.479 4.347
 -1.511 -1.462 4.306
 -1.485 -1.463 4.316
 -1.453 -1.458 4.309
 -1.425 -1.457 4.314
 -1.402 -1.46 4.331
 -1.37 -1.455 4.321
 -1.344 -1.456 4.332
 -1.308 -1.446 4.308
 -1.281 -1.446 4.315
 -1.259 -1.451 4.335
 -1.231 -1.45 4.339
 -1.195 -1.438 4.309
 -1.169 -1.439 4.319
 -1.144 -1.441 4.328
 -1.105 -1.425 4.287
 -1.082 -1.429 4.304
 -1.053 -1.426 4.299
 -1.024 -1.421 4.29
 -1.002 -1.428 4.314
 -0.977 -1.43 4.326
 -0.944 -1.419 4.298
 -0.92 -1.423 4.313
 -0.89 -1.417 4.3
 -0.863 -1.416 4.299
 -0.831 -1.406 4.273
 -0.81 -1.414 4.302
 -0.781 -1.407 4.285
 -0.756 -1.41 4.298
 -0.728 -1.406 4.287
 -0.702 -1.406 4.29
 -0.679 -1.41 4.308
 -0.649 -1.402 4.284
 -0.619 -1.392 4.258
 -0.599 -1.405 4.299
 -0.571 -1.399 4.284
 -0.547 -1.403 4.3
 -0.518 -1.396 4.279
 -0.494 -1.4 4.295
 -0.468 -1.4 4.296
 -0.442 -1.399 4.294
 -0.416 -1.396 4.287
 -0.388 -1.387 4.26
 -0.363 -1.389 4.269
 -0.338 -1.393 4.282
 -0.312 -1.39 4.272
 -0.288 -1.395 4.29
 -0.262 -1.395 4.292
 -0.236 -1.389 4.275
 -0.211 -1.393 4.286
 -0.185 -1.39 4.277
 -0.159 -1.388 4.271
 -0.135 -1.393 4.286
 -0.11 -1.402 4.315
 -0.084 -1.39 4.28
 -0.058 -1.394 4.292
 -0.033 -1.388 4.272
 -0.007 -1.395 4.293
 0.017 -1.382 4.253
 0.042 -1.382 4.252
 0.068 -1.392 4.283
 0.093 -1.387 4.267
 0.118 -1.384 4.258
 0.144 -1.39 4.273
 0.169 -1.389 4.271
 0.194 -1.387 4.264
 0.22 -1.389 4.267
 0.245 -1.39 4.268
 0.269 -1.382 4.243
 0.296 -1.389 4.264
 0.322 -1.393 4.272
 0.347 -1.391 4.265
 0.372 -1.389 4.258
 0.397 -1.39 4.259
 0.423 -1.393 4.264
 0.447 -1.388 4.247
 0.476 -1.399 4.277
 0.502 -1.4 4.276
 0.525 -1.394 4.257
 0.55 -1.391 4.245
 0.579 -1.401 4.271
 0.605 -1.402 4.272
 0.628 -1.396 4.25
 0.659 -1.409 4.287
 0.68 -1.4 4.254
 0.709 -1.406 4.27
 0.735 -1.408 4.27
 0.76 -1.407 4.264
 0.789 -1.412 4.275
 0.809 -1.402 4.241
 0.835 -1.404 4.242
 0.863 -1.408 4.249
 0.889 -1.408 4.246
 0.92 -1.416 4.265
 0.944 -1.414 4.253
 0.972 -1.418 4.261
 0.993 -1.41 4.231
 1.019 -1.412 4.23
 1.047 -1.414 4.232
 1.072 -1.414 4.226
 1.102 -1.42 4.237
 1.133 -1.426 4.25
 1.16 -1.428 4.247
 1.19 -1.433 4.255
 1.204 -1.419 4.208
 1.251 -1.443 4.273
 1.271 -1.436 4.245
 1.298 -1.437 4.241
 1.332 -1.446 4.26
 1.348 -1.435 4.221
 1.382 -1.444 4.239
 1.414 -1.45 4.247
 1.441 -1.451 4.242
 1.467 -1.45 4.232
 1.498 -1.455 4.237
 1.525 -1.456 4.232
 1.551 -1.456 4.223
 1.576 -1.455 4.21
 1.617 -1.467 4.238
 1.641 -1.465 4.222
 1.672 -1.47 4.226
 1.697 -1.468 4.212
 1.729 -1.473 4.216
 1.752 -1.47 4.197
 1.784 -1.475 4.199
 1.809 -1.473 4.184
 1.851 -1.485 4.209
 1.871 -1.48 4.184
 1.88 -1.466 4.133
 1.91 -1.469 4.129
 0 0 0
 0 0 0
 0 0 0
 0 0 0
 0 0 0
 0 0 0
 0 0 0
 0 0 0
 0 0 0
 0 0 0
 0 0 0
 0 0 0
 0 0 0
 0 0 0
 1.892 -1.206 3.23
 1.88 -1.185 3.162
 1.887 -1.176 3.127
 -2.528 -1.561 4.351
 -2.507 -1.567 4.381
 -2.448 -1.548 4.342
 -2.412 -1.544 4.344
 -2.366 -1.533 4.327
 -2.339 -1.534 4.344
 -2.295 -1.524 4.329
 -2.263 -1.522 4.336
 -2.23 -1.519 4.339
 -2.205 -1.522 4.359
 -2.143 -1.498 4.304
 -2.113 -1.497 4.313
 -2.088 -1.5 4.332
 -2.057 -1.498 4.337
 -2.038 -1.504 4.368
 -1.996 -1.495 4.351
 -1.957 -1.486 4.337
 -1.924 -1.483 4.336
 -1.892 -1.479 4.337
 -1.866 -1.481 4.353
 -1.838 -1.481 4.362
 -1.797 -1.47 4.34
 -1.765 -1.467 4.339
 -1.735 -1.464 4.342
 -1.696 -1.455 4.323
 -1.66 -1.447 4.308
 -1.648 -1.461 4.358
 -1.591 -1.434 4.286
 -1.572 -1.442 4.318
 -1.549 -1.446 4.337
 -1.515 -1.438 4.323
 -1.488 -1.438 4.331
 -1.457 -1.435 4.327
 -1.425 -1.43 4.32
 -1.393 -1.425 4.312
 -1.363 -1.421 4.307
 -1.34 -1.425 4.326
 -1.308 -1.419 4.315
 -1.284 -1.422 4.33
 -1.248 -1.413 4.308
 -1.223 -1.414 4.317
 -1.194 -1.411 4.315
 -1.169 -1.413 4.325
 -1.145 -1.416 4.342
 -1.111 -1.407 4.319
 -1.083 -1.404 4.316
 -1.051 -1.396 4.296
 -1.028 -1.401 4.317
 -0.998 -1.396 4.306
 -0.975 -1.4 4.322
 -0.939 -1.387 4.285
 -0.922 -1.4 4.332
 -0.89 -1.391 4.307
 -0.863 -1.389 4.304
 -0.833 -1.383 4.289
 -0.808 -1.384 4.298
 -0.788 -1.395 4.336
 -0.752 -1.376 4.278
 -0.732 -1.387 4.316
 -0.695 -1.365 4.251
 -0.67 -1.366 4.257
 -0.649 -1.376 4.291
 -0.623 -1.375 4.29
 -0.592 -1.363 4.255
 -0.573 -1.379 4.307
 -0.542 -1.366 4.271
 -0.519 -1.372 4.29
 -0.49 -1.363 4.263
 -0.472 -1.387 4.341
 -0.441 -1.368 4.284
 -0.42 -1.383 4.334
 0 0 0
 0 0 0
 0 0 0
 0 0 0
 -0.288 -1.37 4.298
 -0.262 -1.371 4.302
 -0.237 -1.369 4.299
 -0.21 -1.361 4.273
 -0.184 -1.358 4.264
 -0.16 -1.367 4.292
 -0.135 -1.37 4.304
 -0.109 -1.371 4.305
 -0.083 -1.363 4.281
 -0.058 -1.36 4.273
 -0.033 -1.363 4.282
 -0.007 -1.364 4.285
 0.018 -1.385 4.349
 0.041 -1.317 4.134
 0.067 -1.343 4.216
 0 0 0
 0.117 -1.349 4.233
 0.145 -1.373 4.309
 0 0 0
 0.189 -1.328 4.163
 0 0 0
 0.242 -1.344 4.211
 0.267 -1.346 4.215
 0.294 -1.356 4.246
 0.327 -1.389 4.346
 0.351 -1.38 4.318
 0.375 -1.374 4.295
 0.401 -1.378 4.307
 0.432 -1.393 4.35
 0.451 -1.375 4.291
 0.478 -1.377 4.297
 0.499 -1.365 4.256
 0.522 -1.36 4.235
 0.551 -1.37 4.264
 0.574 -1.363 4.241
 0.595 -1.354 4.21
 0.627 -1.37 4.254
 0.657 -1.378 4.277
 0.684 -1.381 4.281
 0.707 -1.376 4.264
 0.729 -1.37 4.24
 0.761 -1.382 4.274
 0.782 -1.374 4.244
 0.809 -1.377 4.25
 0.835 -1.379 4.25
 0.862 -1.38 4.251
 0.89 -1.384 4.258
 0.916 -1.385 4.256
 0.945 -1.39 4.265
 0.967 -1.385 4.245
 0.996 -1.389 4.252
 1.024 -1.392 4.255
 1.049 -1.392 4.25
 1.079 -1.397 4.259
 1.11 -1.403 4.272
 1.138 -1.406 4.276
 1.161 -1.403 4.258
 1.182 -1.397 4.234
 1.22 -1.411 4.271
 1.23 -1.393 4.207
 1.262 -1.4 4.222
 1.299 -1.412 4.253
 1.318 -1.405 4.223
 1.344 -1.405 4.215
 1.371 -1.406 4.212
 1.402 -1.411 4.219
 1.436 -1.419 4.235
 1.474 -1.43 4.26
 1.489 -1.42 4.22
 1.52 -1.424 4.224
 1.554 -1.431 4.237
 1.586 -1.437 4.243
 1.614 -1.438 4.239
 1.626 -1.425 4.191
 1.665 -1.437 4.216
 1.7 -1.444 4.226
 1.725 -1.443 4.213
 1.747 -1.438 4.191
 1.781 -1.445 4.198
 1.814 -1.45 4.205
 1.846 -1.454 4.204
 1.852 -1.439 4.149
 1.889 -1.446 4.16
 0 0 0
 0 0 0
 0 0 0
 0 0 0
 0 0 0
 0 0 0
 0 0 0
 0 0 0
 0 0 0
 0 0 0
 0 0 0
 0 0 0
 0 0 0
 0 0 0
 0 0 0
 1.869 -1.169 3.197
 1.873 -1.159 3.157
 1.846 -1.129 3.064
 -2.528 -1.532 4.361
 -2.487 -1.525 4.355
 -2.438 -1.513 4.335
 -2.413 -1.515 4.356
 -2.372 -1.508 4.348
 -2.353 -1.514 4.379
 -2.303 -1.501 4.353
 -2.274 -1.501 4.365
 -2.241 -1.498 4.371
 -2.212 -1.498 4.383
 -2.156 -1.48 4.341
 -2.129 -1.48 4.354
 -2.09 -1.473 4.346
 -2.041 -1.458 4.313
 -2.016 -1.461 4.331
 -1.992 -1.464 4.35
 -1.972 -1.47 4.379
 -1.934 -1.463 4.368
 -1.883 -1.445 4.326
 -1.862 -1.45 4.351
 -1.812 -1.433 4.309
 -1.782 -1.431 4.313
 -1.762 -1.437 4.34
 -1.733 -1.435 4.345
 -1.704 -1.434 4.351
 -1.668 -1.427 4.338
 -1.638 -1.425 4.34
 -1.603 -1.418 4.326
 -1.567 -1.41 4.31
 -1.537 -1.408 4.311
 -1.516 -1.413 4.337
 -1.486 -1.41 4.336
 -1.458 -1.409 4.338
 -1.429 -1.408 4.342
 -1.396 -1.401 4.329
 -1.366 -1.398 4.325
 -1.336 -1.394 4.322
 -1.303 -1.388 4.309
 -1.288 -1.4 4.352
 -1.249 -1.387 4.318
 -1.224 -1.388 4.328
 -1.194 -1.384 4.321
 -1.166 -1.383 4.322
 -1.128 -1.369 4.283
 -1.104 -1.372 4.298
 -1.076 -1.37 4.298
 -1.051 -1.371 4.306
 -1.022 -1.367 4.298
 -0.992 -1.362 4.287
 -0.957 -1.349 4.252
 -0.957 -1.386 4.374
 0 0 0
 0 0 0
 0 0 0
 0 0 0
 0 0 0
 0 0 0
 0 0 0
 0 0 0
 0 0 0
 0 0 0
 0 0 0
 0 0 0
 0 0 0
 0 0 0
 0 0 0
 0 0 0
 0 0 0
 0 0 0
 0 0 0
 0 0 0
 0 0 0
 0 0 0
 0 0 0
 0 0 0
 -0.287 -1.339 4.289
 -0.261 -1.337 4.282
 -0.236 -1.34 4.294
 -0.211 -1.342 4.299
 -0.184 -1.337 4.283
 -0.159 -1.338 4.287
 -0.134 -1.335 4.279
 -0.108 -1.329 4.259
 -0.083 -1.335 4.279
 -0.058 -1.342 4.301
 -0.032 -1.335 4.28
 -0.007 -1.324 4.244
 0 0 0
 0 0 0
 0 0 0
 0 0 0
 0 0 0
 0 0 0
 0 0 0
 0 0 0
 0 0 0
 0 0 0
 0 0 0
 0 0 0
 0 0 0
 0 0 0
 0 0 0
 0 0 0
 0 0 0
 0 0 0
 0 0 0
 0 0 0
 0 0 0
 0 0 0
 0 0 0
 0 0 0
 0 0 0
 0 0 0
 0 0 0
 0 0 0
 0 0 0
 0 0 0
 0 0 0
 0 0 0
 0 0 0
 0 0 0
 0 0 0
 0 0 0
 0 0 0
 0 0 0
 0 0 0
 1.014 -1.352 4.22
 1.048 -1.365 4.252
 1.082 -1.375 4.278
 1.098 -1.363 4.235
 1.129 -1.369 4.247
 1.154 -1.368 4.238
 1.177 -1.365 4.223
 1.213 -1.377 4.253
 1.237 -1.374 4.238
 1.27 -1.382 4.255
 1.292 -1.379 4.237
 1.316 -1.376 4.223
 1.354 -1.389 4.253
 1.377 -1.385 4.236
 1.405 -1.388 4.235
 1.437 -1.393 4.244
 1.455 -1.386 4.214
 1.492 -1.396 4.236
 1.516 -1.394 4.22
 1.558 -1.408 4.256
 1.581 -1.405 4.237
 1.613 -1.41 4.243
 1.631 -1.403 4.212
 1.667 -1.411 4.226
 1.702 -1.418 4.238
 1.72 -1.411 4.208
 1.756 -1.419 4.221
 1.781 -1.418 4.207
 1.805 -1.416 4.19
 1.835 -1.418 4.187
 1.861 -1.418 4.176
 0 0 0
 0 0 0
 0 0 0
 0 0 0
 0 0 0
 0 0 0
 0 0 0
 0 0 0
 0 0 0
 0 0 0
 0 0 0
 0 0 0
 0 0 0
 0 0 0
 0 0 0
 0 0 0
 1.84 -1.13 3.154
 1.872 -1.137 3.162
 1.877 -1.127 3.122
 -2.537 -1.508 4.387
 -2.484 -1.494 4.359
 -2.442 -1.487 4.351
 -2.41 -1.485 4.359
 -2.387 -1.489 4.385
 -2.327 -1.469 4.34
 -2.298 -1.469 4.352
 -2.269 -1.469 4.366
 -2.241 -1.47 4.38
 -2.214 -1.471 4.396
 -2.159 -1.453 4.356
 -2.123 -1.448 4.351
 -2.081 -1.438 4.334
 -2.047 -1.435 4.334
 -2.027 -1.44 4.363
 -1.983 -1.429 4.339
 -1.962 -1.434 4.365
 -1.908 -1.415 4.318
 -1.883 -1.417 4.333
 -1.855 -1.417 4.344
 -1.839 -1.426 4.38
 -1.795 -1.413 4.351
 -1.764 -1.411 4.354
 -1.732 -1.407 4.35
 -1.709 -1.411 4.371
 -1.662 -1.395 4.33
 -1.636 -1.396 4.343
 -1.601 -1.389 4.329
 -1.559 -1.376 4.298
 -1.543 -1.386 4.337
 -1.513 -1.383 4.334
 -1.488 -1.385 4.348
 -1.457 -1.382 4.346
 -1.432 -1.383 4.356
 -1.38 -1.359 4.288
 -1.357 -1.362 4.304
 -1.332 -1.364 4.316
 0 0 0
 0 0 0
 0 0 0
 0 0 0
 0 0 0
 0 0 0
 0 0 0
 0 0 0
 0 0 0
 0 0 0
 0 0 0
 0 0 0
 0 0 0
 0 0 0
 0 0 0
 0 0 0
 0 0 0
 0 0 0
 0 0 0
 0 0 0
 0 0 0
 0 0 0
 0 0 0
 0 0 0
 0 0 0
 0 0 0
 0 0 0
 0 0 0
 0 0 0
 0 0 0
 0 0 0
 0 0 0
 0 0 0
 0 0 0
 0 0 0
 0 0 0
 0 0 0
 0 0 0
 -0.285 -1.306 4.269
 -0.261 -1.313 4.295
 -0.235 -1.313 4.295
 -0.209 -1.309 4.282
 -0.184 -1.309 4.284
 -0.158 -1.307 4.277
 -0.133 -1.307 4.277
 -0.108 -1.31 4.287
 -0.082 -1.304 4.266
 -0.057 -1.307 4.276
 -0.032 -1.311 4.29
 -0.007 -1.308 4.278
 0 0 0
 0 0 0
 0 0 0
 0 0 0
 0 0 0
 0 0 0
 0 0 0
 0 0 0
 0 0 0
 0 0 0
 0 0 0
 0 0 0
 0 0 0
 0 0 0
 0 0 0
 0 0 0
 0 0 0
 0 0 0
 0 0 0
 0 0 0
 0 0 0
 0 0 0
 0 0 0
 0 0 0
 0 0 0
 0 0 0
 0 0 0
 0 0 0
 0 0 0
 0 0 0
 0 0 0
 0 0 0
 0 0 0
 0 0 0
 0 0 0
 0 0 0
 0 0 0
 0 0 0
 0 0 0
 0 0 0
 1.034 -1.321 4.202
 1.074 -1.338 4.252
 1.102 -1.341 4.255
 1.125 -1.338 4.24
 1.152 -1.34 4.239
 1.175 -1.337 4.224
 1.213 -1.35 4.258
 1.242 -1.354 4.262
 1.266 -1.352 4.25
 1.289 -1.349 4.232
 1.327 -1.362 4.266
 1.34 -1.348 4.217
 1.377 -1.359 4.242
 1.407 -1.364 4.249
 1.434 -1.364 4.242
 1.462 -1.366 4.241
 1.491 -1.369 4.24
 1.52 -1.371 4.238
 1.542 -1.367 4.219
 1.584 -1.381 4.253
 1.602 -1.374 4.222
 1.631 -1.376 4.218
 1.665 -1.383 4.229
 1.684 -1.377 4.202
 1.722 -1.386 4.22
 1.758 -1.393 4.232
 1.78 -1.39 4.212
 1.811 -1.394 4.212
 1.85 -1.403 4.23
 0 0 0
 0 0 0
 0 0 0
 0 0 0
 0 0 0
 0 0 0
 0 0 0
 0 0 0
 0 0 0
 0 0 0
 0 0 0
 0 0 0
 0 0 0
 0 0 0
 0 0 0
 0 0 0
 0 0 0
 0 0 0
 1.876 -1.117 3.175
 1.85 -1.089 3.084
 -2.532 -1.476 4.386
 -2.492 -1.47 4.383
 -2.473 -1.476 4.415
 -2.397 -1.448 4.345
 -2.373 -1.451 4.367
 -2.349 -1.454 4.39
 -2.313 -1.45 4.39
 -2.254 -1.431 4.345
 -2.23 -1.434 4.366
 -2.211 -1.44 4.398
 -2.164 -1.428 4.374
 -2.13 -1.424 4.374
 -2.091 -1.418 4.365
 -2.042 -1.404 4.332
 -2.019 -1.407 4.354
 -1.981 -1.4 4.343
 -1.939 -1.39 4.322
 -1.911 -1.39 4.333
 -1.882 -1.389 4.34
 -1.86 -1.393 4.362
 -1.82 -1.384 4.345
 -1.779 -1.374 4.321
 -1.757 -1.378 4.343
 -1.735 -1.382 4.366
 -1.69 -1.368 4.332
 -1.656 -1.363 4.323
 -1.621 -1.356 4.31
 -1.594 -1.356 4.318
 -1.582 -1.369 4.368
 -1.536 -1.353 4.325
 -1.506 -1.35 4.322
 -1.471 -1.343 4.306
 -1.44 -1.339 4.301
 -1.414 -1.339 4.309
 -1.389 -1.341 4.324
 -1.36 -1.339 4.322
 -1.323 -1.329 4.297
 0 0 0
 0 0 0
 0 0 0
 0 0 0
 0 0 0
 0 0 0
 0 0 0
 0 0 0
 0 0 0
 0 0 0
 0 0 0
 0 0 0
 0 0 0
 0 0 0
 0 0 0
 0 0 0
 0 0 0
 0 0 0
 0 0 0
 0 0 0
 0 0 0
 0 0 0
 0 0 0
 0 0 0
 0 0 0
 0 0 0
 0 0 0
 0 0 0
 0 0 0
 0 0 0
 0 0 0
 0 0 0
 0 0 0
 0 0 0
 0 0 0
 0 0 0
 0 0 0
 0 0 0
 -0.286 -1.287 4.297
 -0.261 -1.288 4.302
 -0.234 -1.281 4.279
 -0.209 -1.285 4.293
 -0.184 -1.284 4.291
 -0.159 -1.284 4.289
 -0.133 -1.282 4.285
 -0.108 -1.283 4.287
 -0.083 -1.286 4.297
 -0.057 -1.282 4.284
 -0.032 -1.284 4.291
 -0.007 -1.27 4.243
 0 0 0
 0 0 0
 0 0 0
 0 0 0
 0 0 0
 0 0 0
 0 0 0
 0 0 0
 0 0 0
 0 0 0
 0 0 0
 0 0 0
 0 0 0
 0 0 0
 0 0 0
 0 0 0
 0 0 0
 0 0 0
 0 0 0
 0 0 0
 0 0 0
 0 0 0
 0 0 0
 0 0 0
 0 0 0
 0 0 0
 0 0 0
 0 0 0
 0 0 0
 0 0 0
 0 0 0
 0 0 0
 0 0 0
 0 0 0
 0 0 0
 0 0 0
 0 0 0
 0 0 0
 0 0 0
 0 0 0
 1.039 -1.301 4.227
 1.075 -1.314 4.263
 1.097 -1.309 4.242
 1.128 -1.316 4.257
 1.152 -1.314 4.246
 1.173 -1.308 4.221
 1.201 -1.311 4.222
 1.238 -1.324 4.257
 1.268 -1.327 4.261
 1.286 -1.32 4.231
 1.321 -1.329 4.251
 1.351 -1.333 4.258
 1.374 -1.33 4.242
 1.41 -1.339 4.263
 1.431 -1.335 4.241
 1.456 -1.334 4.229
 1.489 -1.34 4.24
 1.511 -1.337 4.222
 1.532 -1.332 4.197
 1.571 -1.343 4.223
 1.6 -1.345 4.222
 1.633 -1.351 4.232
 1.661 -1.353 4.227
 1.694 -1.358 4.234
 1.712 -1.351 4.202
 1.748 -1.359 4.216
 1.769 -1.355 4.194
 1.801 -1.359 4.197
 1.83 -1.361 4.191
 0 0 0
 0 0 0
 0 0 0
 0 0 0
 0 0 0
 0 0 0
 0 0 0
 0 0 0
 0 0 0
 0 0 0
 0 0 0
 0 0 0
 0 0 0
 0 0 0
 0 0 0
 0 0 0
 0 0 0
 1.829 -1.08 3.148
 1.861 -1.087 3.156
 1.894 -1.094 3.163
 -2.553 -1.458 4.431
 -2.509 -1.45 4.422
 -2.438 -1.426 4.361
 -2.412 -1.428 4.381
 -2.361 -1.415 4.355
 -2.343 -1.421 4.387
 -2.302 -1.414 4.379
 -2.271 -1.413 4.387
 -2.223 -1.401 4.362
 -2.182 -1.393 4.35
 -2.148 -1.389 4.35
 -2.122 -1.391 4.366
 -2.081 -1.382 4.351
 -2.041 -1.375 4.339
 -2.005 -1.37 4.333
 -1.979 -1.371 4.347
 -1.939 -1.362 4.33
 -1.912 -1.363 4.342
 -1.899 -1.374 4.388
 -1.852 -1.359 4.352
 -1.822 -1.358 4.357
 -1.784 -1.35 4.341
 -1.744 -1.34 4.319
 -1.722 -1.344 4.341
