 1.548 -1.636 3.902
 1.574 -1.637 3.895
 1.6 -1.638 3.888
 1.624 -1.637 3.876
 1.647 -1.635 3.862
 1.671 -1.634 3.85
 1.694 -1.632 3.834
 1.719 -1.633 3.825
 1.746 -1.634 3.819
 1.768 -1.632 3.803
 1.789 -1.629 3.784
 1.803 -1.619 3.75
 1.812 -1.605 3.708
 1.817 -1.587 3.656
 1.82 -1.57 3.604
 1.817 -1.546 3.54
 1.819 -1.528 3.487
 1.817 -1.508 3.43
 1.803 -1.478 3.349
 1.781 -1.442 3.257
 1.774 -1.419 3.194
 1.769 -1.398 3.136
 1.77 -1.382 3.088
 1.767 -1.363 3.036
 1.764 -1.345 2.985
 1.759 -1.326 2.931
 1.76 -1.312 2.89
 1.75 -1.289 2.829
 -2.247 -1.649 3.773
 -2.16 -1.604 3.683
 -2.161 -1.623 3.74
 -2.135 -1.623 3.752
 -2.11 -1.624 3.767
 -2.083 -1.623 3.776
 -2.06 -1.625 3.793
 -2.034 -1.624 3.804
 -2.009 -1.626 3.818
 -1.982 -1.624 3.826
 -1.959 -1.627 3.843
 -1.931 -1.625 3.85
 -1.906 -1.626 3.862
 -1.881 -1.626 3.874
 -1.857 -1.628 3.89
 -1.83 -1.627 3.898
 -1.806 -1.628 3.91
 -1.782 -1.63 3.924
 -1.755 -1.629 3.933
 -1.729 -1.629 3.942
 -1.703 -1.628 3.95
 -1.676 -1.627 3.957
 -1.646 -1.623 3.955
 -1.618 -1.622 3.961
 -1.591 -1.62 3.965
 -1.564 -1.618 3.97
 -1.538 -1.617 3.977
 -1.513 -1.619 3.988
 -1.487 -1.618 3.994
 -1.46 -1.617 4
 -1.434 -1.616 4.006
 -1.408 -1.615 4.011
 -1.383 -1.616 4.021
 -1.356 -1.615 4.025
 -1.332 -1.616 4.035
 -1.308 -1.618 4.047
 -1.282 -1.618 4.054
 -1.256 -1.617 4.058
 -1.231 -1.618 4.067
 -1.204 -1.616 4.068
 -1.177 -1.615 4.071
 -1.152 -1.615 4.078
 -1.127 -1.615 4.084
 -1.1 -1.614 4.086
 -1.075 -1.614 4.092
 -1.048 -1.611 4.091
 -1.02 -1.608 4.088
 -0.994 -1.607 4.09
 -0.969 -1.607 4.095
 -0.943 -1.606 4.098
 -0.919 -1.608 4.108
 -0.895 -1.61 4.116
 -0.869 -1.61 4.121
 -0.844 -1.61 4.124
 -0.818 -1.61 4.129
 -0.791 -1.607 4.125
 -0.765 -1.604 4.121
 -0.739 -1.602 4.12
 -0.713 -1.601 4.122
 -0.688 -1.603 4.128
 -0.664 -1.603 4.133
 -0.64 -1.607 4.144
 -0.615 -1.609 4.153
 -0.59 -1.611 4.161
 -0.565 -1.611 4.163
 -0.54 -1.613 4.171
 -0.515 -1.612 4.172
 -0.489 -1.612 4.173
 -0.464 -1.611 4.173
 -0.438 -1.61 4.173
 -0.413 -1.609 4.172
 -0.387 -1.609 4.173
 -0.362 -1.608 4.172
 -0.337 -1.608 4.175
 -0.311 -1.607 4.174
 -0.286 -1.609 4.178
 -0.261 -1.609 4.182
 -0.236 -1.611 4.186
 -0.211 -1.609 4.183
 -0.185 -1.611 4.187
 -0.16 -1.611 4.188
 -0.135 -1.609 4.183
 -0.109 -1.607 4.178
 -0.084 -1.608 4.183
 -0.059 -1.607 4.18
 -0.034 -1.606 4.177
 -0.009 -1.605 4.173
 0.016 -1.608 4.18
 0.041 -1.605 4.174
 0.066 -1.605 4.172
 0.091 -1.606 4.174
 0.116 -1.608 4.179
 0.141 -1.605 4.171
 0.167 -1.607 4.175
 0.192 -1.609 4.177
 0.217 -1.607 4.17
 0.242 -1.608 4.172
 0.268 -1.61 4.175
 0.293 -1.609 4.171
 0.318 -1.609 4.17
 0.344 -1.612 4.175
 0.369 -1.611 4.17
 0.394 -1.61 4.166
 0.419 -1.61 4.163
 0.444 -1.609 4.159
 0.469 -1.609 4.155
 0.493 -1.607 4.148
 0.518 -1.607 4.145
 0.544 -1.608 4.144
 0.57 -1.61 4.145
 0.595 -1.609 4.141
 0.621 -1.612 4.145
 0.647 -1.615 4.15
 0.672 -1.615 4.145
 0.697 -1.615 4.141
 0.723 -1.616 4.14
 0.749 -1.617 4.139
 0.773 -1.615 4.13
 0.799 -1.616 4.127
 0.824 -1.616 4.121
 0.85 -1.617 4.12
 0.876 -1.619 4.12
 0.903 -1.622 4.122
 0.928 -1.623 4.119
 0.953 -1.622 4.112
 0.979 -1.622 4.107
 1.002 -1.619 4.094
 1.027 -1.619 4.087
 1.053 -1.62 4.085
 1.08 -1.623 4.086
 1.106 -1.624 4.082
 1.134 -1.627 4.084
 1.16 -1.628 4.079
 1.186 -1.629 4.075
 1.211 -1.629 4.067
 1.237 -1.63 4.064
 1.263 -1.631 4.058
 1.29 -1.632 4.055
 1.316 -1.634 4.051
 1.342 -1.634 4.044
 1.367 -1.634 4.037
 1.392 -1.634 4.028
 1.418 -1.634 4.019
 1.442 -1.633 4.008
 1.469 -1.635 4.005
 1.494 -1.634 3.993
 1.519 -1.634 3.985
 1.545 -1.634 3.976
 1.57 -1.634 3.966
 1.596 -1.634 3.959
 1.622 -1.635 3.952
 1.646 -1.634 3.938
 1.67 -1.633 3.926
 1.696 -1.634 3.918
 1.72 -1.632 3.905
 1.746 -1.632 3.894
 1.77 -1.632 3.882
 1.79 -1.626 3.859
 1.806 -1.618 3.829
 1.815 -1.604 3.784
 1.821 -1.588 3.736
 1.826 -1.571 3.684
 1.831 -1.555 3.635
 1.83 -1.534 3.575
 1.838 -1.521 3.533
 1.837 -1.501 3.476
 1.813 -1.463 3.376
 1.775 -1.414 3.253
 1.765 -1.39 3.185
 1.762 -1.371 3.131
 1.768 -1.359 3.092
 1.768 -1.343 3.046
 1.77 -1.329 3.002
 1.764 -1.309 2.947
 1.769 -1.298 2.912
 1.75 -1.27 2.837
 -2.256 -1.629 3.798
 -2.188 -1.599 3.74
 -2.195 -1.622 3.809
 -2.167 -1.621 3.818
 -2.142 -1.622 3.833
 -2.114 -1.621 3.843
 -2.091 -1.624 3.861
 -2.063 -1.622 3.87
 -2.038 -1.623 3.883
 -2.01 -1.621 3.89
 -1.985 -1.623 3.905
 -1.955 -1.619 3.909
 -1.931 -1.621 3.922
 -1.905 -1.621 3.935
 -1.882 -1.624 3.953
 -1.857 -1.624 3.964
 -1.831 -1.625 3.975
 -1.806 -1.626 3.987
 -1.78 -1.626 3.998
 -1.752 -1.625 4.005
 -1.725 -1.624 4.013
 -1.699 -1.624 4.022
 -1.669 -1.62 4.021
 -1.641 -1.619 4.027
 -1.613 -1.616 4.03
 -1.586 -1.615 4.035
 -1.559 -1.614 4.041
 -1.535 -1.616 4.055
 -1.507 -1.614 4.058
 -1.48 -1.613 4.065
 -1.454 -1.612 4.07
 -1.427 -1.612 4.076
 -1.401 -1.612 4.084
 -1.375 -1.611 4.09
 -1.349 -1.612 4.098
 -1.325 -1.614 4.11
 -1.299 -1.614 4.118
 -1.272 -1.613 4.121
 -1.247 -1.614 4.13
 -1.221 -1.613 4.135
 -1.195 -1.613 4.14
 -1.169 -1.614 4.148
 -1.143 -1.613 4.152
 -1.116 -1.611 4.155
 -1.089 -1.61 4.156
 -1.061 -1.607 4.153
 -1.033 -1.603 4.15
 -1.007 -1.602 4.151
 -0.981 -1.602 4.155
 -0.955 -1.601 4.159
 -0.93 -1.602 4.166
 -0.905 -1.604 4.175
 -0.88 -1.604 4.18
 -0.854 -1.604 4.185
 -0.828 -1.604 4.189
 -0.802 -1.603 4.189
 -0.775 -1.6 4.184
 -0.748 -1.598 4.183
 -0.722 -1.597 4.185
 -0.697 -1.597 4.189
 -0.671 -1.596 4.189
 -0.646 -1.599 4.198
 -0.622 -1.601 4.207
 -0.596 -1.601 4.211
 -0.571 -1.601 4.214
 -0.546 -1.604 4.223
 -0.52 -1.603 4.224
 -0.494 -1.602 4.224
 -0.468 -1.602 4.224
 -0.443 -1.601 4.224
 -0.416 -1.598 4.219
 -0.391 -1.598 4.219
 -0.365 -1.597 4.219
 -0.339 -1.596 4.219
 -0.314 -1.594 4.215
 -0.288 -1.597 4.222
 -0.263 -1.597 4.225
 -0.238 -1.597 4.226
 -0.212 -1.596 4.224
 -0.187 -1.598 4.228
 -0.161 -1.598 4.229
 -0.136 -1.596 4.223
 -0.11 -1.595 4.222
 -0.085 -1.596 4.225
 -0.059 -1.595 4.221
 -0.034 -1.593 4.217
 -0.009 -1.593 4.217
 0.016 -1.594 4.22
 0.041 -1.592 4.214
 0.066 -1.591 4.212
 0.092 -1.593 4.214
 0.117 -1.594 4.217
 0.143 -1.592 4.211
 0.168 -1.595 4.216
 0.194 -1.596 4.22
 0.219 -1.595 4.214
 0.244 -1.596 4.215
 0.27 -1.598 4.219
 0.295 -1.598 4.217
 0.321 -1.599 4.218
 0.347 -1.602 4.223
 0.373 -1.601 4.221
 0.397 -1.599 4.212
 0.423 -1.6 4.211
 0.448 -1.599 4.208
 0.473 -1.598 4.202
 0.498 -1.596 4.195
 0.524 -1.598 4.197
 0.549 -1.598 4.193
 0.575 -1.599 4.192
 0.601 -1.6 4.19
 0.627 -1.603 4.195
 0.653 -1.605 4.196
 0.678 -1.604 4.191
 0.704 -1.605 4.189
 0.73 -1.604 4.184
 0.755 -1.605 4.181
 0.78 -1.604 4.175
 0.806 -1.605 4.174
 0.832 -1.605 4.168
 0.858 -1.607 4.169
 0.884 -1.608 4.166
 0.911 -1.61 4.167
 0.937 -1.612 4.166
 0.962 -1.611 4.158
 0.988 -1.612 4.155
 1.014 -1.612 4.149
 1.039 -1.611 4.143
 1.066 -1.613 4.142
 1.093 -1.616 4.142
 1.119 -1.617 4.139
 1.146 -1.619 4.136
 1.173 -1.62 4.134
 1.199 -1.621 4.128
 1.226 -1.623 4.126
 1.252 -1.623 4.12
 1.278 -1.624 4.116
 1.305 -1.626 4.112
 1.332 -1.627 4.108
 1.357 -1.626 4.098
 1.383 -1.627 4.092
 1.408 -1.626 4.083
 1.434 -1.627 4.075
 1.46 -1.627 4.066
 1.488 -1.63 4.065
 1.514 -1.63 4.057
 1.54 -1.63 4.048
 1.565 -1.629 4.038
 1.591 -1.629 4.028
 1.616 -1.629 4.018
 1.643 -1.63 4.011
 1.668 -1.63 4.001
 1.694 -1.63 3.99
 1.719 -1.629 3.979
 1.744 -1.628 3.967
 1.768 -1.627 3.953
 1.789 -1.623 3.933
 1.807 -1.616 3.904
 1.82 -1.605 3.867
 1.826 -1.589 3.817
 1.83 -1.57 3.761
 1.834 -1.553 3.709
 1.839 -1.537 3.659
 1.841 -1.518 3.604
 1.845 -1.503 3.556
 1.85 -1.488 3.508
 1.821 -1.446 3.4
 1.767 -1.386 3.247
 1.754 -1.359 3.172
 1.76 -1.347 3.135
 1.767 -1.337 3.099
 1.771 -1.324 3.058
 1.774 -1.311 3.017
 1.769 -1.292 2.963
 1.773 -1.28 2.925
 1.751 -1.251 2.847
 -2.258 -1.604 3.812
 -2.274 -1.635 3.898
 -2.228 -1.621 3.877
 -2.202 -1.621 3.891
 -2.177 -1.622 3.906
 -2.146 -1.619 3.911
 -2.122 -1.621 3.928
 -2.092 -1.618 3.933
 -2.066 -1.618 3.946
 -2.037 -1.617 3.953
 -2.012 -1.618 3.968
 -1.982 -1.615 3.971
 -1.958 -1.617 3.987
 -1.931 -1.617 3.998
 -1.908 -1.62 4.017
 -1.884 -1.622 4.033
 -1.857 -1.622 4.042
 -1.832 -1.623 4.055
 -1.806 -1.623 4.066
 -1.777 -1.621 4.072
 -1.748 -1.619 4.076
 -1.722 -1.619 4.085
 -1.692 -1.616 4.087
 -1.665 -1.615 4.094
 -1.637 -1.614 4.099
 -1.609 -1.612 4.105
 -1.582 -1.612 4.112
 -1.557 -1.613 4.123
 -1.528 -1.61 4.124
 -1.501 -1.609 4.13
 -1.474 -1.608 4.136
 -1.447 -1.608 4.142
 -1.42 -1.608 4.149
 -1.394 -1.607 4.156
 -1.367 -1.607 4.162
 -1.342 -1.608 4.172
 -1.316 -1.608 4.179
 -1.287 -1.606 4.179
 -1.261 -1.606 4.186
 -1.235 -1.605 4.191
 -1.208 -1.605 4.196
 -1.182 -1.605 4.201
 -1.156 -1.604 4.207
 -1.128 -1.603 4.21
 -1.102 -1.602 4.213
 -1.073 -1.599 4.21
 -1.046 -1.596 4.208
 -1.018 -1.594 4.208
 -0.993 -1.595 4.214
 -0.966 -1.593 4.215
 -0.94 -1.594 4.221
 -0.915 -1.596 4.23
 -0.889 -1.595 4.234
 -0.863 -1.595 4.236
 -0.837 -1.595 4.24
 -0.81 -1.594 4.241
 -0.782 -1.59 4.235
 -0.756 -1.589 4.237
 -0.73 -1.588 4.236
 -0.704 -1.587 4.239
 -0.677 -1.585 4.237
 -0.652 -1.587 4.245
 -0.626 -1.587 4.246
 -0.601 -1.588 4.252
 -0.575 -1.588 4.255
 -0.55 -1.59 4.262
 -0.524 -1.588 4.261
 -0.498 -1.588 4.263
 -0.471 -1.587 4.262
 -0.445 -1.585 4.259
 -0.419 -1.582 4.252
 -0.393 -1.582 4.254
 -0.367 -1.58 4.252
 -0.341 -1.58 4.253
 -0.315 -1.579 4.25
 -0.29 -1.58 4.254
 -0.264 -1.58 4.254
 -0.239 -1.579 4.254
 -0.213 -1.578 4.253
 -0.187 -1.58 4.256
 -0.162 -1.581 4.26
 -0.136 -1.579 4.256
 -0.111 -1.579 4.256
 -0.085 -1.579 4.257
 -0.06 -1.578 4.253
 -0.034 -1.576 4.248
 -0.008 -1.577 4.25
 0.016 -1.578 4.253
 0.042 -1.576 4.248
 0.067 -1.576 4.246
 0.093 -1.577 4.249
 0.118 -1.578 4.25
 0.144 -1.576 4.244
 0.169 -1.578 4.249
 0.195 -1.579 4.251
 0.22 -1.578 4.246
 0.246 -1.578 4.245
 0.272 -1.58 4.248
 0.297 -1.58 4.247
 0.323 -1.582 4.249
 0.349 -1.585 4.255
 0.375 -1.585 4.254
 0.4 -1.582 4.244
 0.425 -1.582 4.241
 0.451 -1.582 4.237
 0.476 -1.581 4.233
 0.501 -1.58 4.227
 0.528 -1.583 4.233
 0.553 -1.584 4.231
 0.579 -1.585 4.23
 0.605 -1.584 4.226
 0.631 -1.586 4.226
 0.657 -1.586 4.225
 0.682 -1.585 4.218
 0.708 -1.586 4.216
 0.733 -1.586 4.211
 0.759 -1.588 4.212
 0.785 -1.589 4.21
 0.812 -1.59 4.209
 0.838 -1.591 4.206
 0.864 -1.593 4.207
 0.891 -1.594 4.206
 0.917 -1.595 4.204
 0.944 -1.598 4.204
 0.969 -1.597 4.197
 0.996 -1.599 4.197
 1.022 -1.598 4.19
 1.047 -1.598 4.184
 1.074 -1.6 4.182
 1.101 -1.602 4.182
 1.128 -1.603 4.178
 1.155 -1.605 4.176
 1.183 -1.608 4.177
 1.209 -1.609 4.173
 1.237 -1.611 4.172
 1.264 -1.612 4.167
 1.291 -1.613 4.164
 1.318 -1.615 4.16
 1.345 -1.616 4.156
 1.37 -1.616 4.147
 1.397 -1.617 4.141
 1.424 -1.618 4.136
 1.451 -1.62 4.132
 1.478 -1.62 4.125
 1.506 -1.623 4.123
 1.533 -1.624 4.117
 1.559 -1.624 4.108
 1.584 -1.623 4.096
 1.61 -1.623 4.086
 1.636 -1.623 4.077
 1.664 -1.624 4.071
 1.689 -1.623 4.058
 1.714 -1.623 4.048
 1.739 -1.622 4.035
 1.763 -1.62 4.02
 1.786 -1.617 4.002
 1.803 -1.609 3.971
 1.817 -1.599 3.935
 1.829 -1.587 3.896
 1.833 -1.569 3.839
 1.836 -1.55 3.782
 1.844 -1.536 3.737
 1.849 -1.52 3.688
 1.851 -1.502 3.633
 1.86 -1.491 3.593
 1.868 -1.478 3.551
 1.829 -1.429 3.422
 1.744 -1.346 3.211
 1.739 -1.326 3.153
 1.755 -1.323 3.134
 1.764 -1.313 3.102
 1.77 -1.302 3.065
 1.778 -1.293 3.031
 1.773 -1.274 2.977
 1.782 -1.267 2.949
 1.748 -1.228 2.848
 -2.325 -1.625 3.935
 -2.283 -1.614 3.923
 -2.26 -1.617 3.943
 -2.234 -1.617 3.957
 -2.207 -1.618 3.97
 -2.176 -1.615 3.975
 -2.151 -1.616 3.992
 -2.12 -1.614 3.997
 -2.094 -1.614 4.01
 -2.066 -1.613 4.02
 -2.041 -1.615 4.035
 -2.01 -1.611 4.037
 -1.986 -1.614 4.056
 -1.958 -1.613 4.065
 -1.935 -1.616 4.084
 -1.909 -1.617 4.096
 -1.881 -1.616 4.105
 -1.854 -1.616 4.114
 -1.828 -1.616 4.126
 -1.799 -1.615 4.132
 -1.772 -1.614 4.14
 -1.746 -1.615 4.152
 -1.717 -1.613 4.157
 -1.689 -1.612 4.163
 -1.66 -1.61 4.166
 -1.631 -1.608 4.17
 -1.603 -1.606 4.175
 -1.576 -1.606 4.183
 -1.547 -1.604 4.186
 -1.519 -1.602 4.189
 -1.491 -1.601 4.195
 -1.464 -1.601 4.202
 -1.437 -1.6 4.208
 -1.41 -1.599 4.213
 -1.384 -1.6 4.222
 -1.358 -1.601 4.23
 -1.331 -1.6 4.236
 -1.303 -1.598 4.238
 -1.276 -1.598 4.243
 -1.248 -1.596 4.246
 -1.221 -1.596 4.252
 -1.194 -1.595 4.255
 -1.167 -1.593 4.257
 -1.138 -1.591 4.256
 -1.112 -1.591 4.26
 -1.083 -1.587 4.257
 -1.055 -1.585 4.256
 -1.028 -1.584 4.259
 -1.002 -1.584 4.264
 -0.975 -1.582 4.264
 -0.948 -1.582 4.268
 -0.922 -1.582 4.272
 -0.895 -1.581 4.272
 -0.869 -1.58 4.275
 -0.842 -1.579 4.276
 -0.815 -1.577 4.276
 -0.787 -1.574 4.271
 -0.761 -1.574 4.275
 -0.734 -1.572 4.272
 -0.708 -1.571 4.273
 -0.681 -1.57 4.273
 -0.656 -1.572 4.281
 -0.629 -1.57 4.279
 -0.604 -1.57 4.283
 -0.578 -1.57 4.286
 -0.552 -1.571 4.29
 -0.525 -1.569 4.286
 -0.499 -1.568 4.285
 -0.473 -1.566 4.283
 -0.447 -1.565 4.283
 -0.42 -1.562 4.276
 -0.394 -1.562 4.278
 -0.368 -1.562 4.278
 -0.343 -1.561 4.278
 -0.316 -1.559 4.273
 -0.291 -1.559 4.275
 -0.265 -1.559 4.276
 -0.239 -1.558 4.274
 -0.213 -1.557 4.273
 -0.188 -1.558 4.274
 -0.162 -1.559 4.278
 -0.136 -1.557 4.274
 -0.111 -1.556 4.272
 -0.085 -1.557 4.273
 -0.059 -1.555 4.269
 -0.034 -1.553 4.264
 -0.008 -1.554 4.266
 0.016 -1.554 4.267
 0.042 -1.553 4.261
 0.067 -1.554 4.263
 0.093 -1.555 4.266
 0.119 -1.555 4.265
 0.144 -1.555 4.264
 0.17 -1.557 4.268
 0.196 -1.558 4.269
 0.221 -1.556 4.264
 0.247 -1.556 4.263
 0.272 -1.558 4.265
 0.298 -1.558 4.265
 0.324 -1.559 4.265
 0.35 -1.562 4.271
 0.376 -1.563 4.271
 0.401 -1.56 4.262
 0.426 -1.56 4.26
 0.452 -1.56 4.256
 0.477 -1.559 4.252
 0.503 -1.559 4.248
 0.529 -1.562 4.254
 0.555 -1.562 4.249
 0.581 -1.563 4.249
 0.607 -1.564 4.249
 0.633 -1.565 4.247
 0.659 -1.565 4.246
 0.685 -1.566 4.244
 0.711 -1.568 4.244
 0.736 -1.567 4.238
 0.763 -1.569 4.238
 0.789 -1.569 4.235
 0.815 -1.57 4.233
 0.841 -1.57 4.229
 0.867 -1.572 4.228
 0.894 -1.574 4.228
 0.921 -1.576 4.229
 0.948 -1.578 4.231
 0.974 -1.578 4.226
 1.001 -1.581 4.226
 1.027 -1.58 4.219
 1.053 -1.58 4.214
 1.08 -1.582 4.213
 1.107 -1.584 4.211
 1.133 -1.585 4.207
 1.161 -1.587 4.206
 1.188 -1.589 4.205
 1.216 -1.591 4.202
 1.244 -1.594 4.205
 1.271 -1.595 4.201
 1.298 -1.597 4.197
 1.326 -1.598 4.193
 1.353 -1.6 4.191
 1.379 -1.6 4.182
 1.406 -1.601 4.178
 1.434 -1.603 4.175
 1.463 -1.606 4.174
 1.49 -1.607 4.167
 1.519 -1.609 4.165
 1.546 -1.61 4.159
 1.573 -1.611 4.153
 1.599 -1.611 4.143
 1.626 -1.612 4.134
 1.653 -1.613 4.128
 1.681 -1.615 4.123
 1.706 -1.614 4.11
 1.733 -1.614 4.101
 1.757 -1.612 4.086
 1.781 -1.61 4.069
 1.8 -1.603 4.043
 1.814 -1.593 4.005
 1.826 -1.581 3.965
 1.836 -1.567 3.92
 1.84 -1.55 3.864
 1.846 -1.533 3.812
 1.856 -1.521 3.771
 1.86 -1.505 3.718
 1.865 -1.489 3.668
 1.875 -1.478 3.631
 0 0 0
 0 0 0
 0 0 0
 1.742 -1.307 3.166
 1.758 -1.303 3.146
 1.767 -1.294 3.115
 1.775 -1.285 3.081
 1.782 -1.275 3.046
 1.776 -1.256 2.991
 1.756 -1.228 2.912
 1.769 -1.223 2.889
 -2.31 -1.587 3.919
 -2.326 -1.618 4.008
 -2.198 -1.547 3.844
 -2.173 -1.547 3.858
 -2.146 -1.547 3.869
 -2.206 -1.61 4.04
 -2.18 -1.611 4.055
 -2.149 -1.608 4.061
 -2.122 -1.608 4.073
 -2.093 -1.607 4.082
 -2.067 -1.608 4.097
 -2.037 -1.606 4.103
 -2.014 -1.609 4.122
 -1.986 -1.609 4.132
 -1.961 -1.61 4.148
 -1.935 -1.611 4.161
 -1.906 -1.61 4.168
 -1.877 -1.609 4.175
 -1.851 -1.609 4.187
 -1.823 -1.609 4.196
 -1.794 -1.608 4.203
 -1.767 -1.608 4.213
 -1.738 -1.606 4.217
 -1.709 -1.605 4.224
 -1.678 -1.6 4.221
 -1.648 -1.598 4.224
 -1.619 -1.596 4.227
 -1.591 -1.595 4.234
 -1.562 -1.593 4.237
 -1.534 -1.592 4.242
 -1.506 -1.591 4.246
 -1.479 -1.591 4.254
 -1.451 -1.589 4.258
 -1.422 -1.587 4.26
 -1.395 -1.587 4.267
 -1.368 -1.586 4.272
 -1.339 -1.584 4.273
 -1.311 -1.583 4.276
 -1.284 -1.582 4.28
 -1.256 -1.581 4.283
 -1.229 -1.58 4.287
 -1.203 -1.58 4.296
 -1.175 -1.578 4.296
 -1.147 -1.576 4.296
 -1.119 -1.575 4.299
 -1.091 -1.572 4.296
 -1.062 -1.568 4.291
 -1.035 -1.567 4.294
 -1.008 -1.566 4.296
 -0.98 -1.565 4.296
 -0.954 -1.565 4.3
 -0.927 -1.564 4.303
 -0.899 -1.562 4.301
 -0.872 -1.56 4.301
 -0.845 -1.559 4.302
 -0.818 -1.558 4.303
 -0.791 -1.555 4.298
 -0.765 -1.555 4.303
 -0.738 -1.553 4.301
 -0.711 -1.551 4.299
 -0.684 -1.549 4.296
 -0.658 -1.55 4.3
 -0.631 -1.548 4.299
 -0.605 -1.548 4.301
 -0.579 -1.549 4.307
 -0.553 -1.549 4.309
 -0.527 -1.547 4.306
 -0.5 -1.545 4.304
 -0.474 -1.544 4.302
 -0.448 -1.543 4.301
 -0.421 -1.54 4.294
 -0.395 -1.541 4.298
 -0.369 -1.54 4.297
 -0.343 -1.539 4.297
 -0.317 -1.536 4.289
 -0.291 -1.535 4.288
 -0.265 -1.534 4.286
 -0.239 -1.533 4.284
 -0.213 -1.532 4.282
 -0.188 -1.532 4.283
 -0.162 -1.533 4.287
 -0.136 -1.531 4.282
 -0.111 -1.531 4.28
 -0.085 -1.53 4.279
 -0.059 -1.529 4.277
 -0.034 -1.529 4.276
 -0.008 -1.53 4.279
 0.016 -1.53 4.277
 0.042 -1.529 4.274
 0.068 -1.529 4.274
 0.093 -1.529 4.272
 0.119 -1.528 4.27
 0.144 -1.529 4.272
 0.17 -1.531 4.276
 0.196 -1.533 4.279
 0.221 -1.533 4.278
 0.247 -1.533 4.276
 0.273 -1.534 4.277
 0.298 -1.534 4.276
 0.324 -1.534 4.274
 0.35 -1.535 4.276
 0.376 -1.537 4.278
 0.401 -1.535 4.271
 0.427 -1.536 4.27
 0.452 -1.535 4.266
 0.478 -1.535 4.263
 0.503 -1.534 4.259
 0.53 -1.537 4.264
 0.555 -1.537 4.259
 0.581 -1.538 4.26
 0.608 -1.539 4.26
 0.634 -1.541 4.261
 0.66 -1.541 4.257
 0.686 -1.542 4.256
 0.712 -1.544 4.257
 0.738 -1.543 4.252
 0.764 -1.544 4.25
 0.79 -1.545 4.249
 0.817 -1.548 4.251
 0.843 -1.548 4.246
 0.869 -1.549 4.245
 0.896 -1.551 4.245
 0.923 -1.552 4.244
 0.949 -1.554 4.242
 0.975 -1.554 4.239
 1.003 -1.557 4.241
 1.03 -1.558 4.239
 1.057 -1.561 4.239
 1.085 -1.562 4.238
 1.112 -1.565 4.238
 1.138 -1.565 4.233
 1.165 -1.566 4.228
 1.192 -1.567 4.224
 1.219 -1.568 4.221
 1.247 -1.571 4.222
 1.275 -1.573 4.22
 1.302 -1.575 4.218
 1.33 -1.577 4.215
 1.358 -1.579 4.214
 1.385 -1.579 4.207
 1.413 -1.582 4.205
 1.442 -1.585 4.205
 1.47 -1.587 4.203
 1.497 -1.588 4.197
 1.526 -1.591 4.195
 1.555 -1.593 4.191
 1.582 -1.594 4.185
 1.609 -1.595 4.178
 1.636 -1.595 4.17
 1.665 -1.597 4.165
 1.692 -1.598 4.158
 1.719 -1.599 4.149
 1.745 -1.598 4.138
 1.771 -1.597 4.126
 1.793 -1.594 4.105
 1.81 -1.586 4.075
 1.821 -1.573 4.03
 1.834 -1.562 3.991
 1.844 -1.548 3.945
 1.849 -1.531 3.891
 1.856 -1.516 3.841
 1.868 -1.506 3.804
 1.872 -1.489 3.75
 1.875 -1.472 3.697
 0 0 0
 0 0 0
 0 0 0
 0 0 0
 1.741 -1.284 3.171
 1.761 -1.284 3.159
 1.771 -1.276 3.129
 1.781 -1.268 3.099
 1.792 -1.261 3.071
 1.791 -1.246 3.023
 1.816 -1.249 3.02
 1.77 -1.204 2.899
 -2.389 -1.614 4.064
 -2.332 -1.594 4.028
 -1.849 -1.279 3.239
 -1.827 -1.279 3.249
 -1.897 -1.344 3.427
 -1.963 -1.409 3.603
 -2.03 -1.475 3.785
 -2.001 -1.473 3.79
 -2.064 -1.538 3.97
 -2.036 -1.537 3.981
 -2.011 -1.538 3.995
 -1.898 -1.471 3.83
 -1.958 -1.538 4.017
 -1.93 -1.537 4.025
 -1.905 -1.538 4.038
 -1.879 -1.538 4.049
 -1.929 -1.602 4.228
 -1.899 -1.6 4.233
 -1.872 -1.6 4.245
 -1.843 -1.599 4.251
 -1.812 -1.596 4.254
 -1.785 -1.596 4.264
 -1.756 -1.596 4.272
 -1.727 -1.594 4.277
 -1.695 -1.589 4.274
 -1.666 -1.588 4.279
 -1.635 -1.585 4.28
 -1.607 -1.584 4.285
 -1.577 -1.581 4.287
 -1.549 -1.58 4.292
 -1.52 -1.579 4.296
 -1.491 -1.577 4.299
 -1.463 -1.575 4.301
 -1.432 -1.571 4.298
 -1.403 -1.569 4.301
 -1.375 -1.567 4.302
 -1.346 -1.565 4.304
 -1.318 -1.563 4.305
 -1.29 -1.563 4.311
 -1.262 -1.561 4.313
 -1.234 -1.56 4.315
 -1.207 -1.559 4.318
 -1.178 -1.556 4.317
 -1.149 -1.553 4.315
 -1.122 -1.552 4.317
 -1.094 -1.55 4.317
 -1.066 -1.548 4.316
 -1.039 -1.547 4.319
 -1.011 -1.546 4.322
 -0.984 -1.545 4.322
 -0.957 -1.544 4.324
 -0.93 -1.542 4.324
 -0.901 -1.539 4.32
 -0.874 -1.537 4.319
 -0.847 -1.535 4.317
 -0.819 -1.534 4.317
 -0.792 -1.531 4.313
 -0.766 -1.531 4.317
 -0.739 -1.53 4.317
 -0.712 -1.528 4.314
 -0.684 -1.525 4.31
 -0.658 -1.525 4.313
 -0.632 -1.524 4.313
 -0.605 -1.523 4.311
 -0.579 -1.523 4.315
 -0.553 -1.522 4.316
 -0.526 -1.52 4.311
 -0.5 -1.519 4.309
 -0.474 -1.518 4.308
 -0.447 -1.517 4.307
 -0.421 -1.514 4.303
 -0.395 -1.514 4.305
 -0.369 -1.513 4.302
 -0.343 -1.512 4.3
 -0.317 -1.51 4.296
 -0.291 -1.508 4.293
 -0.265 -1.508 4.292
 -0.239 -1.507 4.292
 -0.213 -1.507 4.293
 -0.187 -1.506 4.29
 -0.162 -1.507 4.294
 -0.136 -1.506 4.29
 -0.11 -1.505 4.287
 -0.085 -1.504 4.286
 -0.059 -1.504 4.285
 -0.034 -1.504 4.285
 -0.008 -1.505 4.289
 0.017 -1.504 4.285
 0.042 -1.503 4.28
 0.068 -1.503 4.279
 0.093 -1.503 4.279
 0.119 -1.502 4.277
 0.144 -1.503 4.279
 0.17 -1.505 4.283
 0.196 -1.506 4.285
 0.221 -1.506 4.282
 0.247 -1.506 4.28
 0.273 -1.507 4.282
 0.298 -1.507 4.281
 0.324 -1.508 4.28
 0.35 -1.508 4.279
 0.376 -1.51 4.282
 0.401 -1.508 4.275
 0.427 -1.509 4.275
 0.452 -1.509 4.272
 0.478 -1.509 4.271
 0.504 -1.509 4.268
 0.53 -1.512 4.272
 0.555 -1.511 4.267
 0.581 -1.512 4.266
 0.607 -1.512 4.263
 0.633 -1.513 4.262
 0.659 -1.512 4.257
 0.685 -1.514 4.258
 0.711 -1.515 4.258
 0.737 -1.516 4.257
 0.764 -1.518 4.256
 0.79 -1.519 4.255
 0.817 -1.521 4.258
 0.843 -1.522 4.255
 0.87 -1.524 4.255
 0.896 -1.525 4.253
 0.923 -1.527 4.254
 0.95 -1.528 4.252
 0.976 -1.529 4.249
 1.004 -1.531 4.251
 1.031 -1.533 4.249
 1.058 -1.535 4.249
 1.085 -1.537 4.247
 1.112 -1.539 4.247
 1.139 -1.54 4.243
 1.166 -1.54 4.239
 1.193 -1.542 4.237
 1.22 -1.544 4.235
 1.248 -1.546 4.235
 1.276 -1.549 4.234
 1.305 -1.551 4.233
 1.333 -1.553 4.232
 1.36 -1.555 4.229
 1.388 -1.556 4.224
 1.416 -1.559 4.223
 1.445 -1.562 4.223
 1.474 -1.564 4.222
 1.502 -1.567 4.219
 1.531 -1.569 4.217
 1.559 -1.571 4.213
 1.588 -1.573 4.209
 1.615 -1.574 4.202
 1.643 -1.574 4.195
 1.672 -1.577 4.192
 1.7 -1.579 4.187
 1.728 -1.58 4.179
 1.754 -1.58 4.168
 1.778 -1.577 4.152
 1.798 -1.572 4.127
 1.816 -1.564 4.095
 1.827 -1.551 4.051
 1.84 -1.54 4.012
 1.851 -1.528 3.969
 1.86 -1.514 3.922
 1.868 -1.501 3.876
 1.883 -1.492 3.842
 1.886 -1.475 3.787
 0 0 0
 0 0 0
 0 0 0
 0 0 0
 0 0 0
 1.745 -1.266 3.187
 1.766 -1.266 3.176
 1.776 -1.258 3.145
 1.786 -1.25 3.114
 1.798 -1.244 3.089
 1.8 -1.231 3.046
 1.754 -1.186 2.922
 1.786 -1.194 2.932
 -2.402 -1.595 4.096
 -2.397 -1.611 4.15
 -1.405 -0.956 2.465
 -1.387 -0.955 2.471
 -1.463 -1.019 2.646
 -1.532 -1.081 2.816
 -1.605 -1.147 2.997
 -1.582 -1.144 3
 -1.65 -1.209 3.179
 -1.627 -1.207 3.185
 -1.609 -1.21 3.2
 -1.586 -1.208 3.206
 -1.65 -1.274 3.39
 -1.625 -1.273 3.395
 -1.685 -1.337 3.578
 -1.739 -1.399 3.755
 -1.791 -1.462 3.935
 -1.84 -1.524 4.112
 -1.89 -1.589 4.297
 -1.86 -1.586 4.301
 -1.829 -1.584 4.305
 -1.799 -1.582 4.309
 -1.77 -1.58 4.314
 -1.739 -1.578 4.317
 -1.708 -1.574 4.316
 -1.678 -1.572 4.32
 -1.646 -1.568 4.317
 -1.617 -1.566 4.32
 -1.587 -1.564 4.322
 -1.557 -1.561 4.323
 -1.528 -1.56 4.328
 -1.5 -1.559 4.332
 -1.47 -1.556 4.333
 -1.44 -1.552 4.33
 -1.411 -1.551 4.334
 -1.381 -1.548 4.331
 -1.352 -1.545 4.332
 -1.323 -1.543 4.332
 -1.295 -1.542 4.334
 -1.266 -1.539 4.333
 -1.237 -1.536 4.332
 -1.208 -1.534 4.333
 -1.18 -1.532 4.331
 -1.151 -1.529 4.329
 -1.123 -1.528 4.332
 -1.096 -1.526 4.333
 -1.068 -1.525 4.333
 -1.04 -1.523 4.335
 -1.013 -1.522 4.336
 -0.985 -1.52 4.335
 -0.958 -1.519 4.337
 -0.93 -1.517 4.335
 -0.902 -1.514 4.332
 -0.875 -1.513 4.331
 -0.847 -1.511 4.33
 -0.82 -1.508 4.326
 -0.792 -1.506 4.323
 -0.765 -1.504 4.323
 -0.738 -1.503 4.321
 -0.711 -1.501 4.319
 -0.684 -1.499 4.317
 -0.658 -1.499 4.321
 -0.632 -1.499 4.322
 -0.605 -1.497 4.321
 -0.579 -1.498 4.325
 -0.553 -1.498 4.327
 -0.526 -1.495 4.321
 -0.5 -1.494 4.32
 -0.474 -1.493 4.319
 -0.447 -1.491 4.317
 -0.421 -1.489 4.312
 -0.395 -1.489 4.314
 -0.369 -1.487 4.31
 -0.343 -1.487 4.31
 -0.317 -1.485 4.306
 -0.291 -1.483 4.303
 -0.265 -1.483 4.303
 -0.239 -1.483 4.303
 -0.213 -1.481 4.299
 -0.187 -1.48 4.297
 -0.162 -1.481 4.299
 -0.136 -1.479 4.294
 -0.11 -1.477 4.289
 -0.085 -1.476 4.287
 -0.059 -1.477 4.288
 -0.033 -1.477 4.289
 -0.008 -1.478 4.29
 0.017 -1.477 4.288
 0.042 -1.477 4.286
 0.068 -1.476 4.285
 0.093 -1.476 4.283
 0.119 -1.476 4.282
 0.145 -1.478 4.286
 0.17 -1.479 4.29
 0.196 -1.48 4.291
 0.222 -1.48 4.289
 0.247 -1.48 4.286
 0.273 -1.48 4.286
 0.298 -1.48 4.284
 0.324 -1.48 4.283
 0.349 -1.48 4.281
 0.376 -1.482 4.284
 0.401 -1.481 4.28
 0.427 -1.482 4.278
 0.452 -1.481 4.274
 0.477 -1.481 4.271
 0.503 -1.481 4.268
 0.529 -1.483 4.271
 0.555 -1.483 4.267
 0.581 -1.484 4.267
 0.606 -1.484 4.265
 0.632 -1.484 4.26
 0.657 -1.484 4.257
 0.684 -1.485 4.257
 0.71 -1.486 4.256
 0.736 -1.488 4.257
 0.763 -1.49 4.26
 0.789 -1.492 4.259
 0.817 -1.495 4.264
 0.844 -1.497 4.264
 0.87 -1.498 4.264
 0.897 -1.499 4.263
 0.923 -1.501 4.262
 0.95 -1.502 4.26
 0.977 -1.503 4.258
 1.003 -1.505 4.257
 1.03 -1.506 4.255
 1.058 -1.509 4.257
 1.085 -1.51 4.254
 1.112 -1.512 4.253
 1.139 -1.513 4.25
 1.166 -1.514 4.247
 1.193 -1.516 4.245
 1.221 -1.518 4.243
 1.248 -1.52 4.242
 1.277 -1.523 4.244
 1.305 -1.525 4.242
 1.333 -1.527 4.24
 1.361 -1.529 4.238
 1.389 -1.531 4.237
 1.418 -1.534 4.235
 1.447 -1.537 4.236
 1.476 -1.539 4.235
 1.504 -1.542 4.232
 1.533 -1.544 4.229
 1.561 -1.545 4.224
 1.589 -1.547 4.219
 1.617 -1.549 4.215
 1.645 -1.55 4.209
 1.675 -1.553 4.207
 1.703 -1.554 4.202
 1.732 -1.556 4.197
 1.759 -1.556 4.187
 1.781 -1.553 4.168
 1.802 -1.548 4.143
 1.819 -1.54 4.111
 1.831 -1.528 4.068
 1.844 -1.518 4.03
 1.858 -1.508 3.992
 1.867 -1.494 3.946
 1.878 -1.483 3.904
 1.894 -1.476 3.874
 0 0 0
 0 0 0
 0 0 0
 0 0 0
 0 0 0
 0 0 0
 1.748 -1.246 3.199
 1.771 -1.248 3.192
 1.783 -1.241 3.165
 1.793 -1.234 3.134
 1.808 -1.229 3.112
 1.812 -1.218 3.072
 1.883 -1.251 3.145
 0 0 0
 -0.037 -0.026 0.051
 -0.005 -0.005 -0.003
 -0.96 -0.642 1.684
 -0.947 -0.641 1.686
 -1.028 -0.704 1.859
 -1.104 -0.765 2.029
 -1.181 -0.829 2.206
 -1.162 -0.826 2.206
 -1.233 -0.888 2.378
 -1.217 -0.887 2.384
 -1.201 -0.887 2.39
 -1.182 -0.885 2.392
 -1.249 -0.948 2.569
 -1.313 -1.011 2.747
 -1.457 -1.136 3.099
 -1.593 -1.26 3.448
 -1.727 -1.385 3.801
 -1.854 -1.509 4.152
 -1.902 -1.571 4.334
 -1.871 -1.568 4.336
 -1.84 -1.566 4.34
 -1.809 -1.563 4.342
 -1.779 -1.561 4.345
 -1.747 -1.557 4.346
 -1.715 -1.554 4.344
 -1.684 -1.551 4.345
 -1.652 -1.547 4.343
 -1.623 -1.545 4.345
 -1.593 -1.543 4.348
 -1.563 -1.54 4.349
 -1.534 -1.539 4.353
 -1.505 -1.536 4.355
 -1.474 -1.533 4.354
 -1.443 -1.529 4.35
 -1.414 -1.527 4.35
 -1.383 -1.523 4.346
 -1.353 -1.52 4.344
 -1.324 -1.518 4.345
 -1.295 -1.516 4.345
 -1.266 -1.513 4.344
 -1.237 -1.51 4.341
 -1.209 -1.508 4.343
 -1.179 -1.505 4.339
 -1.15 -1.501 4.335
 -1.122 -1.5 4.336
 -1.095 -1.499 4.338
 -1.067 -1.497 4.337
 -1.039 -1.496 4.339
 -1.012 -1.495 4.341
 -0.984 -1.493 4.341
 -0.957 -1.491 4.341
 -0.929 -1.489 4.338
 -0.901 -1.487 4.336
 -0.874 -1.485 4.336
 -0.846 -1.483 4.334
 -0.819 -1.48 4.33
 -0.791 -1.478 4.326
 -0.764 -1.477 4.326
 -0.737 -1.474 4.323
 -0.71 -1.473 4.321
 -0.683 -1.471 4.32
 -0.658 -1.472 4.326
 -0.631 -1.471 4.326
 -0.605 -1.47 4.325
 -0.578 -1.47 4.326
 -0.552 -1.469 4.328
 -0.525 -1.467 4.322
 -0.499 -1.465 4.321
 -0.473 -1.464 4.32
 -0.447 -1.464 4.321
 -0.42 -1.462 4.316
 -0.395 -1.462 4.318
 -0.368 -1.461 4.316
 -0.342 -1.46 4.314
 -0.316 -1.458 4.309
 -0.29 -1.457 4.308
 -0.264 -1.456 4.307
 -0.239 -1.456 4.307
 -0.213 -1.455 4.306
 -0.187 -1.454 4.304
 -0.161 -1.454 4.303
 -0.136 -1.452 4.298
 -0.11 -1.45 4.292
 -0.084 -1.449 4.289
 -0.059 -1.449 4.289
 -0.033 -1.45 4.292
 -0.008 -1.451 4.293
 0.017 -1.45 4.291
 0.042 -1.45 4.289
 0.068 -1.45 4.29
 0.093 -1.449 4.286
 0.119 -1.448 4.283
 0.145 -1.45 4.286
 0.17 -1.451 4.289
 0.196 -1.451 4.288
 0.221 -1.451 4.287
 0.247 -1.452 4.287
 0.272 -1.452 4.286
 0.298 -1.452 4.284
 0.324 -1.452 4.283
 0.349 -1.452 4.281
 0.375 -1.453 4.282
 0.4 -1.453 4.279
 0.426 -1.454 4.279
 0.451 -1.453 4.275
 0.477 -1.454 4.274
 0.503 -1.454 4.271
 0.529 -1.456 4.274
 0.554 -1.456 4.27
 0.58 -1.457 4.27
 0.606 -1.458 4.27
 0.632 -1.458 4.267
 0.658 -1.459 4.266
 0.684 -1.46 4.266
 0.71 -1.461 4.266
 0.737 -1.463 4.267
 0.764 -1.465 4.27
 0.789 -1.465 4.264
 0.816 -1.467 4.267
 0.843 -1.469 4.266
 0.869 -1.47 4.267
 0.895 -1.471 4.263
 0.923 -1.474 4.266
 0.949 -1.475 4.264
 0.976 -1.476 4.263
 1.002 -1.477 4.26
 1.029 -1.479 4.259
 1.057 -1.481 4.261
 1.084 -1.483 4.26
 1.111 -1.484 4.257
 1.138 -1.486 4.255
 1.166 -1.488 4.254
 1.192 -1.488 4.248
 1.219 -1.49 4.246
 1.246 -1.491 4.243
 1.275 -1.494 4.246
 1.303 -1.496 4.243
 1.331 -1.499 4.243
 1.36 -1.501 4.243
 1.389 -1.505 4.245
 1.418 -1.507 4.243
 1.447 -1.51 4.244
 1.475 -1.512 4.242
 1.504 -1.514 4.239
 1.532 -1.516 4.235
 1.561 -1.518 4.233
 1.589 -1.52 4.228
 1.618 -1.522 4.225
 1.646 -1.524 4.22
 1.676 -1.527 4.218
 1.703 -1.528 4.211
 1.733 -1.53 4.209
 1.76 -1.531 4.199
 1.783 -1.528 4.181
 1.803 -1.522 4.155
 1.822 -1.516 4.127
 1.836 -1.506 4.089
 1.852 -1.498 4.056
 1.868 -1.489 4.022
 1.883 -1.481 3.988
 1.897 -1.472 3.953
 0 0 0
 0 0 0
 0 0 0
 0 0 0
 0 0 0
 0 0 0
 0 0 0
 1.504 -1.054 2.757
 1.777 -1.23 3.209
 1.791 -1.225 3.185
 1.804 -1.219 3.16
 1.82 -1.216 3.139
 1.829 -1.208 3.109
 0 0 0
 0 0 0
 -0.053 -0.035 0.078
 -0.046 -0.031 0.067
 -0.517 -0.34 0.903
 -0.506 -0.337 0.898
 -0.589 -0.397 1.063
 -0.67 -0.457 1.229
 -0.751 -0.518 1.401
 -0.737 -0.515 1.397
 -0.813 -0.576 1.567
 -0.8 -0.574 1.567
 -0.787 -0.572 1.566
 -0.773 -0.569 1.563
 -0.927 -0.692 1.908
 -1.076 -0.813 2.252
 -1.303 -0.998 2.776
 -1.521 -1.182 3.298
 -1.734 -1.366 3.825
 -1.861 -1.488 4.177
 -1.909 -1.549 4.359
 -1.877 -1.545 4.36
 -1.846 -1.543 4.363
 -1.814 -1.539 4.363
 -1.783 -1.537 4.365
 -1.75 -1.533 4.363
 -1.718 -1.529 4.361
 -1.687 -1.526 4.362
 -1.655 -1.521 4.358
 -1.625 -1.519 4.36
 -1.595 -1.517 4.362
 -1.564 -1.514 4.362
 -1.536 -1.513 4.366
 -1.506 -1.511 4.369
 -1.476 -1.508 4.367
 -1.444 -1.503 4.362
 -1.415 -1.501 4.363
 -1.384 -1.497 4.357
 -1.353 -1.493 4.353
 -1.323 -1.49 4.35
 -1.295 -1.488 4.352
 -1.265 -1.485 4.349
 -1.235 -1.481 4.344
 -1.207 -1.479 4.345
 -1.178 -1.477 4.342
 -1.148 -1.472 4.336
 -1.12 -1.471 4.338
 -1.093 -1.47 4.341
 -1.065 -1.469 4.341
 -1.038 -1.468 4.343
 -1.011 -1.467 4.346
 -0.983 -1.465 4.343
 -0.956 -1.463 4.344
 -0.928 -1.461 4.341
 -0.901 -1.46 4.342
 -0.873 -1.458 4.342
 -0.846 -1.457 4.341
 -0.819 -1.454 4.338
 -0.791 -1.451 4.331
 -0.763 -1.449 4.329
 -0.736 -1.447 4.326
 -0.709 -1.445 4.323
 -0.682 -1.444 4.322
 -0.657 -1.445 4.331
 -0.631 -1.444 4.331
 -0.604 -1.443 4.329
 -0.578 -1.442 4.33
 -0.552 -1.442 4.331
 -0.525 -1.439 4.326
 -0.499 -1.438 4.324
 -0.472 -1.437 4.323
 -0.446 -1.436 4.323
 -0.42 -1.435 4.322
 -0.394 -1.436 4.324
 -0.368 -1.435 4.322
 -0.342 -1.434 4.321
 -0.316 -1.432 4.316
 -0.29 -1.431 4.314
 -0.264 -1.429 4.311
 -0.238 -1.429 4.311
 -0.213 -1.428 4.309
 -0.187 -1.428 4.308
 -0.161 -1.427 4.305
 -0.135 -1.425 4.302
 -0.11 -1.423 4.296
 -0.084 -1.422 4.293
 -0.059 -1.423 4.295
 -0.033 -1.425 4.3
 -0.007 -1.425 4.3
 0.017 -1.425 4.299
 0.043 -1.424 4.295
 0.068 -1.423 4.294
 0.093 -1.421 4.286
 0.119 -1.421 4.285
 0.144 -1.422 4.288
 0.17 -1.423 4.29
 0.195 -1.422 4.285
 0.221 -1.424 4.29
 0.246 -1.422 4.283
 0.272 -1.422 4.281
 0.297 -1.421 4.276
 0.323 -1.423 4.281
 0.348 -1.422 4.274
 0.374 -1.424 4.279
 0.4 -1.425 4.28
 0.426 -1.426 4.281
 0.451 -1.426 4.278
 0.477 -1.426 4.275
 0.502 -1.426 4.272
 0.528 -1.426 4.27
 0.553 -1.427 4.27
 0.58 -1.429 4.271
 0.606 -1.43 4.271
 0.631 -1.43 4.269
 0.657 -1.431 4.269
 0.683 -1.432 4.268
 0.709 -1.433 4.265
 0.735 -1.434 4.266
 0.763 -1.437 4.27
 0.788 -1.437 4.267
 0.816 -1.441 4.272
 0.843 -1.443 4.273
 0.869 -1.444 4.273
 0.895 -1.445 4.27
 0.922 -1.447 4.271
 0.948 -1.447 4.265
 0.974 -1.448 4.263
 1.001 -1.449 4.261
 1.028 -1.451 4.262
 1.056 -1.454 4.264
 1.084 -1.456 4.264
 1.111 -1.457 4.262
 1.138 -1.459 4.261
 1.165 -1.46 4.258
 1.191 -1.461 4.253
 1.219 -1.463 4.253
 1.246 -1.464 4.25
 1.274 -1.467 4.25
 1.302 -1.468 4.248
 1.33 -1.471 4.248
 1.359 -1.473 4.247
 1.388 -1.477 4.248
 1.417 -1.479 4.249
 1.446 -1.483 4.25
 1.475 -1.485 4.248
 1.503 -1.487 4.245
 1.531 -1.489 4.241
 1.56 -1.491 4.239
 1.588 -1.492 4.233
 1.616 -1.494 4.229
 1.645 -1.496 4.226
 1.675 -1.499 4.225
 1.703 -1.5 4.218
 1.733 -1.503 4.217
 1.761 -1.505 4.21
 1.785 -1.502 4.193
 1.806 -1.498 4.17
 1.827 -1.493 4.146
 1.843 -1.485 4.112
 1.86 -1.477 4.081
 1.877 -1.47 4.05
 1.897 -1.465 4.026
 0 0 0
 0 0 0
 0 0 0
 0 0 0
 0 0 0
 0 0 0
 0 0 0
 0 0 0
 1.265 -0.871 2.323
 1.783 -1.212 3.227
 1.798 -1.209 3.206
 1.812 -1.204 3.182
 1.834 -1.204 3.171
 1.732 -1.124 2.949
 0 0 0
 0 0 0
 -0.061 -0.04 0.093
 -0.03 -0.02 0.039
 -0.163 -0.106 0.277
 -0.154 -0.102 0.265
 -0.24 -0.16 0.426
 -0.234 -0.157 0.421
 -0.32 -0.217 0.59
 -0.31 -0.213 0.581
 -0.389 -0.271 0.744
 -0.38 -0.269 0.74
 -0.37 -0.264 0.73
 -0.358 -0.26 0.718
 -0.517 -0.379 1.06
 -0.67 -0.498 1.402
 -0.983 -0.74 2.096
 -1.285 -0.98 2.789
 -1.58 -1.223 3.491
 -1.787 -1.402 4.017
 -1.912 -1.523 4.373
 -1.88 -1.52 4.375
 -1.849 -1.517 4.378
 -1.816 -1.514 4.378
 -1.785 -1.511 4.38
 -1.752 -1.506 4.375
 -1.72 -1.503 4.374
 -1.689 -1.5 4.374
 -1.656 -1.495 4.37
 -1.626 -1.493 4.373
 -1.596 -1.49 4.373
 -1.564 -1.487 4.371
 -1.535 -1.485 4.374
 -1.505 -1.483 4.374
 -1.474 -1.479 4.369
 -1.443 -1.475 4.367
 -1.414 -1.473 4.368
 -1.383 -1.469 4.364
 -1.353 -1.466 4.36
 -1.323 -1.462 4.356
 -1.294 -1.461 4.359
 -1.265 -1.458 4.356
 -1.234 -1.454 4.35
 -1.206 -1.452 4.351
 -1.177 -1.449 4.349
 -1.147 -1.445 4.341
 -1.119 -1.443 4.341
 -1.091 -1.442 4.342
 -1.063 -1.439 4.34
 -1.036 -1.438 4.341
 -1.009 -1.437 4.343
 -0.981 -1.435 4.341
 -0.953 -1.434 4.342
 -0.926 -1.432 4.341
 -0.899 -1.431 4.344
 -0.873 -1.432 4.348
 -0.845 -1.429 4.345
 -0.818 -1.427 4.341
 -0.79 -1.424 4.336
 -0.762 -1.421 4.331
 -0.735 -1.419 4.327
 -0.708 -1.418 4.328
 -0.682 -1.416 4.326
 -0.657 -1.418 4.335
 -0.63 -1.417 4.335
 -0.603 -1.416 4.332
 -0.577 -1.415 4.332
 -0.551 -1.414 4.332
 -0.524 -1.411 4.326
 -0.498 -1.411 4.327
 -0.472 -1.41 4.326
 -0.446 -1.41 4.327
 -0.42 -1.409 4.328
 -0.394 -1.409 4.329
 -0.368 -1.407 4.325
 -0.342 -1.406 4.323
 -0.316 -1.404 4.318
 -0.29 -1.403 4.316
 -0.264 -1.402 4.313
 -0.238 -1.401 4.31
 -0.212 -1.4 4.308
 -0.186 -1.399 4.306
 -0.161 -1.398 4.303
 -0.135 -1.397 4.301
 -0.109 -1.396 4.296
 -0.084 -1.395 4.294
 -0.058 -1.395 4.295
 -0.033 -1.396 4.298
 -0.007 -1.397 4.299
 0.017 -1.397 4.301
 0.043 -1.397 4.299
 0.068 -1.397 4.3
 0.094 -1.395 4.293
 0.119 -1.395 4.292
 0.145 -1.397 4.295
 0.17 -1.398 4.297
 0.195 -1.395 4.289
 0.221 -1.397 4.293
 0.246 -1.395 4.284
 0.272 -1.394 4.281
 0.297 -1.393 4.276
 0.322 -1.395 4.28
 0.348 -1.394 4.274
 0.374 -1.397 4.281
 0.4 -1.399 4.284
 0.425 -1.399 4.284
 0.451 -1.4 4.283
 0.476 -1.399 4.278
 0.502 -1.399 4.276
 0.527 -1.399 4.273
 0.553 -1.401 4.274
 0.579 -1.403 4.276
 0.606 -1.404 4.277
 0.631 -1.404 4.273
 0.657 -1.406 4.275
 0.683 -1.406 4.274
 0.709 -1.406 4.27
 0.735 -1.408 4.271
 0.763 -1.412 4.278
 0.788 -1.411 4.272
 0.816 -1.414 4.277
 0.843 -1.416 4.279
 0.869 -1.418 4.28
 0.895 -1.418 4.276
 0.921 -1.418 4.271
 0.947 -1.419 4.266
 0.973 -1.42 4.264
 0.999 -1.42 4.26
 1.026 -1.422 4.26
 1.055 -1.426 4.265
 1.082 -1.427 4.264
 1.109 -1.428 4.261
 1.137 -1.431 4.264
 1.164 -1.432 4.261
 1.19 -1.433 4.257
 1.218 -1.435 4.257
 1.246 -1.437 4.256
 1.273 -1.439 4.253
 1.301 -1.441 4.252
 1.329 -1.443 4.252
 1.358 -1.446 4.251
 1.386 -1.448 4.25
 1.415 -1.451 4.251
 1.444 -1.454 4.252
 1.473 -1.456 4.251
 1.502 -1.458 4.248
 1.53 -1.46 4.245
 1.558 -1.462 4.241
 1.586 -1.464 4.237
 1.615 -1.466 4.234
 1.644 -1.468 4.23
 1.674 -1.471 4.229
 1.702 -1.472 4.223
 1.732 -1.475 4.222
 1.76 -1.477 4.216
 1.786 -1.476 4.202
 1.808 -1.472 4.182
 1.83 -1.469 4.162
 1.85 -1.464 4.137
 1.868 -1.457 4.107
 1.886 -1.451 4.078
 0 0 0
 0 0 0
 0 0 0
 0 0 0
 0 0 0
 0 0 0
 0 0 0
 0 0 0
 0 0 0
 1.186 -0.803 2.183
 1.795 -1.198 3.255
 1.811 -1.195 3.235
 1.826 -1.191 3.213
 1.847 -1.191 3.201
 1.582 -1.008 2.699
 0 0 0
 0 0 0
 -0.152 -0.095 0.25
 -0.123 -0.078 0.203
 -0.088 -0.057 0.143
 -0.079 -0.052 0.13
 -0.072 -0.048 0.119
 -0.065 -0.044 0.108
 -0.061 -0.042 0.103
 -0.053 -0.037 0.09
 -0.045 -0.032 0.075
 -0.039 -0.028 0.064
 -0.031 -0.023 0.049
 -0.107 -0.077 0.205
 -0.185 -0.134 0.371
 -0.343 -0.251 0.712
 -0.74 -0.547 1.577
 -1.124 -0.842 2.444
 -1.422 -1.08 3.148
 -1.709 -1.317 3.85
 -1.91 -1.494 4.379
 -1.879 -1.491 4.383
 -1.849 -1.489 4.387
 -1.815 -1.485 4.384
 -1.783 -1.481 4.383
 -1.75 -1.477 4.38
 -1.718 -1.474 4.379
 -1.687 -1.471 4.379
 -1.655 -1.467 4.377
 -1.625 -1.465 4.379
 -1.594 -1.462 4.377
 -1.562 -1.457 4.372
 -1.532 -1.455 4.372
 -1.502 -1.452 4.373
 -1.47 -1.448 4.368
 -1.441 -1.446 4.367
 -1.411 -1.444 4.369
 -1.382 -1.441 4.368
 -1.351 -1.437 4.363
 -1.321 -1.434 4.359
 -1.292 -1.432 4.36
 -1.263 -1.429 4.356
 -1.232 -1.424 4.349
 -1.205 -1.424 4.353
 -1.176 -1.421 4.352
 -1.147 -1.418 4.347
 -1.119 -1.416 4.348
 -1.091 -1.415 4.348
 -1.062 -1.412 4.344
 -1.035 -1.41 4.344
 -1.007 -1.409 4.345
 -0.979 -1.406 4.34
 -0.952 -1.405 4.342
 -0.924 -1.403 4.341
 -0.898 -1.403 4.346
 -0.872 -1.404 4.351
 -0.845 -1.402 4.35
 -0.817 -1.4 4.346
 -0.789 -1.397 4.34
 -0.762 -1.394 4.335
 -0.734 -1.391 4.33
 -0.708 -1.391 4.332
 -0.681 -1.39 4.332
 -0.656 -1.392 4.342
 -0.63 -1.391 4.341
 -0.603 -1.39 4.34
 -0.577 -1.389 4.34
 -0.551 -1.388 4.341
 -0.524 -1.386 4.334
 -0.498 -1.385 4.334
 -0.471 -1.383 4.331
 -0.445 -1.383 4.331
 -0.419 -1.383 4.332
 -0.393 -1.382 4.33
 -0.367 -1.38 4.327
 -0.341 -1.379 4.324
 -0.315 -1.377 4.318
 -0.289 -1.376 4.318
 -0.263 -1.375 4.314
 -0.237 -1.374 4.312
 -0.212 -1.373 4.309
 -0.186 -1.372 4.309
 -0.16 -1.371 4.305
 -0.135 -1.371 4.306
 -0.109 -1.37 4.302
 -0.084 -1.369 4.299
 -0.058 -1.369 4.301
 -0.033 -1.37 4.303
 -0.007 -1.37 4.302
 0.017 -1.37 4.303
 0.043 -1.371 4.304
 0.068 -1.371 4.304
 0.094 -1.368 4.293
 0.119 -1.368 4.292
 0.145 -1.369 4.295
 0.17 -1.371 4.3
 0.195 -1.369 4.293
 0.221 -1.372 4.301
 0.246 -1.369 4.29
 0.272 -1.368 4.286
 0.297 -1.367 4.279
 0.322 -1.368 4.283
 0.348 -1.368 4.278
 0.374 -1.371 4.285
 0.4 -1.373 4.291
 0.426 -1.374 4.292
 0.451 -1.375 4.291
 0.476 -1.373 4.283
 0.502 -1.373 4.28
 0.527 -1.373 4.277
 0.553 -1.374 4.279
 0.579 -1.376 4.279
 0.606 -1.378 4.283
 0.631 -1.378 4.282
 0.657 -1.38 4.282
 0.683 -1.381 4.281
 0.709 -1.381 4.28
 0.735 -1.382 4.278
 0.763 -1.386 4.285
 0.788 -1.385 4.28
 0.815 -1.388 4.283
 0.842 -1.39 4.284
 0.869 -1.391 4.284
 0.894 -1.391 4.278
 0.919 -1.39 4.27
 0.945 -1.39 4.265
 0.971 -1.391 4.262
 0.998 -1.392 4.262
 1.025 -1.394 4.262
 1.054 -1.398 4.268
 1.081 -1.4 4.267
 1.108 -1.401 4.265
 1.135 -1.403 4.265
 1.162 -1.404 4.26
 1.188 -1.404 4.255
 1.216 -1.406 4.255
 1.243 -1.408 4.253
 1.27 -1.409 4.25
 1.299 -1.412 4.251
 1.327 -1.414 4.251
 1.355 -1.416 4.25
 1.384 -1.419 4.25
 1.413 -1.422 4.251
 1.442 -1.425 4.251
 1.471 -1.427 4.25
 1.499 -1.43 4.25
 1.527 -1.431 4.245
 1.557 -1.434 4.245
 1.585 -1.436 4.242
 1.614 -1.438 4.239
 1.643 -1.44 4.235
 1.674 -1.444 4.237
 1.701 -1.444 4.228
 1.73 -1.447 4.225
 1.76 -1.449 4.223
 1.787 -1.449 4.213
 1.81 -1.447 4.195
 1.835 -1.446 4.181
 1.858 -1.443 4.162
 1.871 -1.432 4.12
 0 0 0
 0 0 0
 0 0 0
 0 0 0
 0 0 0
 0 0 0
 0.123 -0.089 0.235
 0.124 -0.089 0.234
 0.126 -0.089 0.233
 0.112 -0.079 0.204
 1.076 -0.716 1.984
 1.799 -1.179 3.27
 1.821 -1.179 3.259
 1.842 -1.179 3.247
 1.863 -1.179 3.235
 1.473 -0.922 2.518
 0 0 0
 0.421 -0.26 0.694
 -0.162 -0.1 0.267
 -0.117 -0.073 0.193
 -0.102 -0.065 0.169
 -0.091 -0.058 0.151
 -0.08 -0.052 0.135
 -0.071 -0.047 0.119
 -0.063 -0.042 0.107
 -0.054 -0.037 0.092
 -0.046 -0.032 0.077
 -0.039 -0.027 0.063
 -0.03 -0.022 0.047
 -0.021 -0.016 0.03
 -0.183 -0.13 0.368
 -0.423 -0.303 0.883
 -0.818 -0.594 1.75
 -1.203 -0.884 2.621
 -1.577 -1.176 3.499
 -1.784 -1.349 4.028
 -1.908 -1.464 4.382
 -1.878 -1.462 4.388
 -1.847 -1.46 4.391
 -1.814 -1.456 4.39
 -1.782 -1.453 4.39
 -1.75 -1.449 4.387
 -1.717 -1.445 4.384
 -1.686 -1.442 4.383
 -1.654 -1.438 4.381
 -1.623 -1.436 4.382
 -1.593 -1.433 4.382
 -1.561 -1.429 4.378
 -1.53 -1.426 4.376
 -1.5 -1.424 4.377
 -1.469 -1.42 4.373
 -1.439 -1.417 4.37
 -1.41 -1.415 4.371
 -1.381 -1.413 4.374
 -1.35 -1.409 4.368
 -1.32 -1.406 4.364
 -1.291 -1.404 4.364
 -1.261 -1.401 4.36
 -1.231 -1.396 4.352
 -1.204 -1.396 4.358
 -1.175 -1.394 4.356
 -1.146 -1.39 4.351
 -1.118 -1.389 4.352
 -1.089 -1.386 4.35
 -1.06 -1.383 4.345
 -1.033 -1.382 4.345
 -1.005 -1.38 4.345
 -0.977 -1.377 4.341
 -0.951 -1.377 4.344
 -0.923 -1.376 4.344
 -0.897 -1.376 4.349
 -0.871 -1.377 4.356
 -0.844 -1.374 4.352
 -0.816 -1.372 4.348
 -0.788 -1.369 4.343
 -0.761 -1.367 4.338
 -0.733 -1.364 4.333
 -0.707 -1.364 4.336
 -0.681 -1.363 4.336
 -0.656 -1.366 4.348
 -0.629 -1.364 4.344
 -0.603 -1.363 4.343
 -0.576 -1.362 4.342
 -0.55 -1.36 4.34
 -0.523 -1.357 4.333
 -0.496 -1.356 4.331
 -0.47 -1.354 4.327
 -0.444 -1.353 4.325
 -0.418 -1.354 4.33
 -0.392 -1.353 4.329
 -0.366 -1.351 4.324
 -0.34 -1.35 4.32
 -0.314 -1.348 4.316
 -0.288 -1.348 4.317
 -0.262 -1.346 4.311
 -0.237 -1.344 4.307
 -0.211 -1.344 4.308
 -0.186 -1.344 4.308
 -0.16 -1.343 4.303
 -0.134 -1.343 4.306
 -0.109 -1.343 4.306
 -0.083 -1.343 4.304
 -0.058 -1.343 4.305
 -0.033 -1.344 4.308
 -0.007 -1.345 4.31
 0.017 -1.346 4.312
 0.043 -1.345 4.311
 0.069 -1.346 4.312
 0.094 -1.341 4.297
 0.119 -1.341 4.295
 0.145 -1.342 4.296
 0.17 -1.343 4.299
 0.195 -1.34 4.287
 0.221 -1.343 4.298
 0.246 -1.34 4.284
 0.271 -1.34 4.282
 0.296 -1.338 4.275
 0.322 -1.34 4.281
 0.347 -1.339 4.276
 0.373 -1.343 4.287
 0.4 -1.347 4.296
 0.426 -1.348 4.297
 0.452 -1.349 4.299
 0.477 -1.348 4.291
 0.502 -1.347 4.286
 0.526 -1.345 4.277
 0.552 -1.347 4.278
 0.578 -1.348 4.28
 0.605 -1.351 4.286
 0.632 -1.353 4.29
 0.658 -1.355 4.292
 0.685 -1.357 4.294
 0.711 -1.358 4.293
 0.736 -1.358 4.29
 0.763 -1.36 4.293
 0.788 -1.359 4.284
 0.815 -1.36 4.285
 0.841 -1.362 4.284
 0.867 -1.363 4.283
 0.893 -1.363 4.278
 0.917 -1.36 4.266
 0.944 -1.362 4.265
 0.97 -1.362 4.261
 0.996 -1.364 4.261
 1.024 -1.366 4.261
 1.052 -1.369 4.267
 1.079 -1.371 4.265
 1.106 -1.372 4.265
 1.133 -1.374 4.264
 1.159 -1.375 4.259
 1.186 -1.375 4.253
 1.214 -1.377 4.254
 1.241 -1.379 4.252
 1.268 -1.381 4.25
 1.297 -1.383 4.252
 1.325 -1.386 4.253
 1.353 -1.387 4.249
 1.381 -1.389 4.248
 1.409 -1.392 4.247
 1.438 -1.395 4.249
 1.468 -1.398 4.251
 1.497 -1.401 4.25
 1.526 -1.403 4.248
 1.556 -1.406 4.249
 1.584 -1.408 4.246
 1.613 -1.41 4.242
 1.642 -1.412 4.24
 1.672 -1.415 4.24
 1.699 -1.416 4.231
 1.727 -1.417 4.226
 1.757 -1.42 4.223
 1.785 -1.421 4.218
 1.811 -1.42 4.204
 1.839 -1.422 4.198
 1.867 -1.423 4.189
 0 0 0
 0 0 0
 0 0 0
 0 0 0
 0 0 0
 0 0 0
 0 0 0
 0.123 -0.087 0.236
 0.124 -0.087 0.235
 0.126 -0.087 0.234
 0.112 -0.077 0.204
 0.907 -0.592 1.674
 1.803 -1.16 3.283
 1.824 -1.16 3.272
 1.845 -1.16 3.26
 1.669 -1.037 2.904
 1.274 -0.783 2.181
 0 0 0
 0.465 -0.282 0.768
 -0.129 -0.078 0.211
 -0.132 -0.081 0.22
 -0.111 -0.069 0.185
 -0.095 -0.06 0.159
 -0.083 -0.053 0.141
 -0.073 -0.047 0.123
 -0.064 -0.042 0.108
 -0.055 -0.037 0.093
 -0.048 -0.033 0.08
 -0.038 -0.026 0.062
 -0.029 -0.021 0.045
 -0.02 -0.015 0.029
 -0.265 -0.184 0.54
 -0.503 -0.354 1.056
 -0.898 -0.639 1.924
 -1.281 -0.923 2.798
 -1.655 -1.21 3.68
 -1.782 -1.322 4.032
 -1.905 -1.434 4.385
 -1.875 -1.432 4.391
 -1.844 -1.43 4.392
 -1.811 -1.426 4.391
 -1.779 -1.423 4.391
 -1.748 -1.42 4.391
 -1.715 -1.416 4.388
 -1.684 -1.413 4.388
 -1.652 -1.409 4.384
 -1.621 -1.407 4.385
 -1.59 -1.404 4.383
 -1.559 -1.4 4.38
 -1.527 -1.396 4.374
 -1.497 -1.393 4.374
 -1.466 -1.39 4.371
 -1.436 -1.387 4.369
 -1.407 -1.385 4.372
 -1.38 -1.385 4.378
 -1.35 -1.383 4.377
 -1.32 -1.379 4.373
 -1.291 -1.377 4.372
 -1.261 -1.373 4.365
 -1.229 -1.368 4.356
 -1.202 -1.368 4.361
 -1.175 -1.367 4.362
 -1.146 -1.364 4.359
 -1.118 -1.363 4.362
 -1.09 -1.361 4.36
 -1.06 -1.357 4.351
 -1.033 -1.355 4.352
 -1.004 -1.352 4.347
 -0.976 -1.349 4.342
 -0.949 -1.349 4.346
 -0.922 -1.348 4.347
 -0.896 -1.349 4.353
 -0.871 -1.35 4.362
 -0.843 -1.347 4.356
 -0.815 -1.345 4.352
 -0.788 -1.342 4.347
 -0.759 -1.338 4.338
 -0.732 -1.337 4.335
 -0.707 -1.337 4.34
 -0.68 -1.336 4.338
 -0.657 -1.341 4.359
 -0.629 -1.339 4.354
 -0.602 -1.335 4.346
 -0.577 -1.338 4.355
 -0.55 -1.335 4.349
 -0.522 -1.33 4.336
 -0.496 -1.329 4.335
 -0.47 -1.327 4.33
 -0.442 -1.323 4.318
 -0.418 -1.326 4.328
 -0.391 -1.323 4.321
 -0.365 -1.322 4.318
 -0.339 -1.321 4.316
 -0.313 -1.32 4.314
 -0.288 -1.32 4.315
 -0.262 -1.318 4.309
 -0.236 -1.316 4.305
 -0.21 -1.316 4.304
 -0.185 -1.316 4.305
 -0.159 -1.314 4.3
 -0.134 -1.315 4.302
 -0.109 -1.315 4.303
 -0.083 -1.314 4.301
 -0.058 -1.314 4.3
 -0.032 -1.315 4.303
 -0.007 -1.316 4.305
 0.018 -1.317 4.31
 0.043 -1.321 4.322
 0.069 -1.319 4.315
 0.094 -1.312 4.289
 0.119 -1.313 4.294
 0.144 -1.314 4.295
 0.17 -1.316 4.3
 0.195 -1.313 4.288
 0.222 -1.321 4.314
 0.245 -1.312 4.283
 0.271 -1.311 4.279
 0.295 -1.308 4.266
 0.321 -1.311 4.274
 0.346 -1.308 4.262
 0.373 -1.315 4.285
 0.4 -1.322 4.303
 0.426 -1.321 4.3
 0.452 -1.325 4.308
 0.476 -1.321 4.293
 0.501 -1.32 4.288
 0.525 -1.315 4.268
 0.551 -1.318 4.277
 0.578 -1.321 4.281
 0.605 -1.325 4.292
 0.632 -1.327 4.296
 0.659 -1.33 4.3
 0.685 -1.331 4.302
 0.71 -1.331 4.296
 0.736 -1.331 4.292
 0.763 -1.333 4.295
 0.789 -1.334 4.295
 0.816 -1.337 4.3
 0.842 -1.338 4.297
 0.869 -1.339 4.296
 0.895 -1.34 4.294
 0.915 -1.331 4.262
 0.942 -1.334 4.265
 0.969 -1.335 4.263
 0.995 -1.336 4.263
 1.022 -1.338 4.263
 1.051 -1.341 4.267
 1.077 -1.342 4.265
 1.104 -1.344 4.265
 1.132 -1.346 4.265
 1.158 -1.346 4.259
 1.185 -1.348 4.257
 1.213 -1.35 4.258
 1.24 -1.351 4.255
 1.267 -1.353 4.252
 1.295 -1.356 4.254
 1.323 -1.357 4.252
 1.35 -1.358 4.248
 1.378 -1.36 4.247
 1.407 -1.363 4.247
 1.436 -1.366 4.247
 1.465 -1.369 4.249
 1.494 -1.371 4.248
 1.523 -1.374 4.247
 1.552 -1.376 4.246
 1.58 -1.378 4.243
 1.609 -1.38 4.24
 1.638 -1.383 4.238
 1.668 -1.385 4.238
 1.696 -1.386 4.231
 1.724 -1.388 4.226
 1.753 -1.39 4.222
 1.782 -1.391 4.216
 1.808 -1.392 4.206
 1.838 -1.394 4.203
 1.868 -1.397 4.2
 0 0 0
 0 0 0
 0 0 0
 0 0 0
 0 0 0
 0 0 0
 0 0 0
 0.146 -0.101 0.282
 0.148 -0.101 0.281
 0.15 -0.101 0.28
 0 0 0
 0 0 0
 0 0 0
 0 0 0
 0 0 0
 1.307 -0.798 2.277
 0.929 -0.561 1.592
 0 0 0
 0 0 0
 -0.141 -0.084 0.233
 -0.136 -0.082 0.227
 -0.11 -0.067 0.184
 -0.095 -0.059 0.16
 -0.085 -0.054 0.145
 -0.073 -0.047 0.124
 -0.065 -0.042 0.11
 -0.055 -0.037 0.094
 -0.047 -0.032 0.079
 -0.122 -0.081 0.23
 -0.199 -0.132 0.39
 -0.189 -0.127 0.375
 -0.431 -0.293 0.889
 -0.667 -0.46 1.407
 -0.98 -0.683 2.106
 -1.282 -0.906 2.806
 -1.655 -1.186 3.687
 -1.782 -1.296 4.039
 -1.905 -1.406 4.393
 -1.873 -1.403 4.395
 -1.842 -1.4 4.396
 -1.809 -1.397 4.395
 -1.777 -1.394 4.394
 -1.746 -1.391 4.394
 -1.714 -1.388 4.393
 -1.682 -1.384 4.39
 -1.65 -1.38 4.387
 -1.619 -1.377 4.386
 -1.587 -1.374 4.384
 -1.556 -1.37 4.379
 -1.524 -1.366 4.374
 -1.494 -1.363 4.373
 -1.463 -1.36 4.37
 -1.433 -1.357 4.367
 -1.404 -1.355 4.369
 -1.377 -1.356 4.377
 -1.348 -1.353 4.376
 -1.319 -1.351 4.375
 -1.289 -1.348 4.373
 -1.26 -1.346 4.371
 -1.229 -1.341 4.362
 -1.203 -1.343 4.372
 -1.175 -1.34 4.37
 -1.146 -1.338 4.369
 -1.118 -1.336 4.367
 -1.089 -1.333 4.363
 -1.056 -1.326 4.343
 -1.029 -1.325 4.346
 -0.852 -1.126 3.693
 -0.828 -1.123 3.69
 -0.807 -1.124 3.697
 -0.785 -1.126 3.704
 -0.763 -1.126 3.709
 -0.873 -1.326 4.377
 -0.843 -1.321 4.363
 -0.814 -1.318 4.355
 -0.788 -1.316 4.354
 0 0 0
 0 0 0
 0 0 0
 0 0 0
 0 0 0
 0 0 0
 0 0 0
 0 0 0
 0 0 0
 0 0 0
 0 0 0
 0 0 0
 0 0 0
 0 0 0
 -0.389 -1.291 4.305
 -0.364 -1.292 4.309
 -0.338 -1.291 4.308
 -0.312 -1.29 4.307
 -0.287 -1.291 4.312
 -0.261 -1.29 4.308
 -0.235 -1.288 4.303
 -0.21 -1.288 4.303
 -0.185 -1.288 4.305
 -0.159 -1.287 4.3
 -0.134 -1.287 4.301
 -0.108 -1.287 4.302
 -0.083 -1.286 4.299
 -0.057 -1.285 4.296
 -0.032 -1.285 4.295
 -0.007 -1.285 4.293
 0.018 -1.284 4.29
 0 0 0
 0 0 0
 0 0 0
 0 0 0
 0 0 0
 0 0 0
 0 0 0
 0 0 0
 0 0 0
 0 0 0
 0 0 0
 0 0 0
 0 0 0
 0 0 0
 0 0 0
 0 0 0
 0 0 0
 0 0 0
 0 0 0
 0 0 0
 0 0 0
 0 0 0
 0 0 0
 0 0 0
 0 0 0
 0 0 0
 0 0 0
 0 0 0
 0 0 0
 0 0 0
 0 0 0
 0 0 0
 0 0 0
 0 0 0
 0 0 0
 0.94 -1.305 4.262
 0.967 -1.307 4.262
 0.994 -1.308 4.261
 1.021 -1.31 4.261
 1.048 -1.312 4.265
 1.075 -1.314 4.264
 1.103 -1.316 4.266
 1.13 -1.318 4.266
 1.157 -1.319 4.262
 1.184 -1.32 4.26
 1.211 -1.322 4.257
 1.237 -1.322 4.252
 1.265 -1.324 4.251
 1.293 -1.327 4.253
 1.321 -1.329 4.251
 1.348 -1.33 4.248
 1.376 -1.332 4.248
 1.404 -1.334 4.245
 1.432 -1.336 4.244
 1.461 -1.339 4.244
 1.49 -1.341 4.243
