 -0.058 0.087 0.436
 -0.055 0.087 0.435
 -0.052 0.087 0.437
 -0.05 0.089 0.443
 -0.048 0.089 0.446
 -0.046 0.089 0.447
 -0.044 0.091 0.455
 -0.041 0.091 0.457
 -0.039 0.092 0.46
 -0.036 0.093 0.465
 -0.034 0.093 0.468
 -0.031 0.094 0.469
 -0.028 0.094 0.473
 -0.026 0.096 0.482
 -0.024 0.098 0.492
 -0.021 0.1 0.501
 -0.018 0.102 0.511
 -0.016 0.104 0.524
 -0.013 0.106 0.533
 -0.01 0.107 0.537
 -0.007 0.109 0.545
 -0.004 0.11 0.551
 0 0.11 0.555
 0.002 0.111 0.559
 0.005 0.112 0.562
 0.009 0.112 0.564
 0.012 0.113 0.566
 0.015 0.113 0.569
 0.019 0.114 0.572
 0.022 0.114 0.573
 0.026 0.115 0.576
 0.029 0.115 0.579
 0.033 0.115 0.58
 0.036 0.116 0.581
 0.04 0.116 0.583
 0.044 0.117 0.585
 0.047 0.117 0.587
 0.051 0.118 0.591
 0.055 0.119 0.594
 0.059 0.119 0.598
 0.063 0.12 0.601
 0.067 0.12 0.603
 0.07 0.12 0.603
 0.074 0.12 0.603
 0.077 0.12 0.601
 0.081 0.12 0.6
 0.084 0.12 0.599
 0.088 0.12 0.601
 0.092 0.12 0.602
 0.096 0.121 0.604
 0.099 0.121 0.605
 0.104 0.122 0.609
 0.108 0.123 0.611
 0.112 0.123 0.614
 0.116 0.124 0.616
 0.121 0.124 0.619
 0.124 0.124 0.618
 0.128 0.124 0.616
 0.13 0.123 0.611
 0.133 0.122 0.605
 0.135 0.12 0.597
 0.136 0.119 0.587
 0.138 0.117 0.578
 0.139 0.115 0.567
 0.14 0.113 0.558
 0.141 0.111 0.547
 0.142 0.109 0.537
 0.142 0.107 0.525
 0.142 0.105 0.515
 0.143 0.103 0.504
 0.143 0.101 0.494
 0.144 0.099 0.487
 0.146 0.098 0.482
 0.148 0.098 0.479
 0.151 0.098 0.478
 0.155 0.099 0.48
 0.159 0.099 0.483
 0.164 0.1 0.487
 0.168 0.101 0.492
 0.173 0.102 0.496
 0.178 0.104 0.5
 0.183 0.104 0.504
 0.187 0.105 0.507
 0.192 0.106 0.509
 0.196 0.107 0.512
 0.201 0.107 0.514
 0.206 0.108 0.518
 0.211 0.11 0.522
 0.218 0.111 0.529
 0.225 0.113 0.536
 0.233 0.115 0.546
 0.242 0.118 0.558
 0.251 0.121 0.569
 0.26 0.124 0.581
 0.27 0.126 0.593
 0.279 0.129 0.604
 0.289 0.132 0.614
 0.299 0.134 0.625
 0.308 0.137 0.635
 0.317 0.139 0.644
 0.327 0.141 0.652
 0.336 0.143 0.661
 0.344 0.145 0.667
 0.354 0.147 0.675
 0.364 0.15 0.684
 0.375 0.153 0.694
 0.388 0.156 0.707
 0.403 0.16 0.724
 0.42 0.165 0.744
 0.439 0.17 0.766
 0.459 0.176 0.79
 0.488 0.185 0.827
 -1.486 0.623 2.648
 -1.415 0.6 2.56
 -1.403 0.602 2.575
 -1.367 0.594 2.548
 -1.336 0.587 2.528
 -1.312 0.583 2.52
 -1.286 0.579 2.509
 -1.259 0.574 2.494
 -1.226 0.566 2.467
 0 0 0
 0 0 0
 0 0 0
 0 0 0
 0 0 0
 0 0 0
 0 0 0
 0 0 0
 0 0 0
 0 0 0
 0 0 0
 0 0 0
 0 0 0
 0 0 0
 0 0 0
 0 0 0
 0 0 0
 0 0 0
 0 0 0
 0 0 0
 0 0 0
 0 0 0
 0 0 0
 0 0 0
 0 0 0
 0 0 0
 0 0 0
 0 0 0
 0 0 0
 0 0 0
 0 0 0
 0 0 0
 -0.145 0.112 0.528
 -0.142 0.113 0.532
 -0.132 0.107 0.506
 -0.13 0.108 0.51
 -0.123 0.104 0.495
 -0.118 0.103 0.488
 -0.112 0.1 0.473
 -0.108 0.099 0.471
 -0.1 0.094 0.447
 -0.095 0.091 0.435
 -0.089 0.088 0.421
 -0.087 0.088 0.421
 -0.082 0.086 0.412
 -0.082 0.088 0.421
 -0.079 0.088 0.421
 -0.078 0.089 0.428
 -0.076 0.09 0.431
 -0.074 0.091 0.438
 -0.071 0.09 0.434
 -0.069 0.091 0.44
 -0.066 0.091 0.44
 -0.063 0.09 0.435
 -0.061 0.091 0.438
 -0.058 0.091 0.442
 -0.056 0.091 0.44
 -0.053 0.091 0.44
 -0.051 0.092 0.444
 -0.048 0.091 0.443
 -0.045 0.091 0.442
 -0.043 0.092 0.448
 -0.041 0.093 0.451
 -0.038 0.093 0.452
 -0.035 0.093 0.454
 -0.033 0.094 0.455
 -0.03 0.093 0.454
 -0.027 0.094 0.457
 -0.025 0.096 0.468
 -0.023 0.098 0.477
 -0.021 0.1 0.486
 -0.018 0.101 0.491
 -0.015 0.103 0.5
 -0.012 0.104 0.506
 -0.009 0.104 0.508
 -0.006 0.106 0.516
 -0.003 0.108 0.525
 0 0.11 0.534
 0.002 0.11 0.537
 0.005 0.111 0.543
 0.008 0.112 0.548
 0.012 0.113 0.551
 0.015 0.114 0.554
 0.018 0.114 0.557
 0.022 0.115 0.559
 0.025 0.115 0.562
 0.029 0.116 0.565
 0.032 0.116 0.566
 0.036 0.117 0.569
 0.039 0.117 0.571
 0.043 0.118 0.573
 0.046 0.118 0.577
 0.05 0.119 0.581
 0.054 0.12 0.585
 0.058 0.121 0.591
 0.062 0.123 0.597
 0.066 0.124 0.602
 0.07 0.124 0.604
 0.074 0.125 0.605
 0.078 0.124 0.604
 0.081 0.124 0.602
 0.084 0.124 0.6
 0.088 0.124 0.602
 0.092 0.124 0.603
 0.096 0.125 0.606
 0.1 0.126 0.608
 0.104 0.126 0.612
 0.108 0.127 0.613
 0.113 0.127 0.616
 0.116 0.128 0.616
 0.12 0.128 0.616
 0.123 0.127 0.613
 0.126 0.126 0.608
 0.128 0.125 0.6
 0.13 0.123 0.591
 0.131 0.121 0.581
 0.132 0.119 0.57
 0.134 0.117 0.56
 0.134 0.115 0.549
 0.135 0.112 0.538
 0.136 0.11 0.527
 0.136 0.108 0.516
 0.137 0.106 0.506
 0.137 0.104 0.496
 0.138 0.102 0.487
 0.139 0.101 0.48
 0.141 0.1 0.475
 0.143 0.099 0.472
 0.146 0.1 0.472
 0.15 0.1 0.473
 0.154 0.101 0.476
 0.158 0.102 0.48
 0.163 0.103 0.484
 0.168 0.104 0.489
 0.172 0.105 0.492
 0.177 0.106 0.496
 0.181 0.107 0.499
 0.186 0.107 0.502
 0.19 0.108 0.504
 0.195 0.109 0.507
 0.2 0.11 0.51
 0.205 0.111 0.514
 0.21 0.112 0.519
 0.217 0.114 0.526
 0.224 0.116 0.533
 0.231 0.118 0.542
 0.24 0.121 0.553
 0.249 0.123 0.564
 0.258 0.126 0.575
 0.267 0.129 0.586
 0.277 0.132 0.597
 0.286 0.134 0.607
 0.295 0.137 0.617
 0.305 0.139 0.627
 0.314 0.142 0.636
 0.323 0.144 0.644
 0.332 0.146 0.653
 0.341 0.148 0.659
 0.35 0.15 0.666
 0.361 0.153 0.676
 0.371 0.156 0.686
 0.384 0.159 0.7
 0.399 0.163 0.716
 0.416 0.168 0.736
 0.435 0.174 0.757
 0.453 0.179 0.777
 0.47 0.184 0.796
 -1.492 0.643 2.655
 -1.441 0.628 2.603
 -1.403 0.619 2.572
 -1.368 0.611 2.547
 -1.336 0.603 2.525
 -1.313 0.6 2.519
 -1.289 0.597 2.512
 -1.261 0.591 2.495
 -1.23 0.584 2.473
 0 0 0
 0 0 0
 0 0 0
 0 0 0
 0 0 0
 0 0 0
 0 0 0
 0 0 0
 0 0 0
 0 0 0
 0 0 0
 0 0 0
 0 0 0
 0 0 0
 0 0 0
 0 0 0
 0 0 0
 0 0 0
 0 0 0
 0 0 0
 0 0 0
 0 0 0
 0 0 0
 0 0 0
 0 0 0
 0 0 0
 0 0 0
 0 0 0
 0 0 0
 -0.154 0.115 0.523
 -0.15 0.114 0.521
 -0.147 0.115 0.523
 -0.143 0.114 0.522
 -0.14 0.114 0.522
 -0.132 0.11 0.505
 -0.129 0.11 0.507
 -0.124 0.108 0.498
 -0.12 0.107 0.493
 -0.116 0.106 0.489
 -0.112 0.106 0.488
 -0.106 0.102 0.471
 -0.1 0.099 0.46
 -0.095 0.097 0.448
 -0.091 0.095 0.442
 -0.085 0.091 0.425
 -0.083 0.092 0.428
 -0.08 0.091 0.424
 -0.076 0.09 0.421
 -0.073 0.09 0.418
 -0.072 0.091 0.426
 -0.068 0.09 0.419
 -0.066 0.09 0.423
 -0.064 0.09 0.423
 -0.062 0.091 0.426
 -0.059 0.091 0.429
 -0.058 0.094 0.442
 -0.056 0.095 0.447
 -0.054 0.096 0.45
 -0.052 0.096 0.452
 -0.049 0.096 0.454
 -0.046 0.095 0.449
 -0.043 0.095 0.448
 -0.04 0.095 0.448
 -0.038 0.095 0.446
 -0.035 0.095 0.447
 -0.032 0.094 0.446
 -0.03 0.094 0.446
 -0.027 0.094 0.444
 -0.025 0.096 0.453
 -0.022 0.096 0.456
 -0.02 0.098 0.464
 -0.017 0.1 0.472
 -0.015 0.103 0.485
 -0.012 0.104 0.493
 -0.009 0.105 0.496
 -0.006 0.105 0.497
 -0.003 0.106 0.501
 0 0.107 0.505
 0.002 0.107 0.508
 0.005 0.109 0.517
 0.008 0.111 0.527
 0.011 0.113 0.534
 0.015 0.114 0.54
 0.018 0.115 0.544
 0.021 0.115 0.546
 0.025 0.116 0.548
 0.028 0.116 0.551
 0.031 0.117 0.552
 0.035 0.117 0.555
 0.038 0.118 0.558
 0.042 0.119 0.562
 0.046 0.12 0.565
 0.049 0.12 0.569
 0.053 0.121 0.574
 0.057 0.123 0.579
 0.061 0.124 0.585
 0.065 0.125 0.591
 0.069 0.126 0.596
 0.073 0.127 0.599
 0.077 0.127 0.601
 0.081 0.128 0.603
 0.085 0.128 0.603
 0.089 0.128 0.604
 0.092 0.129 0.606
 0.097 0.129 0.609
 0.1 0.13 0.61
 0.105 0.131 0.613
 0.109 0.131 0.615
 0.113 0.131 0.616
 0.116 0.131 0.614
 0.119 0.13 0.611
 0.122 0.129 0.604
 0.124 0.127 0.596
 0.125 0.125 0.585
 0.126 0.123 0.574
 0.127 0.121 0.563
 0.128 0.118 0.552
 0.129 0.116 0.54
 0.13 0.114 0.529
 0.13 0.111 0.518
 0.131 0.109 0.507
 0.131 0.107 0.497
 0.132 0.105 0.488
 0.133 0.104 0.48
 0.135 0.103 0.474
 0.136 0.102 0.469
 0.139 0.101 0.467
 0.142 0.101 0.467
 0.145 0.102 0.467
 0.149 0.102 0.47
 0.153 0.103 0.474
 0.157 0.104 0.477
 0.162 0.105 0.481
 0.167 0.106 0.485
 0.171 0.107 0.489
 0.176 0.108 0.493
 0.18 0.109 0.495
 0.185 0.11 0.498
 0.189 0.111 0.501
 0.194 0.112 0.504
 0.199 0.112 0.507
 0.204 0.114 0.511
 0.209 0.115 0.515
 0.215 0.116 0.521
 0.222 0.118 0.529
 0.229 0.12 0.537
 0.238 0.123 0.547
 0.247 0.126 0.558
 0.255 0.128 0.569
 0.265 0.131 0.579
 0.274 0.134 0.59
 0.283 0.137 0.6
 0.292 0.139 0.61
 0.302 0.142 0.62
 0.311 0.144 0.629
 0.32 0.146 0.636
 0.328 0.149 0.644
 0.337 0.15 0.65
 0.345 0.152 0.657
 0.356 0.155 0.667
 0.367 0.158 0.677
 0.38 0.162 0.691
 0.395 0.166 0.707
 0.412 0.171 0.727
 0.43 0.177 0.748
 0.455 0.185 0.78
 0.474 0.191 0.8
 0 0 0
 0 0 0
 -1.404 0.636 2.57
 -1.37 0.628 2.546
 -1.34 0.622 2.528
 -1.317 0.618 2.524
 -1.294 0.615 2.518
 -1.268 0.61 2.506
 -1.242 0.606 2.494
 0 0 0
 0 0 0
 0 0 0
 0 0 0
 0 0 0
 0 0 0
 0 0 0
 0 0 0
 0 0 0
 0 0 0
 0 0 0
 0 0 0
 0 0 0
 0 0 0
 0 0 0
 0 0 0
 0 0 0
 0 0 0
 0 0 0
 0 0 0
 0 0 0
 0 0 0
 0 0 0
 0 0 0
 0 0 0
 0 0 0
 0 0 0
 -0.161 0.119 0.526
 -0.157 0.119 0.524
 -0.154 0.119 0.524
 -0.15 0.118 0.523
 -0.147 0.118 0.522
 -0.143 0.117 0.522
 -0.14 0.117 0.521
 -0.136 0.116 0.518
 -0.132 0.116 0.518
 -0.128 0.115 0.515
 -0.124 0.114 0.512
 -0.12 0.113 0.506
 -0.115 0.111 0.499
 -0.11 0.109 0.489
 -0.105 0.107 0.48
 -0.099 0.104 0.47
 -0.096 0.103 0.466
 -0.091 0.101 0.454
 -0.088 0.1 0.453
 -0.084 0.099 0.449
 -0.08 0.098 0.443
 -0.077 0.097 0.44
 -0.075 0.097 0.442
 -0.07 0.095 0.43
 -0.067 0.094 0.43
 -0.065 0.094 0.428
 -0.061 0.093 0.425
 -0.059 0.093 0.425
 -0.057 0.095 0.433
 -0.055 0.094 0.431
 -0.052 0.095 0.434
 -0.05 0.096 0.439
 -0.048 0.096 0.441
 -0.045 0.097 0.445
 -0.043 0.098 0.451
 -0.041 0.099 0.453
 -0.038 0.098 0.45
 -0.035 0.099 0.453
 -0.032 0.097 0.445
 -0.029 0.096 0.442
 -0.027 0.096 0.439
 -0.024 0.096 0.443
 -0.021 0.096 0.442
 -0.019 0.097 0.448
 -0.017 0.098 0.453
 -0.014 0.101 0.463
 -0.012 0.103 0.472
 -0.009 0.104 0.479
 -0.006 0.105 0.481
 -0.003 0.106 0.486
 0 0.106 0.488
 0.002 0.106 0.487
 0.004 0.106 0.489
 0.008 0.109 0.5
 0.011 0.11 0.507
 0.014 0.112 0.518
 0.017 0.114 0.526
 0.021 0.116 0.534
 0.024 0.117 0.538
 0.028 0.118 0.542
 0.031 0.118 0.543
 0.034 0.118 0.544
 0.038 0.119 0.546
 0.041 0.119 0.548
 0.044 0.12 0.552
 0.048 0.121 0.556
 0.052 0.122 0.561
 0.056 0.123 0.566
 0.06 0.124 0.571
 0.064 0.126 0.576
 0.068 0.127 0.581
 0.072 0.127 0.584
 0.076 0.128 0.588
 0.08 0.13 0.594
 0.084 0.131 0.599
 0.089 0.132 0.604
 0.093 0.133 0.609
 0.097 0.134 0.613
 0.101 0.134 0.614
 0.105 0.135 0.615
 0.109 0.135 0.615
 0.112 0.134 0.613
 0.115 0.133 0.608
 0.117 0.132 0.601
 0.119 0.13 0.591
 0.121 0.128 0.58
 0.122 0.125 0.568
 0.122 0.122 0.555
 0.123 0.12 0.543
 0.124 0.117 0.531
 0.124 0.115 0.519
 0.125 0.112 0.508
 0.125 0.11 0.498
 0.126 0.108 0.488
 0.127 0.106 0.48
 0.128 0.105 0.473
 0.13 0.104 0.468
 0.132 0.103 0.464
 0.134 0.103 0.462
 0.137 0.103 0.462
 0.14 0.103 0.462
 0.144 0.104 0.464
 0.148 0.105 0.467
 0.152 0.106 0.471
 0.156 0.106 0.474
 0.161 0.108 0.477
 0.166 0.109 0.482
 0.17 0.11 0.485
 0.175 0.111 0.489
 0.179 0.112 0.492
 0.184 0.112 0.494
 0.188 0.113 0.497
 0.193 0.114 0.5
 0.197 0.115 0.503
 0.203 0.116 0.507
 0.208 0.118 0.512
 0.214 0.119 0.518
 0.221 0.121 0.525
 0.228 0.123 0.533
 0.236 0.126 0.543
 0.245 0.128 0.553
 0.253 0.131 0.562
 0.262 0.133 0.572
 0.271 0.136 0.583
 0.28 0.139 0.593
 0.289 0.142 0.603
 0.299 0.144 0.612
 0.307 0.147 0.621
 0.316 0.149 0.628
 0.324 0.151 0.635
 0.333 0.153 0.641
 0.341 0.155 0.648
 0.352 0.158 0.659
 0.363 0.161 0.669
 0.376 0.164 0.682
 0.391 0.169 0.698
 0.408 0.174 0.718
 0.425 0.18 0.738
 0.448 0.187 0.767
 0.462 0.191 0.779
 0 0 0
 0 0 0
 -1.403 0.652 2.565
 -1.369 0.644 2.541
 -1.341 0.638 2.526
 -1.318 0.635 2.523
 -1.298 0.633 2.522
 -1.271 0.628 2.509
 0 0 0
 0 0 0
 0 0 0
 0 0 0
 0 0 0
 0 0 0
 0 0 0
 0 0 0
 0 0 0
 0 0 0
 0 0 0
 0 0 0
 0 0 0
 0 0 0
 0 0 0
 0 0 0
 0 0 0
 0 0 0
 0 0 0
 0 0 0
 0 0 0
 0 0 0
 0 0 0
 0 0 0
 0 0 0
 0 0 0
 0 0 0
 -0.164 0.122 0.523
 -0.161 0.122 0.524
 -0.157 0.121 0.521
 -0.153 0.121 0.521
 -0.15 0.121 0.521
 -0.147 0.121 0.521
 -0.143 0.121 0.521
 -0.14 0.12 0.521
 -0.136 0.12 0.519
 -0.133 0.12 0.519
 -0.129 0.119 0.516
 -0.125 0.118 0.513
 -0.12 0.117 0.509
 -0.116 0.115 0.502
 -0.111 0.113 0.493
 -0.106 0.112 0.488
 -0.101 0.109 0.479
 -0.098 0.109 0.477
 -0.093 0.107 0.468
 -0.09 0.106 0.467
 -0.087 0.105 0.462
 -0.083 0.104 0.457
 -0.079 0.103 0.453
 -0.076 0.103 0.453
 -0.072 0.101 0.444
 -0.07 0.1 0.444
 -0.066 0.099 0.439
 -0.063 0.098 0.436
 -0.06 0.097 0.432
 -0.057 0.098 0.433
 -0.054 0.096 0.425
 -0.051 0.096 0.424
 -0.048 0.095 0.423
 -0.046 0.096 0.425
 -0.044 0.096 0.427
 -0.042 0.097 0.432
 -0.039 0.098 0.436
 -0.037 0.098 0.437
 -0.035 0.099 0.442
 -0.032 0.099 0.441
 -0.029 0.099 0.444
 -0.027 0.099 0.442
 -0.024 0.1 0.446
 -0.022 0.099 0.444
 -0.019 0.1 0.448
 -0.016 0.1 0.447
 -0.014 0.101 0.453
 -0.011 0.103 0.459
 -0.009 0.103 0.463
 -0.006 0.103 0.462
 -0.003 0.105 0.468
 0 0.106 0.475
 0.001 0.107 0.478
 0.004 0.107 0.48
 0.007 0.109 0.489
 0.01 0.11 0.491
 0.013 0.111 0.496
 0.017 0.112 0.501
 0.02 0.114 0.511
 0.023 0.116 0.519
 0.027 0.118 0.527
 0.03 0.119 0.532
 0.034 0.12 0.536
 0.037 0.12 0.538
 0.04 0.12 0.538
 0.044 0.121 0.54
 0.047 0.121 0.543
 0.051 0.122 0.546
 0.054 0.124 0.552
 0.058 0.125 0.556
 0.062 0.126 0.561
 0.066 0.127 0.565
 0.07 0.128 0.57
 0.074 0.129 0.574
 0.078 0.131 0.582
 0.083 0.132 0.589
 0.088 0.134 0.597
 0.092 0.136 0.603
 0.097 0.137 0.611
 0.101 0.138 0.613
 0.105 0.138 0.614
 0.108 0.138 0.612
 0.111 0.136 0.605
 0.113 0.135 0.596
 0.115 0.132 0.585
 0.116 0.129 0.573
 0.116 0.127 0.56
 0.117 0.124 0.547
 0.118 0.121 0.534
 0.118 0.118 0.522
 0.119 0.116 0.51
 0.12 0.113 0.499
 0.12 0.111 0.489
 0.121 0.109 0.48
 0.122 0.108 0.473
 0.124 0.107 0.467
 0.126 0.106 0.463
 0.128 0.105 0.46
 0.13 0.105 0.458
 0.133 0.105 0.457
 0.136 0.105 0.457
 0.14 0.105 0.458
 0.143 0.106 0.461
 0.147 0.107 0.463
 0.152 0.108 0.467
 0.156 0.109 0.47
 0.16 0.11 0.474
 0.165 0.111 0.478
 0.169 0.112 0.482
 0.174 0.113 0.485
 0.178 0.114 0.488
 0.182 0.115 0.49
 0.187 0.115 0.493
 0.191 0.116 0.496
 0.196 0.117 0.499
 0.201 0.119 0.503
 0.207 0.12 0.508
 0.213 0.122 0.514
 0.219 0.123 0.521
 0.226 0.126 0.528
 0.234 0.128 0.537
 0.243 0.131 0.547
 0.251 0.133 0.557
 0.259 0.136 0.566
 0.268 0.139 0.577
 0.278 0.142 0.587
 0.287 0.144 0.597
 0.295 0.147 0.605
 0.304 0.149 0.613
 0.312 0.151 0.62
 0.321 0.153 0.627
 0.329 0.155 0.633
 0.338 0.157 0.64
 0.348 0.16 0.649
 0.36 0.164 0.661
 0.372 0.167 0.674
 0.387 0.172 0.691
 0.404 0.178 0.711
 0.422 0.183 0.732
 0.44 0.189 0.752
 0.455 0.193 0.766
 0 0 0
 0 0 0
 -1.39 0.663 2.538
 -1.365 0.659 2.529
 -1.342 0.656 2.526
 -1.321 0.653 2.525
 -1.304 0.653 2.531
 -1.279 0.648 2.521
 0 0 0
 0 0 0
 0 0 0
 0 0 0
 0 0 0
 0 0 0
 0 0 0
 0 0 0
 0 0 0
 0 0 0
 0 0 0
 0 0 0
 0 0 0
 0 0 0
 0 0 0
 0 0 0
 0 0 0
 0 0 0
 0 0 0
 0 0 0
 0 0 0
 0 0 0
 0 0 0
 0 0 0
 0 0 0
 0 0 0
 -0.174 0.13 0.542
 -0.169 0.129 0.538
 -0.166 0.13 0.541
 -0.16 0.127 0.532
 -0.155 0.126 0.527
 -0.151 0.125 0.524
 -0.146 0.123 0.518
 -0.141 0.122 0.513
 -0.138 0.122 0.514
 -0.135 0.122 0.515
 -0.131 0.121 0.512
 -0.128 0.121 0.513
 -0.124 0.12 0.51
 -0.12 0.119 0.506
 -0.116 0.118 0.502
 -0.111 0.117 0.496
 -0.108 0.116 0.494
 -0.104 0.115 0.49
 -0.101 0.115 0.491
 -0.097 0.114 0.488
 -0.095 0.114 0.489
 -0.091 0.114 0.487
 -0.086 0.111 0.478
 -0.082 0.11 0.47
 -0.079 0.109 0.467
 -0.075 0.107 0.458
 -0.071 0.105 0.454
 -0.068 0.105 0.451
 -0.065 0.104 0.449
 -0.062 0.103 0.446
 -0.059 0.103 0.446
 -0.056 0.102 0.439
 -0.053 0.101 0.436
 -0.049 0.099 0.43
 -0.046 0.098 0.423
 -0.043 0.097 0.419
 -0.04 0.096 0.418
 -0.038 0.097 0.419
 -0.035 0.097 0.419
 -0.033 0.098 0.424
 -0.031 0.098 0.427
 -0.029 0.099 0.43
 -0.026 0.1 0.434
 -0.024 0.102 0.443
 -0.022 0.102 0.445
 -0.019 0.103 0.45
 -0.017 0.104 0.452
 -0.014 0.104 0.453
 -0.011 0.104 0.454
 -0.008 0.105 0.456
 -0.006 0.104 0.451
 -0.003 0.104 0.454
 0 0.105 0.46
 0.001 0.107 0.464
 0.004 0.108 0.469
 0.007 0.11 0.478
 0.01 0.111 0.482
 0.013 0.111 0.484
 0.016 0.111 0.484
 0.019 0.112 0.489
 0.022 0.113 0.494
 0.026 0.115 0.502
 0.029 0.117 0.511
 0.033 0.119 0.52
 0.036 0.121 0.526
 0.04 0.122 0.531
 0.043 0.123 0.534
 0.047 0.123 0.536
 0.05 0.124 0.537
 0.053 0.124 0.54
 0.057 0.125 0.542
 0.06 0.125 0.545
 0.064 0.126 0.548
 0.068 0.127 0.551
 0.072 0.128 0.557
 0.076 0.13 0.565
 0.081 0.132 0.572
 0.086 0.134 0.582
 0.09 0.136 0.59
 0.095 0.138 0.596
 0.1 0.139 0.602
 0.103 0.14 0.604
 0.107 0.139 0.6
 0.109 0.137 0.592
 0.11 0.134 0.579
 0.111 0.131 0.565
 0.111 0.128 0.551
 0.112 0.125 0.536
 0.112 0.121 0.522
 0.113 0.119 0.51
 0.113 0.116 0.499
 0.114 0.114 0.488
 0.115 0.112 0.479
 0.116 0.11 0.472
 0.118 0.109 0.466
 0.119 0.108 0.461
 0.122 0.107 0.458
 0.124 0.107 0.456
 0.126 0.107 0.454
 0.129 0.107 0.453
 0.132 0.107 0.453
 0.135 0.107 0.454
 0.139 0.108 0.456
 0.142 0.108 0.457
 0.146 0.109 0.46
 0.151 0.11 0.464
 0.155 0.111 0.467
 0.159 0.112 0.47
 0.164 0.113 0.475
 0.168 0.114 0.478
 0.172 0.115 0.481
 0.177 0.116 0.484
 0.181 0.117 0.487
 0.186 0.118 0.49
 0.19 0.119 0.493
 0.195 0.12 0.497
 0.2 0.121 0.501
 0.206 0.123 0.505
 0.212 0.124 0.511
 0.218 0.126 0.517
 0.225 0.128 0.524
 0.232 0.13 0.532
 0.241 0.133 0.542
 0.249 0.136 0.552
 0.257 0.138 0.561
 0.266 0.141 0.571
 0.275 0.144 0.581
 0.284 0.147 0.59
 0.293 0.149 0.598
 0.301 0.151 0.606
 0.309 0.153 0.612
 0.317 0.155 0.618
 0.325 0.157 0.624
 0.334 0.16 0.631
 0.344 0.163 0.641
 0.357 0.166 0.655
 0.369 0.17 0.668
 0.385 0.175 0.685
 0.401 0.181 0.705
 0.418 0.187 0.724
 0.437 0.193 0.745
 0.455 0.198 0.766
 0 0 0
 0 0 0
 0 0 0
 0 0 0
 0 0 0
 0 0 0
 0 0 0
 0 0 0
 0 0 0
 0 0 0
 0 0 0
 0 0 0
 0 0 0
 0 0 0
 0 0 0
 0 0 0
 0 0 0
 0 0 0
 0 0 0
 0 0 0
 0 0 0
 0 0 0
 0 0 0
 0 0 0
 0 0 0
 0 0 0
 0 0 0
 0 0 0
 0 0 0
 0 0 0
 0 0 0
 0 0 0
 0 0 0
 -0.178 0.134 0.543
 -0.175 0.135 0.545
 -0.17 0.133 0.541
 -0.168 0.134 0.545
 -0.162 0.132 0.537
 -0.157 0.131 0.532
 -0.153 0.13 0.532
 -0.148 0.129 0.527
 -0.143 0.127 0.52
 -0.14 0.127 0.519
 -0.138 0.128 0.524
 -0.132 0.125 0.515
 -0.129 0.125 0.515
 -0.124 0.124 0.51
 -0.121 0.124 0.51
 -0.116 0.121 0.5
 -0.112 0.121 0.5
 -0.109 0.121 0.5
 -0.107 0.121 0.502
 -0.103 0.12 0.498
 -0.099 0.12 0.497
 -0.096 0.119 0.494
 -0.092 0.118 0.49
 -0.088 0.116 0.484
 -0.084 0.115 0.48
 -0.081 0.114 0.477
 -0.077 0.113 0.473
 -0.074 0.112 0.47
 -0.071 0.112 0.47
 -0.067 0.111 0.467
 -0.064 0.111 0.465
 -0.061 0.11 0.461
 -0.057 0.108 0.453
 -0.054 0.105 0.444
 -0.05 0.103 0.435
 -0.047 0.102 0.43
 -0.044 0.102 0.428
 -0.041 0.1 0.423
 -0.038 0.1 0.424
 -0.036 0.1 0.422
 -0.033 0.099 0.42
 -0.03 0.099 0.417
 -0.028 0.099 0.42
 -0.026 0.1 0.424
 -0.023 0.101 0.429
 -0.021 0.102 0.431
 -0.019 0.103 0.436
 -0.016 0.104 0.442
 -0.014 0.105 0.444
 -0.011 0.106 0.45
 -0.009 0.108 0.457
 -0.006 0.107 0.455
 -0.003 0.107 0.454
 0 0.107 0.455
 0.001 0.108 0.459
 0.004 0.108 0.459
 0.007 0.11 0.465
 0.01 0.111 0.471
 0.013 0.112 0.474
 0.016 0.112 0.475
 0.019 0.113 0.478
 0.022 0.114 0.481
 0.024 0.114 0.481
 0.028 0.115 0.486
 0.031 0.116 0.492
 0.035 0.118 0.501
 0.038 0.12 0.51
 0.042 0.122 0.518
 0.046 0.124 0.526
 0.049 0.125 0.53
 0.053 0.126 0.533
 0.056 0.126 0.533
 0.059 0.126 0.533
 0.062 0.125 0.53
 0.065 0.125 0.529
 0.068 0.126 0.531
 0.072 0.127 0.536
 0.077 0.129 0.544
 0.082 0.132 0.556
 0.087 0.135 0.567
 0.092 0.136 0.574
 0.096 0.138 0.58
 0.1 0.138 0.582
 0.103 0.137 0.577
 0.104 0.135 0.568
 0.105 0.132 0.554
 0.106 0.129 0.54
 0.106 0.125 0.525
 0.107 0.122 0.511
 0.107 0.119 0.497
 0.108 0.116 0.486
 0.109 0.114 0.477
 0.11 0.113 0.47
 0.111 0.111 0.464
 0.113 0.11 0.459
 0.115 0.11 0.456
 0.118 0.109 0.453
 0.12 0.109 0.452
 0.123 0.109 0.451
 0.126 0.109 0.45
 0.129 0.109 0.451
 0.132 0.109 0.451
 0.135 0.109 0.451
 0.138 0.11 0.453
 0.142 0.11 0.454
 0.145 0.111 0.457
 0.15 0.112 0.46
 0.154 0.113 0.463
 0.158 0.114 0.466
 0.163 0.115 0.471
 0.167 0.116 0.474
 0.171 0.117 0.477
 0.176 0.118 0.48
 0.18 0.119 0.483
 0.185 0.12 0.486
 0.189 0.121 0.489
 0.194 0.122 0.492
 0.199 0.124 0.496
 0.205 0.125 0.501
 0.21 0.127 0.506
 0.217 0.129 0.513
 0.224 0.131 0.52
 0.231 0.133 0.528
 0.239 0.136 0.538
 0.247 0.138 0.547
 0.255 0.141 0.556
 0.264 0.144 0.566
 0.273 0.146 0.575
 0.281 0.149 0.584
 0.29 0.151 0.591
 0.298 0.154 0.598
 0.305 0.155 0.603
 0.313 0.157 0.609
 0.321 0.159 0.615
 0.329 0.162 0.622
 0.34 0.165 0.632
 0.352 0.169 0.645
 0.365 0.173 0.659
 0.381 0.178 0.677
 0.397 0.183 0.696
 0.414 0.189 0.716
 0.431 0.195 0.734
 0.452 0.202 0.758
 0 0 0
 0 0 0
 0 0 0
 0 0 0
 0 0 0
 0 0 0
 0 0 0
 0 0 0
 0 0 0
 0 0 0
 0 0 0
 0 0 0
 0 0 0
 0 0 0
 0 0 0
 0 0 0
 0 0 0
 0 0 0
 0 0 0
 0 0 0
 0 0 0
 0 0 0
 0 0 0
 0 0 0
 0 0 0
 0 0 0
 0 0 0
 0 0 0
 0 0 0
 0 0 0
 0 0 0
 0 0 0
 0 0 0
 -0.181 0.14 0.552
 -0.178 0.141 0.555
 -0.173 0.139 0.55
 -0.171 0.14 0.555
 -0.165 0.139 0.549
 -0.16 0.137 0.543
 -0.156 0.136 0.54
 -0.151 0.134 0.534
 -0.145 0.132 0.527
 -0.141 0.131 0.522
 -0.139 0.133 0.53
 -0.133 0.13 0.519
 -0.13 0.13 0.521
 -0.125 0.128 0.513
 -0.123 0.129 0.518
 -0.116 0.125 0.504
 -0.113 0.125 0.505
 -0.112 0.127 0.511
 -0.109 0.127 0.513
 -0.104 0.125 0.505
 -0.101 0.125 0.506
 -0.096 0.123 0.498
 -0.091 0.12 0.488
 -0.088 0.119 0.485
 -0.085 0.12 0.486
 -0.082 0.119 0.484
 -0.08 0.12 0.49
 -0.077 0.12 0.489
 -0.073 0.12 0.488
 -0.07 0.118 0.484
 -0.067 0.118 0.482
 -0.063 0.116 0.475
 -0.059 0.114 0.465
 -0.055 0.112 0.458
 -0.051 0.109 0.449
 -0.048 0.108 0.442
 -0.045 0.107 0.44
 -0.042 0.106 0.434
 -0.039 0.105 0.433
 -0.037 0.105 0.434
 -0.034 0.104 0.429
 -0.031 0.103 0.424
 -0.028 0.103 0.425
 -0.026 0.103 0.423
 -0.023 0.102 0.421
 -0.021 0.103 0.423
 -0.018 0.103 0.426
 -0.016 0.104 0.43
 -0.013 0.104 0.43
 -0.011 0.106 0.436
 -0.008 0.107 0.441
 -0.006 0.108 0.445
 -0.003 0.109 0.449
 0 0.11 0.456
 0.001 0.112 0.462
 0.004 0.112 0.462
 0.007 0.112 0.462
 0.01 0.113 0.465
 0.012 0.112 0.464
 0.015 0.112 0.464
 0.018 0.113 0.467
 0.021 0.114 0.472
 0.024 0.114 0.471
 0.027 0.115 0.475
 0.03 0.116 0.477
 0.033 0.117 0.482
 0.036 0.118 0.487
 0.04 0.12 0.497
 0.044 0.123 0.508
 0.048 0.125 0.516
 0.052 0.127 0.522
 0.055 0.127 0.524
 0.058 0.127 0.522
 0.06 0.125 0.516
 0.063 0.124 0.511
 0.066 0.123 0.508
 0.069 0.124 0.508
 0.073 0.126 0.516
 0.078 0.128 0.528
 0.083 0.131 0.54
 0.087 0.133 0.547
 0.092 0.135 0.553
 0.095 0.135 0.552
 0.097 0.133 0.545
 0.099 0.131 0.535
 0.1 0.128 0.523
 0.1 0.125 0.51
 0.101 0.122 0.497
 0.101 0.119 0.486
 0.102 0.116 0.474
 0.103 0.114 0.466
 0.105 0.113 0.46
 0.106 0.112 0.455
 0.109 0.111 0.452
 0.111 0.111 0.45
 0.114 0.111 0.448
 0.116 0.111 0.448
 0.119 0.111 0.448
 0.122 0.111 0.447
 0.125 0.111 0.447
 0.128 0.111 0.447
 0.131 0.111 0.448
 0.134 0.112 0.448
 0.137 0.112 0.449
 0.141 0.113 0.451
 0.145 0.113 0.453
 0.149 0.114 0.456
 0.153 0.115 0.459
 0.157 0.116 0.463
 0.161 0.118 0.467
 0.166 0.119 0.47
 0.17 0.119 0.473
 0.175 0.121 0.476
 0.179 0.121 0.479
 0.183 0.122 0.481
 0.188 0.123 0.484
 0.193 0.124 0.488
 0.198 0.126 0.492
 0.203 0.127 0.497
 0.209 0.129 0.503
 0.216 0.131 0.509
 0.222 0.133 0.516
 0.229 0.135 0.524
 0.237 0.138 0.533
 0.246 0.141 0.542
 0.253 0.143 0.551
 0.262 0.146 0.56
 0.27 0.149 0.568
 0.279 0.151 0.577
 0.286 0.153 0.584
 0.294 0.156 0.59
 0.301 0.157 0.595
 0.309 0.159 0.601
 0.317 0.161 0.606
 0.325 0.164 0.614
 0.336 0.167 0.623
 0.348 0.171 0.636
 0.361 0.175 0.651
 0.377 0.181 0.669
 0.393 0.186 0.688
 0.411 0.193 0.708
 0.429 0.199 0.729
 0.45 0.206 0.754
 0 0 0
 0 0 0
 0 0 0
 0 0 0
 0 0 0
 0 0 0
 0 0 0
 0 0 0
 0 0 0
 0 0 0
 0 0 0
 0 0 0
 0 0 0
 0 0 0
 0 0 0
 0 0 0
 0 0 0
 0 0 0
 0 0 0
 0 0 0
 0 0 0
 0 0 0
 0 0 0
 0 0 0
 0 0 0
 0 0 0
 0 0 0
 0 0 0
 0 0 0
 0 0 0
 0 0 0
 0 0 0
 -0.187 0.146 0.559
 -0.183 0.146 0.559
 -0.18 0.146 0.56
 -0.176 0.145 0.558
 -0.174 0.147 0.566
 -0.169 0.145 0.562
 -0.163 0.143 0.553
 -0.159 0.142 0.55
 -0.153 0.14 0.542
 -0.147 0.137 0.532
 -0.141 0.134 0.523
 -0.142 0.138 0.54
 -0.135 0.135 0.526
 -0.132 0.135 0.529
 -0.127 0.133 0.521
 -0.126 0.136 0.533
 -0.118 0.13 0.512
 -0.116 0.131 0.516
 -0.116 0.135 0.532
 -0.113 0.135 0.532
 -0.106 0.131 0.516
 -0.103 0.131 0.517
 -0.098 0.128 0.507
 -0.091 0.122 0.484
 -0.087 0.122 0.482
 -0.085 0.122 0.484
 -0.082 0.123 0.487
 -0.081 0.125 0.498
 -0.079 0.126 0.502
 -0.076 0.127 0.504
 -0.072 0.126 0.501
 -0.069 0.125 0.499
 -0.065 0.123 0.492
 -0.061 0.121 0.481
 -0.057 0.119 0.474
 -0.053 0.116 0.463
 -0.049 0.113 0.453
 -0.046 0.112 0.449
 -0.043 0.111 0.445
 -0.041 0.112 0.447
 -0.038 0.112 0.449
 -0.035 0.11 0.442
 -0.032 0.108 0.435
 -0.029 0.108 0.435
 -0.026 0.107 0.431
 -0.023 0.106 0.425
 -0.021 0.106 0.425
 -0.018 0.106 0.425
 -0.016 0.106 0.426
 -0.013 0.105 0.422
 -0.01 0.105 0.423
 -0.008 0.106 0.426
 -0.006 0.107 0.431
 -0.003 0.108 0.434
 0 0.11 0.445
 0.001 0.113 0.455
 0.004 0.115 0.463
 0.007 0.115 0.464
 0.01 0.116 0.469
 0.013 0.116 0.466
 0.015 0.115 0.462
 0.018 0.114 0.459
 0.021 0.115 0.463
 0.023 0.114 0.461
 0.026 0.115 0.464
 0.029 0.115 0.465
 0.032 0.116 0.469
 0.035 0.117 0.471
 0.039 0.118 0.476
 0.042 0.12 0.483
 0.046 0.123 0.495
 0.05 0.125 0.502
 0.053 0.126 0.507
 0.057 0.127 0.51
 0.059 0.126 0.506
 0.062 0.124 0.499
 0.064 0.123 0.494
 0.067 0.123 0.491
 0.07 0.123 0.494
 0.074 0.125 0.501
 0.078 0.128 0.51
 0.082 0.129 0.515
 0.086 0.13 0.519
 0.089 0.13 0.518
 0.091 0.128 0.511
 0.093 0.126 0.502
 0.094 0.123 0.492
 0.095 0.121 0.482
 0.096 0.118 0.471
 0.097 0.116 0.463
 0.098 0.114 0.454
 0.1 0.113 0.449
 0.102 0.113 0.446
 0.104 0.112 0.444
 0.107 0.112 0.444
 0.11 0.112 0.444
 0.113 0.112 0.444
 0.115 0.112 0.444
 0.118 0.113 0.444
 0.121 0.113 0.444
 0.124 0.113 0.443
 0.127 0.113 0.444
 0.13 0.113 0.444
 0.133 0.114 0.445
 0.136 0.114 0.446
 0.14 0.115 0.448
 0.144 0.115 0.45
 0.148 0.116 0.453
 0.152 0.117 0.456
 0.156 0.118 0.459
 0.16 0.119 0.462
 0.165 0.121 0.466
 0.169 0.121 0.468
 0.173 0.122 0.471
 0.177 0.123 0.474
 0.182 0.124 0.477
 0.186 0.125 0.48
 0.191 0.126 0.483
 0.196 0.128 0.487
 0.202 0.129 0.492
 0.207 0.131 0.497
 0.214 0.133 0.504
 0.22 0.135 0.511
 0.228 0.138 0.519
 0.235 0.14 0.528
 0.243 0.143 0.537
 0.251 0.145 0.544
 0.259 0.148 0.554
 0.267 0.151 0.561
 0.275 0.153 0.569
 0.283 0.155 0.576
 0.291 0.158 0.582
 0.298 0.159 0.587
 0.305 0.161 0.593
 0.313 0.163 0.597
 0.321 0.165 0.604
 0.331 0.168 0.613
 0.343 0.172 0.626
 0.356 0.177 0.64
 0.372 0.183 0.66
 0.389 0.189 0.679
 0.406 0.195 0.7
 0.412 0.196 0.699
 0.447 0.21 0.748
 0 0 0
 0 0 0
 0 0 0
 0 0 0
 0 0 0
 0 0 0
 0 0 0
 0 0 0
 0 0 0
 0 0 0
 0 0 0
 0 0 0
 0 0 0
 0 0 0
 0 0 0
 0 0 0
 0 0 0
 0 0 0
 0 0 0
 0 0 0
 0 0 0
 0 0 0
 0 0 0
 0 0 0
 0 0 0
 0 0 0
 0 0 0
 0 0 0
 0 0 0
 0 0 0
 0 0 0
 -0.193 0.152 0.565
 -0.191 0.152 0.569
 -0.187 0.152 0.57
 -0.184 0.153 0.572
 -0.179 0.151 0.568
 -0.178 0.153 0.577
 -0.173 0.152 0.573
 -0.166 0.149 0.563
 -0.161 0.148 0.557
 -0.154 0.144 0.546
 -0.148 0.142 0.537
 -0.141 0.138 0.523
 -0.142 0.142 0.54
 -0.135 0.138 0.525
 -0.133 0.139 0.53
 -0.127 0.136 0.52
 -0.128 0.141 0.539
 -0.12 0.135 0.517
 -0.118 0.137 0.524
 -0.12 0.144 0.551
 -0.116 0.143 0.548
 -0.108 0.136 0.522
 -0.105 0.136 0.525
 -0.1 0.133 0.514
 -0.09 0.124 0.477
 -0.086 0.123 0.475
 -0.084 0.124 0.481
 -0.082 0.125 0.484
 -0.081 0.128 0.497
 -0.078 0.129 0.5
 -0.076 0.13 0.505
 -0.073 0.13 0.503
 -0.07 0.131 0.508
 -0.067 0.13 0.505
 -0.063 0.129 0.501
 -0.06 0.128 0.497
 -0.056 0.125 0.489
 -0.052 0.122 0.477
 -0.048 0.12 0.468
 -0.044 0.117 0.457
 -0.041 0.117 0.456
 -0.039 0.118 0.46
 -0.035 0.115 0.452
 -0.033 0.114 0.448
 -0.03 0.115 0.45
 -0.027 0.114 0.447
 -0.024 0.111 0.435
 -0.021 0.111 0.436
 -0.018 0.11 0.432
 -0.016 0.11 0.432
 -0.013 0.109 0.426
 -0.011 0.109 0.427
 -0.008 0.108 0.424
 -0.005 0.108 0.426
 -0.003 0.108 0.423
 0 0.109 0.427
 0.001 0.11 0.434
 0.004 0.113 0.444
 0.007 0.114 0.448
 0.01 0.117 0.458
 0.013 0.118 0.463
 0.015 0.118 0.462
 0.018 0.117 0.46
 0.021 0.117 0.46
 0.023 0.116 0.455
 0.026 0.117 0.458
 0.029 0.117 0.46
 0.032 0.117 0.461
 0.035 0.118 0.463
 0.038 0.119 0.466
 0.041 0.12 0.471
 0.044 0.121 0.474
 0.048 0.122 0.48
 0.051 0.124 0.485
 0.054 0.124 0.487
 0.057 0.124 0.484
 0.06 0.124 0.486
 0.063 0.124 0.485
 0.065 0.123 0.482
 0.069 0.124 0.484
 0.072 0.125 0.487
 0.075 0.125 0.488
 0.078 0.125 0.489
 0.081 0.125 0.488
 0.084 0.125 0.485
 0.085 0.123 0.478
 0.087 0.121 0.471
 0.089 0.119 0.464
 0.09 0.118 0.458
 0.091 0.116 0.45
 0.093 0.115 0.445
 0.095 0.113 0.439
 0.097 0.113 0.437
 0.1 0.113 0.437
 0.103 0.113 0.437
 0.106 0.114 0.438
 0.109 0.114 0.439
 0.112 0.114 0.439
 0.115 0.114 0.44
 0.117 0.114 0.44
 0.12 0.115 0.44
 0.123 0.115 0.44
 0.126 0.115 0.44
 0.129 0.115 0.441
 0.132 0.116 0.442
 0.136 0.116 0.442
 0.139 0.117 0.444
 0.143 0.118 0.446
 0.147 0.118 0.449
 0.151 0.119 0.452
 0.155 0.12 0.455
 0.159 0.122 0.459
 0.163 0.123 0.462
 0.168 0.123 0.464
 0.172 0.125 0.468
 0.176 0.125 0.47
 0.18 0.126 0.473
 0.185 0.127 0.476
 0.19 0.129 0.479
 0.194 0.13 0.482
 0.2 0.131 0.487
 0.206 0.133 0.493
 0.212 0.135 0.499
 0.219 0.137 0.506
 0.226 0.14 0.514
 0.233 0.142 0.522
 0.241 0.145 0.53
 0.248 0.147 0.537
 0.256 0.15 0.546
 0.264 0.152 0.553
 0.271 0.155 0.56
 0.279 0.157 0.566
 0.287 0.159 0.573
 0.294 0.161 0.578
 0.301 0.163 0.583
 0.308 0.165 0.588
 0.316 0.167 0.594
 0.326 0.17 0.603
 0.337 0.174 0.614
 0.35 0.178 0.629
 0.366 0.184 0.647
 0.383 0.19 0.667
 0.4 0.197 0.688
 0.427 0.208 0.724
 0.437 0.21 0.73
 0 0 0
 0 0 0
 0 0 0
 0 0 0
 0 0 0
 0 0 0
 0 0 0
 0 0 0
 0 0 0
 0 0 0
 0 0 0
 0 0 0
 0 0 0
 0 0 0
 0 0 0
 0 0 0
 0 0 0
 0 0 0
 0 0 0
 0 0 0
 0 0 0
 0 0 0
 0 0 0
 0 0 0
 0 0 0
 0 0 0
 0 0 0
 0 0 0
 0 0 0
 0 0 0
 0 0 0
 -0.197 0.158 0.576
 -0.193 0.158 0.574
 -0.188 0.157 0.573
 -0.185 0.157 0.573
 -0.179 0.155 0.567
 -0.178 0.157 0.575
 -0.175 0.157 0.578
 -0.168 0.155 0.569
 -0.163 0.153 0.565
 -0.157 0.15 0.556
 -0.151 0.148 0.548
 -0.142 0.142 0.527
 -0.145 0.148 0.55
 -0.138 0.145 0.537
 -0.136 0.146 0.542
 -0.13 0.143 0.533
 -0.133 0.15 0.56
 -0.123 0.142 0.531
 -0.12 0.143 0.533
 -0.124 0.152 0.569
 -0.119 0.15 0.563
 -0.11 0.142 0.531
 -0.107 0.143 0.536
 -0.103 0.141 0.532
 -0.09 0.128 0.481
 -0.086 0.125 0.473
 -0.083 0.126 0.475
 -0.081 0.127 0.479
 -0.081 0.131 0.497
 -0.078 0.132 0.499
 -0.077 0.135 0.51
 -0.073 0.133 0.504
 -0.07 0.133 0.505
 -0.067 0.132 0.502
 -0.063 0.131 0.499
 -0.06 0.131 0.498
 -0.057 0.131 0.498
 -0.054 0.13 0.495
 -0.051 0.13 0.497
 -0.047 0.128 0.489
 -0.044 0.127 0.485
 -0.041 0.127 0.483
 -0.037 0.123 0.471
 -0.033 0.12 0.459
 -0.03 0.12 0.458
 -0.027 0.119 0.454
 -0.024 0.116 0.442
 -0.022 0.116 0.443
 -0.019 0.115 0.441
 -0.016 0.115 0.439
 -0.013 0.113 0.431
 -0.011 0.113 0.434
 -0.008 0.112 0.429
 -0.005 0.112 0.429
 -0.003 0.111 0.426
 0 0.111 0.426
 0.001 0.11 0.424
 0.004 0.111 0.427
 0.006 0.111 0.427
 0.009 0.113 0.435
 0.012 0.116 0.443
 0.015 0.118 0.451
 0.018 0.119 0.454
 0.021 0.12 0.461
 0.023 0.12 0.458
 0.026 0.12 0.46
 0.029 0.12 0.459
 0.032 0.12 0.459
 0.034 0.119 0.457
 0.037 0.119 0.457
 0.04 0.12 0.459
 0.042 0.119 0.456
 0.045 0.119 0.456
 0.048 0.12 0.457
 0.051 0.121 0.463
 0.054 0.121 0.462
 0.058 0.123 0.468
 0.061 0.123 0.471
 0.064 0.124 0.473
 0.067 0.124 0.474
 0.07 0.125 0.476
 0.073 0.125 0.476
 0.076 0.124 0.472
 0.078 0.124 0.47
 0.08 0.122 0.465
 0.082 0.12 0.457
 0.083 0.119 0.45
 0.085 0.118 0.446
 0.087 0.116 0.44
 0.089 0.115 0.435
 0.091 0.115 0.433
 0.093 0.114 0.431
 0.096 0.114 0.431
 0.099 0.114 0.431
 0.102 0.115 0.432
 0.105 0.115 0.434
 0.108 0.116 0.435
 0.111 0.116 0.435
 0.114 0.116 0.435
 0.116 0.116 0.435
 0.119 0.116 0.436
 0.122 0.117 0.436
 0.125 0.117 0.436
 0.128 0.117 0.437
 0.132 0.118 0.438
 0.135 0.118 0.439
 0.138 0.119 0.441
 0.142 0.12 0.443
 0.146 0.121 0.446
 0.15 0.121 0.449
 0.154 0.122 0.451
 0.158 0.123 0.454
 0.162 0.125 0.458
 0.166 0.126 0.461
 0.171 0.127 0.464
 0.175 0.127 0.466
 0.179 0.128 0.468
 0.183 0.129 0.47
 0.188 0.13 0.473
 0.192 0.131 0.477
 0.198 0.133 0.482
 0.204 0.135 0.488
 0.21 0.137 0.494
 0.217 0.139 0.5
 0.224 0.142 0.508
 0.231 0.144 0.515
 0.238 0.147 0.523
 0.245 0.149 0.53
 0.253 0.152 0.538
 0.26 0.154 0.544
 0.268 0.156 0.551
 0.274 0.158 0.556
 0.282 0.16 0.563
 0.29 0.162 0.569
 0.297 0.164 0.574
 0.304 0.166 0.579
 0.313 0.169 0.586
 0.322 0.172 0.594
 0.332 0.175 0.605
 0.345 0.18 0.619
 0.36 0.186 0.636
 0.377 0.192 0.656
 0.394 0.198 0.676
 0.413 0.205 0.698
 0.435 0.214 0.724
 0 0 0
 0 0 0
 0 0 0
 0 0 0
 0 0 0
 0 0 0
 0 0 0
 0 0 0
 0 0 0
 0 0 0
 0 0 0
 0 0 0
 0 0 0
 0 0 0
 0 0 0
 0 0 0
 0 0 0
 0 0 0
 0 0 0
 0 0 0
 0 0 0
 0 0 0
 0 0 0
 0 0 0
 0 0 0
 0 0 0
 0 0 0
 0 0 0
 0 0 0
 0 0 0
 0 0 0
 -0.202 0.166 0.589
 -0.197 0.164 0.585
 -0.192 0.164 0.583
 -0.188 0.163 0.582
 -0.182 0.161 0.577
 -0.18 0.162 0.582
 -0.177 0.163 0.584
 -0.169 0.159 0.571
 -0.163 0.156 0.563
 -0.155 0.152 0.548
 -0.15 0.15 0.542
 -0.14 0.143 0.518
 -0.143 0.15 0.542
 -0.139 0.149 0.54
 -0.137 0.15 0.546
 -0.133 0.15 0.546
 -0.138 0.159 0.58
 -0.13 0.154 0.562
 -0.127 0.155 0.564
 -0.133 0.167 0.612
 -0.127 0.163 0.598
 -0.117 0.154 0.565
 -0.113 0.154 0.566
 -0.108 0.152 0.559
 -0.093 0.135 0.495
 -0.085 0.127 0.468
 -0.08 0.124 0.457
 -0.079 0.126 0.464
 -0.078 0.13 0.48
 -0.076 0.13 0.482
 -0.075 0.134 0.497
 -0.072 0.134 0.497
 -0.069 0.135 0.5
 -0.066 0.134 0.498
 -0.063 0.134 0.498
 -0.06 0.134 0.497
 -0.057 0.134 0.496
 -0.054 0.133 0.494
 -0.051 0.133 0.496
 -0.048 0.134 0.497
 -0.045 0.133 0.497
 -0.043 0.135 0.505
 -0.039 0.134 0.501
 -0.036 0.133 0.495
 -0.032 0.13 0.487
 -0.029 0.128 0.478
 -0.025 0.123 0.46
 -0.022 0.123 0.46
 -0.019 0.121 0.454
 -0.017 0.121 0.454
 -0.014 0.12 0.449
 -0.011 0.12 0.449
 -0.008 0.118 0.44
 -0.006 0.117 0.436
 -0.003 0.115 0.432
 0 0.115 0.43
 0.001 0.113 0.424
 0.004 0.114 0.425
 0.006 0.113 0.423
 0.009 0.112 0.419
 0.011 0.112 0.418
 0.014 0.113 0.424
 0.017 0.115 0.429
 0.02 0.117 0.439
 0.023 0.12 0.449
 0.026 0.123 0.461
 0.029 0.124 0.465
 0.032 0.124 0.463
 0.035 0.124 0.462
 0.037 0.123 0.458
 0.04 0.122 0.454
 0.042 0.12 0.447
 0.044 0.119 0.444
 0.046 0.118 0.441
 0.049 0.119 0.444
 0.052 0.119 0.444
 0.056 0.122 0.454
 0.06 0.123 0.459
 0.063 0.125 0.464
 0.066 0.125 0.467
 0.069 0.126 0.468
 0.072 0.125 0.465
 0.074 0.123 0.459
 0.076 0.123 0.455
 0.077 0.121 0.448
 0.079 0.119 0.439
 0.08 0.117 0.434
 0.083 0.117 0.432
 0.084 0.115 0.427
 0.087 0.115 0.425
 0.089 0.115 0.425
 0.092 0.115 0.425
 0.095 0.116 0.426
 0.098 0.116 0.427
 0.101 0.116 0.428
 0.104 0.117 0.43
 0.107 0.117 0.43
 0.11 0.117 0.43
 0.112 0.117 0.43
 0.115 0.118 0.43
 0.118 0.118 0.431
 0.121 0.118 0.431
 0.124 0.118 0.431
 0.127 0.119 0.432
 0.13 0.119 0.433
 0.134 0.12 0.435
 0.137 0.121 0.437
 0.141 0.121 0.439
 0.145 0.122 0.442
 0.149 0.123 0.444
 0.153 0.124 0.447
 0.157 0.125 0.45
 0.161 0.127 0.454
 0.165 0.128 0.457
 0.17 0.129 0.46
 0.173 0.129 0.461
 0.178 0.13 0.464
 0.182 0.131 0.465
 0.186 0.132 0.469
 0.191 0.133 0.472
 0.196 0.135 0.477
 0.202 0.137 0.482
 0.208 0.139 0.489
 0.214 0.141 0.495
 0.221 0.144 0.502
 0.229 0.146 0.51
 0.236 0.149 0.517
 0.242 0.151 0.523
 0.25 0.153 0.53
 0.257 0.155 0.536
 0.263 0.157 0.542
 0.27 0.159 0.547
 0.278 0.162 0.554
 0.286 0.164 0.56
 0.293 0.166 0.565
 0.3 0.168 0.571
 0.308 0.17 0.577
 0.317 0.173 0.585
 0.328 0.177 0.595
 0.341 0.181 0.609
 0.355 0.187 0.626
 0.372 0.194 0.646
 0.389 0.2 0.665
 0.407 0.207 0.687
 0.42 0.211 0.697
 0 0 0
 0 0 0
 0 0 0
 0 0 0
 0 0 0
 0 0 0
 0 0 0
 0 0 0
 0 0 0
 0 0 0
 0 0 0
 0 0 0
 0 0 0
 0 0 0
 0 0 0
 0 0 0
 0 0 0
 0 0 0
 0 0 0
 0 0 0
 0 0 0
 0 0 0
 0 0 0
 0 0 0
 0 0 0
 0 0 0
 0 0 0
 0 0 0
 0 0 0
 0 0 0
 -0.213 0.176 0.609
 -0.203 0.171 0.591
 -0.198 0.169 0.589
 -0.193 0.168 0.587
 -0.189 0.168 0.584
 -0.183 0.166 0.579
 -0.181 0.167 0.583
 -0.176 0.165 0.58
 -0.168 0.161 0.565
 -0.161 0.158 0.554
 -0.153 0.153 0.541
 -0.147 0.151 0.532
 -0.139 0.145 0.514
 -0.141 0.151 0.534
 -0.139 0.153 0.541
 -0.137 0.153 0.544
 -0.133 0.153 0.545
 -0.137 0.162 0.575
 -0.13 0.158 0.561
 -0.126 0.156 0.558
 -0.133 0.17 0.609
 -0.129 0.169 0.606
 -0.117 0.159 0.569
 -0.113 0.158 0.566
 -0.111 0.159 0.572
 -0.097 0.144 0.516
 -0.089 0.136 0.488
 -0.084 0.133 0.479
 0 0 0
 0 0 0
 0 0 0
 0 0 0
 0 0 0
 0 0 0
 -0.065 0.135 0.49
 0 0 0
 0 0 0
 0 0 0
 0 0 0
 0 0 0
 -0.048 0.138 0.503
 -0.046 0.139 0.507
 -0.043 0.14 0.51
 -0.04 0.14 0.51
 -0.037 0.141 0.512
 -0.034 0.14 0.51
 -0.031 0.139 0.506
 -0.027 0.137 0.5
 -0.024 0.136 0.497
 -0.021 0.134 0.491
 -0.018 0.133 0.487
 -0.015 0.131 0.478
 -0.012 0.13 0.474
 -0.009 0.127 0.463
 -0.006 0.124 0.455
 -0.003 0.122 0.447
 0 0.12 0.439
 0.001 0.118 0.432
 0.004 0.119 0.434
 0.006 0.118 0.431
 0.009 0.116 0.423
 0.011 0.115 0.419
 0.014 0.114 0.415
 0.016 0.113 0.413
 0.019 0.114 0.418
 0.022 0.118 0.43
 0.026 0.122 0.447
 0.029 0.126 0.459
 0.032 0.127 0.462
 0.035 0.127 0.465
 0.037 0.126 0.459
 0.04 0.125 0.456
 0.042 0.123 0.449
 0.044 0.121 0.442
 0.046 0.119 0.434
 0.049 0.12 0.438
 0.051 0.12 0.437
 0.055 0.122 0.443
 0.058 0.123 0.449
 0.062 0.125 0.455
 0.065 0.125 0.455
 0.068 0.125 0.456
 0.07 0.125 0.453
 0.072 0.123 0.447
 0.074 0.122 0.442
 0.076 0.121 0.437
 0.077 0.119 0.43
 0.079 0.118 0.425
 0.081 0.117 0.423
 0.083 0.116 0.421
 0.086 0.116 0.419
 0.089 0.117 0.42
 0.091 0.117 0.421
 0.094 0.117 0.422
 0.097 0.118 0.424
 0.1 0.118 0.425
 0.103 0.119 0.425
 0.106 0.119 0.425
 0.109 0.119 0.426
 0.111 0.119 0.426
 0.114 0.119 0.426
 0.117 0.12 0.426
 0.12 0.12 0.427
 0.123 0.12 0.427
 0.126 0.12 0.427
 0.129 0.121 0.429
 0.132 0.121 0.43
 0.136 0.122 0.432
 0.14 0.123 0.434
 0.143 0.124 0.437
 0.147 0.125 0.439
 0.151 0.126 0.442
 0.155 0.127 0.446
 0.16 0.128 0.449
 0.164 0.129 0.452
 0.168 0.13 0.455
 0.172 0.131 0.457
 0.176 0.132 0.459
 0.18 0.133 0.461
 0.185 0.134 0.464
 0.189 0.135 0.467
 0.195 0.137 0.472
 0.2 0.139 0.477
 0.206 0.141 0.483
 0.212 0.143 0.489
 0.219 0.145 0.496
 0.226 0.148 0.503
 0.233 0.15 0.51
 0.24 0.152 0.516
 0.247 0.155 0.523
 0.253 0.156 0.528
 0.26 0.158 0.533
 0.267 0.161 0.539
 0.274 0.163 0.545
 0.282 0.165 0.551
 0.289 0.167 0.556
 0.296 0.169 0.562
 0.304 0.172 0.568
 0.313 0.174 0.575
 0.323 0.178 0.586
 0.335 0.183 0.598
 0.35 0.188 0.615
 0.365 0.194 0.633
 0.383 0.201 0.654
 0.397 0.206 0.668
 0.421 0.217 0.699
 0 0 0
 0 0 0
 0 0 0
 0 0 0
 0 0 0
 0 0 0
 0 0 0
 0 0 0
 0 0 0
 0 0 0
 0 0 0
 0 0 0
 0 0 0
 0 0 0
 0 0 0
 0 0 0
 0 0 0
 0 0 0
 0 0 0
 0 0 0
 0 0 0
 0 0 0
 0 0 0
 0 0 0
 0 0 0
 0 0 0
 0 0 0
 0 0 0
 0 0 0
 0 0 0
 -0.213 0.18 0.609
 -0.205 0.176 0.597
 -0.2 0.175 0.593
 -0.195 0.174 0.591
 -0.191 0.173 0.591
 -0.185 0.171 0.585
 -0.182 0.171 0.586
 -0.175 0.169 0.578
 -0.167 0.164 0.563
 -0.158 0.159 0.545
 -0.151 0.154 0.532
 -0.145 0.152 0.522
 -0.138 0.147 0.509
 -0.138 0.151 0.522
 -0.139 0.156 0.54
 -0.136 0.156 0.54
 -0.133 0.156 0.541
 -0.136 0.164 0.569
 -0.13 0.161 0.561
 -0.124 0.157 0.549
 -0.129 0.169 0.589
 -0.126 0.17 0.595
 -0.116 0.16 0.559
 -0.111 0.158 0.554
 -0.109 0.159 0.559
 -0.097 0.146 0.513
 -0.088 0.136 0.479
 -0.084 0.135 0.476
 -0.079 0.132 0.466
 0 0 0
 0 0 0
 0 0 0
 0 0 0
 0 0 0
 0 0 0
 0 0 0
 0 0 0
 0 0 0
 0 0 0
 0 0 0
 0 0 0
 0 0 0
 0 0 0
 0 0 0
 -0.037 0.145 0.515
 -0.034 0.143 0.511
 -0.031 0.147 0.523
 -0.028 0.146 0.521
 -0.025 0.147 0.524
 -0.022 0.146 0.521
 -0.019 0.146 0.519
 -0.015 0.143 0.51
 -0.012 0.141 0.504
 -0.009 0.138 0.492
 -0.006 0.135 0.481
 -0.003 0.132 0.471
 0 0.129 0.461
 0.001 0.126 0.449
 0.004 0.125 0.445
 0.007 0.124 0.443
 0.009 0.122 0.435
 0.011 0.119 0.424
 0.014 0.117 0.419
 0.016 0.116 0.416
 0.018 0.113 0.405
 0.02 0.113 0.402
 0.024 0.117 0.419
 0.027 0.121 0.433
 0.03 0.123 0.439
 0.034 0.127 0.453
 0.037 0.129 0.46
 0.041 0.13 0.463
 0.042 0.127 0.454
 0.045 0.125 0.447
 0.046 0.123 0.438
 0.049 0.123 0.437
 0.051 0.121 0.432
 0.054 0.123 0.436
 0.057 0.124 0.44
 0.06 0.124 0.442
 0.063 0.124 0.442
 0.066 0.125 0.443
 0.068 0.124 0.44
 0.07 0.123 0.436
 0.072 0.122 0.432
 0.074 0.121 0.427
 0.076 0.119 0.422
 0.078 0.119 0.419
 0.08 0.118 0.417
 0.082 0.118 0.416
 0.085 0.118 0.416
 0.088 0.118 0.417
 0.091 0.119 0.418
 0.094 0.119 0.419
 0.097 0.12 0.42
 0.099 0.12 0.42
 0.102 0.12 0.42
 0.105 0.12 0.42
 0.108 0.12 0.42
 0.11 0.12 0.42
 0.113 0.12 0.42
 0.116 0.121 0.421
 0.119 0.121 0.422
 0.122 0.122 0.422
 0.125 0.122 0.423
 0.128 0.123 0.425
 0.131 0.123 0.426
 0.135 0.124 0.427
 0.138 0.125 0.43
 0.142 0.126 0.432
 0.146 0.126 0.435
 0.15 0.128 0.438
 0.154 0.129 0.441
 0.159 0.13 0.445
 0.163 0.131 0.447
 0.167 0.132 0.451
 0.171 0.133 0.452
 0.175 0.134 0.455
 0.179 0.135 0.457
 0.183 0.136 0.46
 0.188 0.137 0.462
 0.193 0.139 0.467
 0.198 0.14 0.472
 0.204 0.142 0.477
 0.21 0.144 0.483
 0.217 0.147 0.491
 0.224 0.15 0.498
 0.231 0.152 0.505
 0.237 0.154 0.51
 0.244 0.156 0.516
 0.25 0.158 0.52
 0.257 0.16 0.526
 0.263 0.162 0.531
 0.27 0.164 0.536
 0.278 0.166 0.542
 0.285 0.168 0.548
 0.292 0.171 0.553
 0.3 0.173 0.559
 0.309 0.176 0.567
 0.319 0.18 0.577
 0.331 0.184 0.59
 0.344 0.189 0.604
 0.359 0.195 0.622
 0.376 0.202 0.64
 0.39 0.208 0.656
 0.407 0.214 0.674
 0 0 0
 0 0 0
 0 0 0
 0 0 0
 0 0 0
 0 0 0
 0 0 0
 0 0 0
 0 0 0
 0 0 0
 0 0 0
 0 0 0
 0 0 0
 0 0 0
 0 0 0
 0 0 0
 0 0 0
 0 0 0
 0 0 0
 0 0 0
 0 0 0
 0 0 0
 0 0 0
 0 0 0
 0 0 0
 0 0 0
 0 0 0
 0 0 0
 0 0 0
 0 0 0
 -0.217 0.187 0.617
 -0.21 0.184 0.609
 -0.202 0.18 0.599
 -0.197 0.179 0.595
 -0.193 0.179 0.595
 -0.186 0.176 0.588
 -0.182 0.175 0.586
 -0.177 0.174 0.583
 -0.168 0.168 0.564
 -0.158 0.162 0.544
 -0.15 0.157 0.527
 -0.144 0.154 0.519
 -0.137 0.149 0.503
 -0.138 0.154 0.52
 -0.139 0.16 0.54
 -0.136 0.16 0.541
 -0.133 0.159 0.54
 -0.135 0.167 0.566
 -0.13 0.165 0.561
 -0.122 0.158 0.54
 -0.125 0.167 0.569
 -0.125 0.172 0.587
 -0.116 0.163 0.559
 -0.11 0.161 0.55
 -0.109 0.163 0.56
 -0.097 0.15 0.516
 -0.088 0.141 0.483
 -0.084 0.138 0.474
 -0.08 0.136 0.467
 -0.076 0.133 0.459
 -0.077 0.142 0.49
 0 0 0
 0 0 0
 0 0 0
 0 0 0
 0 0 0
 0 0 0
 0 0 0
 0 0 0
 0 0 0
 0 0 0
 0 0 0
 0 0 0
 0 0 0
 0 0 0
 0 0 0
 -0.035 0.166 0.578
 -0.031 0.165 0.575
 -0.027 0.162 0.564
 -0.023 0.158 0.549
 -0.02 0.156 0.545
 -0.016 0.154 0.538
 -0.013 0.151 0.526
 -0.009 0.148 0.516
 -0.006 0.145 0.508
 -0.003 0.142 0.497
 0 0.14 0.489
 0.002 0.137 0.478
 0.004 0.134 0.469
 0.007 0.132 0.461
 0.01 0.129 0.451
 0.012 0.124 0.434
 0.014 0.122 0.427
 0.016 0.12 0.42
 0.018 0.116 0.406
 0.02 0.112 0.392
 0.023 0.114 0.397
 0.025 0.115 0.402
 0.028 0.118 0.412
 0.032 0.122 0.425
 0.036 0.126 0.439
 0.039 0.129 0.45
 0.042 0.13 0.453
 0.045 0.128 0.447
 0.047 0.126 0.44
 0.049 0.126 0.439
 0.051 0.124 0.432
 0.053 0.123 0.428
 0.056 0.123 0.428
 0.059 0.124 0.43
 0.061 0.123 0.427
 0.064 0.123 0.428
 0.066 0.123 0.428
 0.068 0.123 0.425
 0.07 0.122 0.421
 0.073 0.121 0.419
 0.075 0.12 0.416
 0.077 0.12 0.413
 0.079 0.119 0.413
 0.082 0.12 0.412
 0.085 0.12 0.413
 0.087 0.12 0.414
 0.09 0.12 0.414
 0.093 0.121 0.415
 0.096 0.121 0.415
 0.098 0.121 0.415
 0.101 0.121 0.415
 0.103 0.121 0.414
 0.106 0.121 0.415
 0.109 0.121 0.414
 0.112 0.122 0.415
 0.115 0.122 0.416
 0.118 0.123 0.417
 0.121 0.123 0.417
 0.124 0.123 0.418
 0.127 0.124 0.42
 0.13 0.125 0.422
 0.134 0.125 0.423
 0.137 0.126 0.425
 0.141 0.127 0.428
 0.144 0.128 0.43
 0.148 0.129 0.433
 0.153 0.13 0.436
 0.157 0.132 0.44
 0.161 0.133 0.442
 0.165 0.134 0.445
 0.169 0.134 0.447
 0.173 0.136 0.45
 0.177 0.136 0.452
 0.182 0.138 0.455
 0.186 0.139 0.458
 0.191 0.141 0.463
 0.196 0.142 0.466
 0.202 0.144 0.472
 0.208 0.146 0.477
 0.215 0.148 0.484
 0.221 0.151 0.491
 0.228 0.154 0.498
 0.235 0.156 0.504
 0.241 0.158 0.51
 0.247 0.159 0.513
 0.254 0.161 0.518
 0.26 0.163 0.523
 0.266 0.165 0.527
 0.273 0.167 0.533
 0.281 0.17 0.539
 0.288 0.172 0.545
 0.296 0.175 0.551
 0.305 0.178 0.559
 0.315 0.181 0.569
 0.327 0.186 0.581
 0.34 0.191 0.595
 0.354 0.196 0.61
 0.37 0.203 0.629
 0.392 0.213 0.657
 0.411 0.221 0.679
 0 0 0
 0 0 0
 0 0 0
 0 0 0
 0 0 0
 0 0 0
 0 0 0
 0 0 0
 0 0 0
 0 0 0
 0 0 0
 0 0 0
 0 0 0
 0 0 0
 0 0 0
 0 0 0
 0 0 0
 0 0 0
 0 0 0
 0 0 0
 0 0 0
 0 0 0
 0 0 0
 0 0 0
 0 0 0
 0 0 0
 0 0 0
 0 0 0
 0 0 0
 0 0 0
 -0.216 0.19 0.615
 -0.211 0.189 0.612
 -0.203 0.185 0.6
 -0.198 0.184 0.597
 -0.194 0.184 0.598
 -0.188 0.181 0.592
 -0.181 0.178 0.584
 -0.175 0.176 0.575
 -0.165 0.169 0.555
 -0.155 0.162 0.532
 -0.147 0.157 0.516
 -0.142 0.155 0.51
 -0.135 0.151 0.497
 -0.135 0.153 0.507
 -0.137 0.16 0.53
 -0.133 0.159 0.528
 -0.129 0.159 0.527
 -0.131 0.165 0.55
 -0.128 0.165 0.549
 -0.12 0.159 0.53
 -0.123 0.168 0.56
 -0.126 0.176 0.589
 -0.115 0.166 0.556
 -0.109 0.162 0.542
 -0.106 0.163 0.546
 -0.095 0.15 0.503
 -0.086 0.139 0.467
 -0.082 0.137 0.462
 -0.079 0.137 0.461
 -0.075 0.135 0.455
 -0.076 0.142 0.48
 0 0 0
 0 0 0
 0 0 0
 0 0 0
 0 0 0
 0 0 0
 0 0 0
 0 0 0
 0 0 0
 0 0 0
 0 0 0
 0 0 0
 0 0 0
 0 0 0
 0 0 0
 -0.036 0.175 0.595
 -0.032 0.176 0.599
 -0.028 0.171 0.583
 -0.024 0.17 0.578
 -0.021 0.168 0.571
 -0.017 0.165 0.562
 -0.013 0.161 0.548
 -0.01 0.159 0.542
 -0.006 0.154 0.527
 -0.003 0.151 0.515
 0 0.149 0.509
 0.002 0.147 0.504
 0.005 0.146 0.498
 0.008 0.144 0.492
 0.01 0.14 0.479
 0.013 0.134 0.458
 0.015 0.13 0.445
 0.017 0.127 0.433
 0.019 0.121 0.412
 0.02 0.115 0.393
 0.022 0.115 0.391
 0.025 0.115 0.391
 0.027 0.115 0.393
 0.03 0.118 0.403
 0.034 0.123 0.419
 0.038 0.127 0.433
 0.041 0.129 0.441
 0.044 0.13 0.442
 0.047 0.13 0.441
 0.049 0.129 0.438
 0.051 0.126 0.43
 0.053 0.125 0.424
 0.055 0.124 0.421
 0.057 0.123 0.419
 0.059 0.123 0.417
 0.062 0.123 0.417
 0.064 0.123 0.416
 0.067 0.122 0.414
 0.069 0.122 0.412
 0.071 0.121 0.411
 0.074 0.121 0.409
 0.076 0.121 0.407
 0.078 0.121 0.407
 0.081 0.121 0.407
 0.084 0.121 0.407
 0.086 0.121 0.409
 0.089 0.122 0.409
 0.092 0.122 0.409
 0.095 0.122 0.41
 0.097 0.122 0.41
 0.1 0.122 0.409
 0.102 0.122 0.409
 0.105 0.122 0.409
 0.108 0.123 0.409
 0.11 0.123 0.409
 0.113 0.123 0.41
 0.116 0.124 0.411
 0.119 0.124 0.412
 0.122 0.125 0.413
 0.126 0.125 0.415
 0.129 0.126 0.417
 0.132 0.127 0.418
 0.136 0.127 0.42
 0.139 0.128 0.423
 0.143 0.129 0.425
 0.147 0.13 0.428
 0.151 0.132 0.431
 0.155 0.133 0.434
 0.159 0.134 0.436
 0.163 0.135 0.439
 0.167 0.136 0.441
 0.171 0.137 0.444
 0.176 0.138 0.447
 0.18 0.139 0.45
 0.185 0.141 0.454
 0.19 0.142 0.458
 0.195 0.144 0.461
 0.2 0.146 0.466
 0.206 0.148 0.471
 0.212 0.15 0.478
 0.219 0.152 0.485
 0.226 0.155 0.491
 0.232 0.157 0.497
 0.239 0.159 0.503
 0.244 0.161 0.506
 0.251 0.163 0.511
 0.257 0.165 0.516
 0.263 0.167 0.52
 0.27 0.168 0.524
 0.277 0.171 0.531
 0.284 0.173 0.536
 0.292 0.176 0.542
 0.301 0.179 0.55
 0.311 0.183 0.56
 0.322 0.187 0.571
 0.335 0.192 0.585
 0.348 0.197 0.6
 0.364 0.204 0.618
 0.374 0.207 0.626
 0.393 0.216 0.648
 0 0 0
 0 0 0
 0 0 0
 0 0 0
 0 0 0
 0 0 0
 0 0 0
 0 0 0
 0 0 0
 0 0 0
 0 0 0
 0 0 0
 0 0 0
 0 0 0
 0 0 0
 0 0 0
 0 0 0
 0 0 0
 0 0 0
 0 0 0
 0 0 0
 0 0 0
 0 0 0
 0 0 0
 0 0 0
 0 0 0
 0 0 0
 0 0 0
 0 0 0
 0 0 0
 0 0 0
 -0.212 0.194 0.615
 -0.203 0.189 0.6
 -0.198 0.188 0.597
 -0.193 0.187 0.596
 -0.188 0.185 0.592
 -0.18 0.18 0.577
 -0.172 0.176 0.564
 -0.162 0.169 0.544
 -0.153 0.163 0.523
 -0.144 0.156 0.503
 -0.139 0.155 0.499
 -0.133 0.151 0.489
 -0.132 0.153 0.496
 -0.134 0.16 0.517
 -0.131 0.16 0.519
 -0.127 0.158 0.514
 -0.128 0.164 0.534
 -0.125 0.165 0.537
 -0.119 0.16 0.523
 -0.119 0.165 0.539
 -0.122 0.175 0.572
 -0.113 0.166 0.543
 -0.106 0.161 0.528
 -0.103 0.162 0.53
 -0.094 0.151 0.497
 -0.086 0.143 0.469
 -0.082 0.141 0.464
 -0.078 0.138 0.456
 -0.074 0.136 0.449
 -0.075 0.143 0.47
 0 0 0
 0 0 0
 0 0 0
 0 0 0
 0 0 0
 0 0 0
 0 0 0
 0 0 0
 0 0 0
 0 0 0
 0 0 0
 0 0 0
 0 0 0
 0 0 0
 0 0 0
 -0.038 0.19 0.634
 -0.034 0.189 0.631
 -0.03 0.185 0.618
 -0.025 0.183 0.609
 -0.021 0.179 0.596
 -0.018 0.176 0.587
 -0.014 0.172 0.575
 -0.01 0.169 0.565
 -0.007 0.163 0.545
 -0.003 0.16 0.535
 0 0.158 0.529
 0.002 0.155 0.517
 0.005 0.153 0.51
 0.008 0.152 0.508
 0.011 0.149 0.499
 0.013 0.145 0.484
 0.016 0.141 0.472
 0.018 0.138 0.46
 0.02 0.13 0.435
 0.021 0.123 0.411
 0.023 0.12 0.399
 0.025 0.117 0.392
 0.027 0.117 0.389
 0.03 0.118 0.393
 0.033 0.121 0.402
 0.036 0.124 0.414
 0.04 0.127 0.424
 0.043 0.128 0.426
 0.045 0.129 0.428
 0.048 0.129 0.43
 0.05 0.127 0.424
 0.052 0.126 0.418
 0.054 0.125 0.414
 0.056 0.124 0.411
 0.058 0.123 0.407
 0.061 0.123 0.407
 0.063 0.122 0.406
 0.066 0.122 0.406
 0.068 0.122 0.405
 0.07 0.122 0.404
 0.073 0.122 0.403
 0.075 0.122 0.403
 0.078 0.122 0.403
 0.08 0.122 0.403
 0.083 0.122 0.403
 0.086 0.123 0.404
 0.088 0.123 0.405
 0.091 0.123 0.405
 0.094 0.123 0.405
 0.096 0.123 0.405
 0.099 0.124 0.405
 0.101 0.124 0.404
