 0.137 -1.513 4.247
 0.15 -1.513 4.247
 0.162 -1.512 4.244
 0.175 -1.514 4.246
 0.188 -1.514 4.247
 0.201 -1.516 4.253
 0.214 -1.516 4.252
 0.227 -1.518 4.255
 0.239 -1.518 4.256
 0.252 -1.518 4.254
 0.265 -1.516 4.249
 0.277 -1.516 4.247
 0.29 -1.515 4.244
 0.302 -1.514 4.241
 0.316 -1.517 4.248
 0.329 -1.519 4.252
 0.341 -1.519 4.252
 0.354 -1.519 4.25
 0.367 -1.521 4.254
 0.38 -1.519 4.247
 0.392 -1.518 4.243
 0.405 -1.518 4.243
 0.418 -1.519 4.245
 0.43 -1.519 4.243
 0.444 -1.521 4.247
 0.457 -1.523 4.251
 0.47 -1.524 4.252
 0.483 -1.524 4.251
 0.495 -1.523 4.247
 0.507 -1.521 4.241
 0.521 -1.522 4.242
 0.534 -1.523 4.244
 0.547 -1.524 4.246
 0.559 -1.524 4.242
 0.573 -1.525 4.244
 0.585 -1.523 4.237
 0.597 -1.522 4.233
 0.61 -1.523 4.235
 0.624 -1.526 4.24
 0.637 -1.526 4.238
 0.65 -1.528 4.241
 0.664 -1.529 4.243
 0.676 -1.527 4.236
 0.689 -1.528 4.236
 0.702 -1.529 4.236
 0.715 -1.529 4.234
 0.728 -1.529 4.234
 0.741 -1.531 4.236
 0.753 -1.529 4.23
 0.766 -1.53 4.229
 0.779 -1.529 4.225
 0.791 -1.529 4.222
 0.804 -1.529 4.22
 0.818 -1.531 4.224
 0.831 -1.532 4.224
 0.846 -1.535 4.23
 0.859 -1.535 4.228
 0.873 -1.538 4.233
 0.887 -1.54 4.236
 0.9 -1.54 4.234
 0.913 -1.54 4.232
 0.927 -1.542 4.236
 0.94 -1.542 4.232
 0.953 -1.542 4.229
 0.966 -1.543 4.228
 0.98 -1.545 4.232
 0.992 -1.543 4.224
 1.006 -1.544 4.225
 1.018 -1.543 4.219
 1.031 -1.544 4.217
 1.044 -1.544 4.214
 1.057 -1.545 4.214
 1.071 -1.546 4.214
 1.086 -1.548 4.218
 1.099 -1.549 4.218
 1.112 -1.549 4.214
 1.126 -1.551 4.216
 1.139 -1.551 4.213
 1.154 -1.553 4.215
 1.167 -1.554 4.215
 1.182 -1.556 4.217
 1.196 -1.557 4.216
 1.21 -1.559 4.217
 1.222 -1.558 4.21
 1.236 -1.559 4.211
 1.249 -1.559 4.209
 1.263 -1.56 4.208
 1.276 -1.56 4.204
 1.291 -1.563 4.207
 1.304 -1.563 4.204
 1.319 -1.565 4.205
 1.334 -1.567 4.206
 1.348 -1.568 4.206
 1.362 -1.57 4.207
 1.377 -1.571 4.207
 1.389 -1.57 4.199
 1.402 -1.57 4.196
 1.416 -1.572 4.196
 1.429 -1.572 4.192
 1.443 -1.572 4.189
 1.457 -1.574 4.189
 1.47 -1.573 4.184
 1.483 -1.574 4.18
 1.497 -1.574 4.178
 1.511 -1.574 4.174
 1.525 -1.576 4.174
 1.541 -1.579 4.176
 1.554 -1.579 4.173
 1.57 -1.581 4.175
 1.583 -1.582 4.171
 1.597 -1.583 4.169
 1.612 -1.584 4.167
 1.627 -1.586 4.167
 1.638 -1.584 4.158
 1.653 -1.586 4.158
 1.666 -1.586 4.153
 1.68 -1.586 4.15
 1.694 -1.587 4.146
 1.708 -1.588 4.144
 1.724 -1.59 4.144
 1.736 -1.589 4.138
 1.747 -1.588 4.128
 1.761 -1.588 4.123
 1.775 -1.588 4.119
 1.787 -1.588 4.112
 1.799 -1.587 4.105
 1.814 -1.588 4.102
 1.826 -1.587 4.094
 1.834 -1.583 4.079
 1.843 -1.579 4.062
 1.85 -1.574 4.044
 1.859 -1.571 4.03
 1.864 -1.564 4.007
 1.873 -1.561 3.993
 1.879 -1.554 3.972
 1.882 -1.547 3.947
 1.881 -1.535 3.911
 1.879 -1.524 3.877
 1.88 -1.514 3.847
 1.885 -1.509 3.826
 1.894 -1.505 3.812
 1.9 -1.5 3.793
 1.912 -1.5 3.786
 1.921 -1.497 3.774
 1.923 -1.489 3.748
 0 0 0
 0 0 0
 0 0 0
 0 0 0
 0 0 0
 0 0 0
 0 0 0
 0 0 0
 0 0 0
 0 0 0
 0 0 0
 0 0 0
 0 0 0
 1.826 -1.298 3.192
 1.825 -1.29 3.165
 1.833 -1.288 3.156
 1.842 -1.287 3.146
 1.843 -1.28 3.125
 1.844 -1.274 3.103
 1.843 -1.266 3.077
 1.843 -1.259 3.055
 1.863 -1.265 3.065
 1.85 -1.249 3.02
 -2.404 -1.626 4.071
 0 0 0
 -2.342 -1.603 4.027
 -2.331 -1.605 4.038
 -2.313 -1.602 4.038
 -2.3 -1.602 4.045
 -2.287 -1.603 4.054
 -2.28 -1.608 4.072
 -2.266 -1.608 4.078
 -2.255 -1.61 4.09
 -2.244 -1.612 4.102
 -2.23 -1.612 4.109
 -2.216 -1.612 4.114
 -2.199 -1.61 4.115
 -2.186 -1.61 4.123
 -2.17 -1.608 4.124
 -2.157 -1.609 4.132
 -2.142 -1.608 4.136
 -2.129 -1.608 4.142
 -2.12 -1.612 4.158
 -2.105 -1.612 4.163
 -2.09 -1.611 4.167
 -2.071 -1.607 4.162
 -2.059 -1.608 4.172
 -2.041 -1.605 4.168
 -2.028 -1.606 4.176
 -2.012 -1.604 4.177
 -2 -1.605 4.187
 -1.986 -1.605 4.191
 -1.972 -1.605 4.196
 -1.958 -1.604 4.2
 -1.945 -1.605 4.208
 -1.933 -1.607 4.218
 -1.919 -1.606 4.222
 -1.905 -1.606 4.226
 -1.889 -1.604 4.227
 -1.875 -1.604 4.231
 -1.856 -1.599 4.224
 -1.84 -1.598 4.226
 -1.825 -1.596 4.226
 -1.813 -1.598 4.236
 -1.799 -1.598 4.239
 -1.787 -1.6 4.25
 -1.773 -1.599 4.253
 -1.758 -1.598 4.254
 -1.74 -1.594 4.25
 -1.726 -1.593 4.252
 -1.711 -1.593 4.255
 -1.696 -1.591 4.255
 -1.684 -1.593 4.264
 -1.671 -1.593 4.27
 -1.653 -1.589 4.264
 -1.639 -1.588 4.266
 -1.624 -1.588 4.268
 -1.608 -1.585 4.265
 -1.592 -1.583 4.264
 -1.582 -1.586 4.276
 -1.567 -1.585 4.278
 -1.553 -1.584 4.28
 -1.539 -1.584 4.283
 -1.525 -1.583 4.285
 -1.51 -1.581 4.284
 -1.495 -1.58 4.285
 -1.479 -1.578 4.283
 -1.465 -1.577 4.284
 -1.451 -1.576 4.286
 -1.437 -1.576 4.289
 -1.424 -1.576 4.293
 -1.41 -1.576 4.296
 -1.397 -1.576 4.3
 -1.382 -1.574 4.299
 -1.365 -1.571 4.292
 -1.348 -1.567 4.286
 -1.334 -1.566 4.286
 -1.319 -1.564 4.286
 -1.305 -1.563 4.286
 -1.29 -1.562 4.285
 -1.277 -1.562 4.289
 -1.264 -1.562 4.291
 -1.249 -1.56 4.289
 -1.235 -1.559 4.29
 -1.221 -1.559 4.293
 -1.208 -1.559 4.296
 -1.192 -1.555 4.289
 -1.178 -1.554 4.289
 -1.164 -1.553 4.288
 -1.149 -1.551 4.286
 -1.135 -1.549 4.284
 -1.122 -1.55 4.29
 -1.109 -1.55 4.293
 -1.095 -1.549 4.292
 -1.082 -1.549 4.295
 -1.068 -1.549 4.297
 -1.054 -1.547 4.294
 -1.038 -1.544 4.287
 -1.025 -1.543 4.287
 -1.01 -1.541 4.285
 -0.995 -1.537 4.277
 -0.982 -1.538 4.28
 -0.969 -1.537 4.282
 -0.955 -1.536 4.282
 -0.941 -1.535 4.281
 -0.928 -1.535 4.282
 -0.913 -1.532 4.275
 -0.899 -1.53 4.272
 -0.885 -1.53 4.274
 -0.872 -1.528 4.272
 -0.858 -1.527 4.271
 -0.846 -1.529 4.278
 -0.834 -1.53 4.283
 -0.82 -1.529 4.283
 -0.807 -1.53 4.287
 -0.795 -1.531 4.291
 -0.781 -1.53 4.29
 -0.768 -1.529 4.289
 -0.754 -1.528 4.287
 -0.74 -1.525 4.281
 -0.727 -1.524 4.282
 -0.713 -1.523 4.281
 -0.699 -1.52 4.272
 -0.685 -1.519 4.271
 -0.672 -1.519 4.273
 -0.66 -1.519 4.275
 -0.646 -1.519 4.275
 -0.634 -1.52 4.281
 -0.621 -1.52 4.282
 -0.608 -1.521 4.285
 -0.595 -1.519 4.282
 -0.581 -1.517 4.277
 -0.568 -1.517 4.278
 -0.555 -1.517 4.278
 -0.541 -1.512 4.267
 -0.527 -1.511 4.265
 -0.515 -1.513 4.27
 -0.502 -1.511 4.267
 -0.489 -1.51 4.266
 -0.477 -1.513 4.276
 -0.464 -1.513 4.275
 -0.45 -1.511 4.27
 -0.437 -1.511 4.272
 -0.425 -1.512 4.276
 -0.412 -1.51 4.271
 -0.399 -1.511 4.275
 -0.386 -1.512 4.277
 -0.373 -1.511 4.277
 -0.36 -1.51 4.275
 -0.348 -1.511 4.279
 -0.335 -1.51 4.275
 -0.322 -1.51 4.277
 -0.309 -1.509 4.275
 -0.296 -1.509 4.274
 -0.283 -1.507 4.27
 -0.27 -1.506 4.265
 -0.257 -1.504 4.262
 -0.244 -1.503 4.26
 -0.231 -1.503 4.26
 -0.218 -1.504 4.262
 -0.206 -1.506 4.269
 -0.193 -1.505 4.268
 -0.18 -1.506 4.271
 -0.167 -1.505 4.266
 -0.155 -1.504 4.263
 -0.142 -1.503 4.262
 -0.129 -1.503 4.261
 -0.116 -1.503 4.261
 -0.104 -1.504 4.266
 -0.091 -1.504 4.265
 -0.078 -1.503 4.263
 -0.065 -1.505 4.268
 -0.053 -1.505 4.268
 -0.04 -1.505 4.267
 -0.027 -1.506 4.271
 -0.014 -1.507 4.274
 -0.002 -1.505 4.267
 0.01 -1.506 4.269
 0.023 -1.504 4.265
 0.036 -1.504 4.264
 0.048 -1.502 4.258
 0.061 -1.503 4.26
 0.074 -1.502 4.257
 0.086 -1.503 4.258
 0.099 -1.503 4.26
 0.112 -1.504 4.262
 0.125 -1.504 4.262
 0.137 -1.503 4.258
 0.15 -1.503 4.258
 0.163 -1.502 4.254
 0.175 -1.502 4.254
 0.188 -1.502 4.253
 0.201 -1.503 4.255
 0.213 -1.502 4.251
 0.226 -1.502 4.25
 0.239 -1.502 4.25
 0.252 -1.502 4.25
 0.264 -1.502 4.247
 0.277 -1.502 4.249
 0.29 -1.502 4.247
 0.302 -1.501 4.243
 0.315 -1.502 4.245
 0.328 -1.504 4.249
 0.341 -1.504 4.249
 0.354 -1.504 4.248
 0.367 -1.506 4.253
 0.38 -1.506 4.251
 0.392 -1.504 4.245
 0.405 -1.505 4.246
 0.418 -1.506 4.249
 0.43 -1.506 4.245
 0.443 -1.507 4.247
 0.457 -1.509 4.252
 0.469 -1.508 4.248
 0.482 -1.509 4.249
 0.495 -1.509 4.247
 0.507 -1.508 4.244
 0.52 -1.509 4.244
 0.534 -1.51 4.246
 0.547 -1.511 4.247
 0.559 -1.511 4.245
 0.572 -1.51 4.242
 0.584 -1.509 4.238
 0.597 -1.509 4.236
 0.61 -1.51 4.237
 0.623 -1.511 4.238
 0.636 -1.512 4.238
 0.649 -1.512 4.238
 0.662 -1.513 4.238
 0.674 -1.511 4.231
 0.687 -1.512 4.231
 0.701 -1.513 4.233
 0.714 -1.515 4.235
 0.728 -1.516 4.237
 0.741 -1.518 4.24
 0.754 -1.517 4.236
 0.766 -1.517 4.234
 0.78 -1.519 4.236
 0.793 -1.519 4.233
 0.805 -1.517 4.227
 0.819 -1.52 4.232
 0.833 -1.522 4.235
 0.846 -1.523 4.236
 0.859 -1.523 4.233
 0.874 -1.526 4.24
 0.887 -1.527 4.241
 0.9 -1.527 4.238
 0.913 -1.527 4.235
 0.927 -1.53 4.241
 0.941 -1.53 4.239
 0.954 -1.53 4.237
 0.967 -1.531 4.237
 0.981 -1.533 4.239
 0.992 -1.53 4.228
 1.005 -1.53 4.224
 1.017 -1.529 4.22
 1.03 -1.529 4.217
 1.043 -1.529 4.214
 1.057 -1.531 4.216
 1.071 -1.532 4.216
 1.086 -1.535 4.222
 1.099 -1.536 4.221
 1.113 -1.537 4.22
 1.127 -1.539 4.223
 1.141 -1.54 4.221
 1.154 -1.541 4.222
 1.168 -1.542 4.22
 1.181 -1.542 4.218
 1.195 -1.542 4.216
 1.208 -1.544 4.216
 1.22 -1.542 4.207
 1.234 -1.543 4.208
 1.249 -1.545 4.21
 1.262 -1.546 4.209
 1.276 -1.547 4.208
 1.292 -1.55 4.213
 1.306 -1.552 4.214
 1.32 -1.553 4.213
 1.334 -1.554 4.211
 1.348 -1.555 4.21
 1.362 -1.556 4.208
 1.375 -1.556 4.206
 1.389 -1.557 4.205
 1.402 -1.558 4.202
 1.417 -1.56 4.203
 1.431 -1.56 4.199
 1.444 -1.56 4.197
 1.456 -1.559 4.19
 1.471 -1.561 4.189
 1.484 -1.561 4.185
 1.498 -1.562 4.185
 1.512 -1.562 4.181
 1.527 -1.565 4.184
 1.542 -1.567 4.185
 1.556 -1.568 4.182
 1.571 -1.569 4.182
 1.585 -1.57 4.179
 1.599 -1.571 4.178
 1.614 -1.573 4.178
 1.629 -1.574 4.176
 1.641 -1.574 4.17
 1.657 -1.576 4.172
 1.669 -1.575 4.164
 1.683 -1.575 4.16
 1.696 -1.575 4.154
 1.71 -1.576 4.153
 1.724 -1.577 4.15
 1.739 -1.578 4.148
 1.749 -1.576 4.136
 1.765 -1.578 4.138
 1.777 -1.577 4.13
 1.788 -1.575 4.12
 1.801 -1.575 4.113
 1.817 -1.577 4.114
 1.825 -1.573 4.096
 1.834 -1.57 4.083
 1.844 -1.566 4.069
 1.849 -1.56 4.047
 1.856 -1.555 4.028
 1.864 -1.551 4.011
 1.871 -1.546 3.993
 1.878 -1.541 3.975
 1.882 -1.534 3.951
 1.882 -1.524 3.919
 1.88 -1.511 3.882
 1.883 -1.504 3.856
 1.885 -1.495 3.829
 1.894 -1.493 3.817
 1.902 -1.489 3.802
 1.918 -1.492 3.804
 1.928 -1.49 3.794
 0 0 0
 0 0 0
 0 0 0
 0 0 0
 0 0 0
 0 0 0
 0 0 0
 0 0 0
 0 0 0
 0 0 0
 0 0 0
 0 0 0
 0 0 0
 0 0 0
 0 0 0
 1.819 -1.275 3.158
 1.835 -1.278 3.161
 1.845 -1.278 3.156
 1.848 -1.273 3.136
 1.846 -1.264 3.11
 1.849 -1.259 3.091
 1.846 -1.25 3.064
 1.845 -1.242 3.039
 1.852 -1.24 3.027
 0 0 0
 -2.43 -1.639 4.152
 -2.355 -1.598 4.055
 -2.345 -1.601 4.068
 -2.328 -1.599 4.069
 -2.311 -1.597 4.07
 -2.298 -1.597 4.078
 -2.292 -1.603 4.099
 -2.276 -1.601 4.101
 -2.262 -1.601 4.109
 -2.253 -1.605 4.123
 -2.241 -1.606 4.134
 -2.23 -1.608 4.145
 -2.214 -1.606 4.147
 -2.202 -1.608 4.158
 -2.185 -1.606 4.158
 -2.171 -1.606 4.164
 -2.152 -1.602 4.16
 -2.141 -1.604 4.171
 -2.134 -1.609 4.191
 -2.121 -1.61 4.199
 -2.107 -1.61 4.206
 -2.088 -1.606 4.201
 -2.075 -1.607 4.209
 -2.055 -1.602 4.202
 -2.04 -1.601 4.204
 -2.019 -1.596 4.196
 -2.007 -1.597 4.204
 -1.993 -1.597 4.211
 -1.979 -1.597 4.216
 -1.964 -1.596 4.219
 -1.955 -1.599 4.234
 -1.944 -1.602 4.245
 -1.929 -1.601 4.248
 -1.913 -1.599 4.249
 -1.899 -1.599 4.254
 -1.883 -1.597 4.255
 -1.863 -1.592 4.246
 -1.848 -1.591 4.247
 -1.833 -1.59 4.25
 -1.82 -1.591 4.258
 -1.805 -1.59 4.26
 -1.792 -1.591 4.267
 -1.777 -1.589 4.268
 -1.762 -1.587 4.268
 -1.742 -1.582 4.259
 -1.727 -1.581 4.261
 -1.713 -1.581 4.265
 -1.698 -1.579 4.265
 -1.685 -1.58 4.271
 -1.673 -1.581 4.279
 -1.657 -1.579 4.278
 -1.642 -1.578 4.28
 -1.628 -1.578 4.282
 -1.613 -1.576 4.284
 -1.597 -1.574 4.282
 -1.586 -1.576 4.292
 -1.571 -1.575 4.293
 -1.556 -1.574 4.293
 -1.54 -1.571 4.29
 -1.526 -1.571 4.294
 -1.511 -1.569 4.293
 -1.497 -1.569 4.296
 -1.482 -1.567 4.294
 -1.469 -1.568 4.301
 -1.454 -1.567 4.301
 -1.439 -1.565 4.3
 -1.425 -1.564 4.302
 -1.412 -1.565 4.307
 -1.396 -1.562 4.303
 -1.381 -1.56 4.301
 -1.366 -1.558 4.3
 -1.349 -1.555 4.293
 -1.335 -1.553 4.293
 -1.321 -1.553 4.296
 -1.306 -1.551 4.293
 -1.291 -1.549 4.29
 -1.278 -1.55 4.296
 -1.265 -1.55 4.301
 -1.25 -1.548 4.298
 -1.237 -1.548 4.302
 -1.224 -1.548 4.304
 -1.21 -1.548 4.308
 -1.194 -1.544 4.299
 -1.178 -1.541 4.294
 -1.164 -1.54 4.294
 -1.149 -1.538 4.291
 -1.134 -1.535 4.286
 -1.121 -1.536 4.291
 -1.109 -1.537 4.297
 -1.095 -1.537 4.298
 -1.082 -1.536 4.299
 -1.068 -1.536 4.301
 -1.053 -1.533 4.297
 -1.038 -1.53 4.29
 -1.023 -1.528 4.287
 -1.01 -1.527 4.287
 -0.994 -1.524 4.28
 -0.981 -1.524 4.283
 -0.968 -1.524 4.286
 -0.955 -1.523 4.285
 -0.941 -1.523 4.286
 -0.927 -1.521 4.285
 -0.913 -1.52 4.283
 -0.899 -1.518 4.279
 -0.887 -1.519 4.284
 -0.872 -1.517 4.28
 -0.859 -1.516 4.28
 -0.846 -1.516 4.281
 -0.833 -1.516 4.285
 -0.819 -1.515 4.283
 -0.807 -1.516 4.286
 -0.794 -1.516 4.289
 -0.781 -1.516 4.292
 -0.768 -1.517 4.295
 -0.754 -1.515 4.293
 -0.74 -1.512 4.286
 -0.727 -1.513 4.289
 -0.713 -1.51 4.284
 -0.698 -1.507 4.275
 -0.685 -1.506 4.275
 -0.672 -1.506 4.275
 -0.659 -1.505 4.275
 -0.646 -1.506 4.28
 -0.634 -1.506 4.282
 -0.62 -1.506 4.282
 -0.608 -1.507 4.288
 -0.595 -1.506 4.285
 -0.581 -1.504 4.28
 -0.568 -1.504 4.281
 -0.555 -1.502 4.278
 -0.54 -1.499 4.27
 -0.527 -1.497 4.266
 -0.514 -1.498 4.27
 -0.501 -1.497 4.269
 -0.489 -1.497 4.27
 -0.476 -1.5 4.277
 -0.463 -1.499 4.275
 -0.45 -1.498 4.276
 -0.438 -1.499 4.278
 -0.425 -1.5 4.281
 -0.412 -1.499 4.279
 -0.399 -1.5 4.284
 -0.386 -1.499 4.283
 -0.373 -1.498 4.28
 -0.36 -1.498 4.28
 -0.348 -1.498 4.281
 -0.334 -1.496 4.276
 -0.321 -1.496 4.277
 -0.309 -1.497 4.279
 -0.296 -1.495 4.275
 -0.283 -1.494 4.271
 -0.269 -1.492 4.266
 -0.257 -1.491 4.265
 -0.243 -1.489 4.26
 -0.231 -1.489 4.26
 -0.218 -1.491 4.266
 -0.206 -1.494 4.276
 -0.193 -1.492 4.269
 -0.18 -1.494 4.276
 -0.168 -1.494 4.277
 -0.155 -1.493 4.272
 -0.142 -1.492 4.272
 -0.129 -1.492 4.272
 -0.116 -1.492 4.27
 -0.103 -1.491 4.269
 -0.091 -1.49 4.266
 -0.078 -1.489 4.261
 -0.065 -1.491 4.268
 -0.052 -1.491 4.267
 -0.04 -1.491 4.268
 -0.027 -1.494 4.276
 -0.014 -1.494 4.277
 -0.002 -1.492 4.27
 0.01 -1.493 4.272
 0.023 -1.492 4.269
 0.036 -1.491 4.266
 0.048 -1.49 4.263
 0.061 -1.491 4.265
 0.074 -1.489 4.261
 0.087 -1.49 4.263
 0.099 -1.49 4.263
 0.112 -1.49 4.262
 0.125 -1.49 4.262
 0.137 -1.49 4.26
 0.15 -1.49 4.262
 0.163 -1.489 4.256
 0.176 -1.49 4.26
 0.188 -1.49 4.257
 0.201 -1.491 4.261
 0.214 -1.489 4.255
 0.226 -1.489 4.254
 0.239 -1.489 4.252
 0.252 -1.489 4.251
 0.264 -1.487 4.246
 0.277 -1.488 4.248
 0.29 -1.488 4.247
 0.302 -1.488 4.246
 0.315 -1.49 4.251
 0.328 -1.492 4.254
 0.341 -1.491 4.251
 0.354 -1.491 4.252
 0.367 -1.493 4.255
 0.379 -1.492 4.252
 0.392 -1.491 4.248
 0.405 -1.494 4.253
 0.418 -1.494 4.252
 0.43 -1.492 4.246
 0.443 -1.493 4.248
 0.457 -1.495 4.252
 0.469 -1.494 4.248
 0.482 -1.495 4.251
 0.495 -1.497 4.254
 0.508 -1.496 4.251
 0.521 -1.496 4.249
 0.534 -1.498 4.252
 0.547 -1.498 4.252
 0.56 -1.498 4.25
 0.572 -1.498 4.249
 0.585 -1.498 4.245
 0.598 -1.498 4.246
 0.611 -1.498 4.243
 0.623 -1.497 4.239
 0.636 -1.498 4.238
 0.648 -1.497 4.234
 0.661 -1.497 4.232
 0.673 -1.496 4.229
 0.686 -1.497 4.228
 0.7 -1.499 4.232
 0.714 -1.502 4.238
 0.728 -1.503 4.241
 0.741 -1.504 4.241
 0.754 -1.505 4.243
 0.767 -1.504 4.238
 0.779 -1.504 4.235
 0.793 -1.505 4.236
 0.805 -1.505 4.232
 0.819 -1.506 4.235
 0.833 -1.51 4.242
 0.847 -1.512 4.245
 0.86 -1.511 4.24
 0.875 -1.515 4.249
 0.888 -1.516 4.249
 0.901 -1.515 4.244
 0.913 -1.514 4.24
 0.927 -1.517 4.244
 0.94 -1.516 4.239
 0.953 -1.516 4.237
 0.965 -1.516 4.233
 0.98 -1.518 4.238
 0.991 -1.516 4.228
 1.004 -1.515 4.223
 1.016 -1.515 4.22
 1.03 -1.516 4.22
 1.042 -1.515 4.215
 1.056 -1.516 4.215
 1.07 -1.518 4.217
 1.084 -1.52 4.219
 1.098 -1.521 4.219
 1.112 -1.523 4.221
 1.128 -1.526 4.228
 1.141 -1.527 4.228
 1.157 -1.531 4.233
 1.169 -1.53 4.229
 1.182 -1.53 4.226
 1.195 -1.529 4.22
 1.208 -1.53 4.218
 1.219 -1.527 4.207
 1.234 -1.53 4.213
 1.248 -1.531 4.211
 1.262 -1.533 4.212
 1.276 -1.533 4.21
 1.292 -1.537 4.217
 1.306 -1.538 4.216
 1.32 -1.539 4.215
 1.333 -1.54 4.213
 1.348 -1.542 4.216
 1.361 -1.542 4.211
 1.375 -1.542 4.209
 1.389 -1.544 4.209
 1.402 -1.544 4.205
 1.417 -1.546 4.207
 1.431 -1.547 4.205
 1.445 -1.547 4.202
 1.458 -1.547 4.198
 1.474 -1.55 4.202
 1.487 -1.551 4.2
 1.502 -1.553 4.2
 1.516 -1.553 4.197
 1.53 -1.555 4.196
 1.544 -1.555 4.193
 1.557 -1.555 4.189
 1.571 -1.556 4.187
 1.586 -1.558 4.186
 1.601 -1.559 4.186
 1.616 -1.561 4.187
 1.63 -1.562 4.185
 1.644 -1.563 4.182
 1.659 -1.565 4.182
 1.671 -1.564 4.174
 1.686 -1.565 4.171
 1.7 -1.565 4.169
 1.714 -1.567 4.167
 1.727 -1.567 4.162
 1.742 -1.568 4.16
 1.753 -1.566 4.15
 1.768 -1.568 4.149
 1.781 -1.567 4.143
 1.795 -1.568 4.139
 1.808 -1.567 4.133
 1.822 -1.569 4.131
 1.83 -1.564 4.112
 1.838 -1.559 4.095
 1.846 -1.555 4.079
 1.852 -1.549 4.058
 1.859 -1.544 4.039
 1.866 -1.539 4.02
 1.872 -1.533 3.999
 1.877 -1.527 3.977
 1.881 -1.52 3.952
 1.882 -1.51 3.922
 1.882 -1.5 3.89
 1.886 -1.493 3.867
 1.887 -1.484 3.838
 1.898 -1.483 3.829
 1.908 -1.482 3.819
 1.927 -1.486 3.825
 0 0 0
 0 0 0
 0 0 0
 0 0 0
 0 0 0
 0 0 0
 0 0 0
 0 0 0
 0 0 0
 0 0 0
 0 0 0
 0 0 0
 0 0 0
 0 0 0
 0 0 0
 0 0 0
 1.815 -1.261 3.154
 1.832 -1.266 3.161
 1.843 -1.266 3.155
 1.847 -1.262 3.139
 1.848 -1.255 3.117
 1.851 -1.25 3.099
 1.847 -1.24 3.069
 1.783 -1.19 2.94
 1.85 -1.228 3.027
 0 0 0
 0 0 0
 -2.387 -1.606 4.114
 -2.372 -1.605 4.119
 -2.35 -1.6 4.112
 -2.34 -1.603 4.127
 -2.331 -1.606 4.141
 -2.318 -1.607 4.15
 -2.303 -1.606 4.155
 -2.287 -1.605 4.158
 -2.27 -1.603 4.16
 -2.255 -1.602 4.165
 -2.244 -1.604 4.176
 -2.229 -1.604 4.181
 -2.217 -1.605 4.19
 -2.197 -1.601 4.186
 -2.184 -1.601 4.193
 -2.164 -1.597 4.187
 -2.151 -1.598 4.197
 -2.141 -1.601 4.21
 -2.128 -1.601 4.217
 -2.113 -1.601 4.222
 -2.094 -1.596 4.217
 -2.079 -1.596 4.221
 -2.062 -1.594 4.222
 -2.049 -1.595 4.229
 -2.031 -1.591 4.225
 -2.02 -1.594 4.238
 -2.007 -1.594 4.245
 -1.993 -1.594 4.249
 -1.976 -1.592 4.25
 -1.965 -1.594 4.26
 -1.954 -1.597 4.273
 -1.94 -1.596 4.279
 -1.924 -1.595 4.279
 -1.91 -1.595 4.284
 -1.894 -1.593 4.285
 -1.874 -1.587 4.275
 -1.854 -1.582 4.266
 -1.839 -1.581 4.269
 -1.825 -1.581 4.274
 -1.81 -1.58 4.276
 -1.795 -1.579 4.278
 -1.783 -1.581 4.287
 -1.767 -1.579 4.287
 -1.749 -1.575 4.281
 -1.733 -1.573 4.28
 -1.72 -1.573 4.285
 -1.704 -1.572 4.286
 -1.689 -1.57 4.286
 -1.676 -1.571 4.292
 -1.66 -1.569 4.291
 -1.645 -1.567 4.291
 -1.629 -1.565 4.291
 -1.615 -1.565 4.294
 -1.6 -1.564 4.294
 -1.588 -1.565 4.302
 -1.572 -1.562 4.299
 -1.557 -1.561 4.3
 -1.54 -1.558 4.295
 -1.526 -1.558 4.298
 -1.511 -1.556 4.297
 -1.499 -1.557 4.305
 -1.482 -1.554 4.301
 -1.47 -1.555 4.308
 -1.456 -1.555 4.311
 -1.441 -1.553 4.309
 -1.425 -1.551 4.308
 -1.413 -1.552 4.313
 -1.398 -1.551 4.313
 -1.382 -1.548 4.308
 -1.367 -1.546 4.308
 -1.352 -1.545 4.307
 -1.337 -1.543 4.305
 -1.322 -1.541 4.302
 -1.307 -1.539 4.3
 -1.292 -1.537 4.298
 -1.278 -1.537 4.301
 -1.265 -1.536 4.303
 -1.251 -1.535 4.304
 -1.236 -1.534 4.304
 -1.224 -1.535 4.309
 -1.21 -1.534 4.31
 -1.195 -1.532 4.307
 -1.18 -1.53 4.303
 -1.166 -1.53 4.306
 -1.152 -1.528 4.304
 -1.136 -1.525 4.298
 -1.122 -1.524 4.298
 -1.109 -1.524 4.302
 -1.095 -1.522 4.299
 -1.08 -1.521 4.298
 -1.067 -1.521 4.3
 -1.052 -1.519 4.297
 -1.037 -1.516 4.292
 -1.023 -1.514 4.29
 -1.009 -1.513 4.288
 -0.994 -1.511 4.284
 -0.982 -1.512 4.29
 -0.968 -1.511 4.289
 -0.956 -1.512 4.294
 -0.943 -1.512 4.298
 -0.928 -1.51 4.293
 -0.914 -1.508 4.291
 -0.901 -1.507 4.29
 -0.887 -1.506 4.289
 -0.872 -1.504 4.284
 -0.86 -1.504 4.288
 -0.846 -1.503 4.286
 -0.832 -1.502 4.286
 -0.819 -1.502 4.287
 -0.806 -1.502 4.289
 -0.793 -1.502 4.29
 -0.78 -1.502 4.292
 -0.768 -1.503 4.298
 -0.754 -1.501 4.295
 -0.739 -1.497 4.284
 -0.726 -1.497 4.286
 -0.712 -1.495 4.281
 -0.697 -1.492 4.274
 -0.684 -1.492 4.275
 -0.672 -1.493 4.279
 -0.659 -1.492 4.278
 -0.646 -1.492 4.28
 -0.632 -1.491 4.278
 -0.619 -1.49 4.278
 -0.607 -1.492 4.284
 -0.594 -1.491 4.283
 -0.58 -1.49 4.281
 -0.568 -1.491 4.284
 -0.554 -1.489 4.282
 -0.54 -1.486 4.273
 -0.527 -1.485 4.271
 -0.514 -1.485 4.271
 -0.501 -1.484 4.272
 -0.488 -1.484 4.273
 -0.476 -1.486 4.279
 -0.463 -1.485 4.278
 -0.451 -1.487 4.283
 -0.438 -1.487 4.284
 -0.425 -1.486 4.284
 -0.412 -1.486 4.282
 -0.399 -1.487 4.287
 -0.386 -1.487 4.287
 -0.373 -1.486 4.284
 -0.36 -1.486 4.285
 -0.348 -1.486 4.286
 -0.334 -1.483 4.278
 -0.321 -1.481 4.273
 -0.308 -1.481 4.273
 -0.295 -1.478 4.267
 -0.282 -1.477 4.263
 -0.269 -1.476 4.262
 -0.256 -1.476 4.262
 -0.243 -1.474 4.258
 -0.231 -1.475 4.261
 -0.218 -1.477 4.267
 -0.206 -1.48 4.276
 -0.193 -1.477 4.268
 -0.18 -1.479 4.274
 -0.167 -1.48 4.276
 -0.154 -1.479 4.273
 -0.142 -1.478 4.271
 -0.129 -1.479 4.272
 -0.116 -1.478 4.27
 -0.103 -1.477 4.269
 -0.09 -1.476 4.264
 -0.078 -1.474 4.26
 -0.065 -1.477 4.267
 -0.052 -1.477 4.268
 -0.04 -1.477 4.267
 -0.027 -1.48 4.276
 -0.014 -1.481 4.278
 -0.001 -1.477 4.269
 0.01 -1.478 4.27
 0.023 -1.476 4.263
 0.036 -1.475 4.263
 0.048 -1.473 4.256
 0.061 -1.474 4.259
 0.074 -1.474 4.257
 0.086 -1.474 4.258
 0.099 -1.474 4.256
 0.112 -1.476 4.263
 0.125 -1.476 4.262
 0.137 -1.476 4.261
 0.15 -1.478 4.268
 0.163 -1.477 4.262
 0.176 -1.477 4.261
 0.188 -1.477 4.261
 0.201 -1.477 4.262
 0.214 -1.475 4.256
 0.226 -1.475 4.254
 0.239 -1.475 4.254
 0.252 -1.476 4.256
 0.264 -1.475 4.25
 0.277 -1.476 4.252
 0.29 -1.477 4.255
 0.303 -1.477 4.253
 0.315 -1.477 4.255
 0.328 -1.478 4.257
 0.341 -1.477 4.253
 0.354 -1.478 4.253
 0.367 -1.479 4.255
 0.379 -1.478 4.25
 0.392 -1.477 4.247
 0.405 -1.478 4.25
 0.417 -1.477 4.246
 0.429 -1.476 4.241
 0.443 -1.479 4.247
 0.456 -1.481 4.252
 0.469 -1.481 4.251
 0.482 -1.483 4.255
 0.495 -1.484 4.258
 0.508 -1.483 4.254
 0.52 -1.483 4.25
 0.533 -1.482 4.248
 0.546 -1.484 4.251
 0.559 -1.483 4.247
 0.571 -1.482 4.243
 0.584 -1.483 4.242
 0.598 -1.485 4.247
 0.61 -1.484 4.244
 0.622 -1.483 4.239
 0.636 -1.485 4.242
 0.649 -1.485 4.24
 0.661 -1.484 4.236
 0.673 -1.483 4.231
 0.686 -1.484 4.232
 0.7 -1.485 4.233
 0.713 -1.487 4.237
 0.727 -1.489 4.24
 0.74 -1.49 4.241
 0.754 -1.491 4.243
 0.766 -1.49 4.238
 0.778 -1.49 4.234
 0.791 -1.49 4.234
 0.804 -1.491 4.232
 0.818 -1.492 4.236
 0.833 -1.496 4.242
 0.847 -1.498 4.246
 0.86 -1.498 4.245
 0.875 -1.502 4.254
 0.889 -1.504 4.256
 0.901 -1.502 4.249
 0.913 -1.501 4.244
 0.926 -1.502 4.243
 0.938 -1.5 4.235
 0.951 -1.5 4.234
 0.964 -1.501 4.232
 0.979 -1.503 4.237
 0.991 -1.502 4.23
 1.003 -1.502 4.226
 1.015 -1.5 4.22
 1.028 -1.5 4.217
 1.041 -1.501 4.215
 1.055 -1.503 4.217
 1.069 -1.504 4.219
 1.084 -1.507 4.222
 1.098 -1.509 4.225
 1.112 -1.51 4.226
 1.127 -1.513 4.23
 1.141 -1.514 4.231
 1.156 -1.517 4.236
 1.169 -1.517 4.233
 1.182 -1.517 4.23
 1.195 -1.517 4.226
 1.209 -1.517 4.224
 1.22 -1.515 4.215
 1.236 -1.519 4.221
 1.249 -1.519 4.218
 1.263 -1.52 4.219
 1.276 -1.52 4.214
 1.291 -1.523 4.218
 1.304 -1.523 4.215
 1.318 -1.524 4.215
 1.332 -1.525 4.213
 1.348 -1.528 4.218
 1.361 -1.529 4.215
 1.375 -1.529 4.213
 1.39 -1.532 4.216
 1.403 -1.532 4.212
 1.418 -1.533 4.212
 1.432 -1.534 4.21
 1.446 -1.535 4.209
 1.458 -1.534 4.202
 1.473 -1.537 4.205
 1.488 -1.538 4.204
 1.502 -1.539 4.202
 1.514 -1.539 4.197
 1.531 -1.542 4.202
 1.544 -1.542 4.198
 1.558 -1.543 4.195
 1.573 -1.545 4.196
 1.588 -1.546 4.196
 1.601 -1.546 4.191
 1.617 -1.549 4.193
 1.631 -1.55 4.19
 1.645 -1.55 4.187
 1.659 -1.551 4.185
 1.672 -1.551 4.179
 1.686 -1.551 4.176
 1.701 -1.553 4.175
 1.714 -1.553 4.172
 1.728 -1.554 4.167
 1.743 -1.555 4.166
 1.755 -1.554 4.158
 1.77 -1.556 4.157
 1.785 -1.557 4.155
 1.799 -1.558 4.152
 1.813 -1.558 4.148
 1.827 -1.559 4.144
 1.834 -1.554 4.126
 1.841 -1.549 4.107
 1.851 -1.546 4.093
 1.857 -1.54 4.074
 1.864 -1.535 4.054
 1.869 -1.528 4.03
 1.874 -1.522 4.007
 1.878 -1.514 3.983
 1.88 -1.506 3.955
 1.881 -1.497 3.925
 1.884 -1.489 3.898
 1.887 -1.482 3.874
 1.888 -1.472 3.844
 1.9 -1.472 3.836
 1.909 -1.469 3.825
 0 0 0
 0 0 0
 0 0 0
 0 0 0
 0 0 0
 0 0 0
 0 0 0
 0 0 0
 0 0 0
 0 0 0
 0 0 0
 0 0 0
 0 0 0
 0 0 0
 0 0 0
 0 0 0
 0 0 0
 1.822 -1.255 3.171
 1.836 -1.258 3.172
 1.846 -1.257 3.164
 1.854 -1.255 3.153
 1.852 -1.247 3.127
 1.854 -1.241 3.108
 1.85 -1.231 3.077
 1.831 -1.212 3.022
 1.82 -1.198 2.982
 0 0 0
 0 0 0
 -2.409 -1.607 4.158
 -2.388 -1.602 4.153
 -2.37 -1.599 4.152
 -2.363 -1.605 4.173
 -2.352 -1.607 4.184
 -2.339 -1.607 4.193
 -2.321 -1.605 4.192
 -2.304 -1.603 4.195
 -2.287 -1.601 4.196
 -2.271 -1.6 4.199
 -2.259 -1.601 4.209
 -2.243 -1.6 4.213
 -2.229 -1.6 4.219
 -2.211 -1.597 4.217
 -2.199 -1.598 4.227
 -2.179 -1.594 4.222
 -2.169 -1.597 4.235
 -2.157 -1.599 4.246
 -2.144 -1.6 4.255
 -2.128 -1.598 4.257
 -2.106 -1.592 4.247
 -2.091 -1.591 4.251
 -2.076 -1.59 4.254
 -2.06 -1.589 4.257
 -2.041 -1.585 4.252
 -2.032 -1.589 4.268
 -2.018 -1.589 4.273
 -2.002 -1.587 4.274
 -1.987 -1.586 4.277
 -1.975 -1.588 4.287
 -1.963 -1.59 4.297
 -1.948 -1.589 4.3
 -1.931 -1.586 4.299
 -1.916 -1.585 4.301
 -1.9 -1.584 4.303
 -1.879 -1.578 4.292
 -1.861 -1.575 4.288
 -1.845 -1.573 4.288
 -1.828 -1.57 4.285
 -1.812 -1.568 4.285
 -1.797 -1.567 4.287
 -1.785 -1.568 4.295
 -1.77 -1.568 4.299
 -1.756 -1.568 4.302
 -1.74 -1.565 4.3
 -1.726 -1.565 4.306
 -1.71 -1.563 4.304
 -1.693 -1.56 4.3
 -1.677 -1.558 4.3
 -1.663 -1.558 4.303
 -1.646 -1.555 4.299
 -1.63 -1.552 4.296
 -1.617 -1.553 4.303
 -1.603 -1.553 4.306
 -1.588 -1.551 4.306
 -1.572 -1.549 4.305
 -1.559 -1.55 4.311
 -1.541 -1.546 4.303
 -1.526 -1.544 4.303
 -1.512 -1.543 4.304
 -1.498 -1.543 4.309
 -1.482 -1.54 4.304
 -1.47 -1.542 4.312
 -1.457 -1.542 4.317
 -1.441 -1.54 4.315
 -1.427 -1.539 4.315
 -1.412 -1.538 4.317
 -1.397 -1.536 4.315
 -1.38 -1.533 4.309
 -1.366 -1.531 4.308
 -1.351 -1.53 4.307
 -1.335 -1.528 4.304
 -1.321 -1.527 4.305
 -1.307 -1.525 4.305
 -1.293 -1.524 4.306
 -1.279 -1.524 4.308
 -1.266 -1.524 4.311
 -1.252 -1.524 4.313
 -1.237 -1.522 4.311
 -1.223 -1.522 4.313
 -1.21 -1.522 4.316
 -1.195 -1.519 4.312
 -1.18 -1.517 4.308
 -1.167 -1.517 4.313
 -1.152 -1.515 4.31
 -1.136 -1.512 4.304
 -1.122 -1.511 4.304
 -1.108 -1.51 4.303
 -1.094 -1.509 4.302
 -1.08 -1.507 4.301
 -1.066 -1.506 4.299
 -1.053 -1.506 4.302
 -1.038 -1.503 4.297
 -1.023 -1.501 4.293
 -1.009 -1.5 4.292
 -0.995 -1.499 4.291
 -0.982 -1.499 4.296
 -0.969 -1.499 4.297
 -0.956 -1.499 4.3
 -0.942 -1.499 4.3
 -0.928 -1.496 4.294
 -0.913 -1.493 4.29
 -0.9 -1.493 4.291
 -0.887 -1.493 4.292
 -0.873 -1.491 4.29
 -0.86 -1.491 4.292
 -0.845 -1.489 4.287
 -0.831 -1.486 4.282
 -0.818 -1.487 4.284
 -0.805 -1.488 4.289
 -0.793 -1.488 4.291
 -0.78 -1.488 4.294
 -0.768 -1.49 4.3
 -0.753 -1.487 4.293
 -0.738 -1.483 4.284
 -0.726 -1.484 4.289
 -0.712 -1.482 4.285
 -0.698 -1.479 4.279
 -0.685 -1.48 4.282
 -0.672 -1.479 4.282
 -0.658 -1.477 4.277
 -0.645 -1.477 4.279
 -0.632 -1.477 4.279
 -0.619 -1.477 4.28
 -0.607 -1.478 4.285
 -0.594 -1.478 4.286
 -0.58 -1.477 4.285
 -0.568 -1.479 4.291
 -0.555 -1.479 4.292
 -0.542 -1.477 4.287
 -0.528 -1.476 4.285
 -0.515 -1.475 4.285
 -0.502 -1.473 4.281
 -0.488 -1.471 4.277
 -0.476 -1.474 4.284
 -0.463 -1.473 4.283
 -0.451 -1.474 4.288
 -0.438 -1.474 4.288
 -0.425 -1.473 4.287
 -0.411 -1.472 4.282
 -0.399 -1.472 4.285
 -0.386 -1.471 4.283
 -0.373 -1.471 4.282
 -0.36 -1.472 4.285
 -0.347 -1.471 4.286
 -0.334 -1.469 4.279
 -0.321 -1.468 4.276
 -0.308 -1.467 4.276
 -0.295 -1.466 4.272
 -0.282 -1.465 4.271
 -0.269 -1.464 4.268
 -0.256 -1.465 4.27
 -0.243 -1.463 4.266
 -0.231 -1.463 4.267
 -0.218 -1.465 4.271
 -0.206 -1.467 4.277
 -0.193 -1.466 4.275
 -0.18 -1.466 4.276
 -0.167 -1.466 4.278
 -0.154 -1.465 4.273
 -0.141 -1.465 4.272
 -0.129 -1.463 4.268
 -0.116 -1.463 4.269
 -0.103 -1.463 4.268
 -0.09 -1.462 4.265
 -0.078 -1.461 4.261
 -0.065 -1.464 4.272
 -0.052 -1.465 4.275
 -0.04 -1.465 4.274
 -0.027 -1.468 4.282
 -0.014 -1.469 4.286
 -0.001 -1.466 4.277
 0.01 -1.466 4.276
 0.023 -1.462 4.265
 0.036 -1.463 4.267
 0.048 -1.461 4.262
 0.061 -1.462 4.264
 0.074 -1.463 4.265
 0.087 -1.464 4.27
 0.099 -1.463 4.266
 0.112 -1.465 4.271
 0.125 -1.464 4.269
 0.138 -1.464 4.268
 0.151 -1.466 4.273
 0.163 -1.464 4.265
 0.176 -1.463 4.263
 0.188 -1.463 4.261
 0.201 -1.461 4.255
 0.213 -1.46 4.253
 0.226 -1.46 4.252
 0.239 -1.46 4.25
 0.252 -1.462 4.255
 0.264 -1.461 4.253
 0.277 -1.461 4.25
 0.29 -1.462 4.254
 0.303 -1.463 4.256
 0.315 -1.463 4.254
 0.328 -1.464 4.256
 0.341 -1.463 4.253
 0.353 -1.463 4.252
 0.366 -1.464 4.252
 0.379 -1.463 4.249
 0.391 -1.462 4.246
 0.404 -1.464 4.25
 0.417 -1.465 4.25
 0.429 -1.463 4.243
 0.443 -1.465 4.249
 0.456 -1.467 4.252
 0.469 -1.467 4.251
 0.481 -1.467 4.251
 0.495 -1.469 4.255
 0.507 -1.469 4.253
 0.52 -1.469 4.252
 0.533 -1.469 4.25
 0.546 -1.471 4.254
 0.559 -1.471 4.254
 0.572 -1.47 4.25
 0.584 -1.471 4.249
 0.598 -1.474 4.256
 0.611 -1.473 4.251
 0.622 -1.47 4.243
 0.636 -1.472 4.245
 0.648 -1.471 4.242
 0.661 -1.471 4.239
 0.673 -1.47 4.235
 0.686 -1.471 4.235
 0.7 -1.472 4.236
 0.713 -1.474 4.241
 0.726 -1.474 4.239
 0.739 -1.474 4.237
 0.752 -1.475 4.238
 0.764 -1.474 4.233
 0.777 -1.473 4.228
 0.79 -1.474 4.227
 0.803 -1.476 4.23
 0.818 -1.478 4.236
 0.832 -1.481 4.243
 0.847 -1.484 4.248
 0.86 -1.485 4.248
 0.875 -1.489 4.258
 0.888 -1.49 4.257
 0.901 -1.489 4.252
 0.913 -1.488 4.248
 0.927 -1.49 4.249
 0.938 -1.487 4.24
 0.952 -1.488 4.24
 0.965 -1.489 4.238
 0.979 -1.49 4.24
 0.99 -1.489 4.232
 1.003 -1.489 4.23
 1.016 -1.488 4.225
 1.029 -1.489 4.224
 1.042 -1.488 4.22
 1.056 -1.49 4.223
 1.07 -1.491 4.223
 1.084 -1.493 4.226
 1.098 -1.494 4.226
 1.112 -1.496 4.229
 1.126 -1.498 4.231
 1.14 -1.5 4.232
 1.155 -1.502 4.236
 1.168 -1.502 4.233
 1.181 -1.503 4.23
 1.195 -1.503 4.228
 1.208 -1.504 4.227
 1.22 -1.502 4.219
 1.235 -1.505 4.224
 1.249 -1.506 4.222
 1.262 -1.506 4.22
 1.275 -1.506 4.216
 1.289 -1.507 4.215
 1.302 -1.507 4.212
 1.316 -1.508 4.21
 1.33 -1.509 4.209
 1.345 -1.512 4.214
 1.36 -1.514 4.215
 1.373 -1.514 4.211
 1.389 -1.517 4.215
 1.403 -1.518 4.216
 1.416 -1.518 4.211
 1.431 -1.52 4.212
 1.446 -1.522 4.214
 1.458 -1.521 4.207
 1.473 -1.523 4.207
 1.488 -1.525 4.21
 1.502 -1.526 4.208
 1.516 -1.526 4.204
 1.531 -1.528 4.205
 1.544 -1.528 4.201
 1.557 -1.529 4.197
 1.572 -1.53 4.196
 1.587 -1.532 4.197
 1.601 -1.533 4.196
 1.618 -1.536 4.199
 1.632 -1.537 4.198
 1.647 -1.539 4.197
 1.661 -1.54 4.195
 1.674 -1.539 4.189
 1.688 -1.54 4.186
 1.704 -1.542 4.187
 1.717 -1.542 4.182
 1.73 -1.542 4.176
 1.745 -1.543 4.174
 1.757 -1.543 4.167
 1.771 -1.543 4.164
 1.786 -1.545 4.163
 1.8 -1.545 4.158
 1.813 -1.545 4.154
 1.828 -1.546 4.151
 1.836 -1.542 4.134
 1.843 -1.537 4.115
 1.853 -1.534 4.103
 1.859 -1.529 4.082
 1.866 -1.523 4.062
 1.869 -1.515 4.036
 1.874 -1.509 4.012
 1.877 -1.501 3.986
 1.882 -1.495 3.964
 1.885 -1.487 3.938
 1.89 -1.481 3.915
 1.895 -1.475 3.895
 1.895 -1.465 3.861
 0 0 0
 0 0 0
 0 0 0
 0 0 0
 0 0 0
 0 0 0
 0 0 0
 0 0 0
 0 0 0
 0 0 0
 0 0 0
 0 0 0
 0 0 0
 0 0 0
 0 0 0
 0 0 0
 0 0 0
 0 0 0
 0 0 0
 1.817 -1.241 3.166
 1.837 -1.248 3.177
 1.849 -1.248 3.173
 1.859 -1.247 3.165
 1.856 -1.238 3.137
 1.859 -1.234 3.119
 1.855 -1.224 3.088
 1.878 -1.232 3.103
 1.829 -1.193 3
 0 0 0
 -2.461 -1.617 4.22
 -2.436 -1.61 4.209
 -2.415 -1.606 4.205
 -2.396 -1.603 4.202
 -2.391 -1.609 4.226
 -2.377 -1.609 4.234
 -2.349 -1.6 4.216
 -2.331 -1.597 4.215
 -2.318 -1.598 4.224
 -2.299 -1.595 4.222
 -2.283 -1.594 4.226
 -2.272 -1.596 4.239
 -2.26 -1.597 4.248
 -2.245 -1.597 4.253
 -2.231 -1.597 4.26
 -2.216 -1.596 4.265
 -2.197 -1.593 4.261
 -2.182 -1.593 4.267
 -2.169 -1.593 4.275
 -2.153 -1.592 4.278
 -2.138 -1.591 4.281
 -2.12 -1.588 4.279
 -2.106 -1.589 4.287
 -2.09 -1.588 4.289
 -2.075 -1.587 4.293
 -2.058 -1.584 4.291
 -2.043 -1.583 4.295
 -2.025 -1.58 4.292
 -2.008 -1.578 4.293
 -1.992 -1.577 4.294
 -1.977 -1.576 4.298
 -1.965 -1.578 4.307
 -1.95 -1.577 4.31
 -1.934 -1.575 4.31
 -1.919 -1.574 4.314
 -1.905 -1.574 4.318
 -1.885 -1.569 4.309
 -1.867 -1.566 4.305
 -1.851 -1.564 4.306
 -1.833 -1.561 4.301
 -1.816 -1.558 4.298
 -1.801 -1.557 4.3
 -1.788 -1.558 4.308
 -1.775 -1.558 4.314
 -1.76 -1.558 4.317
 -1.745 -1.556 4.319
 -1.731 -1.556 4.322
 -1.714 -1.553 4.318
 -1.695 -1.549 4.311
 -1.678 -1.545 4.306
 -1.663 -1.545 4.308
 -1.647 -1.542 4.306
 -1.631 -1.54 4.305
 -1.618 -1.54 4.309
 -1.605 -1.541 4.315
 -1.589 -1.539 4.314
 -1.573 -1.537 4.312
 -1.56 -1.537 4.317
 -1.543 -1.534 4.311
 -1.528 -1.532 4.312
 -1.513 -1.531 4.313
 -1.5 -1.531 4.318
 -1.484 -1.529 4.314
 -1.472 -1.53 4.322
 -1.457 -1.529 4.322
 -1.442 -1.527 4.321
 -1.426 -1.525 4.317
 -1.411 -1.523 4.317
 -1.396 -1.521 4.315
 -1.38 -1.519 4.311
 -1.365 -1.517 4.31
 -1.35 -1.516 4.31
 -1.336 -1.515 4.31
 -1.321 -1.513 4.31
 -1.306 -1.511 4.306
 -1.291 -1.509 4.305
 -1.279 -1.51 4.31
 -1.264 -1.508 4.308
 -1.25 -1.508 4.312
 -1.237 -1.508 4.313
 -1.223 -1.507 4.315
 -1.209 -1.506 4.315
 -1.194 -1.505 4.315
 -1.18 -1.504 4.313
 -1.167 -1.504 4.317
 -1.153 -1.503 4.317
 -1.137 -1.5 4.31
 -1.122 -1.497 4.306
 -1.107 -1.496 4.304
 -1.093 -1.494 4.303
 -1.079 -1.493 4.303
 -1.065 -1.492 4.303
 -1.052 -1.493 4.305
 -1.037 -1.489 4.299
 -1.022 -1.487 4.293
 -1.007 -1.484 4.288
 -0.994 -1.484 4.289
 -0.981 -1.485 4.295
 -0.968 -1.485 4.299
 -0.956 -1.486 4.303
 -0.944 -1.487 4.31
 -0.929 -1.485 4.305
 -0.914 -1.483 4.3
 -0.901 -1.482 4.301
 -0.888 -1.482 4.302
 -0.873 -1.479 4.295
 -0.86 -1.479 4.298
 -0.846 -1.477 4.293
 -0.831 -1.474 4.288
 -0.818 -1.474 4.289
 -0.805 -1.474 4.292
 -0.792 -1.473 4.29
 -0.779 -1.473 4.292
 -0.766 -1.474 4.296
 -0.752 -1.472 4.292
 -0.737 -1.468 4.283
 -0.725 -1.47 4.289
 -0.711 -1.469 4.287
 -0.698 -1.467 4.285
 -0.685 -1.468 4.288
 -0.672 -1.467 4.287
 -0.658 -1.465 4.283
 -0.645 -1.465 4.285
 -0.632 -1.464 4.282
 -0.618 -1.462 4.28
 -0.606 -1.465 4.288
 -0.593 -1.464 4.288
 -0.58 -1.463 4.285
 -0.568 -1.466 4.294
 -0.555 -1.466 4.296
 -0.542 -1.464 4.292
 -0.529 -1.464 4.293
 -0.516 -1.464 4.295
 -0.502 -1.461 4.286
 -0.489 -1.461 4.286
 -0.476 -1.461 4.289
 -0.463 -1.46 4.287
 -0.451 -1.461 4.291
 -0.438 -1.461 4.292
 -0.424 -1.459 4.287
 -0.411 -1.459 4.286
 -0.399 -1.46 4.29
 -0.385 -1.458 4.286
 -0.373 -1.458 4.287
 -0.36 -1.459 4.29
 -0.347 -1.459 4.291
 -0.334 -1.457 4.285
 -0.321 -1.455 4.281
 -0.308 -1.454 4.278
 -0.295 -1.453 4.276
 -0.282 -1.452 4.272
 -0.269 -1.451 4.27
 -0.256 -1.452 4.274
 -0.243 -1.451 4.272
 -0.23 -1.451 4.271
 -0.218 -1.453 4.277
 -0.205 -1.454 4.281
 -0.192 -1.451 4.274
 -0.18 -1.453 4.279
 -0.167 -1.454 4.282
 -0.154 -1.453 4.279
 -0.141 -1.452 4.276
 -0.129 -1.45 4.272
 -0.116 -1.449 4.268
 -0.103 -1.448 4.266
 -0.09 -1.446 4.259
 -0.077 -1.445 4.258
 -0.065 -1.449 4.268
 -0.052 -1.45 4.272
 -0.039 -1.451 4.274
 -0.027 -1.454 4.281
 -0.014 -1.455 4.285
 -0.001 -1.453 4.28
 0.01 -1.454 4.282
 0.023 -1.45 4.27
 0.036 -1.451 4.272
 0.049 -1.45 4.27
 0.061 -1.451 4.272
 0.074 -1.45 4.27
 0.087 -1.452 4.275
 0.099 -1.452 4.273
 0.112 -1.452 4.275
 0.125 -1.451 4.271
 0.138 -1.452 4.273
 0.151 -1.454 4.278
 0.163 -1.452 4.272
 0.176 -1.452 4.27
 0.189 -1.452 4.27
 0.201 -1.448 4.259
 0.213 -1.448 4.257
 0.226 -1.448 4.256
 0.239 -1.447 4.253
 0.251 -1.448 4.256
 0.264 -1.449 4.257
 0.277 -1.449 4.258
 0.29 -1.45 4.258
 0.303 -1.452 4.265
 0.316 -1.452 4.261
 0.329 -1.453 4.265
 0.341 -1.452 4.26
 0.354 -1.452 4.259
 0.366 -1.45 4.253
 0.379 -1.45 4.251
 0.391 -1.448 4.244
 0.404 -1.449 4.247
 0.416 -1.449 4.245
 0.429 -1.448 4.242
 0.442 -1.449 4.241
 0.455 -1.45 4.244
 0.467 -1.449 4.239
 0.48 -1.45 4.24
 0.493 -1.451 4.244
 0.507 -1.453 4.249
 0.519 -1.454 4.248
 0.533 -1.455 4.25
 0.546 -1.457 4.255
 0.559 -1.457 4.253
 0.571 -1.456 4.248
 0.584 -1.457 4.251
 0.598 -1.46 4.259
 0.611 -1.459 4.254
 0.623 -1.458 4.246
 0.636 -1.459 4.249
 0.648 -1.457 4.243
 0.66 -1.457 4.239
 0.673 -1.456 4.236
 0.686 -1.457 4.235
 0.699 -1.458 4.238
 0.713 -1.46 4.241
 0.725 -1.46 4.238
 0.738 -1.46 4.237
 0.752 -1.462 4.24
 0.764 -1.461 4.235
 0.777 -1.46 4.231
 0.79 -1.461 4.231
 0.803 -1.462 4.232
 0.817 -1.464 4.236
 0.831 -1.467 4.242
 0.846 -1.47 4.248
 0.86 -1.471 4.25
 0.875 -1.475 4.258
 0.888 -1.476 4.259
 0.901 -1.477 4.257
 0.914 -1.477 4.255
 0.927 -1.476 4.252
 0.938 -1.474 4.242
 0.951 -1.475 4.242
 0.964 -1.475 4.24
 0.977 -1.475 4.238
 0.99 -1.475 4.234
 1.004 -1.476 4.234
 1.015 -1.474 4.227
 1.027 -1.473 4.221
 1.04 -1.473 4.218
 1.055 -1.475 4.221
 1.068 -1.476 4.22
 1.083 -1.48 4.228
 1.098 -1.481 4.229
 1.112 -1.483 4.232
 1.126 -1.485 4.232
 1.14 -1.486 4.234
 1.154 -1.488 4.235
 1.167 -1.487 4.231
 1.18 -1.488 4.229
 1.194 -1.488 4.227
 1.207 -1.489 4.225
 1.219 -1.488 4.218
 1.234 -1.491 4.223
 1.248 -1.492 4.223
 1.262 -1.493 4.224
 1.276 -1.494 4.222
 1.29 -1.495 4.223
 1.304 -1.497 4.223
 1.318 -1.497 4.221
 1.331 -1.498 4.218
 1.346 -1.5 4.221
 1.36 -1.501 4.219
 1.373 -1.501 4.216
 1.388 -1.503 4.218
 1.403 -1.505 4.219
 1.415 -1.504 4.213
 1.429 -1.505 4.212
 1.444 -1.507 4.213
 1.457 -1.507 4.209
 1.472 -1.508 4.208
 1.487 -1.51 4.209
 1.501 -1.512 4.21
 1.515 -1.512 4.206
 1.529 -1.513 4.204
 1.543 -1.514 4.202
 1.558 -1.516 4.203
 1.571 -1.516 4.199
 1.587 -1.519 4.202
 1.602 -1.52 4.202
 1.618 -1.523 4.204
 1.633 -1.525 4.204
 1.648 -1.526 4.204
 1.661 -1.526 4.199
 1.675 -1.527 4.196
 1.689 -1.527 4.192
 1.703 -1.528 4.19
 1.717 -1.529 4.187
 1.73 -1.528 4.18
 1.745 -1.53 4.179
 1.757 -1.529 4.173
 1.772 -1.53 4.17
 1.786 -1.531 4.167
 1.801 -1.533 4.166
 1.814 -1.532 4.159
 1.829 -1.533 4.157
 1.839 -1.531 4.145
 1.846 -1.526 4.126
 1.856 -1.523 4.113
 1.862 -1.517 4.091
 1.867 -1.511 4.07
 1.872 -1.505 4.046
 1.877 -1.498 4.023
 1.88 -1.49 3.995
 1.886 -1.485 3.976
 1.889 -1.477 3.95
 1.888 -1.467 3.916
 1.894 -1.461 3.896
 0 0 0
 0 0 0
 0 0 0
 0 0 0
 0 0 0
 0 0 0
 0 0 0
 0 0 0
 0 0 0
 0 0 0
 0 0 0
 0 0 0
 0 0 0
 0 0 0
 0 0 0
 0 0 0
 0 0 0
 0 0 0
 0 0 0
 0 0 0
 1.805 -1.222 3.148
 1.829 -1.231 3.166
 1.841 -1.232 3.163
 1.853 -1.233 3.159
 1.852 -1.225 3.135
 1.857 -1.222 3.12
 1.854 -1.213 3.09
 1.872 -1.218 3.098
 1.84 -1.19 3.021
 -2.481 -1.607 4.228
 0 0 0
 -2.446 -1.603 4.231
 -2.426 -1.599 4.229
 -2.41 -1.598 4.232
 -2.409 -1.607 4.263
 -2.395 -1.607 4.27
 -2.364 -1.596 4.248
 -2.343 -1.592 4.243
 -2.328 -1.591 4.248
 -2.308 -1.587 4.243
 -2.293 -1.586 4.248
 -2.281 -1.588 4.26
 -2.272 -1.592 4.276
 -2.257 -1.592 4.282
 -2.245 -1.593 4.293
 -2.232 -1.594 4.301
 -2.214 -1.591 4.3
 -2.198 -1.59 4.304
 -2.183 -1.59 4.308
 -2.167 -1.588 4.31
 -2.148 -1.585 4.306
 -2.13 -1.582 4.305
 -2.115 -1.581 4.31
 -2.099 -1.58 4.312
 -2.081 -1.577 4.31
 -2.065 -1.576 4.311
 -2.048 -1.573 4.31
 -2.028 -1.569 4.304
 -2.011 -1.567 4.304
 -1.996 -1.566 4.306
 -1.982 -1.566 4.312
 -1.969 -1.567 4.319
 -1.954 -1.566 4.324
 -1.939 -1.565 4.326
 -1.923 -1.564 4.327
 -1.907 -1.562 4.328
 -1.888 -1.558 4.321
 -1.87 -1.555 4.318
 -1.854 -1.553 4.318
 -1.836 -1.55 4.314
 -1.818 -1.546 4.309
 -1.804 -1.545 4.312
 -1.79 -1.546 4.318
 -1.775 -1.545 4.32
 -1.762 -1.545 4.325
 -1.746 -1.544 4.326
 -1.731 -1.542 4.327
 -1.713 -1.539 4.321
 -1.694 -1.534 4.313
 -1.677 -1.531 4.308
 -1.663 -1.531 4.313
 -1.646 -1.528 4.308
 -1.631 -1.527 4.31
 -1.618 -1.527 4.316
 -1.605 -1.527 4.32
 -1.588 -1.524 4.316
 -1.574 -1.524 4.319
 -1.56 -1.524 4.322
 -1.543 -1.521 4.318
 -1.529 -1.52 4.32
 -1.514 -1.519 4.32
 -1.5 -1.518 4.323
 -1.484 -1.516 4.32
 -1.472 -1.517 4.328
 -1.457 -1.515 4.326
 -1.441 -1.514 4.325
 -1.424 -1.51 4.317
 -1.41 -1.509 4.319
 -1.395 -1.507 4.316
 -1.379 -1.505 4.314
 -1.365 -1.504 4.315
 -1.351 -1.504 4.317
 -1.336 -1.502 4.316
 -1.321 -1.5 4.314
 -1.306 -1.498 4.31
 -1.29 -1.495 4.307
 -1.278 -1.497 4.314
 -1.263 -1.494 4.31
 -1.25 -1.494 4.313
 -1.236 -1.494 4.314
 -1.221 -1.493 4.314
 -1.208 -1.492 4.315
 -1.194 -1.491 4.317
 -1.18 -1.49 4.317
 -1.167 -1.491 4.322
 -1.153 -1.491 4.324
 -1.138 -1.488 4.318
 -1.123 -1.486 4.316
 -1.108 -1.483 4.31
 -1.094 -1.482 4.308
 -1.079 -1.48 4.306
 -1.065 -1.478 4.304
 -1.051 -1.478 4.305
 -1.037 -1.476 4.302
 -1.022 -1.474 4.299
 -1.007 -1.471 4.293
 -0.993 -1.47 4.292
 -0.98 -1.47 4.295
 -0.967 -1.47 4.298
 -0.954 -1.47 4.299
 -0.942 -1.472 4.306
 -0.928 -1.47 4.302
 -0.914 -1.469 4.303
 -0.9 -1.468 4.301
 -0.887 -1.467 4.3
 -0.872 -1.464 4.295
 -0.859 -1.465 4.298
 -0.844 -1.461 4.288
 -0.83 -1.459 4.285
 -0.817 -1.459 4.287
 -0.804 -1.46 4.291
 -0.79 -1.458 4.286
 -0.777 -1.458 4.289
 -0.765 -1.459 4.294
 -0.751 -1.457 4.291
 -0.736 -1.454 4.282
 -0.724 -1.456 4.289
 -0.711 -1.455 4.288
 -0.698 -1.455 4.291
 -0.685 -1.455 4.292
 -0.672 -1.454 4.29
 -0.658 -1.452 4.286
 -0.645 -1.451 4.286
 -0.631 -1.449 4.28
 -0.618 -1.448 4.279
 -0.605 -1.45 4.286
 -0.593 -1.45 4.287
 -0.579 -1.449 4.285
 -0.567 -1.451 4.292
 -0.554 -1.45 4.291
 -0.541 -1.449 4.289
 -0.528 -1.449 4.291
 -0.515 -1.45 4.293
 -0.501 -1.447 4.286
 -0.489 -1.447 4.288
 -0.476 -1.447 4.289
 -0.462 -1.445 4.285
 -0.45 -1.446 4.289
 -0.437 -1.446 4.288
 -0.423 -1.444 4.283
 -0.411 -1.444 4.284
 -0.398 -1.444 4.285
 -0.385 -1.443 4.283
 -0.372 -1.444 4.286
 -0.36 -1.445 4.291
 -0.347 -1.446 4.293
 -0.334 -1.445 4.29
 -0.321 -1.442 4.284
 -0.308 -1.441 4.282
 -0.295 -1.441 4.28
 -0.282 -1.439 4.277
 -0.269 -1.439 4.276
 -0.256 -1.44 4.28
 -0.243 -1.44 4.28
 -0.231 -1.439 4.279
 -0.218 -1.44 4.28
 -0.205 -1.44 4.28
 -0.192 -1.438 4.276
 -0.179 -1.438 4.276
 -0.167 -1.439 4.279
 -0.154 -1.438 4.278
 -0.141 -1.438 4.275
 -0.128 -1.436 4.271
 -0.116 -1.437 4.273
 -0.103 -1.436 4.271
 -0.09 -1.434 4.265
 -0.077 -1.434 4.265
 -0.065 -1.436 4.272
 -0.052 -1.436 4.27
 -0.039 -1.436 4.271
 -0.027 -1.438 4.275
 -0.014 -1.439 4.28
 -0.001 -1.438 4.276
 0.011 -1.439 4.28
 0.023 -1.436 4.27
 0.036 -1.437 4.273
 0.049 -1.436 4.268
 0.061 -1.436 4.27
 0.074 -1.436 4.269
 0.087 -1.437 4.272
 0.099 -1.437 4.271
 0.112 -1.437 4.271
 0.125 -1.436 4.267
 0.138 -1.437 4.269
 0.15 -1.438 4.272
 0.163 -1.436 4.265
 0.176 -1.436 4.265
 0.188 -1.436 4.264
 0.2 -1.433 4.254
 0.213 -1.434 4.256
 0.226 -1.435 4.259
 0.239 -1.434 4.257
 0.252 -1.436 4.261
 0.265 -1.437 4.264
 0.277 -1.436 4.26
 0.29 -1.436 4.258
 0.303 -1.439 4.266
 0.316 -1.439 4.265
 0.329 -1.44 4.267
 0.341 -1.438 4.26
 0.354 -1.439 4.262
 0.366 -1.436 4.251
 0.378 -1.434 4.246
 0.39 -1.433 4.242
 0.404 -1.436 4.249
 0.416 -1.435 4.245
 0.429 -1.435 4.243
 0.441 -1.435 4.242
 0.454 -1.436 4.243
 0.467 -1.434 4.238
 0.48 -1.436 4.24
 0.493 -1.437 4.243
 0.506 -1.439 4.247
 0.519 -1.439 4.247
 0.532 -1.441 4.25
 0.546 -1.443 4.254
 0.558 -1.442 4.252
 0.571 -1.442 4.25
 0.584 -1.443 4.25
 0.597 -1.445 4.254
 0.609 -1.444 4.249
 0.622 -1.444 4.247
 0.635 -1.444 4.245
 0.648 -1.444 4.244
 0.661 -1.445 4.244
 0.673 -1.444 4.242
 0.686 -1.445 4.242
 0.7 -1.446 4.244
 0.713 -1.447 4.245
 0.725 -1.446 4.239
 0.738 -1.446 4.238
 0.751 -1.447 4.238
 0.764 -1.447 4.234
 0.775 -1.445 4.228
 0.788 -1.446 4.227
 0.802 -1.447 4.229
 0.816 -1.449 4.232
 0.829 -1.45 4.235
 0.844 -1.453 4.241
 0.858 -1.456 4.246
 0.873 -1.459 4.254
 0.887 -1.461 4.255
 0.9 -1.462 4.256
 0.913 -1.462 4.254
 0.925 -1.461 4.249
 0.936 -1.458 4.237
 0.95 -1.459 4.237
 0.962 -1.458 4.233
 0.975 -1.459 4.232
 0.988 -1.459 4.23
 1.003 -1.461 4.234
 1.015 -1.461 4.23
 1.028 -1.462 4.229
 1.042 -1.463 4.228
 1.056 -1.465 4.231
 1.069 -1.464 4.228
 1.084 -1.467 4.234
 1.098 -1.469 4.234
 1.112 -1.47 4.236
 1.126 -1.471 4.236
 1.141 -1.474 4.24
 1.154 -1.475 4.239
 1.167 -1.475 4.237
 1.181 -1.476 4.236
 1.195 -1.477 4.237
 1.208 -1.478 4.234
 1.221 -1.477 4.23
 1.236 -1.48 4.233
 1.249 -1.479 4.229
 1.261 -1.479 4.225
 1.275 -1.48 4.224
 1.289 -1.481 4.223
 1.303 -1.482 4.223
 1.318 -1.484 4.225
 1.331 -1.485 4.223
 1.346 -1.487 4.225
 1.36 -1.487 4.222
 1.373 -1.488 4.22
 1.387 -1.489 4.219
 1.402 -1.491 4.22
 1.414 -1.49 4.214
 1.429 -1.491 4.213
 1.443 -1.492 4.212
 1.456 -1.493 4.21
 1.469 -1.493 4.206
 1.484 -1.494 4.206
 1.499 -1.496 4.205
 1.513 -1.497 4.204
 1.527 -1.498 4.204
 1.543 -1.5 4.205
 1.557 -1.501 4.203
 1.572 -1.503 4.204
 1.587 -1.505 4.205
 1.601 -1.506 4.203
 1.617 -1.508 4.205
 1.633 -1.511 4.208
 1.648 -1.513 4.207
 1.66 -1.512 4.2
 1.675 -1.513 4.2
 1.689 -1.514 4.196
 1.702 -1.514 4.192
 1.716 -1.514 4.188
 1.729 -1.515 4.183
 1.743 -1.515 4.179
 1.757 -1.516 4.176
 1.771 -1.516 4.173
 1.786 -1.517 4.171
 1.802 -1.52 4.172
 1.816 -1.52 4.167
 1.828 -1.519 4.159
 1.838 -1.517 4.148
 1.847 -1.514 4.133
 1.856 -1.51 4.118
 1.863 -1.505 4.099
 1.872 -1.501 4.083
 1.877 -1.495 4.061
 1.882 -1.488 4.037
 1.883 -1.48 4.007
 1.89 -1.474 3.988
 1.888 -1.463 3.95
 1.888 -1.454 3.92
 0 0 0
 0 0 0
 0 0 0
 0 0 0
 0 0 0
 0 0 0
 0 0 0
 0 0 0
 0 0 0
 0 0 0
 0 0 0
 0 0 0
 0 0 0
 0 0 0
 0 0 0
 0 0 0
 0 0 0
 0 0 0
 0 0 0
 0 0 0
 0 0 0
 1.813 -1.216 3.165
 1.827 -1.219 3.166
 1.84 -1.221 3.164
 1.851 -1.221 3.16
 1.853 -1.215 3.139
 1.856 -1.21 3.121
 1.856 -1.203 3.098
 1.842 -1.188 3.052
 1.89 -1.212 3.108
 0 0 0
 0 0 0
 -2.459 -1.597 4.258
 -2.448 -1.599 4.271
 -2.431 -1.597 4.274
 -2.421 -1.6 4.289
 -2.407 -1.601 4.297
 -2.38 -1.593 4.282
 -2.356 -1.586 4.27
 -2.345 -1.588 4.284
 -2.323 -1.583 4.277
 -2.307 -1.582 4.28
 -2.295 -1.584 4.292
 -2.283 -1.586 4.303
 -2.265 -1.583 4.302
 -2.257 -1.587 4.319
 -2.243 -1.587 4.326
 -2.223 -1.583 4.322
 -2.208 -1.583 4.327
 -2.19 -1.58 4.326
 -2.17 -1.576 4.321
 -2.15 -1.572 4.316
 -2.135 -1.571 4.32
 -2.118 -1.569 4.32
 -2.102 -1.568 4.322
 -2.086 -1.566 4.324
 -2.069 -1.565 4.325
 -2.05 -1.561 4.321
 -2.031 -1.557 4.315
 -2.015 -1.556 4.316
 -1.998 -1.554 4.316
 -1.984 -1.553 4.321
 -1.968 -1.552 4.323
 -1.955 -1.553 4.33
 -1.939 -1.551 4.33
 -1.921 -1.548 4.327
 -1.905 -1.547 4.329
 -1.887 -1.543 4.325
 -1.868 -1.539 4.319
 -1.852 -1.538 4.319
 -1.835 -1.535 4.315
 -1.818 -1.532 4.313
 -1.803 -1.531 4.315
 -1.791 -1.533 4.324
 -1.777 -1.532 4.328
 -1.764 -1.533 4.336
 -1.748 -1.531 4.335
 -1.731 -1.529 4.333
 -1.713 -1.525 4.325
 -1.694 -1.521 4.318
 -1.678 -1.518 4.314
 -1.663 -1.517 4.317
 -1.647 -1.515 4.315
 -1.632 -1.514 4.316
 -1.618 -1.513 4.319
 -1.604 -1.513 4.323
 -1.588 -1.511 4.32
 -1.573 -1.509 4.32
 -1.559 -1.509 4.324
 -1.542 -1.506 4.32
 -1.527 -1.505 4.319
 -1.512 -1.503 4.319
 -1.499 -1.504 4.324
 -1.484 -1.502 4.324
 -1.472 -1.504 4.332
 -1.457 -1.502 4.33
 -1.442 -1.501 4.33
 -1.425 -1.497 4.324
 -1.409 -1.495 4.321
 -1.394 -1.493 4.319
 -1.379 -1.491 4.316
 -1.364 -1.49 4.316
 -1.35 -1.488 4.316
 -1.335 -1.487 4.315
 -1.32 -1.485 4.314
 -1.306 -1.484 4.314
 -1.29 -1.482 4.31
 -1.277 -1.482 4.313
 -1.261 -1.479 4.307
 -1.248 -1.479 4.311
 -1.233 -1.478 4.31
 -1.22 -1.477 4.313
 -1.207 -1.478 4.317
 -1.193 -1.477 4.319
 -1.18 -1.477 4.32
 -1.167 -1.477 4.325
 -1.153 -1.477 4.326
 -1.139 -1.475 4.324
 -1.125 -1.475 4.325
 -1.109 -1.471 4.317
 -1.093 -1.468 4.311
 -1.079 -1.467 4.31
 -1.065 -1.465 4.308
 -1.051 -1.464 4.308
 -1.037 -1.463 4.306
 -1.022 -1.461 4.303
 -1.007 -1.458 4.297
 -0.992 -1.456 4.293
 -0.98 -1.456 4.296
 -0.966 -1.455 4.294
 -0.952 -1.454 4.295
 -0.939 -1.455 4.299
 -0.926 -1.454 4.298
 -0.912 -1.452 4.296
 -0.899 -1.452 4.298
 -0.884 -1.45 4.294
 -0.871 -1.45 4.294
 -0.857 -1.449 4.294
 -0.843 -1.446 4.288
 -0.829 -1.445 4.286
 -0.816 -1.445 4.289
 -0.803 -1.445 4.289
 -0.79 -1.444 4.289
 -0.777 -1.444 4.291
 -0.764 -1.444 4.291
 -0.75 -1.443 4.29
 -0.736 -1.441 4.286
 -0.723 -1.441 4.287
 -0.71 -1.44 4.286
 -0.697 -1.441 4.291
 -0.685 -1.441 4.292
 -0.671 -1.439 4.289
 -0.657 -1.437 4.284
 -0.644 -1.437 4.285
 -0.63 -1.435 4.281
 -0.617 -1.433 4.277
 -0.605 -1.436 4.287
 -0.593 -1.437 4.291
 -0.579 -1.436 4.288
 -0.567 -1.437 4.294
 -0.555 -1.439 4.3
 -0.541 -1.437 4.296
 -0.528 -1.436 4.295
 -0.515 -1.437 4.298
 -0.501 -1.434 4.291
 -0.488 -1.432 4.286
 -0.475 -1.433 4.289
 -0.462 -1.433 4.288
 -0.45 -1.433 4.292
 -0.436 -1.431 4.287
 -0.424 -1.432 4.289
 -0.411 -1.431 4.288
 -0.398 -1.431 4.289
 -0.385 -1.43 4.286
 -0.372 -1.432 4.292
 -0.359 -1.432 4.292
 -0.347 -1.432 4.295
 -0.334 -1.432 4.294
 -0.321 -1.43 4.29
 -0.308 -1.429 4.288
 -0.295 -1.429 4.287
 -0.282 -1.427 4.283
 -0.269 -1.427 4.283
 -0.256 -1.427 4.283
 -0.243 -1.427 4.283
 -0.231 -1.427 4.283
 -0.218 -1.426 4.28
 -0.205 -1.424 4.276
 -0.192 -1.425 4.277
 -0.179 -1.425 4.278
 -0.167 -1.424 4.277
 -0.154 -1.424 4.277
 -0.141 -1.424 4.276
 -0.128 -1.422 4.271
 -0.115 -1.421 4.268
 -0.103 -1.421 4.269
 -0.09 -1.421 4.268
 -0.077 -1.421 4.268
 -0.065 -1.423 4.275
 -0.052 -1.424 4.275
 -0.039 -1.423 4.274
 -0.027 -1.423 4.273
 -0.014 -1.424 4.275
 -0.001 -1.422 4.27
 0.011 -1.423 4.273
 0.023 -1.42 4.264
 0.036 -1.421 4.267
 0.049 -1.421 4.265
 0.061 -1.421 4.265
 0.074 -1.421 4.265
 0.087 -1.423 4.27
 0.099 -1.422 4.269
 0.112 -1.423 4.269
 0.125 -1.423 4.269
