 1.846 -1.503 3.556
 1.847 -1.485 3.503
 1.844 -1.464 3.441
 1.781 -1.397 3.272
 1.768 -1.37 3.198
 1.767 -1.353 3.147
 1.777 -1.344 3.116
 1.783 -1.333 3.079
 1.782 -1.317 3.032
 1.776 -1.298 2.976
 1.778 -1.284 2.934
 1.768 -1.263 2.874
 -2.256 -1.603 3.809
 -2.274 -1.635 3.898
 -2.232 -1.623 3.883
 -2.205 -1.623 3.896
 -2.175 -1.621 3.902
 -2.148 -1.62 3.914
 -2.124 -1.623 3.932
 -2.099 -1.624 3.947
 -2.071 -1.623 3.956
 -2.043 -1.622 3.965
 -2.015 -1.62 3.974
 -1.987 -1.619 3.981
 -1.958 -1.617 3.987
 -1.933 -1.618 4.001
 -1.908 -1.62 4.017
 -1.882 -1.62 4.028
 -1.853 -1.618 4.034
 -1.828 -1.62 4.047
 -1.8 -1.618 4.053
 -1.771 -1.615 4.057
 -1.743 -1.614 4.064
 -1.715 -1.613 4.07
 -1.688 -1.613 4.078
 -1.662 -1.613 4.088
 -1.637 -1.614 4.099
 -1.61 -1.614 4.108
 -1.585 -1.614 4.118
 -1.558 -1.614 4.125
 -1.53 -1.613 4.131
 -1.502 -1.611 4.134
 -1.474 -1.609 4.138
 -1.448 -1.609 4.145
 -1.42 -1.607 4.148
 -1.392 -1.606 4.151
 -1.366 -1.605 4.157
 -1.339 -1.605 4.164
 -1.312 -1.604 4.168
 -1.287 -1.605 4.176
 -1.26 -1.604 4.181
 -1.233 -1.603 4.186
 -1.207 -1.604 4.193
 -1.181 -1.603 4.198
 -1.153 -1.601 4.199
 -1.127 -1.601 4.204
 -1.101 -1.601 4.211
 -1.075 -1.601 4.215
 -1.048 -1.601 4.22
 -1.023 -1.602 4.228
 -0.997 -1.601 4.231
 -0.97 -1.601 4.234
 -0.944 -1.6 4.239
 -0.917 -1.599 4.24
 -0.891 -1.598 4.242
 -0.864 -1.598 4.245
 -0.838 -1.597 4.246
 -0.812 -1.596 4.248
 -0.785 -1.595 4.248
 -0.758 -1.594 4.249
 -0.732 -1.593 4.251
 -0.706 -1.591 4.25
 -0.679 -1.589 4.246
 -0.653 -1.59 4.251
 -0.627 -1.588 4.25
 -0.601 -1.588 4.252
 -0.575 -1.587 4.254
 -0.549 -1.588 4.257
 -0.523 -1.587 4.258
 -0.497 -1.587 4.259
 -0.471 -1.586 4.26
 -0.446 -1.587 4.263
 -0.42 -1.586 4.263
 -0.394 -1.585 4.263
 -0.368 -1.585 4.264
 -0.342 -1.585 4.264
 -0.317 -1.587 4.271
 -0.291 -1.587 4.272
 -0.265 -1.585 4.268
 -0.239 -1.583 4.265
 -0.213 -1.582 4.264
 -0.188 -1.58 4.257
 -0.162 -1.58 4.258
 -0.137 -1.582 4.264
 -0.111 -1.583 4.268
 -0.085 -1.583 4.266
 -0.06 -1.583 4.268
 -0.034 -1.582 4.265
 -0.008 -1.581 4.261
 0.016 -1.581 4.262
 0.042 -1.58 4.258
 0.067 -1.581 4.26
 0.093 -1.582 4.261
 0.119 -1.582 4.261
 0.144 -1.581 4.257
 0.17 -1.582 4.26
 0.195 -1.58 4.253
 0.221 -1.581 4.253
 0.246 -1.581 4.252
 0.272 -1.582 4.252
 0.298 -1.582 4.252
 0.323 -1.583 4.252
 0.349 -1.583 4.25
 0.374 -1.583 4.249
 0.4 -1.584 4.249
 0.426 -1.585 4.249
 0.451 -1.584 4.245
 0.477 -1.584 4.24
 0.503 -1.584 4.239
 0.528 -1.584 4.235
 0.554 -1.584 4.232
 0.579 -1.585 4.23
 0.605 -1.585 4.229
 0.631 -1.587 4.229
 0.657 -1.586 4.224
 0.682 -1.587 4.222
 0.709 -1.589 4.224
 0.736 -1.592 4.227
 0.761 -1.592 4.223
 0.788 -1.594 4.225
 0.814 -1.595 4.223
 0.84 -1.596 4.22
 0.866 -1.595 4.212
 0.892 -1.597 4.213
 0.919 -1.598 4.21
 0.945 -1.599 4.21
 0.972 -1.602 4.21
 1 -1.604 4.211
 1.025 -1.604 4.205
 1.052 -1.605 4.201
 1.079 -1.607 4.2
 1.104 -1.606 4.193
 1.13 -1.606 4.186
 1.157 -1.607 4.182
 1.184 -1.609 4.181
 1.21 -1.61 4.176
 1.236 -1.61 4.169
 1.263 -1.612 4.166
 1.291 -1.613 4.164
 1.317 -1.614 4.156
 1.342 -1.613 4.148
 1.369 -1.615 4.145
 1.397 -1.617 4.141
 1.424 -1.618 4.136
 1.45 -1.618 4.129
 1.479 -1.621 4.127
 1.506 -1.623 4.122
 1.532 -1.623 4.115
 1.559 -1.623 4.106
 1.586 -1.624 4.1
 1.611 -1.623 4.088
 1.636 -1.623 4.077
 1.663 -1.623 4.068
 1.688 -1.623 4.057
 1.714 -1.623 4.047
 1.736 -1.619 4.027
 1.758 -1.615 4.008
 1.781 -1.612 3.99
 1.8 -1.606 3.964
 1.816 -1.598 3.933
 1.833 -1.591 3.904
 1.841 -1.576 3.857
 1.847 -1.56 3.806
 1.848 -1.54 3.746
 1.85 -1.522 3.69
 1.85 -1.501 3.63
 1.853 -1.485 3.579
 1.848 -1.462 3.512
 0 0 0
 1.753 -1.353 3.228
 1.748 -1.333 3.169
 1.764 -1.329 3.15
 1.775 -1.322 3.121
 1.785 -1.313 3.09
 1.785 -1.298 3.045
 1.78 -1.28 2.99
 1.762 -1.253 2.916
 1.782 -1.253 2.905
 -2.339 -1.634 3.959
 -2.312 -1.635 3.974
 -2.263 -1.619 3.948
 -2.236 -1.62 3.962
 -2.207 -1.618 3.97
 -2.18 -1.617 3.982
 -2.153 -1.618 3.995
 -2.126 -1.618 4.007
 -2.097 -1.617 4.016
 -2.068 -1.615 4.024
 -2.04 -1.614 4.033
 -2.012 -1.613 4.043
 -1.984 -1.612 4.052
 -1.958 -1.612 4.063
 -1.934 -1.615 4.08
 -1.907 -1.615 4.092
 -1.878 -1.614 4.099
 -1.852 -1.614 4.11
 -1.824 -1.613 4.117
 -1.795 -1.611 4.124
 -1.767 -1.61 4.129
 -1.738 -1.608 4.135
 -1.711 -1.608 4.144
 -1.685 -1.608 4.153
 -1.658 -1.608 4.162
 -1.632 -1.609 4.173
 -1.606 -1.61 4.185
 -1.579 -1.61 4.192
 -1.552 -1.609 4.198
 -1.523 -1.607 4.201
 -1.494 -1.604 4.203
 -1.466 -1.603 4.207
 -1.438 -1.601 4.21
 -1.41 -1.6 4.214
 -1.383 -1.599 4.219
 -1.355 -1.598 4.222
 -1.328 -1.597 4.226
 -1.301 -1.596 4.232
 -1.273 -1.595 4.236
 -1.246 -1.594 4.238
 -1.22 -1.594 4.245
 -1.192 -1.592 4.248
 -1.164 -1.59 4.247
 -1.136 -1.588 4.249
 -1.11 -1.588 4.254
 -1.084 -1.588 4.259
 -1.057 -1.588 4.263
 -1.031 -1.588 4.27
 -1.004 -1.587 4.273
 -0.978 -1.587 4.276
 -0.951 -1.586 4.279
 -0.924 -1.585 4.279
 -0.897 -1.583 4.281
 -0.871 -1.584 4.286
 -0.844 -1.582 4.286
 -0.817 -1.581 4.286
 -0.79 -1.579 4.286
 -0.763 -1.578 4.285
 -0.736 -1.576 4.283
 -0.709 -1.574 4.282
 -0.682 -1.572 4.278
 -0.657 -1.572 4.283
 -0.63 -1.571 4.281
 -0.604 -1.571 4.286
 -0.578 -1.571 4.288
 -0.552 -1.571 4.291
 -0.526 -1.57 4.289
 -0.5 -1.57 4.293
 -0.474 -1.569 4.292
 -0.448 -1.569 4.293
 -0.422 -1.568 4.294
 -0.396 -1.568 4.295
 -0.37 -1.568 4.295
 -0.344 -1.566 4.292
 -0.318 -1.567 4.296
 -0.292 -1.567 4.296
 -0.266 -1.565 4.292
 -0.24 -1.563 4.288
 -0.214 -1.563 4.29
 -0.188 -1.562 4.287
 -0.163 -1.561 4.285
 -0.137 -1.562 4.287
 -0.111 -1.562 4.288
 -0.085 -1.561 4.286
 -0.06 -1.56 4.283
 -0.034 -1.56 4.281
 -0.008 -1.558 4.277
 0.016 -1.559 4.278
 0.042 -1.557 4.273
 0.068 -1.558 4.276
 0.093 -1.559 4.278
 0.119 -1.56 4.28
 0.145 -1.56 4.278
 0.17 -1.561 4.279
 0.196 -1.559 4.274
 0.222 -1.561 4.276
 0.247 -1.561 4.276
 0.273 -1.561 4.273
 0.299 -1.561 4.272
 0.324 -1.561 4.271
 0.35 -1.56 4.265
 0.375 -1.56 4.263
 0.401 -1.561 4.264
 0.427 -1.563 4.266
 0.452 -1.562 4.26
 0.478 -1.562 4.259
 0.504 -1.562 4.257
 0.529 -1.562 4.254
 0.555 -1.561 4.248
 0.581 -1.563 4.249
 0.606 -1.562 4.243
 0.632 -1.563 4.243
 0.658 -1.563 4.239
 0.685 -1.566 4.243
 0.712 -1.569 4.247
 0.739 -1.571 4.25
 0.765 -1.573 4.249
 0.792 -1.575 4.252
 0.818 -1.576 4.249
 0.844 -1.576 4.244
 0.87 -1.576 4.24
 0.896 -1.578 4.24
 0.922 -1.578 4.235
 0.949 -1.579 4.233
 0.976 -1.582 4.235
 1.004 -1.585 4.238
 1.03 -1.586 4.234
 1.058 -1.587 4.233
 1.085 -1.589 4.231
 1.111 -1.589 4.225
 1.136 -1.589 4.217
 1.163 -1.59 4.215
 1.191 -1.592 4.214
 1.218 -1.594 4.211
 1.245 -1.595 4.206
 1.273 -1.597 4.206
 1.3 -1.599 4.203
 1.326 -1.599 4.195
 1.352 -1.599 4.187
 1.38 -1.6 4.183
 1.406 -1.601 4.176
 1.433 -1.602 4.171
 1.46 -1.603 4.166
 1.49 -1.606 4.166
 1.517 -1.608 4.161
 1.545 -1.61 4.157
 1.572 -1.61 4.15
 1.6 -1.612 4.145
 1.626 -1.612 4.136
 1.653 -1.613 4.127
 1.68 -1.614 4.12
 1.706 -1.614 4.11
 1.733 -1.614 4.1
 1.754 -1.609 4.078
 1.777 -1.606 4.061
 1.799 -1.602 4.04
 1.815 -1.594 4.007
 1.828 -1.583 3.969
 1.842 -1.573 3.933
 1.849 -1.557 3.883
 1.854 -1.54 3.829
 1.855 -1.521 3.77
 1.857 -1.502 3.713
 1.854 -1.481 3.648
 1.854 -1.462 3.59
 0 0 0
 0 0 0
 1.726 -1.311 3.186
 1.748 -1.311 3.178
 1.764 -1.307 3.156
 1.774 -1.299 3.126
 1.783 -1.29 3.094
 1.785 -1.277 3.051
 1.78 -1.259 2.996
 1.755 -1.227 2.911
 1.737 -1.201 2.838
 -2.353 -1.617 3.992
 -2.345 -1.631 4.041
 -2.293 -1.613 4.01
 -2.264 -1.612 4.021
 -2.235 -1.611 4.031
 -2.208 -1.611 4.044
 -2.182 -1.612 4.059
 -2.154 -1.612 4.07
 -2.127 -1.612 4.084
 -2.099 -1.612 4.094
 -2.069 -1.61 4.101
 -2.04 -1.608 4.109
 -2.012 -1.608 4.119
 -1.983 -1.606 4.125
 -1.956 -1.606 4.137
 -1.929 -1.607 4.148
 -1.899 -1.604 4.154
 -1.874 -1.606 4.168
 -1.846 -1.605 4.177
 -1.817 -1.604 4.183
 -1.789 -1.603 4.19
 -1.761 -1.602 4.198
 -1.732 -1.601 4.204
 -1.704 -1.6 4.21
 -1.677 -1.6 4.22
 -1.651 -1.6 4.23
 -1.623 -1.6 4.238
 -1.595 -1.599 4.243
 -1.568 -1.598 4.251
 -1.539 -1.596 4.254
 -1.509 -1.594 4.254
 -1.481 -1.592 4.259
 -1.453 -1.591 4.263
 -1.424 -1.589 4.265
 -1.397 -1.589 4.272
 -1.369 -1.587 4.275
 -1.342 -1.587 4.28
 -1.313 -1.585 4.282
 -1.285 -1.584 4.285
 -1.256 -1.581 4.283
 -1.229 -1.58 4.288
 -1.201 -1.577 4.287
 -1.173 -1.575 4.288
 -1.144 -1.573 4.287
 -1.117 -1.572 4.291
 -1.091 -1.572 4.297
 -1.064 -1.572 4.302
 -1.037 -1.571 4.303
 -1.01 -1.57 4.306
 -0.983 -1.569 4.308
 -0.955 -1.567 4.307
 -0.927 -1.565 4.305
 -0.9 -1.564 4.307
 -0.874 -1.564 4.312
 -0.847 -1.562 4.309
 -0.82 -1.56 4.31
 -0.793 -1.559 4.31
 -0.766 -1.558 4.309
 -0.739 -1.555 4.307
 -0.712 -1.554 4.307
 -0.685 -1.552 4.303
 -0.659 -1.552 4.307
 -0.632 -1.55 4.305
 -0.606 -1.55 4.307
 -0.58 -1.549 4.308
 -0.553 -1.549 4.309
 -0.526 -1.546 4.303
 -0.5 -1.546 4.306
 -0.474 -1.545 4.304
 -0.448 -1.544 4.304
 -0.422 -1.544 4.306
 -0.396 -1.544 4.307
 -0.37 -1.543 4.305
 -0.344 -1.542 4.304
 -0.318 -1.542 4.305
 -0.292 -1.541 4.303
 -0.266 -1.539 4.299
 -0.24 -1.537 4.297
 -0.214 -1.537 4.297
 -0.188 -1.538 4.299
 -0.162 -1.537 4.296
 -0.137 -1.538 4.301
 -0.111 -1.539 4.303
 -0.085 -1.537 4.298
 -0.059 -1.534 4.289
 -0.034 -1.534 4.288
 -0.008 -1.531 4.281
 0.016 -1.531 4.28
 0.042 -1.53 4.278
 0.068 -1.533 4.284
 0.093 -1.532 4.282
 0.119 -1.533 4.282
 0.145 -1.533 4.283
 0.17 -1.534 4.283
 0.196 -1.533 4.281
 0.222 -1.535 4.284
 0.248 -1.536 4.286
 0.273 -1.536 4.284
 0.299 -1.536 4.282
 0.324 -1.535 4.278
 0.35 -1.535 4.275
 0.375 -1.535 4.272
 0.401 -1.535 4.271
 0.427 -1.537 4.274
 0.453 -1.537 4.272
 0.479 -1.538 4.27
 0.505 -1.538 4.27
 0.53 -1.539 4.268
 0.556 -1.538 4.263
 0.582 -1.539 4.263
 0.607 -1.539 4.259
 0.633 -1.539 4.256
 0.659 -1.54 4.254
 0.686 -1.542 4.256
 0.712 -1.544 4.258
 0.739 -1.546 4.259
 0.765 -1.548 4.259
 0.792 -1.55 4.262
 0.818 -1.55 4.259
 0.844 -1.55 4.252
 0.87 -1.551 4.251
 0.898 -1.554 4.253
 0.924 -1.554 4.249
 0.951 -1.556 4.248
 0.979 -1.559 4.252
 1.006 -1.561 4.253
 1.033 -1.563 4.252
 1.06 -1.565 4.25
 1.087 -1.567 4.249
 1.114 -1.567 4.245
 1.14 -1.568 4.241
 1.168 -1.57 4.239
 1.196 -1.572 4.239
 1.223 -1.574 4.236
 1.25 -1.575 4.233
 1.279 -1.578 4.235
 1.305 -1.579 4.228
 1.331 -1.578 4.219
 1.358 -1.579 4.214
 1.385 -1.58 4.209
 1.411 -1.58 4.199
 1.439 -1.582 4.198
 1.468 -1.584 4.195
 1.497 -1.587 4.195
 1.524 -1.589 4.19
 1.553 -1.591 4.187
 1.581 -1.593 4.182
 1.609 -1.595 4.178
 1.637 -1.596 4.171
 1.665 -1.597 4.166
 1.692 -1.598 4.158
 1.72 -1.599 4.151
 1.746 -1.599 4.14
 1.768 -1.595 4.12
 1.789 -1.591 4.098
 1.809 -1.585 4.072
 1.823 -1.574 4.033
 1.835 -1.562 3.992
 1.848 -1.551 3.953
 1.856 -1.537 3.907
 1.864 -1.523 3.859
 1.868 -1.506 3.804
 1.872 -1.489 3.75
 1.869 -1.468 3.685
 0 0 0
 0 0 0
 0 0 0
 0 0 0
 1.741 -1.285 3.173
 1.758 -1.282 3.154
 1.77 -1.275 3.127
 1.779 -1.267 3.096
 1.782 -1.254 3.054
 1.779 -1.238 3.003
 1.778 -1.223 2.955
 1.757 -1.195 2.878
 -2.374 -1.604 4.039
 -2.32 -1.586 4.006
 -2.132 -1.475 3.736
 -2.012 -1.409 3.581
 -1.986 -1.408 3.59
 -1.963 -1.409 3.603
 -1.941 -1.41 3.617
 -1.917 -1.41 3.629
 -1.894 -1.411 3.643
 -1.955 -1.476 3.821
 -1.927 -1.474 3.828
 -1.985 -1.539 4.007
 -1.874 -1.472 3.844
 -1.927 -1.535 4.019
 -1.82 -1.47 3.859
 -1.793 -1.469 3.865
 -1.765 -1.466 3.868
 -1.82 -1.534 4.058
 -1.794 -1.534 4.067
 -1.84 -1.597 4.245
 -1.812 -1.596 4.254
 -1.782 -1.594 4.259
 -1.752 -1.592 4.261
 -1.721 -1.589 4.263
 -1.694 -1.589 4.271
 -1.666 -1.588 4.28
 -1.638 -1.588 4.286
 -1.609 -1.586 4.29
 -1.581 -1.585 4.296
 -1.551 -1.583 4.298
 -1.521 -1.579 4.296
 -1.492 -1.578 4.301
 -1.463 -1.575 4.301
 -1.435 -1.574 4.306
 -1.406 -1.572 4.309
 -1.378 -1.571 4.312
 -1.349 -1.569 4.314
 -1.32 -1.567 4.314
 -1.291 -1.564 4.313
 -1.262 -1.561 4.312
 -1.234 -1.559 4.313
 -1.205 -1.557 4.313
 -1.177 -1.555 4.315
 -1.148 -1.552 4.311
 -1.121 -1.551 4.315
 -1.094 -1.551 4.32
 -1.067 -1.551 4.324
 -1.04 -1.549 4.325
 -1.013 -1.549 4.329
 -0.986 -1.547 4.329
 -0.958 -1.545 4.328
 -0.929 -1.542 4.323
 -0.902 -1.54 4.321
 -0.875 -1.54 4.325
 -0.847 -1.537 4.322
 -0.82 -1.535 4.321
 -0.793 -1.534 4.321
 -0.766 -1.532 4.32
 -0.739 -1.53 4.316
 -0.712 -1.529 4.318
 -0.685 -1.526 4.313
 -0.659 -1.526 4.315
 -0.632 -1.525 4.315
 -0.606 -1.524 4.315
 -0.579 -1.522 4.312
 -0.553 -1.522 4.314
 -0.526 -1.519 4.308
 -0.5 -1.519 4.31
 -0.474 -1.519 4.312
 -0.448 -1.519 4.315
 -0.422 -1.519 4.316
 -0.396 -1.518 4.316
 -0.37 -1.516 4.312
 -0.343 -1.515 4.308
 -0.317 -1.513 4.306
 -0.291 -1.512 4.305
 -0.265 -1.511 4.303
 -0.24 -1.511 4.303
 -0.214 -1.511 4.303
 -0.188 -1.512 4.307
 -0.162 -1.51 4.302
 -0.137 -1.511 4.306
 -0.111 -1.511 4.304
 -0.085 -1.509 4.299
 -0.059 -1.506 4.29
 -0.034 -1.506 4.29
 -0.008 -1.504 4.284
 0.017 -1.505 4.286
 0.042 -1.505 4.286
 0.068 -1.507 4.291
 0.094 -1.507 4.29
 0.119 -1.508 4.292
 0.145 -1.507 4.289
 0.17 -1.507 4.288
 0.196 -1.507 4.288
 0.222 -1.508 4.288
 0.247 -1.508 4.288
 0.273 -1.509 4.289
 0.299 -1.509 4.287
 0.324 -1.508 4.28
 0.35 -1.508 4.279
 0.376 -1.509 4.28
 0.401 -1.509 4.279
 0.428 -1.511 4.282
 0.453 -1.512 4.283
 0.479 -1.513 4.28
 0.505 -1.513 4.278
 0.531 -1.513 4.276
 0.556 -1.512 4.271
 0.582 -1.514 4.274
 0.608 -1.515 4.27
 0.634 -1.515 4.268
 0.66 -1.515 4.266
 0.686 -1.517 4.267
 0.712 -1.518 4.266
 0.739 -1.52 4.266
 0.765 -1.52 4.264
 0.792 -1.522 4.265
 0.818 -1.523 4.264
 0.843 -1.523 4.257
 0.87 -1.524 4.257
 0.898 -1.527 4.26
 0.924 -1.528 4.258
 0.951 -1.53 4.259
 0.979 -1.534 4.264
 1.007 -1.536 4.263
 1.034 -1.538 4.263
 1.061 -1.539 4.261
 1.088 -1.541 4.259
 1.114 -1.541 4.253
 1.141 -1.542 4.25
 1.169 -1.544 4.25
 1.196 -1.546 4.248
 1.223 -1.547 4.244
 1.251 -1.55 4.245
 1.28 -1.553 4.247
 1.306 -1.553 4.239
 1.333 -1.554 4.233
 1.361 -1.556 4.231
 1.387 -1.556 4.224
 1.414 -1.556 4.216
 1.442 -1.559 4.215
 1.471 -1.561 4.213
 1.5 -1.564 4.213
 1.528 -1.566 4.209
 1.557 -1.568 4.205
 1.585 -1.57 4.202
 1.616 -1.574 4.203
 1.644 -1.576 4.198
 1.673 -1.578 4.196
 1.702 -1.58 4.191
 1.729 -1.581 4.182
 1.754 -1.579 4.168
 1.777 -1.576 4.149
 1.798 -1.571 4.125
 1.817 -1.565 4.099
 1.831 -1.555 4.061
 1.845 -1.544 4.023
 1.857 -1.533 3.982
 1.867 -1.52 3.937
 1.876 -1.507 3.891
 1.887 -1.496 3.852
 1.893 -1.481 3.802
 0 0 0
 0 0 0
 0 0 0
 0 0 0
 0 0 0
 1.737 -1.26 3.172
 1.757 -1.259 3.158
 1.768 -1.252 3.131
 1.778 -1.244 3.1
 1.784 -1.234 3.063
 1.78 -1.217 3.011
 1.787 -1.209 2.979
 1.782 -1.192 2.926
 -2.421 -1.608 4.128
 -2.35 -1.579 4.068
 -1.69 -1.149 2.966
 -1.576 -1.085 2.809
 -1.558 -1.085 2.819
 -1.537 -1.084 2.825
 -1.518 -1.084 2.833
 -1.501 -1.085 2.845
 -1.483 -1.087 2.857
 -1.549 -1.149 3.031
 -1.527 -1.148 3.036
 -1.588 -1.21 3.21
 -1.563 -1.207 3.212
 -1.703 -1.333 3.558
 -1.679 -1.333 3.566
 -1.734 -1.395 3.744
 -1.785 -1.457 3.921
 -1.839 -1.523 4.11
 -1.811 -1.522 4.115
 -1.856 -1.583 4.292
 -1.827 -1.582 4.298
 -1.797 -1.58 4.303
 -1.765 -1.576 4.303
 -1.735 -1.574 4.306
 -1.707 -1.573 4.313
 -1.679 -1.573 4.322
 -1.65 -1.572 4.327
 -1.621 -1.57 4.332
 -1.591 -1.568 4.334
 -1.561 -1.566 4.336
 -1.53 -1.562 4.332
 -1.501 -1.56 4.335
 -1.47 -1.556 4.332
 -1.441 -1.554 4.336
 -1.412 -1.552 4.336
 -1.383 -1.55 4.338
 -1.354 -1.548 4.338
 -1.325 -1.545 4.338
 -1.295 -1.542 4.336
 -1.266 -1.539 4.334
 -1.237 -1.537 4.334
 -1.208 -1.534 4.332
 -1.18 -1.532 4.332
 -1.151 -1.53 4.331
 -1.123 -1.528 4.331
 -1.095 -1.526 4.332
 -1.069 -1.526 4.337
 -1.041 -1.524 4.338
 -1.013 -1.523 4.337
 -0.986 -1.522 4.341
 -0.959 -1.52 4.34
 -0.93 -1.517 4.336
 -0.902 -1.515 4.334
 -0.875 -1.514 4.335
 -0.847 -1.511 4.33
 -0.82 -1.509 4.329
 -0.793 -1.507 4.327
 -0.766 -1.505 4.326
 -0.739 -1.504 4.324
 -0.712 -1.503 4.326
 -0.685 -1.501 4.323
 -0.658 -1.5 4.322
 -0.632 -1.498 4.32
 -0.605 -1.497 4.32
 -0.578 -1.495 4.317
 -0.552 -1.495 4.318
 -0.525 -1.492 4.313
 -0.499 -1.492 4.315
 -0.473 -1.492 4.316
 -0.448 -1.492 4.319
 -0.421 -1.491 4.318
 -0.395 -1.49 4.318
 -0.369 -1.489 4.315
 -0.343 -1.487 4.311
 -0.317 -1.486 4.309
 -0.291 -1.486 4.311
 -0.265 -1.486 4.31
 -0.239 -1.485 4.311
 -0.214 -1.485 4.31
 -0.188 -1.485 4.311
 -0.162 -1.483 4.306
 -0.136 -1.484 4.308
 -0.111 -1.483 4.305
 -0.085 -1.482 4.304
 -0.059 -1.48 4.297
 -0.033 -1.479 4.296
 -0.008 -1.479 4.293
 0.017 -1.479 4.295
 0.042 -1.48 4.295
 0.068 -1.481 4.297
 0.094 -1.481 4.297
 0.119 -1.48 4.295
 0.145 -1.479 4.291
 0.17 -1.479 4.288
 0.196 -1.48 4.291
 0.222 -1.481 4.291
 0.247 -1.481 4.29
 0.273 -1.482 4.292
 0.299 -1.482 4.29
 0.324 -1.48 4.283
 0.35 -1.481 4.282
 0.376 -1.483 4.287
 0.401 -1.483 4.286
 0.428 -1.485 4.289
 0.454 -1.486 4.289
 0.479 -1.487 4.287
 0.505 -1.486 4.282
 0.53 -1.486 4.279
 0.555 -1.485 4.273
 0.582 -1.487 4.275
 0.608 -1.487 4.274
 0.634 -1.488 4.272
 0.66 -1.489 4.271
 0.686 -1.49 4.272
 0.712 -1.492 4.272
 0.739 -1.493 4.271
 0.765 -1.494 4.271
 0.792 -1.496 4.272
 0.818 -1.498 4.272
 0.844 -1.497 4.266
 0.87 -1.498 4.265
 0.898 -1.501 4.267
 0.924 -1.502 4.264
 0.951 -1.503 4.263
 0.979 -1.506 4.267
 1.005 -1.508 4.265
 1.032 -1.509 4.264
 1.059 -1.511 4.263
 1.086 -1.512 4.26
 1.113 -1.513 4.256
 1.141 -1.515 4.256
 1.168 -1.517 4.256
 1.195 -1.519 4.254
 1.223 -1.521 4.253
 1.251 -1.524 4.253
 1.279 -1.526 4.252
 1.306 -1.526 4.246
 1.334 -1.528 4.243
 1.362 -1.53 4.24
 1.388 -1.53 4.234
 1.415 -1.531 4.227
 1.443 -1.533 4.225
 1.472 -1.535 4.224
 1.501 -1.538 4.223
 1.53 -1.541 4.221
 1.559 -1.543 4.219
 1.587 -1.545 4.215
 1.617 -1.548 4.215
 1.647 -1.552 4.214
 1.676 -1.554 4.211
 1.705 -1.556 4.207
 1.733 -1.557 4.199
 1.759 -1.556 4.187
 1.782 -1.554 4.17
 1.803 -1.549 4.146
 1.822 -1.543 4.119
 1.838 -1.534 4.085
 1.852 -1.524 4.047
 1.863 -1.512 4.003
 1.876 -1.501 3.965
 1.886 -1.489 3.921
 1.898 -1.479 3.882
 0 0 0
 0 0 0
 0 0 0
 0 0 0
 0 0 0
 0 0 0
 1.739 -1.24 3.182
 1.758 -1.238 3.167
 1.77 -1.232 3.142
 1.779 -1.224 3.11
 1.786 -1.214 3.074
 1.783 -1.199 3.024
 1.75 -1.163 2.923
 1.779 -1.169 2.927
 -2.393 -1.561 4.091
 -0.044 -0.03 0.064
 -1.248 -0.834 2.192
 -1.141 -0.772 2.035
 -1.128 -0.773 2.043
 -1.109 -0.769 2.04
 -1.094 -0.768 2.043
 -1.081 -0.769 2.051
 -1.067 -0.768 2.056
 -1.137 -0.83 2.227
 -1.12 -0.828 2.23
 -1.271 -0.952 2.573
 -1.25 -0.949 2.571
 -1.476 -1.135 3.088
 -1.535 -1.197 3.266
 -1.671 -1.322 3.616
 -1.723 -1.382 3.792
 -1.854 -1.509 4.153
 -1.825 -1.507 4.156
 -1.87 -1.568 4.335
 -1.839 -1.565 4.338
 -1.809 -1.563 4.342
 -1.776 -1.559 4.34
 -1.745 -1.556 4.341
 -1.715 -1.554 4.344
 -1.686 -1.552 4.35
 -1.656 -1.55 4.352
 -1.626 -1.548 4.354
 -1.595 -1.545 4.354
 -1.564 -1.541 4.353
 -1.533 -1.538 4.35
 -1.503 -1.535 4.351
 -1.472 -1.531 4.348
 -1.444 -1.53 4.352
 -1.414 -1.527 4.351
 -1.385 -1.525 4.351
 -1.356 -1.523 4.352
 -1.326 -1.52 4.351
 -1.296 -1.517 4.348
 -1.267 -1.514 4.346
 -1.238 -1.511 4.346
 -1.208 -1.508 4.341
 -1.18 -1.506 4.342
 -1.151 -1.503 4.338
 -1.122 -1.5 4.337
 -1.094 -1.498 4.337
 -1.068 -1.498 4.342
 -1.04 -1.497 4.342
 -1.013 -1.496 4.344
 -0.986 -1.495 4.347
 -0.958 -1.493 4.346
 -0.93 -1.49 4.342
 -0.902 -1.488 4.339
 -0.874 -1.486 4.338
 -0.846 -1.482 4.331
 -0.819 -1.48 4.33
 -0.791 -1.478 4.327
 -0.764 -1.476 4.325
 -0.737 -1.475 4.325
 -0.711 -1.475 4.328
 -0.684 -1.473 4.325
 -0.657 -1.471 4.323
 -0.631 -1.47 4.322
 -0.604 -1.468 4.319
 -0.577 -1.467 4.318
 -0.551 -1.467 4.32
 -0.525 -1.464 4.316
 -0.499 -1.464 4.317
 -0.473 -1.464 4.32
 -0.447 -1.464 4.322
 -0.42 -1.462 4.316
 -0.394 -1.462 4.317
 -0.368 -1.46 4.314
 -0.342 -1.459 4.311
 -0.316 -1.458 4.31
 -0.291 -1.459 4.314
 -0.265 -1.459 4.315
 -0.239 -1.459 4.316
 -0.213 -1.459 4.316
 -0.188 -1.459 4.318
 -0.162 -1.458 4.315
 -0.136 -1.458 4.315
 -0.11 -1.456 4.31
 -0.085 -1.456 4.309
 -0.059 -1.453 4.301
 -0.033 -1.452 4.297
 -0.008 -1.451 4.296
 0.017 -1.453 4.299
 0.042 -1.452 4.297
 0.068 -1.453 4.298
 0.094 -1.453 4.3
 0.119 -1.454 4.299
 0.145 -1.452 4.294
 0.17 -1.452 4.292
 0.196 -1.453 4.294
 0.222 -1.453 4.292
 0.247 -1.453 4.29
 0.273 -1.454 4.294
 0.298 -1.454 4.29
 0.324 -1.453 4.285
 0.349 -1.453 4.284
 0.375 -1.456 4.289
 0.401 -1.455 4.286
 0.427 -1.457 4.289
 0.453 -1.457 4.287
 0.478 -1.457 4.282
 0.503 -1.456 4.277
 0.529 -1.456 4.275
 0.555 -1.456 4.272
 0.581 -1.458 4.274
 0.607 -1.46 4.276
 0.633 -1.46 4.273
 0.659 -1.461 4.273
 0.685 -1.462 4.272
 0.712 -1.464 4.275
 0.738 -1.465 4.274
 0.764 -1.467 4.274
 0.791 -1.468 4.274
 0.817 -1.47 4.274
 0.843 -1.469 4.268
 0.87 -1.471 4.268
 0.897 -1.473 4.269
 0.923 -1.474 4.267
 0.95 -1.476 4.267
 0.978 -1.479 4.271
 1.005 -1.48 4.27
 1.032 -1.482 4.269
 1.059 -1.484 4.27
 1.086 -1.485 4.265
 1.112 -1.486 4.261
 1.14 -1.488 4.262
 1.168 -1.49 4.262
 1.195 -1.492 4.26
 1.223 -1.495 4.261
 1.251 -1.497 4.26
 1.279 -1.498 4.257
 1.305 -1.499 4.252
 1.333 -1.5 4.248
 1.36 -1.502 4.245
 1.387 -1.502 4.238
 1.414 -1.503 4.233
 1.443 -1.506 4.232
 1.471 -1.508 4.23
 1.5 -1.511 4.228
 1.529 -1.513 4.227
 1.558 -1.516 4.226
 1.587 -1.518 4.224
 1.618 -1.523 4.226
 1.648 -1.525 4.224
 1.677 -1.528 4.222
 1.706 -1.53 4.216
 1.732 -1.53 4.207
 1.758 -1.529 4.194
 1.783 -1.528 4.181
 1.804 -1.523 4.156
 1.824 -1.518 4.132
 1.842 -1.51 4.101
 1.858 -1.502 4.067
 1.87 -1.491 4.026
 1.887 -1.484 3.996
 1.898 -1.473 3.955
 0 0 0
 0 0 0
 0 0 0
 0 0 0
 0 0 0
 0 0 0
 0 0 0
 1.257 -0.882 2.303
 1.474 -1.021 2.661
 1.663 -1.138 2.957
 1.779 -1.203 3.116
 1.786 -1.194 3.082
 1.784 -1.178 3.031
 1.791 -1.17 2.998
 1.745 -1.127 2.878
 -0.049 -0.033 0.072
 -0.037 -0.026 0.053
 -0.805 -0.529 1.413
 -0.702 -0.467 1.25
 -0.689 -0.464 1.245
 -0.673 -0.459 1.236
 -0.662 -0.458 1.235
 -0.654 -0.457 1.237
 -0.645 -0.457 1.241
 -0.721 -0.517 1.411
 -0.793 -0.576 1.579
 -0.948 -0.698 1.92
 -0.93 -0.693 1.913
 -1.158 -0.876 2.427
 -1.303 -0.998 2.776
 -1.442 -1.12 3.125
 -1.576 -1.242 3.475
 -1.788 -1.429 4.011
 -1.835 -1.488 4.189
 -1.879 -1.547 4.364
 -1.847 -1.544 4.366
 -1.816 -1.541 4.367
 -1.781 -1.535 4.361
 -1.749 -1.531 4.359
 -1.718 -1.529 4.361
 -1.687 -1.526 4.361
 -1.656 -1.522 4.36
 -1.625 -1.52 4.361
 -1.594 -1.516 4.36
 -1.564 -1.514 4.362
 -1.534 -1.512 4.363
 -1.505 -1.51 4.365
 -1.474 -1.506 4.361
 -1.445 -1.504 4.364
 -1.414 -1.5 4.361
 -1.384 -1.497 4.359
 -1.355 -1.495 4.359
 -1.326 -1.493 4.358
 -1.296 -1.49 4.357
 -1.267 -1.487 4.354
 -1.238 -1.484 4.353
 -1.208 -1.481 4.349
 -1.179 -1.478 4.346
 -1.149 -1.474 4.341
 -1.121 -1.472 4.339
 -1.093 -1.47 4.339
 -1.066 -1.469 4.341
 -1.038 -1.468 4.344
 -1.011 -1.467 4.346
 -0.984 -1.467 4.349
 -0.956 -1.464 4.347
 -0.929 -1.463 4.347
 -0.901 -1.46 4.344
 -0.874 -1.459 4.343
 -0.845 -1.455 4.337
 -0.818 -1.453 4.335
 -0.79 -1.45 4.33
 -0.763 -1.448 4.327
 -0.737 -1.448 4.328
 -0.71 -1.447 4.329
 -0.683 -1.446 4.329
 -0.657 -1.445 4.329
 -0.63 -1.443 4.326
 -0.603 -1.441 4.324
 -0.577 -1.44 4.324
 -0.551 -1.439 4.323
 -0.524 -1.437 4.318
 -0.498 -1.437 4.319
 -0.472 -1.437 4.321
 -0.446 -1.436 4.322
 -0.42 -1.435 4.32
 -0.394 -1.435 4.321
 -0.368 -1.433 4.318
 -0.342 -1.431 4.313
 -0.316 -1.43 4.311
 -0.29 -1.43 4.312
 -0.264 -1.43 4.313
 -0.239 -1.43 4.314
 -0.213 -1.43 4.313
 -0.187 -1.429 4.313
 -0.161 -1.429 4.311
 -0.136 -1.429 4.312
 -0.11 -1.427 4.308
 -0.084 -1.427 4.308
 -0.059 -1.426 4.305
 -0.033 -1.424 4.298
 -0.007 -1.423 4.294
 0.017 -1.424 4.296
 0.043 -1.423 4.294
 0.068 -1.424 4.295
 0.094 -1.425 4.299
 0.119 -1.427 4.303
 0.145 -1.425 4.297
 0.17 -1.425 4.296
 0.196 -1.426 4.296
 0.221 -1.426 4.295
 0.247 -1.424 4.287
 0.272 -1.425 4.289
 0.298 -1.425 4.286
 0.323 -1.423 4.28
 0.348 -1.423 4.278
 0.374 -1.425 4.282
 0.4 -1.426 4.281
 0.426 -1.428 4.285
 0.452 -1.428 4.285
 0.477 -1.428 4.28
 0.503 -1.429 4.28
 0.529 -1.429 4.28
 0.555 -1.43 4.278
 0.58 -1.431 4.277
 0.607 -1.433 4.279
 0.632 -1.432 4.275
 0.658 -1.433 4.273
 0.684 -1.434 4.272
 0.711 -1.436 4.274
 0.737 -1.437 4.273
 0.763 -1.438 4.274
 0.79 -1.44 4.275
 0.816 -1.441 4.274
 0.842 -1.442 4.272
 0.869 -1.444 4.273
 0.896 -1.447 4.275
 0.923 -1.447 4.273
 0.949 -1.449 4.271
 0.977 -1.451 4.272
 1.003 -1.452 4.27
 1.03 -1.453 4.268
 1.057 -1.455 4.266
 1.084 -1.456 4.264
 1.111 -1.457 4.263
 1.139 -1.461 4.266
 1.167 -1.462 4.265
 1.195 -1.465 4.265
 1.222 -1.467 4.265
 1.25 -1.469 4.263
 1.277 -1.469 4.257
 1.304 -1.471 4.255
 1.332 -1.472 4.252
 1.36 -1.475 4.251
 1.387 -1.475 4.245
 1.415 -1.477 4.242
 1.442 -1.479 4.239
 1.471 -1.481 4.236
 1.5 -1.483 4.235
 1.528 -1.486 4.233
 1.557 -1.488 4.231
 1.586 -1.49 4.228
 1.616 -1.494 4.228
 1.645 -1.496 4.226
 1.675 -1.499 4.225
 1.704 -1.501 4.22
 1.731 -1.501 4.211
 1.757 -1.501 4.2
 1.783 -1.5 4.187
 1.804 -1.496 4.164
 1.825 -1.492 4.143
 1.845 -1.486 4.117
 1.865 -1.481 4.091
 1.879 -1.472 4.055
 1.901 -1.469 4.035
 0 0 0
 0 0 0
 0 0 0
 0 0 0
 0 0 0
 0 0 0
 0.068 -0.051 0.122
 0.069 -0.051 0.122
 1.11 -0.765 2.037
 1.473 -1.002 2.665
 1.664 -1.118 2.965
 1.781 -1.183 3.126
 1.787 -1.173 3.091
 1.785 -1.158 3.04
 1.766 -1.133 2.963
 1.773 -1.125 2.931
 -0.052 -0.034 0.077
 -0.081 -0.053 0.13
 -0.356 -0.231 0.62
 -0.258 -0.17 0.453
 -0.247 -0.164 0.439
 -0.235 -0.158 0.424
 -0.227 -0.155 0.416
 -0.222 -0.154 0.413
 -0.215 -0.15 0.406
 -0.296 -0.209 0.573
 -0.46 -0.329 0.912
 -0.619 -0.448 1.252
 -0.604 -0.443 1.241
 -0.921 -0.684 1.93
 -1.148 -0.864 2.451
 -1.289 -0.984 2.799
 -1.504 -1.164 3.324
 -1.793 -1.408 4.033
 -1.84 -1.466 4.209
 -1.883 -1.523 4.384
 -1.851 -1.519 4.384
 -1.819 -1.515 4.383
 -1.784 -1.51 4.377
 -1.751 -1.506 4.374
 -1.72 -1.503 4.374
 -1.688 -1.499 4.371
 -1.656 -1.495 4.371
 -1.625 -1.493 4.371
 -1.594 -1.489 4.37
 -1.564 -1.487 4.37
 -1.535 -1.485 4.372
 -1.504 -1.481 4.37
 -1.472 -1.477 4.365
 -1.443 -1.475 4.366
 -1.411 -1.471 4.36
 -1.381 -1.467 4.358
 -1.352 -1.465 4.357
 -1.323 -1.463 4.357
 -1.294 -1.46 4.357
 -1.264 -1.457 4.354
 -1.236 -1.456 4.356
 -1.207 -1.453 4.354
 -1.178 -1.45 4.352
 -1.148 -1.446 4.346
 -1.12 -1.444 4.345
 -1.091 -1.441 4.341
 -1.063 -1.439 4.34
 -1.037 -1.439 4.344
 -1.009 -1.437 4.344
 -0.982 -1.438 4.349
 -0.955 -1.436 4.348
 -0.927 -1.434 4.347
 -0.899 -1.432 4.344
 -0.872 -1.43 4.345
 -0.845 -1.428 4.341
 -0.817 -1.426 4.338
 -0.791 -1.425 4.34
 -0.764 -1.424 4.339
 -0.737 -1.423 4.34
 -0.71 -1.421 4.338
 -0.684 -1.421 4.341
 -0.656 -1.418 4.334
 -0.629 -1.416 4.33
 -0.603 -1.414 4.329
 -0.577 -1.414 4.329
 -0.55 -1.413 4.328
 -0.524 -1.41 4.323
 -0.498 -1.41 4.324
 -0.472 -1.41 4.326
 -0.446 -1.41 4.327
 -0.42 -1.408 4.325
 -0.393 -1.407 4.322
 -0.367 -1.405 4.318
 -0.341 -1.403 4.313
 -0.315 -1.402 4.311
 -0.289 -1.402 4.311
 -0.264 -1.403 4.315
 -0.238 -1.403 4.316
 -0.212 -1.402 4.314
 -0.187 -1.401 4.311
 -0.161 -1.4 4.308
 -0.135 -1.399 4.307
 -0.109 -1.397 4.301
 -0.084 -1.398 4.303
 -0.058 -1.398 4.304
 -0.033 -1.396 4.299
 -0.007 -1.396 4.297
 0.017 -1.398 4.304
 0.043 -1.397 4.301
 0.068 -1.398 4.301
 0.094 -1.4 4.307
 0.12 -1.402 4.313
 0.145 -1.4 4.304
 0.17 -1.4 4.303
 0.196 -1.399 4.3
 0.221 -1.399 4.299
 0.246 -1.396 4.288
 0.272 -1.397 4.29
 0.298 -1.397 4.288
 0.323 -1.396 4.283
 0.348 -1.395 4.278
 0.374 -1.398 4.285
 0.4 -1.399 4.286
 0.426 -1.401 4.288
 0.451 -1.401 4.286
 0.477 -1.401 4.283
 0.503 -1.402 4.283
 0.528 -1.402 4.282
 0.554 -1.403 4.282
 0.58 -1.404 4.281
 0.606 -1.406 4.283
 0.632 -1.406 4.28
 0.658 -1.407 4.28
 0.684 -1.408 4.279
 0.711 -1.41 4.283
 0.737 -1.411 4.281
 0.763 -1.412 4.281
 0.79 -1.414 4.282
 0.816 -1.416 4.282
 0.843 -1.417 4.28
 0.869 -1.418 4.28
 0.897 -1.42 4.282
 0.922 -1.42 4.277
 0.948 -1.421 4.273
 0.975 -1.422 4.272
 1.001 -1.423 4.269
 1.028 -1.424 4.265
 1.055 -1.425 4.265
 1.082 -1.427 4.263
 1.109 -1.429 4.264
 1.137 -1.432 4.266
 1.165 -1.434 4.266
 1.193 -1.437 4.267
 1.221 -1.438 4.265
 1.247 -1.439 4.261
 1.273 -1.439 4.253
 1.302 -1.442 4.255
 1.329 -1.443 4.251
 1.357 -1.445 4.25
 1.385 -1.447 4.247
 1.413 -1.449 4.246
 1.44 -1.45 4.24
 1.469 -1.453 4.239
 1.499 -1.456 4.24
 1.527 -1.458 4.238
 1.556 -1.46 4.236
 1.585 -1.463 4.234
 1.614 -1.465 4.232
 1.643 -1.467 4.227
 1.672 -1.47 4.226
 1.702 -1.472 4.223
 1.729 -1.473 4.214
 1.757 -1.474 4.208
 1.784 -1.474 4.198
 1.806 -1.471 4.177
 1.829 -1.468 4.16
 1.852 -1.465 4.14
 1.869 -1.458 4.109
 1.884 -1.449 4.073
 0 0 0
 0 0 0
 0 0 0
 0 0 0
 0 0 0
 0 0 0
 0.103 -0.076 0.193
 0.068 -0.051 0.122
 0.069 -0.051 0.122
 1.101 -0.745 2.025
 1.47 -0.982 2.664
 1.662 -1.097 2.969
 1.781 -1.162 3.134
 1.789 -1.153 3.1
 1.788 -1.14 3.052
 1.778 -1.121 2.99
 1.761 -1.097 2.917
 -0.099 -0.063 0.158
 -0.154 -0.097 0.256
 -0.088 -0.057 0.144
 -0.084 -0.055 0.139
 -0.075 -0.05 0.125
 -0.064 -0.044 0.107
 -0.057 -0.039 0.095
 -0.054 -0.038 0.09
 -0.046 -0.032 0.076
 -0.127 -0.089 0.239
 -0.291 -0.205 0.574
 -0.366 -0.26 0.736
 -0.437 -0.315 0.897
 -0.757 -0.552 1.589
 -1.067 -0.788 2.281
 -1.29 -0.966 2.807
 -1.585 -1.204 3.51
 -1.872 -1.442 4.219
 -1.917 -1.499 4.394
 -1.884 -1.495 4.394
 -1.851 -1.491 4.392
 -1.818 -1.487 4.39
 -1.783 -1.481 4.382
 -1.75 -1.477 4.381
 -1.719 -1.474 4.38
 -1.686 -1.469 4.375
 -1.654 -1.466 4.374
 -1.625 -1.464 4.377
 -1.594 -1.461 4.376
 -1.563 -1.458 4.376
 -1.533 -1.456 4.377
 -1.502 -1.452 4.373
 -1.47 -1.448 4.366
 -1.44 -1.445 4.365
 -1.409 -1.441 4.361
 -1.38 -1.439 4.362
 -1.351 -1.437 4.364
 -1.323 -1.436 4.366
 -1.294 -1.433 4.365
 -1.264 -1.43 4.361
 -1.235 -1.427 4.358
 -1.205 -1.424 4.356
 -1.176 -1.422 4.353
 -1.147 -1.419 4.349
 -1.119 -1.417 4.349
 -1.09 -1.414 4.346
 -1.062 -1.412 4.344
 -1.036 -1.411 4.348
 -1.008 -1.41 4.348
 -0.981 -1.41 4.352
 -0.954 -1.408 4.353
 -0.927 -1.407 4.353
 -0.899 -1.405 4.35
 -0.872 -1.404 4.351
 -0.844 -1.401 4.348
 -0.817 -1.399 4.344
 -0.79 -1.399 4.347
 -0.763 -1.397 4.346
 -0.737 -1.396 4.346
 -0.71 -1.395 4.344
 -0.684 -1.395 4.349
 -0.656 -1.392 4.342
 -0.629 -1.39 4.338
 -0.603 -1.389 4.338
 -0.577 -1.389 4.338
 -0.55 -1.387 4.335
 -0.523 -1.384 4.328
 -0.497 -1.383 4.326
 -0.471 -1.382 4.326
 -0.445 -1.381 4.324
 -0.419 -1.38 4.323
 -0.392 -1.378 4.318
 -0.366 -1.377 4.317
 -0.34 -1.375 4.312
 -0.314 -1.375 4.313
 -0.289 -1.374 4.312
 -0.263 -1.376 4.317
 -0.238 -1.375 4.316
 -0.212 -1.374 4.314
 -0.186 -1.373 4.312
 -0.16 -1.372 4.309
 -0.135 -1.372 4.308
 -0.109 -1.37 4.304
 -0.084 -1.371 4.305
 -0.058 -1.371 4.305
 -0.033 -1.369 4.301
 -0.007 -1.369 4.298
 0.017 -1.371 4.306
 0.043 -1.371 4.304
 0.068 -1.371 4.304
 0.094 -1.373 4.311
 0.12 -1.376 4.318
 0.145 -1.373 4.307
 0.17 -1.373 4.306
 0.196 -1.372 4.302
 0.221 -1.373 4.303
 0.246 -1.369 4.29
 0.272 -1.37 4.291
 0.297 -1.37 4.288
 0.322 -1.369 4.284
 0.347 -1.367 4.277
 0.373 -1.369 4.281
 0.399 -1.371 4.284
 0.425 -1.373 4.288
 0.451 -1.373 4.285
 0.476 -1.373 4.283
 0.502 -1.375 4.285
 0.528 -1.375 4.285
 0.554 -1.376 4.284
 0.579 -1.376 4.281
 0.605 -1.377 4.281
 0.631 -1.377 4.277
 0.657 -1.378 4.277
 0.683 -1.379 4.276
 0.71 -1.383 4.283
 0.737 -1.385 4.286
 0.763 -1.386 4.287
 0.79 -1.388 4.289
 0.816 -1.389 4.288
 0.843 -1.39 4.286
 0.869 -1.391 4.285
 0.896 -1.394 4.287
 0.921 -1.393 4.279
 0.947 -1.392 4.272
 0.973 -1.393 4.268
 0.999 -1.394 4.266
 1.025 -1.394 4.261
 1.052 -1.396 4.262
 1.08 -1.398 4.263
 1.108 -1.401 4.267
 1.137 -1.405 4.27
 1.164 -1.406 4.268
 1.192 -1.409 4.269
 1.219 -1.41 4.268
 1.246 -1.411 4.263
 1.271 -1.41 4.253
 1.3 -1.413 4.256
 1.327 -1.415 4.253
 1.355 -1.416 4.25
 1.383 -1.418 4.248
 1.411 -1.421 4.247
 1.438 -1.421 4.24
 1.466 -1.423 4.238
 1.496 -1.426 4.239
 1.524 -1.428 4.237
 1.554 -1.431 4.237
 1.583 -1.434 4.235
 1.611 -1.435 4.231
 1.64 -1.438 4.228
 1.669 -1.44 4.226
 1.698 -1.442 4.222
 1.727 -1.444 4.217
 1.756 -1.446 4.214
 1.782 -1.446 4.203
 1.806 -1.443 4.185
 1.83 -1.442 4.17
 1.855 -1.441 4.155
 1.871 -1.433 4.121
 0 0 0
 0 0 0
 0 0 0
 0 0 0
 0 0 0
 0 0 0
 0 0 0
 0.103 -0.074 0.193
 0.068 -0.05 0.123
 0.069 -0.05 0.122
 1.007 -0.67 1.855
 1.442 -0.946 2.62
 1.654 -1.072 2.96
 1.779 -1.139 3.137
 1.787 -1.131 3.104
 1.79 -1.12 3.062
 1.772 -1.096 2.986
 1.765 -1.08 2.931
 -0.156 -0.096 0.257
 -0.12 -0.075 0.197
 -0.101 -0.064 0.167
 -0.095 -0.061 0.158
 -0.083 -0.054 0.139
 -0.071 -0.047 0.12
 -0.063 -0.042 0.106
 -0.056 -0.039 0.095
 -0.045 -0.032 0.075
 -0.126 -0.087 0.237
 -0.289 -0.2 0.571
 -0.364 -0.254 0.734
 -0.436 -0.308 0.896
 -0.756 -0.541 1.59
 -1.066 -0.773 2.284
 -1.289 -0.947 2.809
 -1.583 -1.18 3.512
 -1.869 -1.413 4.221
 -1.914 -1.468 4.396
 -1.881 -1.465 4.396
 -1.848 -1.461 4.395
 -1.816 -1.458 4.394
 -1.782 -1.453 4.388
 -1.749 -1.449 4.386
 -1.718 -1.446 4.386
 -1.684 -1.441 4.38
 -1.653 -1.438 4.38
 -1.623 -1.436 4.382
 -1.593 -1.433 4.381
 -1.562 -1.43 4.381
 -1.532 -1.428 4.381
 -1.5 -1.423 4.376
 -1.467 -1.418 4.367
 -1.437 -1.415 4.365
 -1.407 -1.412 4.362
 -1.378 -1.41 4.365
 -1.35 -1.409 4.367
 -1.322 -1.408 4.371
 -1.293 -1.406 4.37
 -1.263 -1.403 4.367
 -1.234 -1.4 4.364
 -1.205 -1.398 4.363
 -1.176 -1.395 4.36
 -1.147 -1.392 4.356
 -1.119 -1.39 4.356
 -1.09 -1.388 4.353
 -1.061 -1.384 4.348
 -1.035 -1.384 4.353
 -1.008 -1.383 4.354
 -0.981 -1.383 4.359
 -0.953 -1.381 4.357
 -0.926 -1.38 4.357
 -0.898 -1.377 4.354
 -0.872 -1.377 4.357
 -0.844 -1.375 4.353
 -0.816 -1.372 4.35
 -0.791 -1.373 4.356
 -0.763 -1.372 4.354
 -0.736 -1.37 4.352
 -0.71 -1.368 4.35
 -0.684 -1.369 4.356
 -0.656 -1.365 4.347
 -0.629 -1.364 4.344
 -0.603 -1.363 4.343
 -0.577 -1.363 4.345
 -0.55 -1.36 4.341
 -0.523 -1.357 4.331
 -0.496 -1.356 4.329
 -0.47 -1.355 4.329
 -0.444 -1.353 4.325
 -0.418 -1.353 4.327
 -0.391 -1.348 4.314
 -0.365 -1.348 4.313
 -0.339 -1.346 4.308
 -0.313 -1.345 4.306
 -0.288 -1.345 4.307
 -0.262 -1.346 4.312
 -0.237 -1.345 4.31
 -0.211 -1.344 4.308
 -0.186 -1.345 4.309
 -0.16 -1.343 4.304
 -0.134 -1.343 4.306
 -0.109 -1.343 4.304
 -0.083 -1.342 4.301
 -0.058 -1.342 4.301
 -0.032 -1.341 4.298
 -0.007 -1.339 4.291
 0.017 -1.34 4.294
 0.043 -1.341 4.296
 0.068 -1.341 4.297
 0.094 -1.345 4.309
 0.12 -1.35 4.323
 0.145 -1.347 4.311
 0.171 -1.347 4.312
 0.196 -1.346 4.307
 0.222 -1.347 4.309
 0.246 -1.343 4.294
 0.272 -1.342 4.291
 0.297 -1.343 4.291
 0.322 -1.341 4.284
 0.347 -1.339 4.276
 0.372 -1.339 4.273
 0.398 -1.342 4.281
 0.424 -1.344 4.285
 0.45 -1.344 4.283
 0.475 -1.344 4.278
 0.502 -1.347 4.286
 0.528 -1.348 4.287
 0.553 -1.349 4.285
 0.579 -1.349 4.284
 0.605 -1.35 4.283
 0.63 -1.35 4.279
 0.656 -1.351 4.279
 0.682 -1.352 4.28
 0.71 -1.356 4.287
 0.737 -1.359 4.292
 0.763 -1.36 4.292
 0.79 -1.361 4.292
 0.815 -1.361 4.288
 0.841 -1.362 4.286
 0.868 -1.363 4.284
 0.895 -1.366 4.288
 0.92 -1.365 4.281
 0.945 -1.364 4.271
 0.971 -1.364 4.267
 0.998 -1.366 4.269
 1.024 -1.367 4.265
 1.051 -1.369 4.265
 1.08 -1.372 4.269
 1.108 -1.375 4.272
 1.135 -1.376 4.271
 1.162 -1.378 4.269
 1.19 -1.38 4.269
 1.217 -1.381 4.266
 1.244 -1.382 4.262
 1.27 -1.382 4.255
 1.298 -1.385 4.257
 1.326 -1.387 4.255
 1.354 -1.389 4.253
 1.382 -1.391 4.253
 1.411 -1.394 4.254
 1.438 -1.394 4.247
 1.466 -1.396 4.244
 1.495 -1.399 4.244
 1.523 -1.4 4.239
 1.551 -1.402 4.237
 1.58 -1.405 4.235
 1.608 -1.406 4.23
 1.637 -1.409 4.229
 1.667 -1.411 4.227
 1.696 -1.413 4.223
 1.725 -1.415 4.219
 1.753 -1.417 4.214
 1.78 -1.417 4.204
 1.804 -1.415 4.189
 1.83 -1.415 4.177
 1.854 -1.413 4.16
 0 0 0
 0 0 0
 0 0 0
 0 0 0
 0 0 0
 0 0 0
 0 0 0
 0 0 0
 0.103 -0.073 0.193
 0.068 -0.049 0.123
 0.069 -0.049 0.123
 0.886 -0.579 1.635
 1.408 -0.907 2.562
 1.643 -1.045 2.946
 1.777 -1.117 3.139
 1.786 -1.109 3.107
 1.791 -1.1 3.069
 1.777 -1.079 3
 1.748 -1.05 2.908
 -0.106 -0.065 0.172
 -0.103 -0.064 0.169
 -0.101 -0.063 0.167
 -0.092 -0.058 0.155
 -0.079 -0.051 0.133
 -0.069 -0.045 0.116
 -0.061 -0.041 0.103
 -0.054 -0.037 0.092
 -0.042 -0.029 0.07
 -0.123 -0.083 0.231
 -0.285 -0.193 0.564
 -0.276 -0.19 0.554
 -0.434 -0.301 0.893
 -0.755 -0.53 1.59
 -1.064 -0.757 2.284
 -1.287 -0.928 2.812
 -1.66 -1.214 3.691
 -1.867 -1.385 4.224
 -1.911 -1.438 4.399
 -1.879 -1.435 4.4
 -1.846 -1.431 4.398
 -1.814 -1.428 4.398
 -1.78 -1.423 4.392
 -1.747 -1.42 4.39
 -1.716 -1.416 4.389
 -1.682 -1.412 4.383
 -1.651 -1.408 4.382
 -1.621 -1.407 4.384
 -1.591 -1.404 4.384
 -1.56 -1.401 4.384
 -1.53 -1.398 4.383
 -1.499 -1.395 4.38
 -1.467 -1.391 4.373
 -1.436 -1.387 4.37
 -1.406 -1.384 4.368
 -1.378 -1.383 4.372
 -1.349 -1.381 4.373
 -1.321 -1.381 4.376
 -1.292 -1.378 4.375
 -1.262 -1.374 4.369
 -1.232 -1.371 4.365
 -1.204 -1.369 4.365
 -1.174 -1.366 4.362
 -1.146 -1.364 4.359
 -1.118 -1.363 4.361
 -1.09 -1.361 4.361
 -1.06 -1.357 4.352
 -1.034 -1.357 4.358
 -1.007 -1.356 4.358
 -0.98 -1.356 4.363
 -0.952 -1.353 4.36
 -0.925 -1.353 4.362
 -0.898 -1.351 4.359
 -0.872 -1.351 4.366
 -0.845 -1.35 4.366
 -0.817 -1.348 4.361
 -0.792 -1.349 4.37
 -0.765 -1.349 4.371
 -0.738 -1.346 4.366
 -0.71 -1.343 4.36
 -0.686 -1.347 4.377
 -0.657 -1.342 4.363
 -0.63 -1.34 4.357
 -0.604 -1.341 4.362
 -0.578 -1.341 4.366
 -0.55 -1.335 4.349
 -0.522 -1.33 4.335
 -0.496 -1.329 4.333
 -0.469 -1.327 4.329
 -0.443 -1.324 4.32
 -0.419 -1.329 4.34
 -0.389 -1.318 4.303
 -0.364 -1.319 4.308
 -0.338 -1.317 4.303
 -0.313 -1.317 4.304
 -0.287 -1.316 4.302
 -0.262 -1.318 4.311
 -0.236 -1.317 4.308
 -0.211 -1.317 4.307
 -0.185 -1.316 4.307
 -0.159 -1.315 4.303
 -0.134 -1.316 4.305
 -0.109 -1.315 4.303
 -0.083 -1.314 4.301
 -0.058 -1.315 4.303
 -0.032 -1.314 4.3
 -0.007 -1.311 4.288
 0.018 -1.311 4.29
 0.043 -1.311 4.289
 0.068 -1.311 4.29
 0.094 -1.317 4.305
 0.12 -1.324 4.331
 0.145 -1.32 4.315
 0.171 -1.32 4.314
 0.196 -1.318 4.305
 0.222 -1.321 4.315
 0.246 -1.315 4.292
 0.271 -1.312 4.283
 0.296 -1.314 4.285
 0.321 -1.311 4.276
 0.345 -1.306 4.256
 0.37 -1.307 4.256
 0.397 -1.311 4.269
 0.423 -1.314 4.276
 0.449 -1.317 4.283
 0.475 -1.319 4.286
 0.503 -1.323 4.299
 0.529 -1.327 4.306
 0.555 -1.326 4.302
 0.58 -1.324 4.293
 0.605 -1.324 4.29
 0.629 -1.322 4.28
 0.654 -1.321 4.273
 0.682 -1.326 4.283
 0.709 -1.328 4.286
 0.735 -1.33 4.289
 0.762 -1.331 4.289
 0.79 -1.335 4.299
 0.814 -1.333 4.286
 0.842 -1.337 4.294
 0.869 -1.34 4.299
 0.898 -1.345 4.31
 0.922 -1.341 4.292
 0.944 -1.336 4.273
 0.969 -1.336 4.266
 0.996 -1.338 4.266
 1.022 -1.338 4.262
 1.049 -1.339 4.261
 1.078 -1.343 4.267
 1.106 -1.346 4.272
 1.133 -1.348 4.27
 1.16 -1.35 4.269
 1.188 -1.351 4.268
 1.214 -1.352 4.264
 1.242 -1.353 4.262
 1.268 -1.354 4.256
 1.297 -1.357 4.26
 1.325 -1.36 4.259
 1.353 -1.362 4.259
 1.381 -1.363 4.256
 1.411 -1.367 4.259
 1.437 -1.367 4.25
 1.465 -1.369 4.248
 1.494 -1.371 4.247
 1.522 -1.372 4.243
 1.549 -1.374 4.238
 1.578 -1.376 4.236
 1.605 -1.377 4.23
 1.635 -1.379 4.229
 1.663 -1.381 4.226
 1.693 -1.384 4.223
 1.722 -1.386 4.22
 1.751 -1.388 4.216
 1.778 -1.388 4.206
 1.805 -1.389 4.199
 1.833 -1.39 4.191
 1.86 -1.39 4.18
 0 0 0
 0 0 0
 0 0 0
 0 0 0
 0 0 0
 0 0 0
 0 0 0
 0 0 0
 0 0 0
 0 0 0
 0 0 0
 0 0 0
 1.745 -1.102 3.184
 1.765 -1.101 3.173
 1.777 -1.096 3.146
 1.786 -1.088 3.113
 1.792 -1.08 3.078
 1.805 -1.075 3.054
 1.778 -1.047 2.963
 -0.155 -0.092 0.257
 -0.121 -0.073 0.201
 -0.101 -0.062 0.169
 -0.091 -0.057 0.153
 -0.08 -0.05 0.135
 -0.071 -0.045 0.119
 -0.062 -0.04 0.105
 -0.054 -0.036 0.091
 -0.04 -0.027 0.066
 -0.119 -0.079 0.225
 -0.282 -0.187 0.558
 -0.272 -0.183 0.548
 -0.515 -0.35 1.066
 -0.919 -0.632 1.942
 -1.227 -0.855 2.64
 -1.446 -1.022 3.167
 -1.816 -1.302 4.047
 -1.941 -1.412 4.401
 -1.907 -1.407 4.398
 -1.875 -1.404 4.398
 -1.843 -1.401 4.398
 -1.811 -1.398 4.399
 -1.779 -1.395 4.397
 -1.746 -1.391 4.395
 -1.715 -1.388 4.395
 -1.682 -1.384 4.391
 -1.65 -1.381 4.388
 -1.621 -1.379 4.391
 -1.59 -1.376 4.391
 -1.559 -1.373 4.389
 -1.527 -1.369 4.384
 -1.497 -1.366 4.383
 -1.464 -1.361 4.374
 -1.434 -1.358 4.37
 -1.404 -1.356 4.37
 -1.377 -1.355 4.376
 -1.348 -1.354 4.377
 -1.321 -1.354 4.384
 -1.293 -1.352 4.384
 -1.262 -1.348 4.377
 -1.232 -1.344 4.372
 -1.203 -1.342 4.371
 -1.175 -1.34 4.371
 -1.147 -1.339 4.373
 -1.121 -1.34 4.38
 -1.093 -1.338 4.38
 -1.063 -1.334 4.372
 -1.036 -1.333 4.373
 -1.007 -1.331 4.369
 -0.981 -1.33 4.371
 -0.952 -1.326 4.364
 -0.923 -1.323 4.357
 -0.765 -1.129 3.72
 -0.743 -1.129 3.724
 -0.721 -1.13 3.728
 -0.698 -1.129 3.729
 -0.68 -1.136 3.755
 -0.77 -1.33 4.404
 0 0 0
 0 0 0
 0 0 0
 0 0 0
 0 0 0
 0 0 0
 0 0 0
 0 0 0
 0 0 0
 0 0 0
 0 0 0
 0 0 0
 0 0 0
 -0.385 -1.278 4.263
 -0.362 -1.287 4.296
 -0.337 -1.288 4.3
 -0.312 -1.289 4.302
 -0.287 -1.289 4.305
 -0.262 -1.292 4.315
 -0.236 -1.29 4.31
 -0.21 -1.29 4.309
 -0.185 -1.29 4.309
 -0.159 -1.288 4.305
 -0.134 -1.289 4.308
 -0.108 -1.289 4.307
 -0.083 -1.288 4.305
 -0.057 -1.288 4.304
 -0.032 -1.289 4.307
 -0.007 -1.286 4.298
 0.018 -1.286 4.295
 0 0 0
 0 0 0
 0 0 0
 0 0 0
 0 0 0
 0 0 0
 0 0 0
 0 0 0
 0 0 0
 0 0 0
 0 0 0
 0 0 0
 0 0 0
 0 0 0
 0 0 0
 0 0 0
 0 0 0
 0 0 0
 0 0 0
 0 0 0
 0 0 0
 0 0 0
 0 0 0
 0 0 0
 0 0 0
 0 0 0
 0 0 0
 0 0 0
 0 0 0
 0 0 0
 0 0 0
 0 0 0
 0 0 0
 0 0 0
 0 0 0
 0.939 -1.304 4.257
 0.966 -1.306 4.259
 0.994 -1.309 4.264
 1.021 -1.31 4.262
 1.048 -1.312 4.265
 1.077 -1.316 4.27
 1.105 -1.319 4.274
 1.132 -1.32 4.271
 1.16 -1.322 4.272
 1.186 -1.323 4.268
 1.213 -1.324 4.265
 1.24 -1.326 4.263
 1.267 -1.327 4.259
 1.295 -1.329 4.261
 1.324 -1.332 4.261
 1.352 -1.333 4.26
 1.379 -1.335 4.257
 1.408 -1.338 4.258
 1.434 -1.338 4.25
 1.462 -1.339 4.247
 1.49 -1.341 4.244
 1.518 -1.343 4.242
 1.546 -1.344 4.237
 1.575 -1.347 4.235
 1.603 -1.348 4.231
 1.633 -1.351 4.23
 1.661 -1.352 4.226
 1.69 -1.355 4.224
 1.72 -1.358 4.224
 1.75 -1.36 4.22
 1.777 -1.361 4.211
 1.805 -1.362 4.205
 1.832 -1.362 4.196
 1.858 -1.362 4.185
 0 0 0
 0 0 0
 0 0 0
 0 0 0
 0 0 0
 0 0 0
 0 0 0
 0 0 0
 0 0 0
 0 0 0
 0 0 0
 0 0 0
 1.742 -1.078 3.185
 1.763 -1.079 3.175
 1.774 -1.073 3.147
 1.783 -1.066 3.115
 1.792 -1.059 3.083
 1.788 -1.044 3.031
 1.793 -1.036 2.996
 -0.115 -0.067 0.187
 -0.119 -0.07 0.197
 -0.1 -0.06 0.166
 -0.09 -0.055 0.152
 -0.08 -0.049 0.134
 -0.07 -0.044 0.119
 -0.061 -0.039 0.104
 -0.053 -0.035 0.091
 -0.041 -0.027 0.068
 -0.118 -0.077 0.223
 -0.28 -0.182 0.555
 -0.355 -0.234 0.719
 -0.679 -0.452 1.412
 -1.079 -0.728 2.288
 -1.385 -0.946 2.988
 -1.602 -1.11 3.516
 -1.891 -1.328 4.222
 -1.938 -1.381 4.402
 -1.907 -1.379 4.405
 -1.875 -1.376 4.407
 -1.843 -1.374 4.407
 -1.811 -1.371 4.407
 -1.777 -1.366 4.401
 -1.743 -1.361 4.395
 -1.711 -1.357 4.392
 -1.678 -1.354 4.389
 -1.647 -1.351 4.387
 -1.618 -1.349 4.391
 -1.587 -1.347 4.391
 -1.557 -1.344 4.39
 -1.525 -1.34 4.384
 -1.494 -1.337 4.383
 -1.462 -1.332 4.375
 -1.431 -1.329 4.37
 -1.401 -1.326 4.369
 -1.375 -1.327 4.377
 -1.347 -1.325 4.38
 -1.32 -1.326 4.389
 -1.293 -1.326 4.393
 -1.264 -1.323 4.392
 -1.229 -1.314 4.368
 -1.2 -1.312 4.367
 -1.17 -1.309 4.361
 0 0 0
 0 0 0
 0 0 0
 0 0 0
 0 0 0
 0 0 0
 0 0 0
 0 0 0
 0 0 0
 0 0 0
 0 0 0
 0 0 0
 0 0 0
 0 0 0
 0 0 0
 0 0 0
 0 0 0
 0 0 0
 0 0 0
 0 0 0
 0 0 0
 0 0 0
 0 0 0
 0 0 0
 0 0 0
 0 0 0
 0 0 0
 0 0 0
 -0.385 -1.253 4.269
 -0.362 -1.261 4.3
 -0.337 -1.262 4.304
 -0.311 -1.262 4.304
 -0.286 -1.263 4.307
 -0.261 -1.265 4.316
 -0.235 -1.264 4.312
 -0.21 -1.263 4.311
 -0.185 -1.263 4.313
 -0.159 -1.263 4.311
 -0.134 -1.263 4.312
 -0.108 -1.263 4.311
 -0.083 -1.263 4.311
 -0.057 -1.262 4.311
 -0.032 -1.263 4.312
 -0.007 -1.261 4.306
 0.018 -1.261 4.305
 0 0 0
 0 0 0
 0 0 0
 0 0 0
 0 0 0
 0 0 0
 0 0 0
 0 0 0
 0 0 0
 0 0 0
 0 0 0
 0 0 0
 0 0 0
 0 0 0
 0 0 0
 0 0 0
 0 0 0
 0 0 0
 0 0 0
 0 0 0
 0 0 0
 0 0 0
 0 0 0
 0 0 0
 0 0 0
 0 0 0
 0 0 0
 0 0 0
 0 0 0
 0 0 0
 0 0 0
 0 0 0
 0 0 0
 0 0 0
 0 0 0
 0.94 -1.279 4.268
 0.966 -1.279 4.263
 0.994 -1.283 4.269
 1.021 -1.284 4.267
 1.047 -1.285 4.266
 1.076 -1.288 4.271
 1.104 -1.291 4.275
 1.13 -1.292 4.272
 1.158 -1.294 4.272
 1.185 -1.295 4.27
 1.211 -1.296 4.266
 1.239 -1.298 4.264
 1.266 -1.299 4.261
 1.293 -1.301 4.26
 1.321 -1.303 4.26
 1.349 -1.304 4.258
 1.377 -1.306 4.256
 1.405 -1.309 4.256
 1.432 -1.309 4.249
 1.459 -1.31 4.243
 1.486 -1.311 4.24
 1.514 -1.313 4.237
 1.543 -1.315 4.235
 1.572 -1.318 4.234
 1.6 -1.319 4.231
 1.63 -1.323 4.232
 1.659 -1.324 4.228
 1.687 -1.326 4.223
 1.717 -1.329 4.222
 1.746 -1.33 4.218
 1.772 -1.33 4.208
 1.8 -1.332 4.201
 1.827 -1.332 4.192
 1.851 -1.33 4.175
 0 0 0
 0 0 0
 0 0 0
 0 0 0
 0 0 0
 0 0 0
 0 0 0
 0 0 0
 0 0 0
 0 0 0
 0 0 0
 0 0 0
 1.747 -1.06 3.201
 1.765 -1.059 3.185
 1.775 -1.052 3.154
 1.784 -1.045 3.123
 1.792 -1.038 3.09
 1.784 -1.022 3.03
 1.765 -1 2.954
 -0.133 -0.076 0.22
 -0.124 -0.072 0.208
 -0.103 -0.06 0.172
 -0.091 -0.054 0.153
 -0.077 -0.047 0.129
 -0.066 -0.041 0.112
 -0.058 -0.036 0.097
 -0.048 -0.03 0.079
 -0.037 -0.024 0.06
 -0.115 -0.073 0.217
 -0.363 -0.231 0.726
 -0.522 -0.336 1.065
 -0.844 -0.55 1.761
 -1.241 -0.82 2.638
 -1.545 -1.034 3.342
 -1.68 -1.14 3.695
 -1.885 -1.297 4.217
 -1.936 -1.352 4.405
 -1.905 -1.35 4.41
 -1.872 -1.346 4.408
 -1.839 -1.343 4.407
 -1.807 -1.34 4.405
 -1.772 -1.335 4.398
 -1.739 -1.33 4.392
 -1.707 -1.327 4.392
 -1.676 -1.325 4.391
 -1.645 -1.322 4.389
 -1.616 -1.32 4.393
 -1.585 -1.318 4.394
 -1.554 -1.315 4.391
 -1.522 -1.311 4.385
 -1.493 -1.309 4.386
 -1.462 -1.305 4.381
 -1.43 -1.301 4.374
 -1.401 -1.299 4.376
 -1.374 -1.299 4.381
 -1.344 -1.296 4.377
 -1.314 -1.293 4.376
 0 0 0
 0 0 0
 0 0 0
 0 0 0
 0 0 0
 0 0 0
 0 0 0
 0 0 0
 0 0 0
 0 0 0
 0 0 0
 0 0 0
 0 0 0
 0 0 0
 0 0 0
 0 0 0
 0 0 0
 0 0 0
 0 0 0
 0 0 0
 0 0 0
 0 0 0
 0 0 0
 0 0 0
 0 0 0
 0 0 0
 0 0 0
 0 0 0
 0 0 0
 0 0 0
 0 0 0
 0 0 0
 0 0 0
 -0.384 -1.226 4.27
 -0.361 -1.234 4.298
 -0.336 -1.235 4.304
 -0.311 -1.235 4.305
 -0.286 -1.235 4.307
 -0.261 -1.237 4.313
 -0.235 -1.236 4.312
 -0.209 -1.236 4.31
 -0.184 -1.236 4.311
 -0.159 -1.236 4.312
 -0.133 -1.236 4.313
 -0.108 -1.235 4.311
 -0.082 -1.236 4.312
 -0.057 -1.236 4.313
 -0.032 -1.236 4.312
 -0.006 -1.236 4.311
 0.018 -1.236 4.312
 0 0 0
 0 0 0
 0 0 0
 0 0 0
 0 0 0
 0 0 0
 0 0 0
 0 0 0
 0 0 0
 0 0 0
 0 0 0
 0 0 0
 0 0 0
 0 0 0
 0 0 0
 0 0 0
 0 0 0
 0 0 0
 0 0 0
 0 0 0
 0 0 0
 0 0 0
 0 0 0
 0 0 0
 0 0 0
 0 0 0
 0 0 0
 0 0 0
 0 0 0
 0 0 0
 0 0 0
 0 0 0
 0 0 0
 0 0 0
 0 0 0
 0.944 -1.257 4.288
 0.967 -1.255 4.275
 0.995 -1.257 4.277
 1.021 -1.258 4.274
 1.047 -1.259 4.271
 1.074 -1.261 4.272
 1.102 -1.263 4.275
 1.128 -1.264 4.271
 1.156 -1.266 4.27
 1.183 -1.267 4.269
 1.209 -1.268 4.265
 1.236 -1.269 4.262
 1.264 -1.271 4.263
 1.292 -1.274 4.263
 1.321 -1.276 4.264
 1.348 -1.278 4.262
 1.376 -1.279 4.261
 1.404 -1.281 4.259
 1.431 -1.282 4.254
 1.458 -1.283 4.248
 1.485 -1.284 4.244
 1.513 -1.286 4.24
 1.542 -1.288 4.239
 1.57 -1.289 4.235
 1.598 -1.291 4.232
 1.628 -1.294 4.231
 1.656 -1.295 4.227
 1.683 -1.296 4.221
 1.713 -1.299 4.22
 1.742 -1.301 4.215
 1.769 -1.301 4.207
 1.797 -1.302 4.201
 1.825 -1.304 4.194
 1.851 -1.303 4.182
 0 0 0
 0 0 0
 0 0 0
 0 0 0
 0 0 0
 0 0 0
 0 0 0
 0 0 0
 0 0 0
 0 0 0
 0 0 0
 0 0 0
 1.74 -1.034 3.192
 1.762 -1.035 3.184
 1.776 -1.032 3.162
 1.785 -1.025 3.131
 1.793 -1.018 3.098
 1.77 -0.993 3.013
 1.787 -0.991 2.996
 -0.123 -0.069 0.202
 -0.129 -0.073 0.217
 -0.097 -0.056 0.162
 -0.084 -0.049 0.141
 -0.071 -0.042 0.118
 -0.06 -0.036 0.1
 -0.054 -0.033 0.09
 -0.044 -0.028 0.072
 -0.123 -0.076 0.229
 -0.286 -0.177 0.561
 -0.619 -0.385 1.249
 -0.858 -0.54 1.764
 -1.177 -0.751 2.465
 -1.488 -0.962 3.17
 -1.706 -1.118 3.698
 -1.758 -1.169 3.875
 -1.881 -1.268 4.216
 -1.934 -1.323 4.409
 -1.905 -1.322 4.418
 -1.872 -1.318 4.415
 -1.839 -1.315 4.413
 -1.805 -1.311 4.409
 -1.769 -1.305 4.398
 -1.734 -1.299 4.388
 -1.703 -1.297 4.387
 -1.672 -1.294 4.388
 -1.641 -1.291 4.387
 -1.613 -1.29 4.392
 -1.583 -1.288 4.393
 -1.552 -1.286 4.391
 -1.52 -1.281 4.385
 -1.49 -1.279 4.385
 -1.459 -1.276 4.382
 -1.429 -1.273 4.379
 -1.4 -1.272 4.38
 -1.373 -1.271 4.386
 -1.345 -1.27 4.388
 -1.316 -1.269 4.39
 0 0 0
 0 0 0
 0 0 0
 0 0 0
 0 0 0
 0 0 0
 0 0 0
 0 0 0
 0 0 0
 0 0 0
 0 0 0
 0 0 0
 0 0 0
 0 0 0
 0 0 0
 0 0 0
 0 0 0
 0 0 0
 0 0 0
 0 0 0
 0 0 0
 0 0 0
 0 0 0
 0 0 0
 -0.184 -0.362 1.271
 -0.18 -0.369 1.297
 -0.173 -0.369 1.298
 -0.165 -0.37 1.302
 -0.158 -0.372 1.31
 0 0 0
 0 0 0
 0 0 0
 0 0 0
 -0.384 -1.201 4.278
 -0.361 -1.208 4.303
 -0.336 -1.209 4.308
 -0.311 -1.21 4.311
 -0.285 -1.209 4.311
 -0.26 -1.21 4.316
 -0.235 -1.209 4.312
 -0.209 -1.209 4.312
 -0.184 -1.208 4.309
 -0.158 -1.208 4.311
 -0.133 -1.209 4.312
 -0.108 -1.208 4.311
 -0.082 -1.209 4.314
 -0.057 -1.21 4.317
 -0.032 -1.21 4.316
 -0.006 -1.211 4.319
 0.018 -1.214 4.329
 0 0 0
 0 0 0
 0 0 0
 0 0 0
 0 0 0
 0 0 0
 0 0 0
 0 0 0
 0 0 0
 0 0 0
 0 0 0
 0 0 0
 0 0 0
 0 0 0
 0 0 0
 0 0 0
 0 0 0
 0 0 0
 0 0 0
 0 0 0
 0 0 0
 0 0 0
 0 0 0
 0 0 0
 0 0 0
 0 0 0
 0 0 0
 0 0 0
 0 0 0
 0 0 0
 0 0 0
 0 0 0
 0 0 0
 0 0 0
 0 0 0
 0.943 -1.231 4.292
