 0.606 -1.588 4.236
 0.632 -1.588 4.234
 0.658 -1.589 4.233
 0.683 -1.589 4.228
 0.709 -1.588 4.222
 0.734 -1.588 4.217
 0.761 -1.59 4.218
 0.786 -1.589 4.212
 0.812 -1.591 4.212
 0.839 -1.593 4.213
 0.866 -1.596 4.217
 0.893 -1.597 4.215
 0.92 -1.6 4.215
 0.945 -1.599 4.209
 0.972 -1.601 4.209
 0.998 -1.602 4.204
 1.025 -1.603 4.203
 1.051 -1.604 4.199
 1.077 -1.605 4.195
 1.104 -1.606 4.192
 1.131 -1.607 4.189
 1.157 -1.608 4.184
 1.184 -1.609 4.181
 1.211 -1.611 4.178
 1.238 -1.612 4.174
 1.265 -1.613 4.171
 1.293 -1.616 4.17
 1.319 -1.616 4.163
 1.346 -1.618 4.161
 1.373 -1.619 4.154
 1.399 -1.619 4.146
 1.423 -1.617 4.135
 1.452 -1.62 4.134
 1.479 -1.621 4.127
 1.507 -1.623 4.124
 1.533 -1.624 4.116
 1.561 -1.625 4.112
 1.586 -1.625 4.101
 1.612 -1.624 4.09
 1.636 -1.623 4.077
 1.662 -1.623 4.068
 1.689 -1.623 4.059
 1.715 -1.623 4.048
 1.74 -1.622 4.036
 1.766 -1.622 4.025
 1.787 -1.618 4.005
 1.805 -1.611 3.977
 1.819 -1.601 3.941
 1.829 -1.587 3.895
 1.831 -1.567 3.835
 1.834 -1.549 3.779
 1.835 -1.529 3.721
 1.841 -1.514 3.672
 1.847 -1.499 3.626
 1.858 -1.489 3.588
 1.873 -1.482 3.561
 1.844 -1.441 3.45
 1.747 -1.349 3.218
 1.745 -1.33 3.163
 1.76 -1.326 3.143
 1.769 -1.317 3.11
 1.774 -1.305 3.071
 1.774 -1.29 3.024
 1.77 -1.273 2.973
 1.752 -1.245 2.898
 1.781 -1.252 2.903
 -2.311 -1.615 3.911
 -2.266 -1.602 3.894
 -2.26 -1.617 3.943
 -2.234 -1.618 3.958
 -2.209 -1.619 3.973
 -2.18 -1.618 3.984
 -2.154 -1.618 3.997
 -2.123 -1.616 4.002
 -2.096 -1.616 4.014
 -2.069 -1.615 4.025
 -2.041 -1.615 4.036
 -2.011 -1.612 4.04
 -1.985 -1.613 4.053
 -1.959 -1.613 4.066
 -1.934 -1.615 4.082
 -1.907 -1.615 4.091
 -1.882 -1.617 4.106
 -1.857 -1.618 4.12
 -1.828 -1.617 4.127
 -1.799 -1.615 4.133
 -1.772 -1.614 4.141
 -1.743 -1.613 4.146
 -1.715 -1.611 4.152
 -1.688 -1.611 4.161
 -1.66 -1.61 4.168
 -1.634 -1.611 4.178
 -1.606 -1.61 4.184
 -1.579 -1.61 4.192
 -1.55 -1.607 4.194
 -1.522 -1.605 4.198
 -1.494 -1.604 4.203
 -1.467 -1.604 4.211
 -1.439 -1.602 4.213
 -1.412 -1.602 4.22
 -1.387 -1.604 4.231
 -1.36 -1.603 4.237
 -1.331 -1.6 4.237
 -1.304 -1.6 4.241
 -1.275 -1.597 4.241
 -1.247 -1.595 4.243
 -1.219 -1.593 4.243
 -1.192 -1.592 4.247
 -1.163 -1.589 4.245
 -1.137 -1.589 4.251
 -1.109 -1.587 4.251
 -1.081 -1.585 4.251
 -1.054 -1.584 4.253
 -1.028 -1.584 4.257
 -1.002 -1.584 4.263
 -0.974 -1.58 4.258
 -0.947 -1.58 4.262
 -0.921 -1.58 4.267
 -0.894 -1.579 4.269
 -0.868 -1.579 4.274
 -0.844 -1.582 4.285
 -0.818 -1.582 4.29
 -0.791 -1.58 4.288
 -0.765 -1.581 4.293
 -0.738 -1.579 4.293
 -0.711 -1.577 4.289
 -0.684 -1.576 4.291
 -0.658 -1.576 4.292
 -0.632 -1.576 4.295
 -0.605 -1.574 4.293
 -0.579 -1.572 4.292
 -0.552 -1.571 4.291
 -0.526 -1.571 4.292
 -0.5 -1.569 4.289
 -0.473 -1.568 4.289
 -0.448 -1.568 4.291
 -0.421 -1.566 4.287
 -0.395 -1.565 4.287
 -0.369 -1.565 4.288
 -0.343 -1.563 4.283
 -0.317 -1.562 4.283
 -0.292 -1.563 4.287
 -0.266 -1.562 4.285
 -0.24 -1.562 4.285
 -0.214 -1.563 4.288
 -0.188 -1.561 4.283
 -0.162 -1.56 4.283
 -0.137 -1.559 4.28
 -0.111 -1.558 4.278
 -0.085 -1.558 4.276
 -0.06 -1.56 4.282
 -0.034 -1.559 4.278
 -0.008 -1.56 4.282
 0.016 -1.56 4.281
 0.042 -1.561 4.283
 0.068 -1.56 4.282
 0.093 -1.562 4.284
 0.119 -1.561 4.283
 0.145 -1.561 4.281
 0.17 -1.561 4.279
 0.196 -1.56 4.276
 0.221 -1.559 4.272
 0.247 -1.559 4.269
 0.273 -1.559 4.268
 0.298 -1.56 4.269
 0.324 -1.56 4.267
 0.35 -1.561 4.267
 0.375 -1.561 4.265
 0.401 -1.562 4.267
 0.427 -1.563 4.265
 0.453 -1.562 4.262
 0.479 -1.564 4.266
 0.505 -1.564 4.262
 0.53 -1.565 4.261
 0.556 -1.566 4.261
 0.583 -1.568 4.264
 0.608 -1.568 4.26
 0.634 -1.568 4.257
 0.66 -1.568 4.253
 0.685 -1.568 4.248
 0.711 -1.568 4.244
 0.737 -1.568 4.241
 0.764 -1.57 4.243
 0.79 -1.571 4.241
 0.816 -1.573 4.24
 0.843 -1.575 4.241
 0.87 -1.576 4.24
 0.896 -1.577 4.238
 0.923 -1.579 4.238
 0.949 -1.579 4.234
 0.976 -1.581 4.233
 1.003 -1.583 4.231
 1.03 -1.585 4.232
 1.056 -1.585 4.226
 1.083 -1.586 4.224
 1.11 -1.588 4.222
 1.137 -1.59 4.22
 1.164 -1.59 4.216
 1.192 -1.593 4.217
 1.219 -1.595 4.214
 1.245 -1.595 4.207
 1.273 -1.597 4.206
 1.3 -1.599 4.202
 1.326 -1.599 4.195
 1.354 -1.601 4.193
 1.381 -1.602 4.188
 1.408 -1.603 4.182
 1.435 -1.604 4.178
 1.464 -1.607 4.176
 1.491 -1.608 4.171
 1.519 -1.61 4.168
 1.546 -1.611 4.16
 1.573 -1.611 4.152
 1.599 -1.611 4.143
 1.625 -1.611 4.133
 1.652 -1.611 4.124
 1.678 -1.611 4.114
 1.705 -1.612 4.106
 1.731 -1.612 4.095
 1.756 -1.61 4.082
 1.779 -1.608 4.065
 1.799 -1.603 4.041
 1.815 -1.594 4.009
 1.828 -1.583 3.969
 1.836 -1.568 3.92
 1.839 -1.548 3.861
 1.843 -1.531 3.807
 1.846 -1.513 3.75
 1.851 -1.497 3.7
 1.857 -1.483 3.654
 1.872 -1.476 3.625
 1.891 -1.472 3.604
 0 0 0
 1.716 -1.303 3.167
 1.737 -1.303 3.158
 1.756 -1.301 3.142
 1.765 -1.292 3.11
 1.772 -1.283 3.076
 1.772 -1.267 3.028
 1.768 -1.25 2.977
 1.768 -1.236 2.932
 1.779 -1.23 2.907
 -2.338 -1.607 3.968
 -2.314 -1.609 3.986
 -2.291 -1.612 4.007
 -2.267 -1.614 4.025
 -2.239 -1.614 4.038
 -2.21 -1.613 4.047
 -2.184 -1.614 4.063
 -2.152 -1.611 4.067
 -2.123 -1.609 4.076
 -2.096 -1.609 4.088
 -2.068 -1.609 4.099
 -2.036 -1.605 4.1
 -2.01 -1.606 4.115
 -1.985 -1.608 4.13
 -1.96 -1.609 4.145
 -1.932 -1.609 4.154
 -1.905 -1.61 4.167
 -1.88 -1.611 4.181
 -1.851 -1.61 4.189
 -1.822 -1.608 4.195
 -1.795 -1.608 4.205
 -1.766 -1.607 4.211
 -1.737 -1.605 4.214
 -1.709 -1.604 4.222
 -1.68 -1.603 4.228
 -1.652 -1.602 4.234
 -1.623 -1.6 4.239
 -1.596 -1.6 4.246
 -1.566 -1.597 4.248
 -1.539 -1.596 4.254
 -1.51 -1.595 4.258
 -1.483 -1.595 4.266
 -1.453 -1.592 4.265
 -1.426 -1.591 4.271
 -1.399 -1.591 4.278
 -1.371 -1.59 4.283
 -1.343 -1.588 4.284
 -1.315 -1.586 4.286
 -1.285 -1.583 4.284
 -1.256 -1.58 4.283
 -1.228 -1.578 4.283
 -1.2 -1.576 4.284
 -1.171 -1.573 4.282
 -1.144 -1.573 4.287
 -1.116 -1.571 4.286
 -1.088 -1.568 4.285
 -1.061 -1.567 4.287
 -1.034 -1.566 4.291
 -1.007 -1.565 4.292
 -0.979 -1.563 4.29
 -0.952 -1.562 4.293
 -0.925 -1.562 4.296
 -0.899 -1.561 4.299
 -0.873 -1.561 4.304
 -0.847 -1.563 4.312
 -0.821 -1.562 4.314
 -0.793 -1.56 4.313
 -0.767 -1.56 4.315
 -0.74 -1.558 4.315
 -0.713 -1.556 4.313
 -0.686 -1.555 4.313
 -0.659 -1.554 4.312
 -0.633 -1.552 4.31
 -0.606 -1.551 4.309
 -0.58 -1.55 4.309
 -0.553 -1.548 4.307
 -0.527 -1.548 4.308
 -0.501 -1.547 4.309
 -0.475 -1.546 4.308
 -0.448 -1.545 4.306
 -0.422 -1.543 4.303
 -0.396 -1.542 4.302
 -0.37 -1.541 4.301
 -0.343 -1.539 4.297
 -0.317 -1.539 4.298
 -0.292 -1.539 4.3
 -0.266 -1.539 4.299
 -0.24 -1.539 4.3
 -0.214 -1.539 4.302
 -0.188 -1.536 4.294
 -0.162 -1.536 4.294
 -0.137 -1.535 4.293
 -0.111 -1.533 4.287
 -0.085 -1.533 4.286
 -0.06 -1.535 4.293
 -0.034 -1.535 4.293
 -0.008 -1.535 4.293
 0.017 -1.536 4.294
 0.042 -1.536 4.295
 0.068 -1.536 4.293
 0.094 -1.537 4.294
 0.119 -1.536 4.292
 0.145 -1.535 4.289
 0.171 -1.536 4.289
 0.196 -1.536 4.288
 0.222 -1.534 4.282
 0.247 -1.534 4.28
 0.273 -1.535 4.282
 0.299 -1.535 4.28
 0.324 -1.536 4.279
 0.35 -1.536 4.279
 0.376 -1.537 4.278
 0.402 -1.539 4.282
 0.428 -1.539 4.279
 0.453 -1.538 4.275
 0.48 -1.54 4.278
 0.505 -1.541 4.276
 0.531 -1.54 4.271
 0.557 -1.541 4.271
 0.583 -1.543 4.272
 0.609 -1.542 4.268
 0.634 -1.542 4.265
 0.661 -1.543 4.264
 0.687 -1.544 4.263
 0.713 -1.545 4.26
 0.739 -1.545 4.258
 0.765 -1.547 4.258
 0.791 -1.548 4.255
 0.817 -1.548 4.252
 0.844 -1.55 4.254
 0.871 -1.552 4.253
 0.898 -1.554 4.253
 0.925 -1.556 4.253
 0.951 -1.557 4.251
 0.978 -1.559 4.251
 1.006 -1.561 4.251
 1.033 -1.562 4.25
 1.059 -1.563 4.245
 1.085 -1.564 4.242
 1.112 -1.565 4.238
 1.139 -1.565 4.234
 1.165 -1.567 4.23
 1.194 -1.569 4.232
 1.221 -1.572 4.23
 1.248 -1.573 4.227
 1.276 -1.575 4.225
 1.304 -1.577 4.222
 1.33 -1.577 4.216
 1.358 -1.579 4.213
 1.386 -1.581 4.212
 1.414 -1.583 4.209
 1.443 -1.586 4.208
 1.471 -1.588 4.206
 1.5 -1.591 4.205
 1.529 -1.593 4.202
 1.556 -1.594 4.196
 1.583 -1.595 4.188
 1.612 -1.597 4.185
 1.639 -1.597 4.176
 1.665 -1.597 4.166
 1.692 -1.598 4.158
 1.719 -1.598 4.149
 1.744 -1.598 4.137
 1.768 -1.595 4.12
 1.791 -1.592 4.1
 1.807 -1.583 4.068
 1.822 -1.573 4.032
 1.831 -1.559 3.985
 1.841 -1.545 3.938
 1.844 -1.527 3.88
 1.85 -1.511 3.829
 1.85 -1.491 3.767
 1.854 -1.475 3.715
 1.855 -1.457 3.657
 1.864 -1.445 3.617
 0 0 0
 0 0 0
 1.712 -1.279 3.169
 1.733 -1.279 3.158
 1.755 -1.28 3.149
 1.764 -1.271 3.117
 1.771 -1.261 3.082
 1.773 -1.248 3.038
 1.771 -1.232 2.988
 1.754 -1.207 2.917
 1.751 -1.191 2.867
 -2.361 -1.595 4.016
 -2.361 -1.614 4.077
 -2.04 -1.411 3.576
 -2.017 -1.413 3.59
 -1.902 -1.348 3.437
 -1.876 -1.346 3.442
 -1.942 -1.411 3.62
 -1.825 -1.343 3.456
 -1.801 -1.342 3.464
 -1.864 -1.407 3.642
 -1.84 -1.407 3.653
 -1.727 -1.339 3.484
 -1.786 -1.403 3.663
 -1.845 -1.469 3.846
 -1.739 -1.405 3.686
 -1.794 -1.469 3.866
 -1.849 -1.536 4.053
 -1.824 -1.537 4.066
 -1.797 -1.536 4.074
 -1.843 -1.6 4.253
 -1.816 -1.6 4.264
 -1.785 -1.597 4.265
 -1.755 -1.594 4.268
 -1.726 -1.593 4.273
 -1.698 -1.592 4.281
 -1.667 -1.589 4.282
 -1.639 -1.588 4.288
 -1.611 -1.588 4.296
 -1.581 -1.585 4.297
 -1.553 -1.584 4.302
 -1.523 -1.582 4.304
 -1.495 -1.581 4.309
 -1.464 -1.577 4.306
 -1.437 -1.576 4.312
 -1.408 -1.575 4.315
 -1.379 -1.573 4.317
 -1.351 -1.571 4.318
 -1.322 -1.569 4.32
 -1.291 -1.564 4.313
 -1.263 -1.562 4.314
 -1.235 -1.561 4.318
 -1.206 -1.558 4.315
 -1.177 -1.555 4.313
 -1.15 -1.555 4.319
 -1.121 -1.551 4.314
 -1.092 -1.548 4.309
 -1.065 -1.547 4.312
 -1.037 -1.545 4.314
 -1.01 -1.543 4.313
 -0.982 -1.542 4.313
 -0.955 -1.541 4.315
 -0.928 -1.54 4.317
 -0.901 -1.539 4.319
 -0.875 -1.538 4.322
 -0.848 -1.538 4.326
 -0.821 -1.537 4.327
 -0.794 -1.535 4.324
 -0.767 -1.533 4.322
 -0.739 -1.531 4.32
 -0.712 -1.529 4.318
 -0.686 -1.528 4.317
 -0.659 -1.526 4.316
 -0.632 -1.526 4.317
 -0.606 -1.524 4.314
 -0.579 -1.522 4.313
 -0.553 -1.522 4.314
 -0.527 -1.521 4.314
 -0.501 -1.521 4.317
 -0.475 -1.521 4.318
 -0.449 -1.521 4.321
 -0.422 -1.519 4.316
 -0.396 -1.518 4.316
 -0.37 -1.516 4.311
 -0.344 -1.515 4.309
 -0.317 -1.513 4.306
 -0.292 -1.514 4.308
 -0.266 -1.513 4.308
 -0.24 -1.513 4.308
 -0.214 -1.512 4.305
 -0.188 -1.509 4.299
 -0.162 -1.509 4.298
 -0.136 -1.507 4.294
 -0.11 -1.505 4.289
 -0.085 -1.506 4.291
 -0.059 -1.509 4.298
 -0.034 -1.509 4.3
 -0.008 -1.51 4.301
 0.017 -1.51 4.303
 0.042 -1.51 4.302
 0.068 -1.51 4.299
 0.094 -1.51 4.3
 0.119 -1.51 4.298
 0.145 -1.509 4.294
 0.171 -1.509 4.294
 0.196 -1.509 4.292
 0.222 -1.508 4.287
 0.247 -1.507 4.283
 0.273 -1.508 4.285
 0.299 -1.508 4.285
 0.324 -1.509 4.284
 0.35 -1.509 4.283
 0.376 -1.51 4.284
 0.402 -1.512 4.286
 0.427 -1.511 4.282
 0.453 -1.511 4.279
 0.479 -1.513 4.281
 0.505 -1.514 4.281
 0.531 -1.513 4.277
 0.557 -1.515 4.277
 0.583 -1.516 4.277
 0.609 -1.516 4.274
 0.635 -1.516 4.272
 0.661 -1.517 4.27
 0.687 -1.518 4.271
 0.713 -1.518 4.267
 0.739 -1.519 4.265
 0.765 -1.52 4.263
 0.791 -1.522 4.263
 0.817 -1.522 4.26
 0.844 -1.524 4.262
 0.871 -1.526 4.261
 0.898 -1.529 4.264
 0.925 -1.53 4.264
 0.952 -1.532 4.263
 0.979 -1.534 4.263
 1.007 -1.537 4.266
 1.033 -1.537 4.26
 1.06 -1.537 4.256
 1.086 -1.539 4.253
 1.113 -1.54 4.25
 1.139 -1.54 4.244
 1.167 -1.542 4.244
 1.195 -1.544 4.243
 1.222 -1.547 4.242
 1.249 -1.547 4.236
 1.277 -1.549 4.236
 1.305 -1.551 4.234
 1.332 -1.553 4.23
 1.36 -1.554 4.227
 1.389 -1.558 4.228
 1.417 -1.56 4.226
 1.446 -1.563 4.225
 1.474 -1.565 4.223
 1.503 -1.567 4.221
 1.532 -1.57 4.218
 1.559 -1.571 4.213
 1.586 -1.571 4.205
 1.616 -1.575 4.205
 1.644 -1.576 4.198
 1.671 -1.576 4.19
 1.7 -1.578 4.185
 1.727 -1.579 4.177
 1.752 -1.578 4.164
 1.776 -1.575 4.147
 1.797 -1.571 4.124
 1.813 -1.562 4.089
 1.827 -1.551 4.051
 1.836 -1.537 4.004
 1.845 -1.523 3.957
 1.852 -1.508 3.906
 1.86 -1.494 3.858
 1.855 -1.47 3.786
 1.858 -1.454 3.732
 1.855 -1.432 3.666
 0 0 0
 0 0 0
 0 0 0
 0 0 0
 1.745 -1.266 3.186
 1.764 -1.264 3.171
 1.771 -1.254 3.136
 1.778 -1.244 3.1
 1.781 -1.232 3.058
 1.775 -1.214 3.003
 1.744 -1.18 2.906
 1.733 -1.159 2.845
 -2.378 -1.579 4.056
 -2.367 -1.59 4.097
 -1.599 -1.088 2.807
 -1.58 -1.088 2.815
 -1.47 -1.024 2.66
 -1.443 -1.018 2.652
 -1.517 -1.084 2.832
 -1.407 -1.018 2.667
 -1.388 -1.017 2.672
 -1.456 -1.08 2.848
 -1.438 -1.081 2.858
 -1.413 -1.077 2.855
 -1.559 -1.204 3.203
 -1.702 -1.333 3.556
 -1.679 -1.333 3.565
 -1.813 -1.46 3.917
 -1.868 -1.525 4.104
 -1.842 -1.525 4.115
 -1.814 -1.524 4.122
 -1.86 -1.586 4.3
 -1.832 -1.586 4.31
 -1.8 -1.583 4.312
 -1.77 -1.581 4.315
 -1.74 -1.578 4.318
 -1.71 -1.577 4.323
 -1.679 -1.574 4.323
 -1.65 -1.572 4.327
 -1.621 -1.57 4.332
 -1.591 -1.568 4.335
 -1.563 -1.567 4.339
 -1.532 -1.564 4.34
 -1.503 -1.562 4.342
 -1.471 -1.557 4.336
 -1.443 -1.556 4.34
 -1.413 -1.553 4.339
 -1.384 -1.551 4.34
 -1.354 -1.548 4.34
 -1.325 -1.545 4.338
 -1.293 -1.54 4.329
 -1.264 -1.537 4.328
 -1.236 -1.535 4.329
 -1.207 -1.532 4.326
 -1.179 -1.531 4.329
 -1.152 -1.53 4.333
 -1.123 -1.527 4.329
 -1.094 -1.524 4.325
 -1.066 -1.522 4.325
 -1.037 -1.519 4.323
 -1.01 -1.518 4.323
 -0.982 -1.516 4.323
 -0.955 -1.514 4.324
 -0.928 -1.513 4.325
 -0.902 -1.513 4.329
 -0.875 -1.512 4.331
 -0.848 -1.512 4.333
 -0.821 -1.511 4.334
 -0.793 -1.508 4.329
 -0.765 -1.505 4.324
 -0.738 -1.503 4.322
 -0.712 -1.502 4.322
 -0.685 -1.5 4.319
 -0.658 -1.499 4.321
 -0.632 -1.499 4.323
 -0.605 -1.497 4.32
 -0.579 -1.495 4.318
 -0.552 -1.495 4.319
 -0.526 -1.494 4.32
 -0.5 -1.494 4.322
 -0.474 -1.494 4.323
 -0.448 -1.494 4.325
 -0.422 -1.493 4.323
 -0.396 -1.492 4.324
 -0.37 -1.491 4.321
 -0.344 -1.491 4.322
 -0.318 -1.489 4.318
 -0.291 -1.488 4.316
 -0.265 -1.487 4.314
 -0.24 -1.486 4.312
 -0.214 -1.485 4.309
 -0.188 -1.483 4.305
 -0.162 -1.483 4.305
 -0.136 -1.482 4.302
 -0.11 -1.48 4.297
 -0.085 -1.481 4.3
 -0.059 -1.482 4.302
 -0.033 -1.482 4.304
 -0.008 -1.483 4.306
 0.017 -1.483 4.306
 0.042 -1.482 4.303
 0.068 -1.482 4.303
 0.094 -1.483 4.303
 0.119 -1.483 4.303
 0.145 -1.482 4.3
 0.171 -1.483 4.299
 0.196 -1.482 4.296
 0.222 -1.48 4.289
 0.247 -1.479 4.286
 0.273 -1.48 4.287
 0.299 -1.481 4.288
 0.324 -1.483 4.29
 0.35 -1.483 4.29
 0.376 -1.484 4.289
 0.402 -1.485 4.289
 0.427 -1.484 4.284
 0.453 -1.483 4.281
 0.479 -1.485 4.282
 0.505 -1.486 4.283
 0.53 -1.486 4.28
 0.557 -1.487 4.281
 0.583 -1.489 4.281
 0.608 -1.489 4.278
 0.634 -1.49 4.278
 0.66 -1.49 4.276
 0.687 -1.492 4.276
 0.712 -1.492 4.272
 0.739 -1.494 4.274
 0.765 -1.494 4.271
 0.792 -1.496 4.271
 0.818 -1.497 4.269
 0.844 -1.498 4.269
 0.871 -1.499 4.266
 0.898 -1.502 4.27
 0.925 -1.503 4.268
 0.951 -1.504 4.265
 0.978 -1.506 4.266
 1.005 -1.508 4.265
 1.031 -1.508 4.26
 1.058 -1.509 4.258
 1.085 -1.511 4.256
 1.113 -1.513 4.258
 1.14 -1.514 4.254
 1.168 -1.517 4.254
 1.195 -1.518 4.252
 1.223 -1.521 4.252
 1.249 -1.521 4.244
 1.277 -1.523 4.243
 1.305 -1.525 4.242
 1.332 -1.526 4.239
 1.36 -1.528 4.236
 1.389 -1.531 4.237
 1.418 -1.534 4.237
 1.446 -1.536 4.233
 1.474 -1.538 4.231
 1.503 -1.54 4.229
 1.531 -1.542 4.224
 1.558 -1.543 4.218
 1.587 -1.545 4.214
 1.617 -1.549 4.215
 1.645 -1.55 4.21
 1.674 -1.552 4.206
 1.703 -1.554 4.201
 1.73 -1.555 4.194
 1.757 -1.555 4.182
 1.78 -1.552 4.165
 1.8 -1.546 4.138
 1.814 -1.536 4.101
 1.829 -1.527 4.065
 1.838 -1.513 4.017
 1.848 -1.499 3.97
 1.856 -1.485 3.922
 1.87 -1.477 3.889
 1.876 -1.461 3.836
 0 0 0
 0 0 0
 0 0 0
 0 0 0
 0 0 0
 0 0 0
 1.739 -1.24 3.183
 1.76 -1.24 3.171
 1.769 -1.232 3.14
 1.778 -1.223 3.107
 1.782 -1.212 3.068
 1.777 -1.195 3.013
 1.771 -1.177 2.958
 1.767 -1.161 2.907
 -0.031 -0.022 0.04
 -2.377 -1.569 4.125
 -1.16 -0.776 2.037
 -1.145 -0.775 2.043
 -1.041 -0.713 1.883
 -1.019 -0.706 1.872
 -1.094 -0.768 2.043
 -0.987 -0.702 1.871
 -0.971 -0.7 1.871
 -1.131 -0.825 2.214
 -1.114 -0.823 2.217
 -1.096 -0.821 2.216
 -1.245 -0.945 2.561
 -1.474 -1.134 3.086
 -1.452 -1.133 3.09
 -1.67 -1.321 3.615
 -1.802 -1.446 3.968
 -1.852 -1.508 4.148
 -1.823 -1.505 4.152
 -1.87 -1.567 4.333
 -1.841 -1.566 4.342
 -1.81 -1.564 4.345
 -1.78 -1.562 4.35
 -1.75 -1.56 4.353
 -1.719 -1.557 4.355
 -1.688 -1.554 4.355
 -1.658 -1.552 4.356
 -1.628 -1.549 4.358
 -1.597 -1.546 4.359
 -1.568 -1.545 4.364
 -1.538 -1.542 4.363
 -1.508 -1.54 4.364
 -1.475 -1.534 4.355
 -1.445 -1.531 4.355
 -1.414 -1.527 4.351
 -1.384 -1.524 4.35
 -1.355 -1.522 4.35
 -1.327 -1.521 4.354
 -1.296 -1.517 4.348
 -1.267 -1.513 4.345
 -1.238 -1.511 4.344
 -1.208 -1.508 4.342
 -1.18 -1.506 4.341
 -1.152 -1.504 4.343
 -1.123 -1.502 4.341
 -1.095 -1.499 4.339
 -1.066 -1.496 4.336
 -1.038 -1.494 4.334
 -1.01 -1.492 4.334
 -0.983 -1.491 4.334
 -0.955 -1.488 4.332
 -0.928 -1.487 4.334
 -0.901 -1.487 4.336
 -0.874 -1.485 4.337
 -0.847 -1.485 4.338
 -0.82 -1.483 4.338
 -0.792 -1.48 4.332
 -0.765 -1.477 4.328
 -0.737 -1.475 4.325
 -0.711 -1.474 4.325
 -0.684 -1.472 4.322
 -0.658 -1.472 4.325
 -0.631 -1.471 4.326
 -0.604 -1.469 4.323
 -0.578 -1.467 4.32
 -0.551 -1.467 4.321
 -0.525 -1.466 4.32
 -0.499 -1.466 4.322
 -0.473 -1.466 4.324
 -0.448 -1.466 4.327
 -0.421 -1.465 4.325
 -0.395 -1.465 4.327
 -0.369 -1.464 4.326
 -0.343 -1.464 4.326
 -0.317 -1.462 4.322
 -0.291 -1.462 4.322
 -0.265 -1.46 4.317
 -0.239 -1.459 4.315
 -0.213 -1.457 4.312
 -0.187 -1.456 4.307
 -0.162 -1.455 4.306
 -0.136 -1.454 4.304
 -0.11 -1.453 4.301
 -0.085 -1.454 4.303
 -0.059 -1.454 4.304
 -0.033 -1.455 4.306
 -0.008 -1.455 4.307
 0.017 -1.456 4.308
 0.043 -1.455 4.306
 0.068 -1.456 4.307
 0.094 -1.456 4.307
 0.12 -1.456 4.307
 0.145 -1.455 4.303
 0.171 -1.455 4.3
 0.196 -1.454 4.298
 0.222 -1.453 4.294
 0.247 -1.453 4.291
 0.273 -1.454 4.292
 0.299 -1.455 4.293
 0.324 -1.455 4.291
 0.35 -1.455 4.291
 0.375 -1.455 4.289
 0.401 -1.456 4.287
 0.427 -1.456 4.284
 0.452 -1.456 4.283
 0.478 -1.457 4.283
 0.504 -1.458 4.285
 0.53 -1.459 4.284
 0.556 -1.461 4.286
 0.582 -1.462 4.286
 0.608 -1.462 4.283
 0.634 -1.463 4.283
 0.66 -1.464 4.282
 0.686 -1.464 4.279
 0.712 -1.465 4.277
 0.739 -1.467 4.279
 0.765 -1.467 4.275
 0.791 -1.469 4.276
 0.817 -1.47 4.273
 0.844 -1.471 4.272
 0.87 -1.471 4.269
 0.897 -1.474 4.271
 0.924 -1.475 4.27
 0.951 -1.477 4.271
 0.978 -1.479 4.271
 1.004 -1.48 4.268
 1.031 -1.481 4.265
 1.058 -1.482 4.263
 1.084 -1.482 4.258
 1.112 -1.485 4.26
 1.139 -1.487 4.259
 1.167 -1.489 4.258
 1.194 -1.49 4.255
 1.222 -1.493 4.256
 1.249 -1.494 4.251
 1.276 -1.495 4.249
 1.304 -1.498 4.248
 1.332 -1.5 4.247
 1.36 -1.502 4.245
 1.389 -1.504 4.243
 1.417 -1.507 4.242
 1.445 -1.508 4.239
 1.473 -1.51 4.235
 1.501 -1.512 4.232
 1.53 -1.514 4.229
 1.558 -1.515 4.225
 1.586 -1.518 4.221
 1.617 -1.522 4.224
 1.646 -1.523 4.219
 1.675 -1.526 4.215
 1.703 -1.528 4.211
 1.731 -1.529 4.204
 1.759 -1.529 4.196
 1.783 -1.527 4.179
 1.801 -1.52 4.15
 1.817 -1.511 4.115
 1.833 -1.503 4.081
 1.843 -1.49 4.035
 1.854 -1.478 3.991
 1.868 -1.469 3.956
 1.888 -1.465 3.934
 0 0 0
 0 0 0
 0 0 0
 0 0 0
 0 0 0
 0 0 0
 0 0 0
 1.503 -1.054 2.757
 1.767 -1.223 3.191
 1.774 -1.214 3.156
 1.78 -1.204 3.119
 1.786 -1.194 3.082
 1.779 -1.175 3.024
 1.792 -1.17 3
 1.766 -1.141 2.912
 -0.082 -0.054 0.129
 -0.014 -0.011 0.012
 -0.744 -0.489 1.305
 -0.708 -0.471 1.26
 -0.606 -0.409 1.095
 -0.588 -0.401 1.077
 -0.667 -0.461 1.243
 -0.565 -0.395 1.067
 -0.552 -0.391 1.06
 -0.713 -0.512 1.396
 -0.7 -0.509 1.391
 -0.686 -0.505 1.385
 -0.923 -0.689 1.9
 -1.239 -0.937 2.596
 -1.302 -0.997 2.774
 -1.602 -1.245 3.474
 -1.812 -1.428 3.998
 -1.861 -1.488 4.177
 -1.831 -1.485 4.179
 -1.876 -1.544 4.357
 -1.846 -1.543 4.363
 -1.815 -1.541 4.366
 -1.784 -1.538 4.368
 -1.754 -1.536 4.372
 -1.723 -1.533 4.374
 -1.692 -1.53 4.374
 -1.661 -1.527 4.374
 -1.63 -1.525 4.375
 -1.599 -1.521 4.374
 -1.57 -1.519 4.377
 -1.538 -1.515 4.373
 -1.508 -1.513 4.373
 -1.475 -1.507 4.365
 -1.445 -1.504 4.363
 -1.413 -1.499 4.356
 -1.383 -1.496 4.354
 -1.353 -1.493 4.353
 -1.325 -1.492 4.356
 -1.296 -1.489 4.355
 -1.266 -1.486 4.352
 -1.237 -1.484 4.351
 -1.209 -1.481 4.351
 -1.18 -1.479 4.351
 -1.151 -1.477 4.349
 -1.123 -1.474 4.348
 -1.095 -1.473 4.348
 -1.065 -1.468 4.34
 -1.037 -1.466 4.339
 -1.009 -1.465 4.339
 -0.982 -1.463 4.339
 -0.954 -1.461 4.337
 -0.928 -1.46 4.34
 -0.901 -1.46 4.342
 -0.874 -1.459 4.343
 -0.847 -1.458 4.344
 -0.82 -1.456 4.343
 -0.792 -1.453 4.339
 -0.764 -1.451 4.334
 -0.737 -1.448 4.331
 -0.71 -1.447 4.331
 -0.683 -1.445 4.326
 -0.657 -1.445 4.331
 -0.631 -1.444 4.33
 -0.604 -1.443 4.329
 -0.577 -1.44 4.324
 -0.551 -1.441 4.327
 -0.525 -1.439 4.323
 -0.499 -1.438 4.324
 -0.472 -1.436 4.32
 -0.446 -1.437 4.324
 -0.42 -1.436 4.323
 -0.394 -1.436 4.325
 -0.368 -1.436 4.325
 -0.343 -1.436 4.327
 -0.316 -1.434 4.323
 -0.291 -1.433 4.321
 -0.264 -1.431 4.316
 -0.239 -1.43 4.314
 -0.213 -1.43 4.314
 -0.187 -1.429 4.312
 -0.161 -1.429 4.312
 -0.136 -1.428 4.309
 -0.11 -1.426 4.305
 -0.084 -1.427 4.307
 -0.059 -1.426 4.304
 -0.033 -1.426 4.304
 -0.008 -1.426 4.304
 0.017 -1.427 4.308
 0.043 -1.426 4.302
 0.068 -1.425 4.3
 0.094 -1.425 4.299
 0.119 -1.427 4.303
 0.145 -1.426 4.298
 0.17 -1.426 4.297
 0.196 -1.427 4.3
 0.222 -1.426 4.297
 0.247 -1.424 4.289
 0.272 -1.425 4.291
 0.298 -1.427 4.293
 0.324 -1.426 4.289
 0.35 -1.428 4.293
 0.375 -1.429 4.294
 0.401 -1.429 4.292
 0.427 -1.43 4.291
 0.453 -1.431 4.291
 0.478 -1.429 4.285
 0.504 -1.431 4.287
 0.53 -1.432 4.286
 0.556 -1.433 4.286
 0.582 -1.434 4.286
 0.608 -1.435 4.286
 0.634 -1.436 4.287
 0.66 -1.437 4.287
 0.686 -1.439 4.286
 0.712 -1.439 4.284
 0.739 -1.441 4.286
 0.764 -1.44 4.279
 0.79 -1.441 4.276
 0.816 -1.441 4.273
 0.842 -1.441 4.269
 0.868 -1.442 4.268
 0.896 -1.445 4.272
 0.923 -1.447 4.273
 0.95 -1.45 4.274
 0.978 -1.452 4.276
 1.004 -1.452 4.271
 1.029 -1.452 4.266
 1.056 -1.454 4.264
 1.082 -1.454 4.259
 1.11 -1.456 4.26
 1.138 -1.459 4.26
 1.165 -1.461 4.259
 1.192 -1.462 4.256
 1.221 -1.465 4.259
 1.248 -1.466 4.256
 1.275 -1.467 4.252
 1.304 -1.47 4.253
 1.331 -1.472 4.25
 1.359 -1.474 4.248
 1.387 -1.475 4.245
 1.415 -1.478 4.244
 1.443 -1.479 4.239
 1.471 -1.481 4.237
 1.499 -1.483 4.233
 1.527 -1.485 4.231
 1.556 -1.487 4.227
 1.585 -1.489 4.225
 1.616 -1.493 4.228
 1.645 -1.496 4.225
 1.674 -1.498 4.222
 1.703 -1.5 4.218
 1.732 -1.502 4.214
 1.759 -1.503 4.206
 1.785 -1.503 4.194
 1.805 -1.497 4.168
 1.822 -1.489 4.135
 1.838 -1.481 4.102
 1.849 -1.468 4.056
 1.856 -1.454 4.005
 1.869 -1.444 3.965
 0 0 0
 0 0 0
 0 0 0
 0 0 0
 0 0 0
 0 0 0
 0 0 0
 0 0 0
 1.463 -1.008 2.688
 1.766 -1.201 3.196
 1.773 -1.191 3.16
 1.78 -1.182 3.124
 1.787 -1.173 3.09
 1.783 -1.157 3.036
 1.769 -1.135 2.967
 1.75 -1.11 2.892
 -0.064 -0.042 0.098
 -0.057 -0.038 0.087
 -0.279 -0.181 0.483
 -0.263 -0.173 0.462
 -0.164 -0.11 0.288
 -0.15 -0.102 0.266
 -0.233 -0.159 0.427
 -0.135 -0.094 0.245
 -0.127 -0.089 0.233
 -0.29 -0.205 0.562
 -0.28 -0.201 0.551
 -0.272 -0.197 0.542
 -0.514 -0.377 1.053
 -0.833 -0.619 1.746
 -0.902 -0.679 1.922
 -1.288 -0.983 2.796
 -1.581 -1.224 3.494
 -1.71 -1.342 3.844
 -1.757 -1.4 4.019
 -1.879 -1.519 4.373
 -1.846 -1.515 4.373
 -1.815 -1.513 4.374
 -1.784 -1.51 4.376
 -1.753 -1.507 4.378
 -1.721 -1.504 4.378
 -1.691 -1.501 4.38
 -1.66 -1.499 4.381
 -1.63 -1.496 4.382
 -1.599 -1.493 4.382
 -1.569 -1.491 4.383
 -1.537 -1.487 4.379
 -1.507 -1.484 4.378
 -1.474 -1.479 4.371
 -1.443 -1.476 4.368
 -1.412 -1.471 4.362
 -1.382 -1.468 4.36
 -1.352 -1.465 4.357
 -1.324 -1.463 4.36
 -1.294 -1.461 4.358
 -1.265 -1.458 4.357
 -1.236 -1.456 4.356
 -1.208 -1.454 4.357
 -1.18 -1.452 4.357
 -1.15 -1.449 4.353
 -1.121 -1.446 4.35
 -1.093 -1.444 4.35
 -1.064 -1.44 4.343
 -1.035 -1.438 4.34
 -1.008 -1.436 4.341
 -0.981 -1.436 4.343
 -0.953 -1.434 4.342
 -0.926 -1.433 4.343
 -0.9 -1.432 4.347
 -0.873 -1.432 4.35
 -0.847 -1.431 4.352
 -0.819 -1.429 4.348
 -0.792 -1.427 4.347
 -0.764 -1.425 4.342
 -0.736 -1.422 4.336
 -0.709 -1.42 4.334
 -0.682 -1.418 4.33
 -0.657 -1.419 4.336
 -0.63 -1.417 4.334
 -0.604 -1.417 4.335
 -0.577 -1.414 4.33
 -0.551 -1.414 4.333
 -0.524 -1.412 4.328
 -0.498 -1.411 4.328
 -0.471 -1.409 4.322
 -0.446 -1.41 4.327
 -0.42 -1.409 4.326
 -0.394 -1.408 4.324
 -0.368 -1.407 4.324
 -0.342 -1.406 4.322
 -0.315 -1.404 4.317
 -0.29 -1.403 4.315
 -0.264 -1.402 4.312
 -0.238 -1.401 4.309
 -0.212 -1.401 4.311
 -0.187 -1.401 4.311
 -0.161 -1.401 4.311
 -0.135 -1.401 4.312
 -0.11 -1.4 4.31
 -0.084 -1.4 4.31
 -0.058 -1.399 4.308
 -0.033 -1.399 4.306
 -0.007 -1.398 4.304
 0.017 -1.399 4.307
 0.043 -1.399 4.304
 0.068 -1.398 4.302
 0.094 -1.398 4.301
 0.119 -1.399 4.304
 0.145 -1.399 4.302
 0.17 -1.398 4.299
 0.196 -1.4 4.303
 0.222 -1.4 4.301
 0.247 -1.398 4.293
 0.272 -1.399 4.294
 0.298 -1.4 4.298
 0.323 -1.399 4.293
 0.35 -1.401 4.297
 0.375 -1.403 4.298
 0.401 -1.402 4.294
 0.426 -1.403 4.294
 0.452 -1.404 4.295
 0.477 -1.402 4.287
 0.503 -1.404 4.289
 0.529 -1.405 4.289
 0.555 -1.406 4.291
 0.582 -1.408 4.292
 0.608 -1.409 4.293
 0.634 -1.411 4.296
 0.66 -1.412 4.295
 0.686 -1.413 4.293
 0.712 -1.413 4.29
 0.739 -1.415 4.293
 0.764 -1.414 4.284
 0.79 -1.414 4.282
 0.816 -1.415 4.279
 0.841 -1.414 4.273
 0.868 -1.416 4.272
 0.895 -1.418 4.276
 0.921 -1.419 4.271
 0.948 -1.421 4.273
 0.976 -1.423 4.276
 1.002 -1.423 4.27
 1.028 -1.424 4.265
 1.056 -1.427 4.268
 1.082 -1.427 4.265
 1.11 -1.43 4.267
 1.138 -1.433 4.268
 1.166 -1.435 4.268
 1.193 -1.436 4.265
 1.221 -1.438 4.265
 1.247 -1.439 4.26
 1.274 -1.44 4.256
 1.302 -1.442 4.256
 1.33 -1.444 4.253
 1.358 -1.446 4.252
 1.386 -1.447 4.248
 1.414 -1.45 4.248
 1.441 -1.45 4.241
 1.47 -1.453 4.24
 1.496 -1.453 4.233
 1.525 -1.456 4.231
 1.553 -1.458 4.228
 1.583 -1.46 4.227
 1.612 -1.463 4.227
 1.642 -1.466 4.225
 1.671 -1.468 4.222
 1.7 -1.471 4.219
 1.73 -1.474 4.218
 1.758 -1.475 4.211
 1.786 -1.476 4.204
 1.808 -1.472 4.181
 1.828 -1.467 4.155
 1.845 -1.46 4.125
 1.859 -1.45 4.087
 1.864 -1.433 4.029
 0 0 0
 0 0 0
 0 0 0
 0 0 0
 0 0 0
 0 0 0
 0 0 0
 0 0 0
 0 0 0
 1.409 -0.953 2.595
 1.766 -1.179 3.202
 1.775 -1.171 3.171
 1.78 -1.161 3.132
 1.787 -1.152 3.097
 1.784 -1.137 3.046
 1.765 -1.113 2.969
 1.774 -1.105 2.938
 0 0 0
 -0.163 -0.103 0.273
 -0.099 -0.064 0.163
 -0.091 -0.06 0.152
 -0.084 -0.056 0.142
 -0.071 -0.048 0.12
 -0.064 -0.044 0.107
 -0.051 -0.036 0.086
 -0.043 -0.03 0.07
 -0.121 -0.084 0.226
 -0.111 -0.079 0.211
 -0.189 -0.135 0.373
 -0.351 -0.253 0.717
 -0.673 -0.491 1.409
 -0.905 -0.669 1.932
 -1.29 -0.966 2.807
 -1.583 -1.202 3.504
 -1.789 -1.378 4.031
 -1.834 -1.434 4.203
 -1.878 -1.491 4.381
 -1.844 -1.486 4.376
 -1.814 -1.484 4.38
 -1.782 -1.48 4.38
 -1.751 -1.478 4.383
 -1.719 -1.474 4.381
 -1.689 -1.473 4.385
 -1.658 -1.47 4.385
 -1.628 -1.467 4.385
 -1.597 -1.464 4.385
 -1.567 -1.462 4.387
 -1.536 -1.458 4.384
 -1.505 -1.455 4.382
 -1.473 -1.451 4.376
 -1.443 -1.448 4.374
 -1.411 -1.443 4.368
 -1.381 -1.44 4.366
 -1.351 -1.437 4.362
 -1.323 -1.436 4.365
 -1.293 -1.433 4.364
 -1.265 -1.431 4.364
 -1.235 -1.428 4.361
 -1.208 -1.427 4.365
 -1.179 -1.425 4.363
 -1.149 -1.421 4.358
 -1.12 -1.418 4.354
 -1.093 -1.418 4.358
 -1.063 -1.413 4.349
 -1.035 -1.411 4.347
 -1.008 -1.41 4.35
 -0.981 -1.409 4.35
 -0.953 -1.407 4.349
 -0.926 -1.405 4.348
 -0.9 -1.406 4.353
 -0.873 -1.405 4.354
 -0.846 -1.404 4.356
 -0.818 -1.402 4.352
 -0.792 -1.401 4.354
 -0.764 -1.398 4.348
 -0.737 -1.396 4.345
 -0.71 -1.394 4.343
 -0.683 -1.393 4.34
 -0.657 -1.394 4.347
 -0.63 -1.392 4.343
 -0.604 -1.392 4.347
 -0.577 -1.389 4.341
 -0.551 -1.388 4.34
 -0.524 -1.386 4.334
 -0.498 -1.385 4.333
 -0.47 -1.381 4.322
 -0.445 -1.381 4.325
 -0.419 -1.381 4.327
 -0.393 -1.379 4.323
 -0.367 -1.38 4.325
 -0.341 -1.378 4.321
 -0.315 -1.376 4.317
 -0.289 -1.376 4.317
 -0.263 -1.374 4.314
 -0.237 -1.372 4.308
 -0.212 -1.373 4.31
 -0.186 -1.373 4.31
 -0.16 -1.372 4.309
 -0.135 -1.372 4.31
 -0.109 -1.373 4.312
 -0.084 -1.373 4.313
 -0.058 -1.372 4.311
 -0.033 -1.372 4.309
 -0.007 -1.372 4.308
 0.017 -1.373 4.311
 0.043 -1.372 4.308
 0.068 -1.371 4.305
 0.094 -1.371 4.302
 0.119 -1.372 4.307
 0.145 -1.372 4.305
 0.17 -1.371 4.302
 0.196 -1.374 4.308
 0.222 -1.374 4.307
 0.247 -1.372 4.299
 0.272 -1.372 4.299
 0.298 -1.374 4.302
 0.323 -1.372 4.295
 0.35 -1.376 4.303
 0.375 -1.377 4.304
 0.401 -1.376 4.3
 0.427 -1.377 4.301
 0.453 -1.379 4.305
 0.477 -1.376 4.293
 0.503 -1.377 4.294
 0.529 -1.378 4.293
 0.555 -1.38 4.297
 0.582 -1.382 4.298
 0.608 -1.384 4.303
 0.635 -1.386 4.307
 0.661 -1.388 4.307
 0.687 -1.387 4.302
 0.712 -1.387 4.298
 0.739 -1.389 4.3
 0.764 -1.388 4.291
 0.789 -1.387 4.285
 0.816 -1.388 4.284
 0.841 -1.388 4.278
 0.867 -1.389 4.277
 0.894 -1.391 4.277
 0.92 -1.391 4.275
 0.948 -1.394 4.277
 0.975 -1.397 4.28
 1 -1.396 4.272
 1.027 -1.397 4.27
 1.055 -1.399 4.271
 1.081 -1.4 4.267
 1.108 -1.402 4.267
 1.137 -1.405 4.271
 1.164 -1.406 4.269
 1.191 -1.408 4.267
 1.219 -1.41 4.267
 1.246 -1.411 4.264
 1.273 -1.412 4.259
 1.301 -1.414 4.258
 1.328 -1.415 4.253
 1.356 -1.417 4.252
 1.383 -1.418 4.248
 1.412 -1.421 4.248
 1.439 -1.422 4.244
 1.469 -1.425 4.245
 1.495 -1.426 4.237
 1.524 -1.428 4.236
 1.553 -1.43 4.233
 1.582 -1.433 4.232
 1.61 -1.435 4.229
 1.64 -1.438 4.228
 1.67 -1.44 4.226
 1.698 -1.442 4.222
 1.728 -1.445 4.22
 1.756 -1.446 4.214
 1.784 -1.447 4.206
 1.807 -1.444 4.187
 1.827 -1.439 4.162
 1.846 -1.434 4.136
 1.858 -1.423 4.092
 0 0 0
 0 0 0
 0 0 0
 0 0 0
 0 0 0
 0 0 0
 0 0 0
 0 0 0
 0 0 0
 0 0 0
 1.313 -0.872 2.422
 1.758 -1.152 3.195
 1.768 -1.146 3.166
 1.775 -1.137 3.13
 1.782 -1.128 3.094
 1.783 -1.116 3.051
 1.775 -1.098 2.99
 1.778 -1.088 2.951
 -0.148 -0.091 0.244
 -0.148 -0.092 0.248
 -0.11 -0.07 0.183
 -0.1 -0.064 0.169
 -0.089 -0.058 0.151
 -0.079 -0.052 0.134
 -0.069 -0.046 0.118
 -0.054 -0.037 0.092
 -0.048 -0.033 0.08
 -0.211 -0.144 0.407
 -0.199 -0.138 0.388
 -0.191 -0.134 0.378
 -0.268 -0.19 0.546
 -0.588 -0.421 1.234
 -0.659 -0.479 1.407
 -1.049 -0.771 2.283
 -1.423 -1.061 3.156
 -1.71 -1.293 3.86
 -1.757 -1.348 4.034
 -1.877 -1.462 4.387
 -1.843 -1.457 4.383
 -1.812 -1.455 4.386
 -1.78 -1.451 4.383
 -1.75 -1.449 4.387
 -1.718 -1.446 4.387
 -1.688 -1.444 4.389
 -1.656 -1.441 4.388
 -1.626 -1.438 4.39
 -1.594 -1.435 4.387
 -1.564 -1.432 4.387
 -1.533 -1.429 4.384
 -1.502 -1.426 4.383
 -1.471 -1.421 4.377
 -1.441 -1.419 4.376
 -1.41 -1.415 4.373
 -1.381 -1.413 4.373
 -1.351 -1.41 4.37
 -1.323 -1.409 4.373
 -1.293 -1.406 4.372
 -1.265 -1.405 4.372
 -1.235 -1.401 4.368
 -1.208 -1.401 4.372
 -1.179 -1.398 4.37
 -1.149 -1.395 4.365
 -1.12 -1.391 4.36
 -1.093 -1.391 4.364
 -1.063 -1.386 4.355
 -1.035 -1.384 4.353
 -1.008 -1.383 4.355
 -0.981 -1.383 4.359
 -0.954 -1.382 4.359
 -0.926 -1.38 4.357
 -0.9 -1.38 4.362
 -0.873 -1.379 4.364
 -0.846 -1.378 4.363
 -0.818 -1.375 4.356
 -0.791 -1.375 4.36
 -0.764 -1.372 4.355
 -0.736 -1.37 4.351
 -0.709 -1.368 4.349
 -0.683 -1.367 4.348
 -0.657 -1.368 4.355
 -0.63 -1.365 4.348
 -0.604 -1.366 4.354
 -0.577 -1.363 4.347
 -0.55 -1.362 4.345
 -0.523 -1.358 4.334
 -0.497 -1.357 4.335
 -0.469 -1.352 4.32
 -0.444 -1.352 4.323
 -0.418 -1.352 4.324
 -0.392 -1.35 4.318
 -0.366 -1.35 4.321
 -0.34 -1.347 4.313
 -0.314 -1.347 4.312
 -0.288 -1.347 4.314
 -0.262 -1.346 4.312
 -0.236 -1.344 4.305
 -0.211 -1.345 4.309
 -0.186 -1.344 4.308
 -0.16 -1.343 4.305
 -0.135 -1.345 4.31
 -0.109 -1.345 4.312
 -0.084 -1.345 4.313
 -0.058 -1.345 4.313
 -0.033 -1.345 4.311
 -0.007 -1.343 4.305
 0.017 -1.345 4.311
 0.043 -1.345 4.311
 0.068 -1.343 4.304
 0.094 -1.343 4.302
 0.119 -1.345 4.307
 0.145 -1.345 4.305
 0.17 -1.343 4.3
 0.196 -1.347 4.309
 0.222 -1.347 4.311
 0.247 -1.345 4.302
 0.272 -1.346 4.303
 0.298 -1.347 4.305
 0.323 -1.345 4.296
 0.349 -1.349 4.306
 0.375 -1.35 4.309
 0.401 -1.35 4.305
 0.427 -1.352 4.31
 0.453 -1.354 4.315
 0.477 -1.35 4.298
 0.503 -1.351 4.3
 0.529 -1.352 4.3
 0.555 -1.354 4.302
 0.582 -1.356 4.304
 0.609 -1.359 4.313
 0.636 -1.362 4.316
 0.662 -1.363 4.318
 0.687 -1.362 4.312
 0.713 -1.362 4.306
 0.739 -1.363 4.305
 0.764 -1.361 4.296
 0.788 -1.359 4.285
 0.814 -1.36 4.283
 0.84 -1.36 4.279
 0.867 -1.362 4.279
 0.894 -1.364 4.283
 0.92 -1.365 4.282
 0.949 -1.37 4.289
 0.976 -1.371 4.289
 1.001 -1.37 4.28
 1.027 -1.37 4.276
 1.054 -1.372 4.275
 1.08 -1.372 4.268
 1.107 -1.373 4.267
 1.135 -1.376 4.269
 1.162 -1.377 4.267
 1.189 -1.379 4.266
 1.216 -1.381 4.264
 1.244 -1.382 4.262
 1.271 -1.383 4.259
 1.298 -1.385 4.256
 1.325 -1.386 4.252
 1.354 -1.389 4.254
 1.381 -1.39 4.25
 1.41 -1.392 4.248
 1.438 -1.395 4.248
 1.467 -1.397 4.246
 1.493 -1.397 4.239
 1.522 -1.4 4.238
 1.551 -1.402 4.235
 1.58 -1.404 4.234
 1.609 -1.407 4.233
 1.639 -1.41 4.232
 1.667 -1.412 4.229
 1.697 -1.414 4.226
 1.725 -1.416 4.221
 1.753 -1.417 4.214
 1.781 -1.418 4.208
 1.807 -1.417 4.195
 1.833 -1.417 4.183
 1.856 -1.415 4.166
 0 0 0
 0 0 0
 0 0 0
 0 0 0
 0 0 0
 0 0 0
 0 0 0
 0 0 0
 0 0 0
 0 0 0
 0 0 0
 0 0 0
 1.756 -1.13 3.197
 1.767 -1.124 3.17
 1.774 -1.115 3.134
 1.781 -1.106 3.098
 1.785 -1.096 3.059
 1.767 -1.073 2.984
 1.786 -1.072 2.97
 -0.124 -0.075 0.202
 -0.098 -0.06 0.159
 -0.112 -0.069 0.186
 -0.1 -0.063 0.169
 -0.087 -0.056 0.147
 -0.075 -0.049 0.128
 -0.066 -0.044 0.113
 -0.142 -0.093 0.261
 -0.134 -0.089 0.25
 -0.21 -0.141 0.405
 -0.199 -0.135 0.389
 -0.274 -0.188 0.55
 -0.35 -0.243 0.717
 -0.668 -0.469 1.406
 -0.819 -0.583 1.754
 -1.206 -0.869 2.633
 -1.5 -1.097 3.333
 -1.709 -1.268 3.866
 -1.756 -1.321 4.039
 -1.876 -1.433 4.393
 -1.842 -1.428 4.388
 -1.81 -1.425 4.388
 -1.777 -1.421 4.385
 -1.746 -1.419 4.387
 -1.714 -1.415 4.386
 -1.685 -1.414 4.39
 -1.654 -1.411 4.391
 -1.623 -1.408 4.39
 -1.593 -1.406 4.39
 -1.562 -1.403 4.389
 -1.53 -1.399 4.384
 -1.5 -1.396 4.383
 -1.469 -1.393 4.381
 -1.439 -1.39 4.378
 -1.409 -1.387 4.378
 -1.38 -1.385 4.378
 -1.35 -1.382 4.376
 -1.321 -1.381 4.376
 -1.292 -1.378 4.376
 -1.265 -1.378 4.381
 -1.236 -1.375 4.379
 -1.209 -1.375 4.383
 -1.18 -1.372 4.381
 -1.15 -1.369 4.376
 -1.12 -1.365 4.367
 -1.092 -1.363 4.368
 -1.062 -1.359 4.36
 -1.034 -1.357 4.357
 -1.006 -1.355 4.357
 -0.98 -1.355 4.362
 -0.953 -1.354 4.363
 -0.925 -1.352 4.359
 -0.899 -1.353 4.367
 -0.873 -1.353 4.371
 -0.846 -1.352 4.37
 -0.817 -1.348 4.361
 -0.792 -1.349 4.371
 -0.764 -1.347 4.365
 -0.736 -1.344 4.359
 -0.709 -1.342 4.355
 -0.682 -1.34 4.354
 -0.657 -1.343 4.364
 -0.629 -1.338 4.35
 -0.605 -1.342 4.366
 -0.577 -1.338 4.357
 -0.552 -1.34 4.364
 -0.523 -1.334 4.347
 -0.498 -1.334 4.351
 -0.468 -1.323 4.318
 -0.442 -1.322 4.316
 -0.416 -1.322 4.316
 -0.389 -1.318 4.304
 -0.364 -1.319 4.309
 -0.338 -1.317 4.303
 -0.313 -1.317 4.306
 -0.287 -1.318 4.309
 -0.262 -1.318 4.309
 -0.236 -1.316 4.303
 -0.211 -1.317 4.309
 -0.185 -1.316 4.305
 -0.159 -1.315 4.304
 -0.134 -1.316 4.308
 -0.109 -1.317 4.308
 -0.083 -1.316 4.306
 -0.058 -1.317 4.309
 -0.032 -1.316 4.306
 -0.007 -1.313 4.296
 0.018 -1.315 4.304
 0.043 -1.316 4.306
 0.068 -1.312 4.291
 0.094 -1.312 4.29
 0.119 -1.314 4.297
 0.144 -1.314 4.295
 0.17 -1.314 4.292
 0.196 -1.32 4.312
 0.222 -1.32 4.311
 0.246 -1.317 4.299
 0.272 -1.316 4.296
 0.297 -1.318 4.299
 0.322 -1.316 4.291
 0.349 -1.322 4.308
 0.376 -1.325 4.317
 0.402 -1.328 4.323
 0.429 -1.331 4.332
 0.455 -1.333 4.335
 0.477 -1.324 4.304
 0.504 -1.326 4.307
 0.529 -1.324 4.299
 0.554 -1.324 4.296
 0.581 -1.327 4.302
 0.609 -1.333 4.317
 0.636 -1.337 4.327
 0.663 -1.338 4.328
 0.689 -1.339 4.327
 0.714 -1.337 4.317
 0.74 -1.339 4.318
 0.764 -1.336 4.304
 0.788 -1.333 4.29
 0.814 -1.333 4.286
 0.84 -1.333 4.283
 0.867 -1.336 4.287
 0.895 -1.339 4.292
 0.92 -1.338 4.283
 0.948 -1.341 4.289
 0.975 -1.343 4.29
 1 -1.342 4.281
 1.025 -1.342 4.275
 1.052 -1.344 4.275
 1.079 -1.345 4.272
 1.106 -1.346 4.27
 1.133 -1.348 4.271
 1.16 -1.35 4.269
 1.188 -1.351 4.268
 1.215 -1.353 4.266
 1.242 -1.354 4.263
 1.269 -1.356 4.261
 1.297 -1.357 4.259
 1.324 -1.359 4.256
 1.352 -1.361 4.256
 1.38 -1.362 4.252
 1.407 -1.364 4.249
 1.436 -1.366 4.249
 1.464 -1.368 4.247
 1.492 -1.369 4.242
 1.52 -1.372 4.24
 1.549 -1.374 4.238
 1.578 -1.376 4.236
 1.607 -1.378 4.234
 1.637 -1.381 4.234
 1.666 -1.383 4.231
 1.694 -1.385 4.227
 1.722 -1.386 4.22
 1.749 -1.387 4.212
 1.777 -1.388 4.206
 1.805 -1.389 4.198
 1.832 -1.39 4.189
 1.86 -1.391 4.181
 0 0 0
 0 0 0
 0 0 0
 0 0 0
 0 0 0
 0 0 0
 0 0 0
 0 0 0
 0 0 0
 0 0 0
 0 0 0
 0 0 0
 1.745 -1.102 3.185
 1.762 -1.099 3.167
 1.77 -1.091 3.133
 1.778 -1.083 3.099
 1.785 -1.076 3.067
 1.775 -1.057 3.004
 1.776 -1.046 2.96
 -0.109 -0.065 0.176
 -0.137 -0.082 0.229
 -0.108 -0.066 0.181
 -0.096 -0.059 0.162
 -0.084 -0.053 0.142
 -0.072 -0.046 0.122
 -0.064 -0.042 0.11
 -0.14 -0.09 0.258
 -0.132 -0.086 0.247
 -0.208 -0.137 0.402
 -0.198 -0.132 0.388
 -0.359 -0.241 0.726
 -0.349 -0.237 0.716
 -0.667 -0.46 1.407
 -0.817 -0.57 1.753
 -1.204 -0.851 2.635
 -1.419 -1.018 3.161
 -1.708 -1.242 3.871
 -1.754 -1.295 4.044
 -1.876 -1.405 4.401
 -1.841 -1.4 4.394
 -1.808 -1.396 4.391
 -1.775 -1.392 4.388
 -1.744 -1.389 4.39
 -1.711 -1.385 4.385
 -1.681 -1.383 4.388
 -1.651 -1.381 4.389
 -1.619 -1.377 4.386
 -1.588 -1.375 4.386
 -1.558 -1.372 4.385
 -1.526 -1.368 4.381
 -1.496 -1.365 4.38
 -1.466 -1.363 4.379
 -1.436 -1.361 4.379
 -1.408 -1.359 4.381
 -1.38 -1.358 4.385
 -1.35 -1.356 4.384
 -1.322 -1.355 4.387
 -1.292 -1.351 4.382
 -1.265 -1.351 4.389
 -1.236 -1.349 4.387
 -1.209 -1.349 4.394
 -1.18 -1.346 4.389
 -1.15 -1.343 4.385
 -1.118 -1.336 4.368
 -1.089 -1.334 4.365
 -1.06 -1.33 4.358
 -1.031 -1.327 4.354
 -1.005 -1.327 4.357
 -0.98 -1.329 4.37
 -0.953 -1.328 4.371
 -0.924 -1.324 4.362
 -0.899 -1.327 4.375
 -0.874 -1.329 4.384
 -0.846 -1.326 4.381
 -0.817 -1.322 4.368
 -0.793 -1.325 4.383
 0 0 0
 0 0 0
 0 0 0
 0 0 0
 0 0 0
 0 0 0
 0 0 0
 0 0 0
 0 0 0
 0 0 0
 0 0 0
 0 0 0
 0 0 0
 0 0 0
 -0.388 -1.286 4.291
 -0.363 -1.291 4.308
 -0.337 -1.289 4.302
 -0.312 -1.29 4.307
 -0.287 -1.291 4.31
 -0.261 -1.291 4.311
 -0.236 -1.289 4.305
 -0.21 -1.29 4.31
 -0.185 -1.288 4.305
 -0.159 -1.288 4.304
 -0.134 -1.289 4.309
 -0.108 -1.289 4.309
 -0.083 -1.288 4.304
 -0.057 -1.289 4.306
 -0.032 -1.288 4.304
 -0.007 -1.285 4.294
 0.018 -1.284 4.29
 0 0 0
 0 0 0
 0 0 0
 0 0 0
 0 0 0
 0 0 0
 0 0 0
 0 0 0
 0 0 0
 0 0 0
 0 0 0
 0 0 0
 0 0 0
 0 0 0
 0 0 0
 0 0 0
 0 0 0
 0 0 0
 0 0 0
 0 0 0
 0 0 0
 0 0 0
 0 0 0
 0 0 0
 0 0 0
 0 0 0
 0 0 0
 0 0 0
 0 0 0
 0 0 0
 0 0 0
 0 0 0
 0 0 0
 0 0 0
 0 0 0
 0.947 -1.314 4.291
 0.973 -1.314 4.288
 0.998 -1.314 4.282
 1.025 -1.315 4.28
 1.052 -1.317 4.279
 1.078 -1.317 4.275
 1.105 -1.319 4.273
 1.132 -1.32 4.273
 1.159 -1.322 4.27
 1.186 -1.323 4.267
 1.213 -1.324 4.264
 1.239 -1.325 4.26
 1.266 -1.326 4.258
 1.294 -1.328 4.255
 1.322 -1.329 4.254
 1.349 -1.331 4.253
 1.377 -1.333 4.25
 1.405 -1.335 4.249
 1.434 -1.338 4.25
 1.463 -1.34 4.248
 1.49 -1.341 4.245
 1.519 -1.344 4.244
 1.547 -1.346 4.241
 1.575 -1.347 4.237
 1.604 -1.349 4.235
 1.635 -1.353 4.236
 1.663 -1.354 4.232
 1.692 -1.357 4.229
 1.72 -1.358 4.222
 1.747 -1.358 4.213
 1.773 -1.358 4.202
 1.8 -1.358 4.193
 1.825 -1.357 4.18
 1.85 -1.356 4.166
 0 0 0
 0 0 0
 0 0 0
 0 0 0
 0 0 0
 0 0 0
 0 0 0
 0 0 0
 0 0 0
 0 0 0
 0 0 0
 0 0 0
 1.754 -1.086 3.207
 1.766 -1.08 3.179
 1.771 -1.071 3.141
 1.778 -1.063 3.106
 1.784 -1.054 3.071
 1.774 -1.036 3.007
 1.777 -1.027 2.969
 -0.122 -0.071 0.2
 -0.121 -0.071 0.201
 -0.105 -0.063 0.175
 -0.092 -0.056 0.154
 -0.081 -0.05 0.137
 -0.068 -0.043 0.116
 -0.06 -0.038 0.101
 -0.136 -0.086 0.251
 -0.129 -0.082 0.24
 -0.291 -0.187 0.57
 -0.367 -0.239 0.733
 -0.526 -0.346 1.072
 -0.597 -0.398 1.239
 -0.995 -0.671 2.108
 -1.14 -0.779 2.457
 -1.441 -0.998 3.161
 -1.652 -1.161 3.688
 -1.86 -1.326 4.224
 -1.828 -1.322 4.223
 -1.872 -1.374 4.4
 -1.839 -1.37 4.397
 -1.806 -1.367 4.396
 -1.773 -1.363 4.392
 -1.743 -1.361 4.394
 -1.71 -1.357 4.39
 -1.679 -1.354 4.391
 -1.648 -1.352 4.39
 -1.616 -1.348 4.386
 -1.585 -1.345 4.385
 -1.554 -1.342 4.383
 -1.523 -1.338 4.379
 -1.493 -1.336 4.38
 -1.464 -1.334 4.38
 -1.434 -1.331 4.379
 -1.406 -1.33 4.383
 -1.378 -1.33 4.388
 -1.349 -1.327 4.386
 -1.322 -1.327 4.393
 -1.293 -1.326 4.394
 -1.267 -1.327 4.404
 -1.238 -1.324 4.401
 -1.212 -1.326 4.412
 0 0 0
 0 0 0
 0 0 0
 0 0 0
 0 0 0
 0 0 0
 0 0 0
 0 0 0
 0 0 0
 0 0 0
 0 0 0
 0 0 0
 0 0 0
 0 0 0
 0 0 0
 0 0 0
 0 0 0
 0 0 0
 0 0 0
 0 0 0
 0 0 0
 0 0 0
 0 0 0
 0 0 0
 0 0 0
 0 0 0
 0 0 0
 0 0 0
 0 0 0
 -0.389 -1.267 4.319
 -0.364 -1.267 4.318
 -0.337 -1.263 4.307
 -0.312 -1.263 4.309
 -0.286 -1.263 4.31
 -0.261 -1.262 4.306
 -0.235 -1.261 4.303
 -0.21 -1.263 4.311
 -0.184 -1.262 4.307
 -0.159 -1.262 4.307
 -0.134 -1.262 4.31
 -0.108 -1.262 4.308
 -0.083 -1.26 4.302
 -0.057 -1.26 4.303
 -0.032 -1.26 4.302
 -0.007 -1.258 4.293
 0.018 -1.257 4.292
 0 0 0
 0 0 0
 0 0 0
 0 0 0
 0 0 0
 0 0 0
 0 0 0
 0 0 0
 0 0 0
 0 0 0
 0 0 0
 0 0 0
 0 0 0
 0 0 0
 0 0 0
 0 0 0
 0 0 0
 0 0 0
 0 0 0
 0 0 0
 0 0 0
 0 0 0
 0 0 0
 0 0 0
 0 0 0
 0 0 0
 0 0 0
 0 0 0
 0 0 0
 0 0 0
 0 0 0
 0 0 0
 0 0 0
 0 0 0
 0 0 0
 0.948 -1.289 4.302
 0.972 -1.287 4.288
 0.997 -1.286 4.281
 1.024 -1.287 4.28
 1.05 -1.288 4.276
 1.076 -1.289 4.272
 1.104 -1.291 4.275
 1.13 -1.292 4.272
 1.157 -1.293 4.269
 1.184 -1.294 4.266
 1.21 -1.295 4.262
 1.237 -1.296 4.259
 1.264 -1.297 4.256
 1.292 -1.299 4.255
 1.32 -1.301 4.254
 1.348 -1.303 4.253
 1.375 -1.304 4.249
 1.403 -1.307 4.249
 1.433 -1.31 4.251
 1.46 -1.311 4.247
 1.488 -1.313 4.244
 1.517 -1.315 4.243
 1.545 -1.317 4.242
 1.573 -1.318 4.236
 1.603 -1.321 4.237
 1.633 -1.325 4.238
 1.661 -1.326 4.234
 1.689 -1.328 4.229
 1.717 -1.328 4.221
 1.744 -1.329 4.214
 1.769 -1.328 4.201
 1.796 -1.329 4.192
 1.823 -1.329 4.182
 1.851 -1.33 4.176
 0 0 0
 0 0 0
 0 0 0
 0 0 0
 0 0 0
 0 0 0
 0 0 0
 0 0 0
 0 0 0
 0 0 0
 0 0 0
 0 0 0
 1.75 -1.062 3.205
 1.758 -1.054 3.171
 1.771 -1.05 3.148
 1.781 -1.044 3.118
 1.787 -1.035 3.081
 1.784 -1.022 3.031
 1.761 -0.997 2.948
 -0.141 -0.08 0.232
 -0.124 -0.072 0.207
 -0.101 -0.06 0.17
 -0.088 -0.053 0.149
 -0.077 -0.047 0.13
 -0.063 -0.039 0.107
 -0.054 -0.034 0.091
 -0.132 -0.082 0.244
 -0.125 -0.079 0.234
 -0.375 -0.236 0.739
 -0.537 -0.341 1.079
 -0.778 -0.501 1.597
 -0.929 -0.606 1.939
 -1.323 -0.874 2.813
 -1.382 -0.925 2.987
 -1.599 -1.085 3.516
 -1.719 -1.183 3.845
 -1.851 -1.293 4.212
 -1.816 -1.287 4.202
 -1.87 -1.345 4.404
 -1.837 -1.342 4.401
 -1.805 -1.338 4.401
 -1.772 -1.334 4.397
 -1.741 -1.332 4.398
 -1.708 -1.328 4.394
 -1.677 -1.325 4.394
 -1.646 -1.323 4.393
 -1.614 -1.319 4.389
 -1.583 -1.316 4.388
 -1.552 -1.313 4.384
 -1.521 -1.31 4.381
 -1.491 -1.307 4.381
 -1.461 -1.305 4.38
 -1.431 -1.302 4.379
 -1.404 -1.302 4.385
 -1.376 -1.301 4.39
 -1.348 -1.3 4.392
 -1.321 -1.3 4.399
 0 0 0
 0 0 0
 0 0 0
 0 0 0
 0 0 0
 0 0 0
 0 0 0
 0 0 0
 0 0 0
 0 0 0
 0 0 0
 0 0 0
 0 0 0
 0 0 0
 0 0 0
 0 0 0
 0 0 0
 0 0 0
 0 0 0
 0 0 0
 0 0 0
 0 0 0
 0 0 0
 0 0 0
 0 0 0
 0 0 0
 0 0 0
 0 0 0
 0 0 0
 0 0 0
 0 0 0
 0 0 0
 0 0 0
 -0.388 -1.238 4.312
 -0.363 -1.238 4.314
 -0.336 -1.236 4.306
 -0.311 -1.236 4.307
 -0.286 -1.236 4.308
 -0.26 -1.234 4.305
 -0.235 -1.234 4.305
 -0.21 -1.236 4.312
 -0.184 -1.236 4.312
 -0.159 -1.236 4.311
 -0.133 -1.237 4.315
 -0.108 -1.235 4.31
 -0.082 -1.233 4.301
 -0.057 -1.232 4.3
 -0.032 -1.232 4.298
 -0.006 -1.229 4.286
 0.018 -1.227 4.281
 0 0 0
 0 0 0
 0 0 0
 0 0 0
 0 0 0
 0 0 0
 0 0 0
 0 0 0
 0 0 0
 0 0 0
 0 0 0
 0 0 0
 0 0 0
 0 0 0
 0 0 0
 0 0 0
 0 0 0
 0 0 0
 0 0 0
 0 0 0
 0 0 0
 0 0 0
 0 0 0
 0 0 0
 0 0 0
 0 0 0
 0 0 0
 0 0 0
 0 0 0
 0 0 0
 0 0 0
 0 0 0
 0 0 0
 0 0 0
 0 0 0
 0.949 -1.264 4.311
 0.971 -1.26 4.29
 0.996 -1.259 4.284
 1.023 -1.26 4.282
 1.049 -1.261 4.278
 1.074 -1.261 4.271
 1.102 -1.263 4.275
 1.129 -1.264 4.272
 1.155 -1.265 4.267
 1.181 -1.266 4.264
 1.209 -1.267 4.262
 1.235 -1.268 4.257
 1.261 -1.268 4.252
 1.289 -1.27 4.251
 1.316 -1.272 4.25
 1.344 -1.274 4.249
 1.372 -1.275 4.246
 1.4 -1.278 4.247
 1.43 -1.281 4.25
 1.458 -1.282 4.247
 1.486 -1.284 4.245
 1.514 -1.287 4.244
 1.543 -1.289 4.243
 1.571 -1.29 4.237
 1.601 -1.293 4.238
 1.63 -1.295 4.237
 1.658 -1.297 4.234
 1.686 -1.298 4.228
 1.713 -1.299 4.22
 1.741 -1.3 4.213
 1.766 -1.299 4.201
 1.793 -1.3 4.193
 1.821 -1.301 4.184
 1.85 -1.303 4.181
 0 0 0
 0 0 0
 0 0 0
 0 0 0
 0 0 0
 0 0 0
 0 0 0
 0 0 0
 0 0 0
 0 0 0
 0 0 0
 0 0 0
 1.751 -1.041 3.214
 1.758 -1.033 3.178
 1.772 -1.029 3.154
 1.782 -1.023 3.125
 1.788 -1.015 3.088
 1.801 -1.011 3.065
 1.751 -0.971 2.935
 -0.122 -0.068 0.201
 -0.107 -0.061 0.177
 -0.095 -0.055 0.158
 -0.083 -0.048 0.138
 -0.072 -0.043 0.121
 -0.059 -0.036 0.099
 -0.05 -0.031 0.083
 -0.13 -0.079 0.239
 -0.208 -0.127 0.398
 -0.458 -0.281 0.905
 -0.704 -0.438 1.423
 -1.03 -0.648 2.12
 -1.262 -0.805 2.644
 -1.571 -1.015 3.348
 -1.707 -1.119 3.7
 -1.838 -1.222 4.052
 -1.879 -1.267 4.212
 -1.934 -1.323 4.409
 -1.901 -1.319 4.407
 -1.867 -1.315 4.404
 -1.834 -1.311 4.401
 -1.802 -1.309 4.401
 -1.77 -1.305 4.399
 -1.738 -1.302 4.397
 -1.705 -1.298 4.394
 -1.675 -1.296 4.395
 -1.643 -1.293 4.391
 -1.611 -1.289 4.388
 -1.582 -1.288 4.391
 -1.55 -1.284 4.387
 -1.52 -1.281 4.384
 -1.49 -1.279 4.385
 -1.459 -1.276 4.381
 -1.429 -1.273 4.378
 -1.401 -1.272 4.383
 -1.373 -1.271 4.385
 -1.344 -1.27 4.387
 -1.319 -1.271 4.399
 0 0 0
 0 0 0
 0 0 0
 0 0 0
 0 0 0
 0 0 0
 0 0 0
 0 0 0
 0 0 0
 0 0 0
 0 0 0
 0 0 0
 0 0 0
 0 0 0
 0 0 0
 0 0 0
 0 0 0
 0 0 0
 0 0 0
 0 0 0
 0 0 0
 0 0 0
 0 0 0
 0 0 0
 -0.184 -0.361 1.268
 -0.177 -0.362 1.271
 -0.17 -0.364 1.279
 -0.164 -0.368 1.294
 -0.157 -0.37 1.3
 0 0 0
 0 0 0
 0 0 0
 0 0 0
 -0.387 -1.211 4.311
 -0.362 -1.211 4.313
 -0.336 -1.209 4.309
 -0.311 -1.21 4.312
 -0.285 -1.209 4.312
 -0.26 -1.209 4.311
 -0.234 -1.209 4.311
 -0.209 -1.21 4.316
 -0.184 -1.21 4.315
 -0.158 -1.21 4.315
 -0.133 -1.21 4.316
 -0.108 -1.209 4.313
 -0.082 -1.207 4.305
 -0.057 -1.206 4.303
 -0.031 -1.206 4.301
 -0.006 -1.204 4.293
 0.018 -1.202 4.288
 0 0 0
 0 0 0
 0 0 0
 0 0 0
 0 0 0
 0 0 0
 0 0 0
 0 0 0
 0 0 0
 0 0 0
 0 0 0
 0 0 0
 0 0 0
 0 0 0
 0 0 0
 0 0 0
 0 0 0
 0 0 0
 0 0 0
 0 0 0
 0 0 0
 0 0 0
 0 0 0
 0 0 0
 0 0 0
 0 0 0
 0 0 0
 0 0 0
 0 0 0
 0 0 0
 0 0 0
 0 0 0
 0 0 0
 0 0 0
 0 0 0
 0.948 -1.238 4.316
 0.971 -1.233 4.295
 0.996 -1.233 4.288
 1.022 -1.234 4.286
 1.048 -1.234 4.281
 1.073 -1.234 4.274
 1.101 -1.236 4.275
 1.128 -1.237 4.273
 1.154 -1.237 4.269
 1.18 -1.238 4.264
 1.207 -1.239 4.262
 1.233 -1.24 4.258
 1.26 -1.24 4.253
 1.287 -1.242 4.252
 1.315 -1.244 4.252
 1.343 -1.246 4.25
 1.37 -1.248 4.248
 1.398 -1.25 4.247
 1.428 -1.252 4.249
 1.455 -1.254 4.247
 1.483 -1.256 4.244
 1.512 -1.258 4.243
 1.541 -1.261 4.244
 1.568 -1.261 4.237
 1.598 -1.264 4.238
 1.628 -1.267 4.239
 1.656 -1.269 4.235
 1.684 -1.27 4.229
 1.711 -1.271 4.222
 1.739 -1.272 4.216
 1.765 -1.271 4.204
 1.792 -1.272 4.196
 1.82 -1.274 4.19
 1.85 -1.276 4.187
 0 0 0
 0 0 0
 0 0 0
 0 0 0
 0 0 0
 0 0 0
 0 0 0
 0 0 0
 0 0 0
 0 0 0
 0 0 0
 0 0 0
 1.772 -1.032 3.257
 1.768 -1.018 3.201
 1.778 -1.011 3.171
 1.787 -1.005 3.139
 1.79 -0.995 3.098
 1.822 -1.001 3.106
 1.793 -0.975 3.012
 -0.101 -0.056 0.164
 -0.095 -0.053 0.155
 -0.088 -0.05 0.146
 -0.076 -0.043 0.125
 -0.067 -0.039 0.111
 -0.056 -0.033 0.093
 -0.048 -0.029 0.078
 -0.039 -0.024 0.062
 -0.119 -0.072 0.223
 -0.456 -0.275 0.904
 -0.788 -0.479 1.596
 -1.112 -0.685 2.294
 -1.428 -0.891 2.998
 -1.734 -1.097 3.703
 -1.787 -1.146 3.879
 -1.836 -1.195 4.054
 -1.874 -1.237 4.207
 -1.931 -1.292 4.409
 -1.898 -1.289 4.408
 -1.864 -1.285 4.404
 -1.831 -1.281 4.401
 -1.799 -1.279 4.401
 -1.768 -1.276 4.402
 -1.736 -1.273 4.401
 -1.703 -1.27 4.396
 -1.672 -1.266 4.394
 -1.64 -1.263 4.391
 -1.608 -1.26 4.387
 -1.577 -1.257 4.385
 -1.546 -1.254 4.382
 -1.516 -1.252 4.382
 -1.487 -1.249 4.382
 -1.456 -1.246 4.378
 -1.426 -1.244 4.378
 -1.399 -1.244 4.384
 -1.371 -1.243 4.386
 -1.342 -1.241 4.388
 -1.32 -1.245 4.408
 0 0 0
 0 0 0
 0 0 0
 0 0 0
 0 0 0
 0 0 0
 0 0 0
 0 0 0
 0 0 0
 0 0 0
 0 0 0
 0 0 0
 0 0 0
 0 0 0
 0 0 0
 0 0 0
 0 0 0
 0 0 0
 0 0 0
 0 0 0
 0 0 0
 0 0 0
 0 0 0
 -0.193 -0.356 1.276
 -0.186 -0.358 1.286
 -0.179 -0.359 1.29
 -0.172 -0.36 1.294
 -0.165 -0.362 1.301
 -0.158 -0.363 1.308
 -0.15 -0.363 1.309
 0 0 0
 0 0 0
 0 0 0
 -0.387 -1.184 4.313
 -0.362 -1.185 4.317
 -0.336 -1.183 4.313
 -0.311 -1.184 4.315
 -0.285 -1.183 4.312
 -0.259 -1.182 4.311
 -0.234 -1.182 4.312
 -0.209 -1.183 4.317
 -0.184 -1.184 4.319
 -0.158 -1.184 4.321
 -0.133 -1.184 4.321
 -0.107 -1.183 4.316
 -0.082 -1.181 4.31
 -0.057 -1.18 4.306
 -0.031 -1.18 4.305
 -0.006 -1.179 4.3
 0.018 -1.179 4.301
 0 0 0
 0 0 0
 0 0 0
 0 0 0
 0 0 0
 0 0 0
 0 0 0
 0 0 0
 0 0 0
 0 0 0
 0 0 0
 0 0 0
 0 0 0
 0 0 0
 0 0 0
 0 0 0
 0 0 0
 0 0 0
 0 0 0
 0 0 0
 0 0 0
 0 0 0
 0 0 0
 0 0 0
 0 0 0
 0 0 0
 0 0 0
 0 0 0
 0 0 0
 0 0 0
 0 0 0
 0 0 0
 0 0 0
 0 0 0
 0 0 0
