 -0.515 -0.362 1.494
 -0.506 -0.362 1.498
 -0.497 -0.362 1.501
 -0.488 -0.362 1.504
 -0.479 -0.363 1.508
 -0.47 -0.363 1.511
 -0.461 -0.363 1.514
 -0.453 -0.364 1.518
 -0.444 -0.364 1.521
 -0.435 -0.364 1.524
 -0.426 -0.365 1.528
 -0.417 -0.365 1.531
 -0.408 -0.365 1.534
 -0.399 -0.366 1.538
 -0.391 -0.366 1.541
 -0.382 -0.366 1.544
 -0.373 -0.367 1.548
 -0.364 -0.367 1.552
 -0.355 -0.367 1.554
 -0.346 -0.368 1.557
 -0.337 -0.368 1.561
 -0.328 -0.369 1.565
 -0.319 -0.37 1.569
 -0.311 -0.37 1.573
 -0.302 -0.371 1.577
 -0.293 -0.372 1.581
 -0.284 -0.372 1.584
 -0.275 -0.372 1.587
 -0.266 -0.373 1.591
 -0.257 -0.374 1.594
 -0.248 -0.374 1.597
 -0.239 -0.375 1.601
 -0.23 -0.375 1.605
 -0.22 -0.376 1.609
 -0.211 -0.377 1.612
 -0.202 -0.378 1.616
 -0.193 -0.378 1.62
 -0.184 -0.379 1.623
 -0.174 -0.379 1.627
 -0.165 -0.38 1.631
 -0.156 -0.381 1.635
 -0.147 -0.382 1.639
 -0.137 -0.383 1.643
 -0.128 -0.384 1.647
 -0.119 -0.384 1.65
 -0.109 -0.385 1.653
 -0.1 -0.386 1.656
 -0.09 -0.386 1.66
 -0.08 -0.387 1.664
 -0.071 -0.388 1.667
 -0.061 -0.389 1.671
 -0.052 -0.389 1.674
 -0.042 -0.39 1.678
 -0.032 -0.391 1.681
 -0.022 -0.392 1.684
 -0.012 -0.393 1.688
 -0.003 -0.394 1.692
 0.006 -0.394 1.694
 0.016 -0.395 1.697
 0.026 -0.396 1.7
 0.036 -0.396 1.703
 0.046 -0.397 1.705
 0.056 -0.398 1.708
 0.066 -0.398 1.71
 0.076 -0.399 1.711
 0.086 -0.399 1.711
 0.096 -0.399 1.712
 0.107 -0.399 1.712
 0.117 -0.399 1.712
 0.126 -0.399 1.709
 0.136 -0.398 1.704
 0.145 -0.397 1.697
 0.154 -0.394 1.686
 0.163 -0.391 1.673
 0.172 -0.389 1.66
 0.18 -0.386 1.645
 0.188 -0.382 1.63
 0.196 -0.379 1.615
 0.203 -0.375 1.598
 0.21 -0.372 1.581
 0.219 -0.37 1.572
 0.226 -0.366 1.555
 0.233 -0.363 1.54
 0.242 -0.363 1.539
 0.252 -0.365 1.546
 0.262 -0.366 1.549
 0.274 -0.37 1.563
 0.286 -0.373 1.576
 0.295 -0.374 1.577
 0.303 -0.372 1.568
 0.311 -0.37 1.557
 0.317 -0.366 1.542
 0.322 -0.362 1.522
 0.326 -0.357 1.497
 0.33 -0.352 1.473
 0.332 -0.345 1.442
 0.334 -0.338 1.41
 0.336 -0.331 1.381
 0.338 -0.325 1.355
 0.34 -0.32 1.332
 0.335 -0.309 1.281
 0.334 -0.3 1.244
 0 0 0
 0 0 0
 0 0 0
 0 0 0
 0 0 0
 0 0 0
 0 0 0
 0.323 -0.248 1.009
 0.326 -0.245 0.996
 0.33 -0.244 0.989
 0.329 -0.238 0.966
 0.317 -0.226 0.912
 0.318 -0.223 0.897
 0.32 -0.221 0.886
 0.319 -0.216 0.868
 0.322 -0.215 0.86
 0.325 -0.213 0.85
 0.326 -0.211 0.838
 0.328 -0.209 0.828
 0.334 -0.209 0.829
 0.337 -0.208 0.823
 0.339 -0.206 0.812
 0.341 -0.204 0.803
 0.344 -0.203 0.796
 0.344 -0.2 0.783
 0.347 -0.199 0.776
 0.35 -0.198 0.769
 0.351 -0.196 0.76
 0.352 -0.194 0.748
 0.353 -0.192 0.74
 0.353 -0.189 0.728
 0.357 -0.189 0.723
 0.359 -0.188 0.717
 0.361 -0.186 0.709
 0.363 -0.185 0.703
 0.366 -0.184 0.697
 0.368 -0.183 0.69
 0.371 -0.183 0.686
 0.374 -0.182 0.681
 0.377 -0.181 0.675
 0.38 -0.181 0.671
 0.384 -0.18 0.667
 0.387 -0.18 0.664
 0.405 -0.186 0.683
 -0.321 -0.144 0.556
 -0.319 -0.145 0.563
 -0.316 -0.145 0.566
 -0.316 -0.147 0.575
 -0.319 -0.15 0.588
 -0.317 -0.151 0.594
 -0.308 -0.149 0.587
 -0.299 -0.146 0.577
 -0.283 -0.14 0.554
 -0.267 -0.134 0.531
 -0.251 -0.128 0.507
 -0.241 -0.124 0.494
 -0.232 -0.121 0.482
 -0.227 -0.12 0.479
 -0.216 -0.116 0.464
 0 0 0
 0 0 0
 0 0 0
 0 0 0
 0 0 0
 -0.507 -0.295 1.225
 -0.528 -0.312 1.299
 -0.531 -0.318 1.33
 -0.529 -0.322 1.348
 -0.524 -0.324 1.361
 -0.533 -0.335 1.41
 -0.532 -0.34 1.432
 -0.529 -0.344 1.452
 -0.526 -0.348 1.471
 -0.522 -0.352 1.489
 -0.514 -0.352 1.494
 -0.505 -0.352 1.497
 -0.496 -0.353 1.501
 -0.487 -0.353 1.504
 -0.478 -0.353 1.507
 -0.47 -0.353 1.511
 -0.461 -0.354 1.514
 -0.452 -0.354 1.517
 -0.443 -0.354 1.521
 -0.434 -0.355 1.524
 -0.425 -0.355 1.528
 -0.417 -0.355 1.531
 -0.408 -0.355 1.534
 -0.399 -0.356 1.537
 -0.39 -0.356 1.541
 -0.381 -0.356 1.544
 -0.372 -0.357 1.547
 -0.363 -0.357 1.551
 -0.354 -0.358 1.553
 -0.345 -0.358 1.556
 -0.337 -0.359 1.561
 -0.328 -0.359 1.565
 -0.319 -0.36 1.568
 -0.31 -0.36 1.573
 -0.301 -0.361 1.577
 -0.292 -0.362 1.581
 -0.283 -0.362 1.584
 -0.274 -0.363 1.587
 -0.265 -0.363 1.59
 -0.256 -0.364 1.594
 -0.247 -0.364 1.597
 -0.238 -0.365 1.601
 -0.229 -0.365 1.605
 -0.22 -0.366 1.608
 -0.211 -0.367 1.612
 -0.202 -0.368 1.616
 -0.193 -0.368 1.619
 -0.183 -0.369 1.623
 -0.174 -0.37 1.627
 -0.165 -0.37 1.631
 -0.156 -0.371 1.635
 -0.146 -0.372 1.639
 -0.137 -0.373 1.643
 -0.128 -0.373 1.646
 -0.118 -0.374 1.649
 -0.109 -0.375 1.652
 -0.099 -0.375 1.656
 -0.09 -0.376 1.659
 -0.08 -0.377 1.663
 -0.071 -0.378 1.667
 -0.061 -0.378 1.671
 -0.051 -0.379 1.675
 -0.042 -0.38 1.678
 -0.032 -0.381 1.681
 -0.022 -0.381 1.684
 -0.012 -0.382 1.687
 -0.003 -0.383 1.691
 0.006 -0.384 1.693
 0.016 -0.385 1.697
 0.026 -0.385 1.7
 0.036 -0.386 1.703
 0.046 -0.387 1.705
 0.056 -0.387 1.708
 0.066 -0.388 1.709
 0.076 -0.388 1.711
 0.086 -0.388 1.711
 0.096 -0.389 1.711
 0.106 -0.389 1.712
 0.116 -0.389 1.711
 0.126 -0.388 1.708
 0.136 -0.387 1.703
 0.145 -0.386 1.696
 0.154 -0.384 1.685
 0.163 -0.381 1.672
 0.171 -0.378 1.659
 0.18 -0.375 1.644
 0.188 -0.372 1.629
 0.195 -0.369 1.614
 0.203 -0.365 1.598
 0.21 -0.362 1.581
 0.218 -0.36 1.572
 0.225 -0.357 1.556
 0.232 -0.353 1.54
 0.241 -0.353 1.539
 0.252 -0.355 1.545
 0.261 -0.356 1.547
 0.273 -0.359 1.561
 0.285 -0.363 1.574
 0.295 -0.363 1.575
 0.303 -0.362 1.567
 0.31 -0.36 1.557
 0.317 -0.357 1.541
 0.322 -0.353 1.522
 0.327 -0.348 1.5
 0.331 -0.343 1.476
 0.333 -0.336 1.446
 0.334 -0.329 1.411
 0.336 -0.324 1.386
 0.338 -0.318 1.359
 0.338 -0.31 1.323
 0.335 -0.3 1.28
 0.332 -0.291 1.239
 0 0 0
 0 0 0
 0 0 0
 0 0 0
 0 0 0
 0 0 0
 0.321 -0.244 1.024
 0.317 -0.237 0.99
 0.321 -0.235 0.981
 0.323 -0.232 0.968
 0.324 -0.229 0.953
 0.315 -0.219 0.908
 0.315 -0.215 0.89
 0.317 -0.213 0.878
 0.316 -0.209 0.859
 0.32 -0.208 0.853
 0.323 -0.207 0.848
 0.327 -0.206 0.843
 0.329 -0.204 0.832
 0.334 -0.204 0.828
 0.337 -0.203 0.822
 0.338 -0.2 0.809
 0.339 -0.198 0.799
 0.343 -0.197 0.795
 0.345 -0.196 0.786
 0.348 -0.195 0.779
 0.352 -0.194 0.776
 0.352 -0.192 0.764
 0.353 -0.189 0.752
 0.353 -0.187 0.74
 0.352 -0.184 0.727
 0.354 -0.183 0.72
 0.359 -0.183 0.717
 0.36 -0.181 0.708
 0.364 -0.181 0.705
 0.367 -0.18 0.7
 0.369 -0.179 0.693
 0.372 -0.178 0.688
 0.374 -0.177 0.682
 0.376 -0.176 0.674
 0.381 -0.176 0.673
 0.383 -0.175 0.667
 0.391 -0.177 0.671
 0.388 -0.174 0.656
 -0.32 -0.14 0.556
 -0.317 -0.14 0.559
 -0.316 -0.141 0.567
 -0.315 -0.143 0.574
 -0.317 -0.145 0.585
 -0.315 -0.146 0.59
 -0.305 -0.143 0.581
 -0.295 -0.14 0.57
 -0.281 -0.135 0.552
 -0.266 -0.13 0.529
 -0.251 -0.124 0.506
 -0.242 -0.121 0.496
 -0.234 -0.119 0.487
 -0.225 -0.116 0.477
 -0.213 -0.111 0.457
 0 0 0
 0 0 0
 0 0 0
 0 0 0
 0 0 0
 -0.524 -0.297 1.269
 -0.537 -0.309 1.323
 -0.538 -0.314 1.348
 -0.534 -0.316 1.361
 -0.529 -0.318 1.373
 -0.534 -0.327 1.414
 -0.532 -0.332 1.435
 -0.53 -0.335 1.455
 -0.526 -0.339 1.473
 -0.522 -0.342 1.49
 -0.513 -0.343 1.494
 -0.504 -0.343 1.497
 -0.496 -0.343 1.5
 -0.487 -0.343 1.504
 -0.478 -0.343 1.507
 -0.469 -0.344 1.51
 -0.46 -0.344 1.514
 -0.451 -0.344 1.517
 -0.443 -0.345 1.521
 -0.434 -0.345 1.524
 -0.425 -0.345 1.528
 -0.416 -0.346 1.531
 -0.407 -0.346 1.534
 -0.398 -0.346 1.538
 -0.389 -0.347 1.541
 -0.38 -0.347 1.543
 -0.372 -0.347 1.547
 -0.363 -0.348 1.55
 -0.354 -0.348 1.553
 -0.345 -0.348 1.557
 -0.336 -0.349 1.56
 -0.327 -0.349 1.564
 -0.318 -0.35 1.568
 -0.31 -0.351 1.572
 -0.301 -0.351 1.576
 -0.292 -0.352 1.58
 -0.283 -0.352 1.583
 -0.274 -0.353 1.586
 -0.265 -0.353 1.59
 -0.256 -0.354 1.593
 -0.247 -0.354 1.596
 -0.238 -0.355 1.601
 -0.229 -0.356 1.604
 -0.22 -0.356 1.608
 -0.211 -0.357 1.612
 -0.202 -0.358 1.616
 -0.192 -0.358 1.619
 -0.183 -0.359 1.623
 -0.174 -0.359 1.626
 -0.165 -0.36 1.63
 -0.156 -0.361 1.634
 -0.146 -0.362 1.638
 -0.137 -0.362 1.642
 -0.128 -0.363 1.646
 -0.118 -0.364 1.649
 -0.109 -0.364 1.652
 -0.099 -0.365 1.656
 -0.09 -0.366 1.659
 -0.08 -0.367 1.663
 -0.071 -0.368 1.667
 -0.061 -0.368 1.67
 -0.051 -0.369 1.674
 -0.042 -0.37 1.677
 -0.032 -0.37 1.68
 -0.022 -0.371 1.683
 -0.012 -0.372 1.687
 -0.003 -0.373 1.69
 0.006 -0.373 1.693
 0.016 -0.374 1.696
 0.026 -0.375 1.699
 0.036 -0.375 1.702
 0.046 -0.376 1.705
 0.056 -0.377 1.707
 0.066 -0.377 1.709
 0.076 -0.378 1.71
 0.086 -0.378 1.711
 0.096 -0.378 1.711
 0.106 -0.378 1.711
 0.116 -0.378 1.71
 0.126 -0.378 1.707
 0.136 -0.377 1.702
 0.145 -0.375 1.695
 0.154 -0.373 1.685
 0.163 -0.371 1.672
 0.171 -0.368 1.659
 0.18 -0.365 1.645
 0.188 -0.362 1.629
 0.195 -0.359 1.614
 0.203 -0.356 1.598
 0.21 -0.352 1.581
 0.218 -0.35 1.571
 0.226 -0.348 1.557
 0.232 -0.344 1.54
 0.241 -0.344 1.539
 0.252 -0.346 1.546
 0.261 -0.347 1.548
 0.272 -0.349 1.558
 0.285 -0.353 1.573
 0.294 -0.353 1.571
 0.302 -0.351 1.563
 0.309 -0.349 1.551
 0.315 -0.346 1.536
 0.321 -0.343 1.519
 0.326 -0.339 1.5
 0.33 -0.334 1.476
 0.333 -0.328 1.448
 0.334 -0.321 1.413
 0.335 -0.314 1.383
 0.336 -0.308 1.351
 0.336 -0.3 1.318
 0.334 -0.292 1.279
 0.334 -0.286 1.249
 0.323 -0.27 1.177
 0 0 0
 0 0 0
 0 0 0
 0 0 0
 0.324 -0.245 1.056
 0.329 -0.244 1.051
 0.323 -0.235 1.01
 0.324 -0.231 0.992
 0.325 -0.228 0.977
 0.323 -0.223 0.951
 0.315 -0.213 0.908
 0.319 -0.213 0.904
 0.317 -0.208 0.88
 0.318 -0.205 0.867
 0.323 -0.205 0.864
 0.327 -0.204 0.858
 0.328 -0.202 0.847
 0.33 -0.2 0.836
 0.334 -0.199 0.831
 0.336 -0.197 0.822
 0.338 -0.195 0.81
 0.339 -0.193 0.801
 0.342 -0.192 0.795
 0.344 -0.19 0.784
 0.347 -0.189 0.779
 0.349 -0.188 0.771
 0.351 -0.186 0.761
 0.351 -0.184 0.749
 0.351 -0.181 0.737
 0.351 -0.179 0.725
 0.352 -0.177 0.716
 0.355 -0.176 0.711
 0.357 -0.175 0.703
 0.362 -0.176 0.703
 0.364 -0.174 0.695
 0.369 -0.175 0.694
 0.373 -0.174 0.69
 0.376 -0.173 0.685
 0.376 -0.172 0.675
 0.381 -0.172 0.675
 0.384 -0.171 0.669
 0.37 -0.163 0.636
 0.391 -0.17 0.662
 -0.323 -0.137 0.562
 -0.315 -0.135 0.556
 -0.317 -0.138 0.568
 -0.315 -0.139 0.573
 -0.315 -0.14 0.583
 -0.315 -0.142 0.591
 -0.308 -0.141 0.587
 -0.297 -0.138 0.576
 -0.284 -0.133 0.558
 -0.269 -0.128 0.537
 -0.254 -0.122 0.514
 -0.242 -0.118 0.497
 -0.233 -0.115 0.486
 -0.225 -0.113 0.477
 0 0 0
 0 0 0
 0 0 0
 0 0 0
 0 0 0
 0 0 0
 -0.535 -0.295 1.295
 -0.543 -0.304 1.34
 -0.542 -0.308 1.36
 -0.537 -0.31 1.372
 -0.531 -0.312 1.383
 -0.535 -0.319 1.418
 -0.533 -0.323 1.438
 -0.53 -0.326 1.457
 -0.526 -0.33 1.475
 -0.522 -0.333 1.491
 -0.513 -0.333 1.494
 -0.504 -0.333 1.497
 -0.495 -0.333 1.5
 -0.486 -0.334 1.504
 -0.477 -0.334 1.507
 -0.468 -0.334 1.51
 -0.46 -0.334 1.514
 -0.451 -0.335 1.518
 -0.442 -0.335 1.521
 -0.433 -0.335 1.525
 -0.424 -0.336 1.528
 -0.416 -0.336 1.531
 -0.407 -0.336 1.535
 -0.398 -0.337 1.538
 -0.389 -0.337 1.54
 -0.38 -0.337 1.543
 -0.371 -0.337 1.547
 -0.362 -0.338 1.55
 -0.353 -0.338 1.553
 -0.345 -0.339 1.557
 -0.336 -0.339 1.561
 -0.327 -0.34 1.564
 -0.318 -0.34 1.568
 -0.309 -0.341 1.572
 -0.3 -0.341 1.575
 -0.292 -0.342 1.579
 -0.282 -0.342 1.582
 -0.274 -0.343 1.586
 -0.264 -0.343 1.589
 -0.256 -0.344 1.593
 -0.246 -0.344 1.596
 -0.237 -0.345 1.6
 -0.228 -0.346 1.603
 -0.219 -0.346 1.607
 -0.21 -0.347 1.611
 -0.201 -0.348 1.615
 -0.192 -0.348 1.619
 -0.183 -0.349 1.623
 -0.174 -0.349 1.626
 -0.164 -0.35 1.63
 -0.155 -0.351 1.634
 -0.146 -0.352 1.638
 -0.137 -0.352 1.641
 -0.127 -0.353 1.646
 -0.118 -0.354 1.649
 -0.108 -0.354 1.652
 -0.099 -0.355 1.656
 -0.09 -0.356 1.659
 -0.08 -0.356 1.662
 -0.07 -0.357 1.666
 -0.061 -0.358 1.67
 -0.051 -0.359 1.674
 -0.042 -0.36 1.677
 -0.032 -0.36 1.68
 -0.022 -0.361 1.683
 -0.012 -0.362 1.686
 -0.002 -0.362 1.69
 0.006 -0.363 1.693
 0.016 -0.364 1.696
 0.026 -0.364 1.698
 0.036 -0.365 1.701
 0.046 -0.366 1.704
 0.056 -0.366 1.706
 0.066 -0.367 1.708
 0.076 -0.367 1.71
 0.086 -0.368 1.711
 0.096 -0.368 1.711
 0.106 -0.368 1.711
 0.116 -0.368 1.71
 0.126 -0.367 1.707
 0.136 -0.366 1.702
 0.145 -0.365 1.695
 0.154 -0.363 1.684
 0.163 -0.361 1.672
 0.171 -0.358 1.659
 0.179 -0.355 1.645
 0.187 -0.352 1.629
 0.195 -0.349 1.613
 0.203 -0.346 1.597
 0.21 -0.342 1.58
 0.218 -0.341 1.571
 0.225 -0.338 1.557
 0.232 -0.334 1.538
 0.241 -0.334 1.537
 0.251 -0.336 1.543
 0.261 -0.336 1.545
 0.272 -0.339 1.556
 0.284 -0.343 1.57
 0.293 -0.342 1.566
 0.3 -0.34 1.557
 0.307 -0.338 1.545
 0.314 -0.335 1.529
 0.32 -0.333 1.516
 0.326 -0.329 1.499
 0.33 -0.325 1.476
 0.332 -0.319 1.446
 0.334 -0.312 1.415
 0.334 -0.305 1.378
 0.333 -0.297 1.342
 0.333 -0.29 1.306
 0.332 -0.282 1.271
 0.33 -0.275 1.234
 0.328 -0.267 1.199
 0.329 -0.262 1.174
 0 0 0
 0 0 0
 0 0 0
 0.324 -0.238 1.057
 0.328 -0.237 1.049
 0.319 -0.226 0.998
 0.32 -0.223 0.983
 0.32 -0.219 0.963
 0.318 -0.213 0.937
 0.318 -0.21 0.92
 0.323 -0.209 0.914
 0.32 -0.204 0.891
 0.324 -0.203 0.882
 0.329 -0.203 0.881
 0.331 -0.201 0.87
 0.331 -0.198 0.855
 0.334 -0.196 0.845
 0.335 -0.194 0.834
 0.336 -0.191 0.821
 0.338 -0.19 0.812
 0.34 -0.188 0.803
 0.343 -0.187 0.797
 0.345 -0.186 0.788
 0.348 -0.185 0.782
 0.349 -0.183 0.771
 0.35 -0.181 0.761
 0.35 -0.178 0.748
 0.35 -0.176 0.736
 0.35 -0.174 0.723
 0.352 -0.172 0.716
 0.355 -0.172 0.712
 0.357 -0.171 0.704
 0.363 -0.171 0.705
 0.366 -0.171 0.7
 0.37 -0.17 0.697
 0.374 -0.17 0.694
 0.377 -0.169 0.688
 0.377 -0.167 0.678
 0.381 -0.167 0.675
 0.383 -0.166 0.668
 0.397 -0.17 0.683
 0.39 -0.166 0.662
 -0.324 -0.134 0.565
 -0.316 -0.132 0.559
 -0.317 -0.134 0.57
 -0.315 -0.135 0.574
 -0.315 -0.137 0.583
 -0.316 -0.139 0.594
 -0.312 -0.138 0.596
 -0.301 -0.135 0.583
 -0.289 -0.132 0.569
 -0.275 -0.127 0.549
 -0.259 -0.121 0.525
 -0.247 -0.117 0.508
 -0.24 -0.116 0.502
 -0.23 -0.112 0.488
 0 0 0
 0 0 0
 0 0 0
 0 0 0
 0 0 0
 0 0 0
 -0.54 -0.289 1.309
 -0.547 -0.298 1.35
 -0.544 -0.301 1.368
 -0.539 -0.302 1.378
 -0.533 -0.304 1.388
 -0.536 -0.311 1.422
 -0.533 -0.314 1.44
 -0.529 -0.317 1.458
 -0.526 -0.321 1.476
 -0.521 -0.323 1.491
 -0.512 -0.324 1.495
 -0.503 -0.324 1.498
 -0.494 -0.324 1.501
 -0.486 -0.324 1.504
 -0.477 -0.324 1.507
 -0.468 -0.325 1.511
 -0.459 -0.325 1.514
 -0.45 -0.325 1.518
 -0.442 -0.325 1.521
 -0.433 -0.326 1.525
 -0.424 -0.326 1.528
 -0.415 -0.326 1.531
 -0.406 -0.327 1.535
 -0.397 -0.327 1.537
 -0.388 -0.327 1.54
 -0.379 -0.327 1.543
 -0.371 -0.328 1.547
 -0.362 -0.328 1.55
 -0.353 -0.329 1.554
 -0.344 -0.329 1.557
 -0.335 -0.33 1.56
 -0.326 -0.33 1.564
 -0.318 -0.33 1.567
 -0.309 -0.331 1.571
 -0.3 -0.332 1.575
 -0.291 -0.332 1.579
 -0.282 -0.332 1.582
 -0.273 -0.333 1.586
 -0.264 -0.333 1.589
 -0.255 -0.334 1.592
 -0.246 -0.334 1.595
 -0.237 -0.335 1.6
 -0.228 -0.336 1.603
 -0.219 -0.336 1.607
 -0.21 -0.337 1.611
 -0.201 -0.338 1.615
 -0.192 -0.338 1.618
 -0.183 -0.339 1.622
 -0.173 -0.34 1.626
 -0.164 -0.34 1.629
 -0.155 -0.341 1.633
 -0.146 -0.342 1.637
 -0.136 -0.342 1.641
 -0.127 -0.343 1.645
 -0.118 -0.344 1.648
 -0.108 -0.344 1.651
 -0.099 -0.345 1.655
 -0.089 -0.346 1.659
 -0.08 -0.346 1.662
 -0.07 -0.347 1.667
 -0.061 -0.348 1.67
 -0.051 -0.349 1.673
 -0.041 -0.349 1.677
 -0.032 -0.35 1.68
 -0.022 -0.351 1.683
 -0.012 -0.351 1.686
 -0.002 -0.352 1.689
 0.006 -0.353 1.692
 0.016 -0.353 1.695
 0.026 -0.354 1.698
 0.036 -0.355 1.701
 0.046 -0.355 1.703
 0.056 -0.356 1.705
 0.066 -0.356 1.708
 0.076 -0.357 1.709
 0.086 -0.357 1.71
 0.096 -0.357 1.711
 0.106 -0.358 1.711
 0.116 -0.357 1.71
 0.126 -0.357 1.706
 0.136 -0.356 1.701
 0.145 -0.355 1.694
 0.154 -0.353 1.684
 0.163 -0.35 1.672
 0.171 -0.348 1.659
 0.179 -0.345 1.644
 0.187 -0.342 1.628
 0.195 -0.339 1.613
 0.202 -0.336 1.597
 0.21 -0.333 1.58
 0.218 -0.331 1.571
 0.225 -0.328 1.555
 0.231 -0.324 1.537
 0.24 -0.324 1.535
 0.25 -0.326 1.54
 0.26 -0.326 1.541
 0.271 -0.329 1.552
 0.283 -0.332 1.567
 0.292 -0.332 1.563
 0.3 -0.331 1.556
 0.307 -0.329 1.545
 0.314 -0.326 1.532
 0.32 -0.324 1.518
 0.325 -0.32 1.498
 0.329 -0.315 1.475
 0.331 -0.309 1.443
 0.332 -0.302 1.41
 0.332 -0.295 1.372
 0.331 -0.287 1.334
 0.329 -0.279 1.294
 0.332 -0.275 1.274
 0.332 -0.269 1.242
 0.33 -0.261 1.206
 0.331 -0.257 1.184
 0.328 -0.249 1.145
 0.33 -0.246 1.128
 0.331 -0.241 1.106
 0.327 -0.234 1.071
 0.33 -0.231 1.056
 0.321 -0.221 1.007
 0.316 -0.214 0.97
 0.318 -0.211 0.956
 0.317 -0.207 0.935
 0.317 -0.204 0.918
 0.321 -0.203 0.911
 0.322 -0.2 0.896
 0.324 -0.198 0.886
 0.328 -0.197 0.879
 0.33 -0.195 0.868
 0.33 -0.192 0.853
 0.331 -0.19 0.84
 0.333 -0.188 0.83
 0.334 -0.185 0.817
 0.336 -0.184 0.809
 0.339 -0.182 0.801
 0.342 -0.182 0.796
 0.344 -0.18 0.787
 0.349 -0.18 0.784
 0.349 -0.178 0.771
 0.351 -0.176 0.763
 0.35 -0.174 0.75
 0.35 -0.171 0.737
 0.35 -0.169 0.724
 0.352 -0.168 0.718
 0.355 -0.167 0.712
 0.357 -0.166 0.705
 0.363 -0.166 0.705
 0.365 -0.166 0.699
 0.369 -0.165 0.695
 0.372 -0.165 0.691
 0.375 -0.164 0.685
 0.376 -0.163 0.677
 0.38 -0.162 0.674
 0.383 -0.162 0.669
 0.398 -0.166 0.686
 0.396 -0.164 0.672
 -0.328 -0.132 0.572
 -0.315 -0.128 0.557
 -0.318 -0.131 0.572
 -0.315 -0.131 0.575
 -0.315 -0.133 0.584
 -0.316 -0.135 0.596
 -0.315 -0.136 0.603
 -0.304 -0.133 0.591
 -0.292 -0.129 0.575
 -0.278 -0.125 0.555
 -0.262 -0.119 0.532
 -0.245 -0.113 0.505
 -0.238 -0.111 0.498
 -0.228 -0.108 0.484
 0 0 0
 0 0 0
 0 0 0
 0 0 0
 0 0 0
 0 0 0
 -0.543 -0.283 1.319
 -0.549 -0.29 1.357
 -0.546 -0.293 1.373
 -0.54 -0.294 1.383
 -0.534 -0.296 1.393
 -0.536 -0.302 1.424
 -0.533 -0.305 1.442
 -0.529 -0.308 1.459
 -0.525 -0.311 1.477
 -0.52 -0.314 1.491
 -0.512 -0.314 1.494
 -0.503 -0.314 1.498
 -0.494 -0.314 1.501
 -0.485 -0.315 1.504
 -0.476 -0.315 1.507
 -0.467 -0.315 1.51
 -0.459 -0.315 1.514
 -0.45 -0.316 1.517
 -0.441 -0.316 1.52
 -0.432 -0.316 1.524
 -0.423 -0.317 1.528
 -0.415 -0.317 1.531
 -0.406 -0.317 1.534
 -0.397 -0.317 1.537
 -0.388 -0.318 1.54
 -0.379 -0.318 1.543
 -0.37 -0.318 1.546
 -0.361 -0.319 1.55
 -0.353 -0.319 1.554
 -0.344 -0.32 1.557
 -0.335 -0.32 1.561
 -0.326 -0.32 1.564
 -0.317 -0.321 1.568
 -0.308 -0.321 1.571
 -0.3 -0.322 1.575
 -0.291 -0.322 1.579
 -0.282 -0.323 1.581
 -0.273 -0.323 1.585
 -0.264 -0.324 1.588
 -0.255 -0.324 1.592
 -0.246 -0.325 1.595
 -0.237 -0.325 1.6
 -0.228 -0.326 1.603
 -0.219 -0.327 1.607
 -0.21 -0.327 1.611
 -0.201 -0.328 1.615
 -0.191 -0.328 1.617
 -0.182 -0.329 1.621
 -0.173 -0.329 1.624
 -0.164 -0.33 1.628
 -0.155 -0.331 1.632
 -0.145 -0.331 1.636
 -0.136 -0.332 1.639
 -0.127 -0.333 1.644
 -0.117 -0.333 1.647
 -0.108 -0.334 1.65
 -0.099 -0.335 1.655
 -0.089 -0.336 1.658
 -0.08 -0.336 1.662
 -0.07 -0.337 1.666
 -0.061 -0.338 1.67
 -0.051 -0.338 1.673
 -0.041 -0.339 1.676
 -0.032 -0.34 1.679
 -0.022 -0.34 1.683
 -0.012 -0.341 1.685
 -0.002 -0.342 1.688
 0.007 -0.342 1.691
 0.016 -0.343 1.695
 0.026 -0.344 1.697
 0.036 -0.344 1.7
 0.046 -0.345 1.703
 0.056 -0.345 1.705
 0.066 -0.346 1.707
 0.076 -0.346 1.709
 0.086 -0.347 1.71
 0.096 -0.347 1.71
 0.106 -0.347 1.711
 0.116 -0.347 1.71
 0.126 -0.346 1.706
 0.135 -0.346 1.701
 0.145 -0.345 1.695
 0.154 -0.343 1.685
 0.163 -0.34 1.672
 0.171 -0.338 1.659
 0.179 -0.335 1.645
 0.187 -0.332 1.628
 0.195 -0.329 1.612
 0.202 -0.326 1.596
 0.209 -0.323 1.58
 0.217 -0.321 1.57
 0.225 -0.318 1.554
 0.231 -0.315 1.535
 0.24 -0.314 1.532
 0.25 -0.316 1.538
 0.259 -0.316 1.538
 0.27 -0.319 1.548
 0.282 -0.322 1.564
 0.291 -0.322 1.562
 0.299 -0.32 1.553
 0.306 -0.318 1.541
 0.313 -0.316 1.528
 0.319 -0.314 1.515
 0.325 -0.31 1.496
 0.329 -0.306 1.474
 0.331 -0.3 1.443
 0.332 -0.293 1.409
 0.331 -0.286 1.371
 0.331 -0.279 1.333
 0.329 -0.271 1.292
 0.332 -0.267 1.273
 0.333 -0.262 1.247
 0.333 -0.256 1.218
 0.333 -0.251 1.191
 0.331 -0.245 1.158
 0.33 -0.239 1.129
 0.33 -0.234 1.104
 0.333 -0.232 1.09
 0.335 -0.228 1.073
 0.324 -0.217 1.016
 0.314 -0.207 0.965
 0.315 -0.204 0.949
 0.318 -0.202 0.94
 0.318 -0.198 0.921
 0.321 -0.197 0.912
 0.322 -0.194 0.897
 0.324 -0.192 0.885
 0.325 -0.19 0.873
 0.328 -0.188 0.863
 0.328 -0.186 0.849
 0.331 -0.184 0.84
 0.332 -0.182 0.829
 0.333 -0.18 0.817
 0.336 -0.179 0.811
 0.339 -0.178 0.803
 0.341 -0.176 0.795
 0.343 -0.175 0.786
 0.348 -0.175 0.784
 0.348 -0.172 0.77
 0.349 -0.17 0.759
 0.349 -0.168 0.748
 0.35 -0.166 0.737
 0.35 -0.164 0.726
 0.353 -0.164 0.721
 0.356 -0.163 0.716
 0.358 -0.162 0.709
 0.363 -0.162 0.707
 0.365 -0.161 0.699
 0.367 -0.16 0.694
 0.37 -0.159 0.688
 0.372 -0.158 0.681
 0.373 -0.157 0.673
 0.378 -0.157 0.672
 0.382 -0.157 0.668
 0.383 -0.156 0.661
 0.384 -0.154 0.652
 -0.33 -0.129 0.577
 -0.316 -0.125 0.56
 -0.319 -0.127 0.575
 -0.316 -0.128 0.577
 -0.315 -0.129 0.586
 -0.317 -0.131 0.598
 -0.319 -0.134 0.611
 -0.308 -0.131 0.599
 -0.295 -0.127 0.583
 -0.28 -0.122 0.561
 -0.267 -0.118 0.543
 -0.246 -0.11 0.508
 -0.238 -0.108 0.5
 -0.225 -0.104 0.478
 0 0 0
 0 0 0
 0 0 0
 0 0 0
 0 0 0
 0 0 0
 -0.547 -0.277 1.331
 -0.551 -0.283 1.365
 -0.548 -0.285 1.38
 -0.542 -0.287 1.389
 -0.536 -0.288 1.399
 -0.537 -0.294 1.428
 -0.533 -0.297 1.444
 -0.529 -0.299 1.461
 -0.525 -0.302 1.477
 -0.52 -0.304 1.491
 -0.511 -0.305 1.495
 -0.502 -0.305 1.498
 -0.493 -0.305 1.501
 -0.484 -0.305 1.504
 -0.475 -0.305 1.507
 -0.467 -0.306 1.51
 -0.458 -0.306 1.514
 -0.449 -0.306 1.517
 -0.44 -0.306 1.521
 -0.432 -0.307 1.524
 -0.423 -0.307 1.528
 -0.414 -0.307 1.531
 -0.405 -0.308 1.534
 -0.396 -0.308 1.537
 -0.387 -0.308 1.54
 -0.379 -0.308 1.543
 -0.37 -0.309 1.547
 -0.361 -0.309 1.55
 -0.352 -0.31 1.554
 -0.344 -0.31 1.557
 -0.335 -0.31 1.561
 -0.326 -0.311 1.564
 -0.317 -0.311 1.568
 -0.308 -0.312 1.571
 -0.299 -0.312 1.574
 -0.29 -0.313 1.578
 -0.281 -0.313 1.581
 -0.272 -0.314 1.585
 -0.263 -0.314 1.588
 -0.254 -0.314 1.591
 -0.245 -0.315 1.595
 -0.237 -0.316 1.599
 -0.228 -0.316 1.603
 -0.219 -0.317 1.607
 -0.21 -0.317 1.61
 -0.2 -0.318 1.614
 -0.191 -0.318 1.617
 -0.182 -0.319 1.62
 -0.173 -0.32 1.624
 -0.164 -0.32 1.628
 -0.154 -0.321 1.631
 -0.145 -0.321 1.635
 -0.136 -0.322 1.639
 -0.127 -0.323 1.642
 -0.117 -0.323 1.646
 -0.108 -0.324 1.65
 -0.099 -0.325 1.655
 -0.089 -0.326 1.658
 -0.08 -0.326 1.662
 -0.07 -0.327 1.666
 -0.06 -0.328 1.669
 -0.051 -0.328 1.672
 -0.041 -0.329 1.676
 -0.032 -0.33 1.68
 -0.022 -0.33 1.683
 -0.012 -0.331 1.686
 -0.002 -0.332 1.689
 0.007 -0.332 1.691
 0.016 -0.333 1.695
 0.026 -0.333 1.697
 0.036 -0.334 1.7
 0.046 -0.334 1.702
 0.056 -0.335 1.704
 0.066 -0.335 1.706
 0.076 -0.336 1.708
 0.086 -0.336 1.709
 0.096 -0.337 1.71
 0.106 -0.337 1.711
 0.116 -0.337 1.709
 0.126 -0.336 1.706
 0.135 -0.335 1.701
 0.145 -0.334 1.694
 0.154 -0.332 1.684
 0.163 -0.33 1.672
 0.171 -0.328 1.659
 0.179 -0.325 1.644
 0.187 -0.322 1.628
 0.195 -0.319 1.612
 0.202 -0.316 1.595
 0.209 -0.313 1.579
 0.217 -0.312 1.569
 0.224 -0.309 1.555
 0.231 -0.305 1.533
 0.239 -0.305 1.531
 0.249 -0.306 1.536
 0.259 -0.307 1.537
 0.269 -0.309 1.545
 0.282 -0.312 1.562
 0.29 -0.312 1.558
 0.298 -0.31 1.548
 0.305 -0.308 1.535
 0.311 -0.305 1.522
 0.318 -0.303 1.507
 0.322 -0.299 1.487
 0.327 -0.296 1.467
 0.33 -0.291 1.44
 0.331 -0.285 1.408
 0.33 -0.277 1.367
 0.329 -0.269 1.327
 0.328 -0.262 1.291
 0.331 -0.258 1.269
 0.331 -0.253 1.242
 0.334 -0.25 1.224
 0.329 -0.241 1.178
 0.322 -0.231 1.125
 0.321 -0.225 1.097
 0.322 -0.222 1.077
 0.324 -0.219 1.062
 0.328 -0.218 1.053
 0.325 -0.212 1.022
 0.317 -0.202 0.974
 0.319 -0.2 0.961
 0.321 -0.198 0.948
 0.319 -0.193 0.924
 0.321 -0.191 0.912
 0.322 -0.189 0.899
 0.325 -0.187 0.89
 0.327 -0.185 0.877
 0.329 -0.184 0.869
 0.329 -0.181 0.851
 0.331 -0.179 0.841
 0.332 -0.177 0.829
 0.333 -0.175 0.818
 0.336 -0.173 0.81
 0.34 -0.173 0.806
 0.342 -0.172 0.797
 0.343 -0.17 0.786
 0.346 -0.169 0.781
 0.346 -0.167 0.767
 0.347 -0.165 0.757
 0.348 -0.163 0.745
 0.349 -0.161 0.737
 0.35 -0.16 0.727
 0.353 -0.159 0.722
 0.356 -0.158 0.716
 0.358 -0.157 0.71
 0.362 -0.157 0.705
 0.364 -0.156 0.698
 0.367 -0.155 0.693
 0.369 -0.154 0.687
 0.372 -0.154 0.682
 0.374 -0.153 0.675
 0.377 -0.152 0.671
 0.381 -0.152 0.667
 0.387 -0.153 0.669
 0.393 -0.153 0.668
 -0.336 -0.127 0.588
 -0.317 -0.121 0.563
 -0.32 -0.124 0.578
 -0.317 -0.124 0.58
 -0.316 -0.125 0.588
 -0.318 -0.128 0.601
 -0.322 -0.131 0.619
 -0.312 -0.129 0.608
 -0.298 -0.125 0.59
 -0.284 -0.12 0.571
 -0.272 -0.117 0.553
 -0.247 -0.108 0.511
 -0.236 -0.104 0.496
 0 0 0
 0 0 0
 0 0 0
 0 0 0
 0 0 0
 0 0 0
 0 0 0
 -0.553 -0.271 1.346
 -0.554 -0.276 1.374
 -0.55 -0.278 1.387
 -0.543 -0.279 1.394
 -0.537 -0.28 1.404
 -0.537 -0.285 1.43
 -0.533 -0.288 1.446
 -0.529 -0.29 1.462
 -0.525 -0.293 1.479
 -0.519 -0.295 1.491
 -0.511 -0.295 1.495
 -0.502 -0.295 1.498
 -0.493 -0.296 1.501
 -0.484 -0.296 1.504
 -0.475 -0.296 1.507
 -0.466 -0.296 1.51
 -0.458 -0.296 1.514
 -0.449 -0.297 1.517
 -0.44 -0.297 1.52
 -0.431 -0.297 1.524
 -0.422 -0.297 1.527
 -0.414 -0.298 1.53
 -0.405 -0.298 1.533
 -0.396 -0.298 1.537
 -0.387 -0.299 1.54
 -0.378 -0.299 1.543
 -0.369 -0.299 1.547
 -0.361 -0.3 1.55
 -0.352 -0.3 1.554
 -0.343 -0.3 1.557
 -0.334 -0.301 1.561
 -0.325 -0.301 1.564
 -0.317 -0.302 1.568
 -0.308 -0.302 1.571
 -0.299 -0.303 1.574
 -0.29 -0.303 1.577
 -0.281 -0.303 1.58
 -0.272 -0.304 1.584
 -0.263 -0.304 1.588
 -0.254 -0.305 1.591
 -0.245 -0.305 1.594
 -0.236 -0.306 1.598
 -0.227 -0.306 1.602
 -0.218 -0.307 1.606
 -0.209 -0.308 1.61
 -0.2 -0.308 1.614
 -0.191 -0.309 1.617
 -0.182 -0.309 1.62
 -0.173 -0.31 1.623
 -0.163 -0.31 1.627
 -0.154 -0.311 1.631
 -0.145 -0.312 1.635
 -0.136 -0.312 1.638
 -0.126 -0.313 1.642
 -0.117 -0.313 1.645
 -0.108 -0.314 1.649
 -0.098 -0.315 1.654
 -0.089 -0.316 1.658
 -0.079 -0.316 1.662
 -0.07 -0.317 1.665
 -0.06 -0.318 1.669
 -0.051 -0.318 1.672
 -0.041 -0.319 1.676
 -0.031 -0.32 1.679
 -0.022 -0.32 1.683
 -0.012 -0.321 1.686
 -0.002 -0.322 1.689
 0.007 -0.322 1.692
 0.016 -0.323 1.695
 0.026 -0.323 1.697
 0.036 -0.324 1.7
 0.046 -0.324 1.702
 0.056 -0.325 1.704
 0.066 -0.325 1.706
 0.076 -0.326 1.708
 0.086 -0.326 1.708
 0.096 -0.326 1.709
 0.106 -0.327 1.711
 0.116 -0.326 1.709
 0.126 -0.326 1.706
 0.135 -0.325 1.701
 0.145 -0.324 1.694
 0.154 -0.322 1.684
 0.162 -0.32 1.672
 0.171 -0.318 1.659
 0.179 -0.315 1.644
 0.187 -0.312 1.627
 0.194 -0.309 1.611
 0.202 -0.306 1.594
 0.209 -0.304 1.577
 0.217 -0.302 1.568
 0.224 -0.299 1.553
 0.23 -0.296 1.533
 0.239 -0.295 1.53
 0.249 -0.297 1.537
 0.258 -0.297 1.537
 0.269 -0.299 1.544
 0.281 -0.302 1.56
 0.29 -0.302 1.557
 0.297 -0.3 1.547
 0.305 -0.298 1.535
 0.311 -0.296 1.521
 0.317 -0.294 1.507
 0.322 -0.29 1.487
 0.327 -0.286 1.466
 0.329 -0.281 1.438
 0.331 -0.276 1.408
 0.331 -0.269 1.37
 0.329 -0.261 1.328
 0.328 -0.255 1.293
 0.33 -0.25 1.269
 0.33 -0.245 1.238
 0.33 -0.24 1.21
 0.327 -0.233 1.173
 0.323 -0.225 1.133
 0.321 -0.219 1.098
 0.32 -0.214 1.071
 0.315 -0.206 1.031
 0.314 -0.202 1.009
 0.313 -0.198 0.984
 0.308 -0.191 0.948
 0.312 -0.19 0.943
 0.32 -0.191 0.946
 0.32 -0.188 0.928
 0.322 -0.186 0.915
 0.325 -0.184 0.906
 0.326 -0.182 0.892
 0.326 -0.179 0.875
 0.327 -0.177 0.862
 0.327 -0.174 0.848
 0.329 -0.173 0.838
 0.331 -0.171 0.827
 0.331 -0.168 0.813
 0.334 -0.167 0.806
 0.337 -0.167 0.801
 0.34 -0.166 0.793
 0.342 -0.164 0.784
 0.345 -0.163 0.777
 0.344 -0.161 0.764
 0.345 -0.159 0.754
 0.346 -0.158 0.744
 0.348 -0.156 0.736
 0.351 -0.155 0.729
 0.354 -0.155 0.725
 0.357 -0.154 0.719
 0.359 -0.153 0.711
 0.362 -0.152 0.706
 0.364 -0.151 0.699
 0.365 -0.15 0.691
 0.367 -0.149 0.683
 0.37 -0.148 0.679
 0.373 -0.148 0.674
 0.376 -0.147 0.67
 0.379 -0.147 0.665
 0.381 -0.146 0.659
 0.388 -0.147 0.661
 -0.339 -0.124 0.595
 -0.323 -0.12 0.575
 -0.322 -0.121 0.581
 -0.318 -0.121 0.584
 -0.318 -0.122 0.591
 -0.321 -0.125 0.608
 -0.328 -0.129 0.63
 -0.317 -0.127 0.619
 -0.304 -0.123 0.603
 -0.291 -0.119 0.586
 -0.278 -0.116 0.568
 -0.251 -0.106 0.52
 -0.243 -0.104 0.511
 0 0 0
 0 0 0
 0 0 0
 0 0 0
 0 0 0
 0 0 0
 0 0 0
 -0.543 -0.258 1.325
 -0.549 -0.265 1.361
 -0.546 -0.267 1.378
 -0.54 -0.269 1.387
 -0.538 -0.272 1.409
 -0.537 -0.276 1.432
 -0.533 -0.279 1.448
 -0.529 -0.281 1.464
 -0.525 -0.284 1.48
 -0.519 -0.286 1.491
 -0.51 -0.286 1.495
 -0.501 -0.286 1.498
 -0.492 -0.286 1.502
 -0.484 -0.286 1.505
 -0.475 -0.287 1.507
 -0.466 -0.287 1.51
 -0.457 -0.287 1.514
 -0.448 -0.287 1.517
 -0.439 -0.287 1.52
 -0.431 -0.288 1.524
 -0.422 -0.288 1.527
 -0.413 -0.288 1.53
 -0.404 -0.289 1.533
 -0.395 -0.289 1.537
 -0.387 -0.289 1.54
 -0.378 -0.29 1.544
 -0.369 -0.29 1.547
 -0.36 -0.29 1.55
 -0.352 -0.291 1.554
 -0.343 -0.291 1.556
 -0.334 -0.291 1.56
 -0.325 -0.292 1.564
 -0.316 -0.292 1.567
 -0.307 -0.293 1.571
 -0.299 -0.293 1.574
 -0.29 -0.293 1.577
 -0.281 -0.294 1.58
 -0.272 -0.294 1.584
 -0.263 -0.295 1.587
 -0.254 -0.295 1.591
 -0.245 -0.296 1.594
 -0.236 -0.296 1.598
 -0.227 -0.297 1.602
 -0.218 -0.297 1.606
 -0.209 -0.298 1.609
 -0.2 -0.298 1.613
 -0.191 -0.299 1.616
 -0.182 -0.299 1.62
 -0.172 -0.3 1.624
 -0.163 -0.301 1.628
 -0.154 -0.301 1.631
 -0.145 -0.302 1.635
 -0.136 -0.302 1.638
 -0.126 -0.303 1.641
 -0.117 -0.303 1.645
 -0.108 -0.304 1.649
 -0.098 -0.305 1.654
 -0.089 -0.306 1.657
 -0.079 -0.306 1.661
 -0.07 -0.307 1.665
 -0.06 -0.308 1.668
 -0.051 -0.308 1.671
 -0.041 -0.309 1.675
 -0.031 -0.309 1.678
 -0.022 -0.31 1.682
 -0.012 -0.311 1.685
 -0.002 -0.311 1.689
 0.007 -0.312 1.691
 0.017 -0.313 1.695
 0.026 -0.313 1.697
 0.036 -0.314 1.7
 0.046 -0.314 1.702
 0.056 -0.314 1.704
 0.066 -0.315 1.706
 0.076 -0.315 1.708
 0.086 -0.316 1.708
 0.096 -0.316 1.709
 0.106 -0.316 1.71
 0.116 -0.316 1.709
 0.126 -0.316 1.706
 0.135 -0.315 1.701
 0.145 -0.314 1.695
 0.154 -0.312 1.685
 0.162 -0.31 1.673
 0.171 -0.308 1.659
 0.179 -0.306 1.644
 0.187 -0.303 1.628
 0.194 -0.3 1.611
 0.202 -0.297 1.594
 0.209 -0.294 1.577
 0.217 -0.292 1.567
 0.224 -0.29 1.553
 0.23 -0.286 1.532
 0.239 -0.286 1.531
 0.249 -0.288 1.539
 0.258 -0.288 1.537
 0.269 -0.29 1.544
 0.281 -0.293 1.562
 0.29 -0.293 1.559
 0.297 -0.291 1.547
 0.305 -0.289 1.537
 0.311 -0.287 1.525
 0.318 -0.285 1.509
 0.322 -0.281 1.488
 0.327 -0.278 1.468
 0.329 -0.273 1.438
 0.331 -0.267 1.408
 0.331 -0.261 1.374
 0.33 -0.254 1.333
 0.328 -0.247 1.294
 0.331 -0.243 1.272
 0.33 -0.237 1.238
 0.327 -0.23 1.198
 0.323 -0.223 1.159
 0.32 -0.216 1.122
 0.318 -0.21 1.089
 0.319 -0.207 1.068
 0.315 -0.2 1.034
 0.315 -0.196 1.011
 0.313 -0.192 0.986
 0.31 -0.187 0.956
 0.313 -0.185 0.946
 0.32 -0.186 0.948
 0.32 -0.182 0.929
 0.322 -0.18 0.916
 0.324 -0.179 0.906
 0.324 -0.176 0.889
 0.323 -0.172 0.868
 0.324 -0.17 0.856
 0.325 -0.168 0.843
 0.328 -0.167 0.834
 0.329 -0.165 0.824
 0.33 -0.163 0.812
 0.333 -0.162 0.804
 0.336 -0.161 0.799
 0.337 -0.159 0.787
 0.339 -0.158 0.778
 0.342 -0.157 0.772
 0.343 -0.155 0.761
 0.344 -0.154 0.752
 0.346 -0.153 0.744
 0.349 -0.152 0.738
 0.352 -0.151 0.732
 0.354 -0.15 0.726
 0.357 -0.15 0.72
 0.358 -0.148 0.711
 0.36 -0.147 0.704
 0.361 -0.146 0.695
 0.363 -0.145 0.687
 0.364 -0.144 0.68
 0.367 -0.143 0.675
 0.371 -0.143 0.671
 0.375 -0.142 0.668
 0.378 -0.142 0.664
 0.375 -0.14 0.649
 0.374 -0.138 0.638
 -0.341 -0.121 0.599
 -0.331 -0.119 0.591
 -0.323 -0.118 0.585
 -0.32 -0.118 0.588
 -0.32 -0.119 0.597
 -0.326 -0.123 0.617
 -0.335 -0.128 0.645
 -0.327 -0.126 0.639
 -0.313 -0.122 0.62
 -0.296 -0.118 0.597
 -0.282 -0.113 0.576
 -0.254 -0.104 0.526
 -0.241 -0.1 0.507
 -0.231 -0.097 0.493
 0 0 0
 0 0 0
 0 0 0
 0 0 0
 0 0 0
 0 0 0
 -0.539 -0.248 1.316
 -0.545 -0.254 1.352
 -0.542 -0.257 1.371
 -0.537 -0.259 1.383
 -0.539 -0.264 1.413
 -0.537 -0.268 1.434
 -0.534 -0.27 1.451
 -0.529 -0.272 1.466
 -0.525 -0.275 1.481
 -0.518 -0.276 1.491
 -0.51 -0.276 1.495
 -0.501 -0.277 1.498
 -0.492 -0.277 1.501
 -0.483 -0.277 1.504
 -0.474 -0.277 1.507
 -0.465 -0.277 1.51
 -0.456 -0.277 1.513
 -0.448 -0.278 1.516
 -0.439 -0.278 1.52
 -0.43 -0.278 1.524
 -0.421 -0.279 1.527
 -0.413 -0.279 1.53
 -0.404 -0.279 1.533
 -0.395 -0.279 1.537
 -0.386 -0.28 1.54
 -0.378 -0.28 1.544
 -0.369 -0.28 1.547
 -0.36 -0.281 1.55
 -0.351 -0.281 1.554
 -0.342 -0.281 1.556
 -0.333 -0.282 1.56
 -0.325 -0.282 1.563
 -0.316 -0.282 1.566
 -0.307 -0.283 1.57
 -0.298 -0.283 1.573
 -0.289 -0.284 1.577
 -0.28 -0.284 1.58
 -0.271 -0.285 1.584
 -0.262 -0.285 1.587
 -0.253 -0.285 1.59
 -0.245 -0.286 1.594
 -0.236 -0.286 1.598
 -0.227 -0.287 1.602
 -0.218 -0.288 1.605
 -0.209 -0.288 1.609
 -0.2 -0.289 1.613
 -0.191 -0.289 1.617
 -0.182 -0.29 1.622
 -0.173 -0.291 1.628
 -0.164 -0.292 1.633
 -0.154 -0.292 1.635
 -0.145 -0.293 1.638
 -0.136 -0.293 1.64
 -0.126 -0.293 1.641
 -0.117 -0.293 1.644
 -0.107 -0.294 1.648
 -0.098 -0.295 1.653
 -0.089 -0.296 1.656
 -0.079 -0.296 1.661
 -0.07 -0.297 1.664
 -0.06 -0.297 1.667
 -0.051 -0.298 1.67
 -0.041 -0.299 1.675
 -0.031 -0.299 1.678
 -0.022 -0.3 1.682
 -0.012 -0.301 1.685
 -0.002 -0.301 1.689
 0.007 -0.302 1.691
 0.017 -0.302 1.694
 0.026 -0.303 1.697
 0.036 -0.303 1.699
 0.046 -0.304 1.701
 0.056 -0.304 1.703
 0.066 -0.305 1.705
 0.076 -0.305 1.707
 0.086 -0.305 1.708
 0.096 -0.306 1.709
 0.106 -0.306 1.71
 0.116 -0.306 1.709
 0.126 -0.305 1.706
 0.135 -0.305 1.701
 0.145 -0.304 1.694
 0.154 -0.302 1.685
 0.162 -0.3 1.672
 0.171 -0.298 1.659
 0.179 -0.296 1.644
 0.186 -0.293 1.627
 0.194 -0.29 1.609
 0.201 -0.287 1.592
 0.208 -0.284 1.575
 0.216 -0.283 1.566
 0.224 -0.28 1.552
 0.229 -0.276 1.528
 0.238 -0.277 1.528
 0.249 -0.278 1.537
 0.258 -0.279 1.537
 0.269 -0.28 1.545
 0.281 -0.284 1.564
 0.29 -0.284 1.56
 0.297 -0.281 1.547
 0.304 -0.28 1.537
 0.311 -0.278 1.522
 0.317 -0.276 1.509
 0.322 -0.272 1.488
 0.327 -0.269 1.468
 0.328 -0.264 1.437
 0.33 -0.258 1.406
 0.33 -0.252 1.371
 0.329 -0.246 1.333
 0.328 -0.239 1.295
 0.329 -0.235 1.268
 0.327 -0.228 1.23
 0.324 -0.221 1.19
 0.32 -0.214 1.147
 0.317 -0.207 1.111
 0.315 -0.202 1.079
 0.315 -0.198 1.056
 0.313 -0.193 1.026
 0.314 -0.19 1.009
 0.313 -0.186 0.986
 0.314 -0.183 0.968
 0.315 -0.18 0.952
 0.32 -0.18 0.949
 0.32 -0.177 0.931
 0.323 -0.175 0.92
 0.322 -0.172 0.901
 0.323 -0.17 0.886
 0.322 -0.166 0.867
 0.322 -0.164 0.852
 0.322 -0.161 0.836
 0.326 -0.161 0.83
 0.328 -0.159 0.821
 0.329 -0.158 0.811
 0.331 -0.156 0.8
 0.335 -0.155 0.796
 0.336 -0.154 0.785
 0.338 -0.153 0.777
 0.339 -0.151 0.766
 0.342 -0.15 0.76
 0.344 -0.149 0.752
 0.346 -0.148 0.745
 0.349 -0.147 0.738
 0.352 -0.147 0.733
 0.355 -0.146 0.727
 0.356 -0.145 0.719
 0.357 -0.143 0.709
 0.359 -0.142 0.702
 0.361 -0.141 0.694
 0.362 -0.14 0.686
 0.365 -0.139 0.681
 0.369 -0.139 0.678
 0.372 -0.139 0.673
 0.375 -0.138 0.669
 0.378 -0.138 0.665
 0.39 -0.141 0.677
 0.379 -0.135 0.647
 -0.336 -0.115 0.591
 -0.336 -0.117 0.6
 -0.325 -0.114 0.589
 -0.323 -0.115 0.593
 -0.324 -0.117 0.605
 -0.332 -0.121 0.629
 -0.342 -0.126 0.66
 -0.335 -0.125 0.657
 -0.323 -0.122 0.641
 -0.306 -0.118 0.618
 -0.289 -0.113 0.593
 -0.262 -0.103 0.544
 -0.25 -0.1 0.527
 -0.241 -0.098 0.517
 0 0 0
 0 0 0
 0 0 0
 0 0 0
 0 0 0
 0 0 0
 -0.535 -0.238 1.306
 -0.541 -0.244 1.344
 -0.539 -0.248 1.365
 -0.535 -0.25 1.378
 -0.54 -0.256 1.417
 -0.538 -0.259 1.437
 -0.534 -0.262 1.454
 -0.53 -0.264 1.468
 -0.525 -0.266 1.483
 -0.518 -0.267 1.491
 -0.509 -0.267 1.495
 -0.5 -0.267 1.498
 -0.491 -0.267 1.501
 -0.482 -0.268 1.504
 -0.474 -0.268 1.507
 -0.465 -0.268 1.51
 -0.456 -0.268 1.513
 -0.447 -0.268 1.516
 -0.438 -0.269 1.52
 -0.43 -0.269 1.523
 -0.421 -0.269 1.527
 -0.412 -0.269 1.53
 -0.403 -0.27 1.533
 -0.395 -0.27 1.537
 -0.386 -0.27 1.54
 -0.377 -0.271 1.543
 -0.368 -0.271 1.547
 -0.36 -0.271 1.55
 -0.351 -0.272 1.553
 -0.342 -0.272 1.556
 -0.333 -0.272 1.56
 -0.324 -0.273 1.563
 -0.315 -0.273 1.565
 -0.306 -0.273 1.569
 -0.298 -0.274 1.573
 -0.289 -0.274 1.576
 -0.28 -0.274 1.579
 -0.271 -0.275 1.584
 -0.262 -0.275 1.587
 -0.253 -0.276 1.59
 -0.244 -0.276 1.594
 -0.235 -0.277 1.598
 -0.227 -0.278 1.603
 -0.218 -0.278 1.608
 -0.209 -0.279 1.613
 -0.2 -0.28 1.619
 -0.191 -0.281 1.624
 -0.182 -0.281 1.629
 -0.173 -0.282 1.63
 -0.163 -0.282 1.631
 -0.154 -0.282 1.632
 -0.144 -0.282 1.633
 -0.135 -0.282 1.634
 -0.126 -0.283 1.638
 -0.116 -0.283 1.643
 -0.107 -0.284 1.648
 -0.098 -0.285 1.653
 -0.088 -0.286 1.656
 -0.079 -0.286 1.66
 -0.07 -0.287 1.663
 -0.06 -0.287 1.667
 -0.05 -0.288 1.67
 -0.041 -0.289 1.674
 -0.031 -0.289 1.677
 -0.022 -0.29 1.681
 -0.012 -0.29 1.684
 -0.002 -0.291 1.688
 0.007 -0.292 1.69
 0.017 -0.292 1.694
 0.026 -0.293 1.696
 0.036 -0.293 1.699
 0.046 -0.294 1.701
 0.056 -0.294 1.703
 0.066 -0.295 1.705
 0.076 -0.295 1.707
 0.086 -0.295 1.708
 0.096 -0.295 1.708
 0.106 -0.296 1.709
 0.116 -0.296 1.708
 0.126 -0.295 1.705
 0.135 -0.295 1.7
 0.145 -0.294 1.694
 0.154 -0.292 1.685
 0.162 -0.29 1.672
 0.171 -0.288 1.658
 0.179 -0.286 1.643
 0.186 -0.283 1.626
 0.194 -0.28 1.609
 0.201 -0.277 1.592
 0.208 -0.275 1.575
 0.216 -0.273 1.565
 0.223 -0.271 1.551
 0.229 -0.267 1.527
 0.238 -0.267 1.528
 0.249 -0.269 1.537
 0.258 -0.269 1.536
 0.268 -0.271 1.544
 0.281 -0.275 1.563
 0.29 -0.274 1.56
 0.297 -0.272 1.546
 0.305 -0.271 1.539
 0.311 -0.269 1.525
 0.318 -0.267 1.512
 0.322 -0.263 1.49
 0.326 -0.26 1.467
 0.328 -0.254 1.435
 0.329 -0.249 1.404
 0.329 -0.243 1.366
 0.328 -0.237 1.328
 0.327 -0.231 1.291
 0.327 -0.225 1.258
 0.324 -0.218 1.218
 0.319 -0.211 1.172
 0.316 -0.204 1.133
 0.313 -0.198 1.098
 0.313 -0.194 1.074
 0.314 -0.191 1.053
 0.311 -0.186 1.022
 0.313 -0.183 1.008
 0.313 -0.18 0.985
 0.314 -0.177 0.969
 0.314 -0.174 0.95
 0.319 -0.173 0.945
 0.32 -0.171 0.932
 0.324 -0.17 0.923
 0.322 -0.167 0.902
 0.324 -0.165 0.889
 0.323 -0.162 0.87
 0.323 -0.159 0.854
 0.323 -0.157 0.839
 0.328 -0.156 0.836
 0.328 -0.154 0.823
 0.331 -0.153 0.815
 0.332 -0.151 0.804
 0.335 -0.15 0.797
 0.336 -0.149 0.785
 0.337 -0.147 0.776
 0.338 -0.146 0.764
 0.341 -0.145 0.758
 0.343 -0.144 0.752
 0.345 -0.143 0.743
 0.347 -0.142 0.736
 0.351 -0.141 0.732
 0.354 -0.141 0.726
 0.356 -0.14 0.718
 0.356 -0.138 0.708
 0.359 -0.137 0.702
 0.36 -0.136 0.694
 0.361 -0.135 0.685
 0.363 -0.134 0.679
 0.368 -0.134 0.677
 0.371 -0.134 0.673
 0.375 -0.134 0.669
 0.378 -0.133 0.665
 0.375 -0.131 0.651
 0.382 -0.132 0.653
 -0.335 -0.111 0.589
 -0.337 -0.113 0.602
 -0.326 -0.111 0.592
 -0.325 -0.112 0.599
 -0.329 -0.114 0.615
 -0.338 -0.119 0.643
 -0.351 -0.125 0.678
 -0.344 -0.124 0.675
 -0.331 -0.121 0.659
 -0.313 -0.116 0.632
 -0.295 -0.111 0.604
 -0.266 -0.101 0.552
 -0.252 -0.098 0.532
 -0.244 -0.096 0.522
 0 0 0
 0 0 0
 0 0 0
 0 0 0
 0 0 0
 -0.504 -0.214 1.21
 -0.535 -0.23 1.308
 -0.54 -0.236 1.344
 -0.539 -0.239 1.364
 -0.534 -0.241 1.377
 -0.541 -0.247 1.42
 -0.538 -0.25 1.438
 -0.534 -0.253 1.455
 -0.529 -0.255 1.469
 -0.525 -0.257 1.484
 -0.517 -0.258 1.491
 -0.508 -0.258 1.495
 -0.499 -0.258 1.497
 -0.491 -0.258 1.501
 -0.482 -0.258 1.503
 -0.473 -0.258 1.507
 -0.464 -0.258 1.509
 -0.455 -0.259 1.512
 -0.446 -0.259 1.515
 -0.438 -0.259 1.519
 -0.429 -0.259 1.523
 -0.42 -0.26 1.526
 -0.412 -0.26 1.529
 -0.403 -0.26 1.533
 -0.394 -0.261 1.537
 -0.385 -0.261 1.54
 -0.377 -0.261 1.543
 -0.368 -0.262 1.547
 -0.359 -0.262 1.55
 -0.35 -0.262 1.553
 -0.341 -0.262 1.556
 -0.333 -0.263 1.56
 -0.324 -0.263 1.562
 -0.315 -0.263 1.565
 -0.306 -0.264 1.569
 -0.297 -0.264 1.573
 -0.289 -0.265 1.576
 -0.28 -0.265 1.58
 -0.271 -0.266 1.584
 -0.262 -0.266 1.588
 -0.253 -0.267 1.593
 -0.245 -0.267 1.597
 -0.236 -0.268 1.601
 -0.227 -0.268 1.606
 -0.218 -0.269 1.608
 -0.209 -0.269 1.612
 -0.2 -0.27 1.617
 -0.191 -0.271 1.622
 -0.182 -0.272 1.629
 -0.173 -0.272 1.633
 -0.163 -0.271 1.627
 -0.153 -0.271 1.627
 -0.144 -0.271 1.629
 -0.134 -0.272 1.63
 -0.125 -0.272 1.634
 -0.116 -0.274 1.643
 -0.107 -0.274 1.648
 -0.098 -0.275 1.652
 -0.088 -0.276 1.656
 -0.079 -0.276 1.659
 -0.069 -0.277 1.663
 -0.06 -0.277 1.666
 -0.05 -0.278 1.669
 -0.041 -0.279 1.673
 -0.031 -0.279 1.677
 -0.021 -0.28 1.68
 -0.012 -0.28 1.683
 -0.002 -0.281 1.687
 0.007 -0.281 1.69
 0.017 -0.282 1.693
 0.026 -0.282 1.695
 0.036 -0.283 1.699
 0.046 -0.283 1.7
 0.056 -0.284 1.703
 0.066 -0.284 1.705
 0.076 -0.285 1.707
 0.086 -0.285 1.707
 0.096 -0.285 1.708
 0.106 -0.285 1.708
 0.116 -0.285 1.708
 0.125 -0.285 1.704
 0.135 -0.284 1.7
 0.144 -0.283 1.693
 0.153 -0.282 1.684
 0.162 -0.28 1.671
 0.17 -0.278 1.658
 0.178 -0.276 1.643
 0.186 -0.273 1.626
 0.194 -0.27 1.609
 0.201 -0.268 1.591
 0.208 -0.265 1.574
 0.216 -0.264 1.565
 0.223 -0.262 1.55
 0.229 -0.258 1.526
 0.238 -0.258 1.526
 0.248 -0.259 1.534
 0.257 -0.26 1.534
 0.268 -0.261 1.542
 0.281 -0.265 1.561
 0.29 -0.265 1.56
 0.297 -0.263 1.548
 0.305 -0.262 1.54
 0.311 -0.26 1.527
 0.318 -0.258 1.514
 0.322 -0.254 1.49
 0.325 -0.25 1.464
 0.327 -0.246 1.434
 0.329 -0.24 1.401
 0.329 -0.235 1.366
 0.329 -0.229 1.331
 0.328 -0.223 1.296
 0.326 -0.217 1.256
 0.323 -0.21 1.215
 0.318 -0.203 1.168
 0.315 -0.197 1.133
 0.316 -0.194 1.111
 0.318 -0.191 1.092
 0.318 -0.187 1.068
 0.315 -0.181 1.035
 0.316 -0.179 1.017
 0.313 -0.174 0.988
 0.313 -0.171 0.968
 0.313 -0.168 0.947
 0.317 -0.167 0.941
 0.319 -0.165 0.928
 0.322 -0.164 0.919
 0.32 -0.16 0.897
 0.321 -0.158 0.883
 0.32 -0.155 0.864
 0.32 -0.152 0.846
 0.321 -0.15 0.835
 0.326 -0.15 0.833
 0.328 -0.149 0.824
 0.33 -0.148 0.813
 0.332 -0.146 0.803
 0.333 -0.145 0.792
 0.333 -0.143 0.78
 0.335 -0.141 0.77
 0.336 -0.14 0.762
 0.339 -0.139 0.754
 0.343 -0.139 0.752
 0.345 -0.138 0.743
 0.348 -0.137 0.737
 0.351 -0.137 0.733
 0.354 -0.136 0.727
 0.355 -0.135 0.718
 0.356 -0.134 0.709
 0.359 -0.133 0.703
 0.36 -0.132 0.695
 0.361 -0.131 0.686
 0.364 -0.13 0.681
 0.367 -0.13 0.677
 0.37 -0.129 0.672
 0.373 -0.129 0.668
 0.377 -0.129 0.665
 0.38 -0.128 0.659
 0.392 -0.131 0.67
 -0.328 -0.105 0.578
 -0.338 -0.109 0.604
 -0.328 -0.107 0.595
 -0.33 -0.109 0.608
 -0.335 -0.113 0.628
 -0.346 -0.118 0.659
 -0.36 -0.124 0.696
 -0.356 -0.124 0.7
 -0.343 -0.121 0.684
 -0.321 -0.115 0.65
 -0.302 -0.11 0.621
 -0.275 -0.101 0.572
 -0.258 -0.096 0.546
 -0.248 -0.094 0.531
 0 0 0
 0 0 0
 0 0 0
 0 0 0
 0 0 0
 -0.512 -0.209 1.23
 -0.536 -0.222 1.311
 -0.54 -0.227 1.345
 -0.538 -0.23 1.365
 -0.534 -0.232 1.378
 -0.542 -0.239 1.424
 -0.539 -0.242 1.442
 -0.534 -0.244 1.457
 -0.529 -0.246 1.47
 -0.524 -0.247 1.484
 -0.517 -0.248 1.491
 -0.508 -0.248 1.494
 -0.499 -0.248 1.496
 -0.49 -0.249 1.5
 -0.481 -0.249 1.502
 -0.472 -0.249 1.506
 -0.463 -0.249 1.509
 -0.455 -0.249 1.512
 -0.446 -0.249 1.515
 -0.437 -0.25 1.519
 -0.429 -0.25 1.522
 -0.42 -0.25 1.526
 -0.411 -0.251 1.529
 -0.403 -0.251 1.533
 -0.394 -0.251 1.537
 -0.385 -0.252 1.54
 -0.376 -0.252 1.544
 -0.368 -0.252 1.547
 -0.359 -0.253 1.551
 -0.35 -0.253 1.553
 -0.341 -0.253 1.556
 -0.332 -0.253 1.559
 -0.323 -0.254 1.562
 -0.315 -0.254 1.565
 -0.306 -0.254 1.57
 -0.297 -0.255 1.574
 -0.289 -0.255 1.579
 -0.28 -0.256 1.584
 -0.272 -0.257 1.589
 -0.263 -0.257 1.594
 -0.254 -0.258 1.596
 -0.245 -0.258 1.6
 -0.236 -0.258 1.602
 -0.226 -0.259 1.605
 -0.217 -0.259 1.606
 -0.209 -0.26 1.614
 -0.2 -0.261 1.619
 -0.191 -0.262 1.625
 -0.182 -0.263 1.632
 -0.171 -0.261 1.621
 -0.161 -0.259 1.61
 -0.152 -0.259 1.612
 -0.142 -0.26 1.614
 -0.133 -0.26 1.617
 -0.125 -0.262 1.631
 -0.116 -0.264 1.643
 -0.107 -0.265 1.648
 -0.098 -0.265 1.652
 -0.088 -0.266 1.655
 -0.079 -0.266 1.659
 -0.069 -0.267 1.663
 -0.06 -0.268 1.666
 -0.05 -0.268 1.669
 -0.041 -0.269 1.673
 -0.031 -0.269 1.677
 -0.021 -0.27 1.68
 -0.012 -0.27 1.682
 -0.002 -0.271 1.686
 0.007 -0.271 1.689
 0.017 -0.272 1.692
 0.026 -0.272 1.695
 0.036 -0.273 1.698
 0.046 -0.273 1.7
 0.056 -0.274 1.702
 0.066 -0.274 1.704
 0.076 -0.275 1.706
 0.086 -0.275 1.707
 0.096 -0.275 1.707
 0.106 -0.275 1.708
 0.116 -0.275 1.707
 0.125 -0.275 1.704
 0.135 -0.274 1.7
 0.144 -0.273 1.692
 0.153 -0.272 1.682
 0.162 -0.27 1.67
 0.17 -0.268 1.656
 0.178 -0.266 1.641
 0.186 -0.263 1.625
 0.193 -0.261 1.608
 0.201 -0.258 1.591
 0.208 -0.256 1.574
 0.216 -0.254 1.565
 0.223 -0.252 1.551
 0.228 -0.248 1.523
 0.237 -0.248 1.522
 0.247 -0.249 1.529
 0.256 -0.25 1.528
 0.267 -0.251 1.535
 0.28 -0.255 1.557
 0.289 -0.255 1.556
 0.296 -0.253 1.546
 0.304 -0.253 1.539
 0.311 -0.25 1.524
 0.317 -0.249 1.511
 0.321 -0.245 1.487
 0.325 -0.241 1.462
 0.326 -0.236 1.431
 0.328 -0.231 1.399
 0.327 -0.226 1.361
 0.327 -0.22 1.326
 0.326 -0.215 1.29
 0.324 -0.208 1.251
 0.321 -0.202 1.211
 0.318 -0.196 1.171
 0.316 -0.19 1.135
 0.317 -0.187 1.113
 0.317 -0.184 1.091
 0.317 -0.18 1.067
 0.317 -0.176 1.044
 0.318 -0.173 1.024
 0.316 -0.169 0.997
 0.316 -0.166 0.976
 0.314 -0.162 0.951
 0.316 -0.161 0.94
 0.318 -0.159 0.925
 0.319 -0.156 0.911
 0.319 -0.154 0.893
 0.32 -0.152 0.881
 0.319 -0.149 0.861
 0.319 -0.146 0.844
 0.319 -0.145 0.831
 0.324 -0.144 0.829
 0.326 -0.143 0.819
 0.329 -0.142 0.811
 0.331 -0.141 0.803
 0.333 -0.14 0.794
 0.333 -0.138 0.781
 0.335 -0.137 0.771
 0.337 -0.136 0.765
 0.34 -0.135 0.758
 0.344 -0.135 0.755
 0.346 -0.133 0.746
 0.348 -0.133 0.739
 0.349 -0.131 0.73
 0.352 -0.131 0.723
 0.353 -0.13 0.715
 0.355 -0.129 0.708
 0.358 -0.128 0.703
 0.361 -0.128 0.697
 0.362 -0.127 0.689
 0.364 -0.126 0.683
 0.367 -0.125 0.677
 0.369 -0.125 0.671
 0.372 -0.124 0.666
 0.376 -0.124 0.664
 0.384 -0.125 0.668
 0.376 -0.121 0.644
 -0.322 -0.099 0.567
 -0.338 -0.105 0.605
 -0.329 -0.104 0.598
 -0.334 -0.107 0.617
 -0.342 -0.111 0.641
 -0.353 -0.116 0.674
 -0.367 -0.121 0.711
 -0.368 -0.123 0.724
 -0.355 -0.121 0.71
 -0.333 -0.115 0.676
 -0.314 -0.11 0.647
 -0.291 -0.103 0.608
 -0.271 -0.097 0.573
 -0.261 -0.095 0.562
 0 0 0
 0 0 0
 0 0 0
 0 0 0
 0 0 0
 -0.521 -0.205 1.255
 -0.542 -0.216 1.327
 -0.544 -0.221 1.357
 -0.542 -0.223 1.374
 -0.537 -0.225 1.386
 -0.542 -0.231 1.427
 -0.539 -0.233 1.444
 -0.534 -0.235 1.458
 -0.529 -0.237 1.471
 -0.524 -0.238 1.484
 -0.516 -0.239 1.49
 -0.507 -0.239 1.493
 -0.498 -0.239 1.495
 -0.489 -0.239 1.499
 -0.48 -0.239 1.501
 -0.472 -0.239 1.505
 -0.463 -0.24 1.507
 -0.454 -0.24 1.511
 -0.445 -0.24 1.514
 -0.437 -0.24 1.518
 -0.428 -0.241 1.521
 -0.419 -0.241 1.525
 -0.411 -0.241 1.529
 -0.402 -0.242 1.533
 -0.393 -0.242 1.536
 -0.385 -0.242 1.54
 -0.376 -0.242 1.543
 -0.367 -0.243 1.547
 -0.359 -0.243 1.55
 -0.35 -0.243 1.553
 -0.341 -0.244 1.556
 -0.332 -0.244 1.56
 -0.324 -0.244 1.564
 -0.315 -0.245 1.568
 -0.306 -0.246 1.574
 -0.298 -0.246 1.578
 -0.289 -0.247 1.584
 -0.281 -0.248 1.59
 -0.272 -0.248 1.594
 -0.262 -0.248 1.593
 -0.253 -0.248 1.595
 -0.244 -0.248 1.598
 -0.235 -0.248 1.598
 -0.226 -0.248 1.6
 -0.217 -0.249 1.607
 -0.209 -0.251 1.617
 -0.2 -0.252 1.622
 -0.191 -0.252 1.629
 -0.183 -0.254 1.638
 -0.17 -0.249 1.604
 -0.159 -0.246 1.59
 -0.15 -0.247 1.596
 -0.141 -0.248 1.602
 -0.132 -0.249 1.606
 -0.125 -0.252 1.628
 -0.116 -0.254 1.643
 -0.107 -0.255 1.647
 -0.097 -0.255 1.652
 -0.088 -0.256 1.655
 -0.079 -0.256 1.659
 -0.069 -0.257 1.662
 -0.06 -0.258 1.666
 -0.05 -0.258 1.669
 -0.041 -0.259 1.673
 -0.031 -0.259 1.676
 -0.021 -0.26 1.679
 -0.012 -0.26 1.682
 -0.002 -0.261 1.685
 0.007 -0.261 1.688
 0.017 -0.262 1.691
 0.026 -0.262 1.694
 0.036 -0.263 1.697
 0.046 -0.263 1.699
 0.056 -0.264 1.701
 0.066 -0.264 1.704
 0.076 -0.264 1.706
 0.086 -0.265 1.707
 0.096 -0.265 1.707
 0.106 -0.265 1.708
 0.116 -0.265 1.707
 0.125 -0.265 1.703
 0.135 -0.264 1.699
 0.144 -0.263 1.691
 0.153 -0.261 1.68
 0.162 -0.26 1.668
 0.17 -0.258 1.655
 0.178 -0.256 1.64
 0.186 -0.253 1.624
 0.193 -0.251 1.608
 0.201 -0.249 1.591
 0.208 -0.246 1.574
 0.216 -0.245 1.564
 0.223 -0.243 1.55
 0.227 -0.238 1.519
 0.236 -0.238 1.515
 0.246 -0.239 1.52
 0.255 -0.239 1.52
 0.265 -0.24 1.527
 0.278 -0.244 1.551
 0.288 -0.244 1.55
 0.295 -0.243 1.541
 0.303 -0.242 1.533
 0.309 -0.24 1.517
 0.315 -0.238 1.503
 0.32 -0.235 1.481
 0.323 -0.231 1.456
 0.325 -0.227 1.426
 0.327 -0.222 1.395
 0.326 -0.217 1.357
 0.326 -0.211 1.322
 0.325 -0.206 1.285
 0.322 -0.199 1.241
 0.319 -0.193 1.202
 0.316 -0.188 1.165
 0.312 -0.182 1.124
 0.313 -0.179 1.102
 0.314 -0.175 1.081
 0.315 -0.172 1.059
 0.315 -0.169 1.039
 0.317 -0.167 1.023
 0.317 -0.164 1.001
 0.316 -0.16 0.979
 0.314 -0.157 0.953
 0.316 -0.155 0.939
 0.317 -0.153 0.925
 0.317 -0.15 0.908
 0.317 -0.147 0.889
 0.318 -0.146 0.876
 0.318 -0.143 0.858
 0.318 -0.141 0.844
 0.32 -0.14 0.833
 0.324 -0.139 0.83
 0.327 -0.139 0.823
 0.33 -0.137 0.814
 0.332 -0.136 0.805
 0.334 -0.135 0.796
 0.335 -0.134 0.785
 0.336 -0.132 0.774
 0.339 -0.131 0.768
 0.341 -0.13 0.76
 0.344 -0.13 0.755
 0.345 -0.129 0.745
 0.347 -0.128 0.738
 0.348 -0.126 0.728
 0.351 -0.126 0.722
 0.353 -0.125 0.714
 0.356 -0.124 0.709
 0.359 -0.124 0.705
 0.363 -0.124 0.702
 0.365 -0.123 0.696
 0.367 -0.122 0.688
 0.369 -0.121 0.681
 0.37 -0.12 0.674
 0.373 -0.12 0.668
 0.376 -0.12 0.664
 0.37 -0.116 0.644
 0.386 -0.12 0.661
 -0.318 -0.095 0.562
 -0.332 -0.1 0.596
 -0.331 -0.101 0.602
 -0.339 -0.104 0.627
 -0.348 -0.108 0.654
 -0.359 -0.113 0.685
 -0.372 -0.119 0.722
 -0.376 -0.121 0.741
 -0.367 -0.12 0.735
