0.763 -1.644 4.057
0.779 -1.626 4.01
0.807 -1.632 4.02
0.833 -1.635 4.022
0.863 -1.645 4.041
0.883 -1.636 4.015
0.912 -1.644 4.028
0.931 -1.634 3.998
0.956 -1.635 3.997
0.99 -1.651 4.03
1.004 -1.632 3.978
1.029 -1.633 3.974
1.069 -1.657 4.027
1.082 -1.639 3.978
1.123 -1.663 4.028
1.131 -1.638 3.961
1.157 -1.64 3.961
1.179 -1.636 3.944
1.217 -1.654 3.98
1.24 -1.652 3.968
1.269 -1.656 3.971
1.29 -1.651 3.952
1.318 -1.655 3.953
1.352 -1.667 3.973
1.361 -1.647 3.918
1.385 -1.647 3.909
1.404 -1.64 3.885
1.452 -1.666 3.939
1.468 -1.656 3.907
1.494 -1.657 3.901
1.519 -1.657 3.891
1.536 -1.649 3.862
1.579 -1.668 3.899
1.586 -1.649 3.845
1.609 -1.648 3.832
1.63 -1.643 3.812
1.673 -1.662 3.846
1.681 -1.645 3.796
1.705 -1.644 3.785
1.736 -1.65 3.788
1.727 -1.619 3.705
1.75 -1.618 3.693
1.725 -1.573 3.579
1.763 -1.586 3.598
1.775 -1.575 3.564
1.666 -1.46 3.291
0 0 0
0 0 0
0 0 0
1.638 -1.364 3.034
1.687 -1.387 3.076
1.717 -1.394 3.083
1.671 -1.341 2.953
1.678 -1.331 2.921
1.663 -1.303 2.849
1.655 -1.282 2.793
1.658 -1.27 2.756
1.66 -1.257 2.718
1.668 -1.249 2.69
-2.178 -1.623 3.647
-2.138 -1.612 3.635
-2.129 -1.624 3.675
-2.105 -1.625 3.689
-2.083 -1.628 3.708
-2.058 -1.628 3.72
-2.033 -1.629 3.732
-2.007 -1.628 3.744
-1.984 -1.63 3.759
-1.956 -1.629 3.767
-1.935 -1.632 3.786
-1.912 -1.634 3.802
-1.887 -1.635 3.814
-1.857 -1.631 3.816
-1.831 -1.631 3.826
-1.802 -1.627 3.827
-1.775 -1.626 3.834
-1.75 -1.626 3.845
-1.725 -1.626 3.855
-1.699 -1.626 3.863
-1.674 -1.626 3.873
-1.65 -1.627 3.885
-1.623 -1.626 3.892
-1.598 -1.626 3.902
-1.571 -1.625 3.906
-1.544 -1.622 3.909
-1.517 -1.621 3.914
-1.49 -1.619 3.917
-1.464 -1.618 3.923
-1.44 -1.62 3.935
-1.414 -1.619 3.941
-1.39 -1.62 3.95
-1.366 -1.621 3.961
-1.342 -1.623 3.973
-1.316 -1.622 3.979
-1.292 -1.623 3.987
-1.264 -1.62 3.987
-1.237 -1.618 3.988
-1.212 -1.618 3.994
-1.186 -1.617 3.999
-1.161 -1.617 4.005
-1.137 -1.619 4.015
-1.112 -1.619 4.02
-1.086 -1.618 4.023
-1.061 -1.617 4.028
-1.036 -1.618 4.035
-1.012 -1.619 4.044
-0.987 -1.62 4.049
-0.961 -1.62 4.054
-0.936 -1.62 4.059
-0.912 -1.621 4.067
-0.886 -1.619 4.067
-0.861 -1.62 4.073
-0.836 -1.621 4.079
-0.81 -1.618 4.077
-0.784 -1.616 4.075
-0.76 -1.618 4.083
-0.735 -1.618 4.088
-0.709 -1.617 4.089
-0.687 -1.623 4.108
-0.662 -1.626 4.117
-0.637 -1.625 4.118
-0.612 -1.626 4.124
-0.587 -1.625 4.125
-0.561 -1.622 4.12
-0.535 -1.621 4.118
-0.509 -1.62 4.118
-0.484 -1.62 4.12
-0.46 -1.623 4.13
-0.435 -1.622 4.131
-0.41 -1.623 4.134
-0.385 -1.623 4.138
-0.36 -1.624 4.14
-0.335 -1.624 4.141
-0.31 -1.626 4.148
-0.285 -1.626 4.15
-0.26 -1.627 4.154
-0.235 -1.626 4.152
-0.209 -1.625 4.149
-0.184 -1.624 4.148
-0.159 -1.625 4.15
-0.134 -1.624 4.15
-0.109 -1.622 4.145
-0.084 -1.623 4.148
-0.059 -1.625 4.152
-0.034 -1.625 4.151
-0.009 -1.624 4.148
0.015 -1.624 4.149
0.04 -1.623 4.146
0.065 -1.621 4.14
0.09 -1.62 4.137
0.115 -1.62 4.137
0.14 -1.621 4.137
0.165 -1.621 4.138
0.19 -1.62 4.133
0.215 -1.62 4.131
0.24 -1.622 4.136
0.266 -1.623 4.137
0.29 -1.623 4.133
0.316 -1.623 4.134
0.341 -1.627 4.14
0.366 -1.626 4.135
0.391 -1.625 4.132
0.416 -1.626 4.132
0.441 -1.627 4.131
0.465 -1.623 4.118
0.49 -1.62 4.109
0.515 -1.621 4.108
0.54 -1.622 4.107
0.565 -1.623 4.107
0.592 -1.627 4.114
0.618 -1.631 4.119
0.644 -1.632 4.119
0.668 -1.631 4.113
0.694 -1.633 4.115
0.719 -1.631 4.106
0.743 -1.63 4.098
0.768 -1.629 4.092
0.793 -1.63 4.089
0.817 -1.628 4.079
0.843 -1.63 4.08
0.869 -1.632 4.081
0.895 -1.633 4.077
0.92 -1.634 4.074
0.946 -1.635 4.072
0.97 -1.634 4.064
0.995 -1.634 4.059
1.021 -1.635 4.056
1.048 -1.637 4.055
1.074 -1.639 4.053
1.1 -1.64 4.05
1.125 -1.641 4.045
1.151 -1.642 4.041
1.178 -1.644 4.039
1.204 -1.645 4.035
1.23 -1.647 4.033
1.257 -1.648 4.029
1.282 -1.649 4.023
1.306 -1.647 4.011
1.331 -1.646 4.002
1.356 -1.646 3.993
1.38 -1.644 3.982
1.405 -1.645 3.976
1.431 -1.645 3.968
1.455 -1.645 3.958
1.481 -1.645 3.949
1.507 -1.647 3.945
1.532 -1.646 3.934
1.557 -1.645 3.924
1.581 -1.645 3.913
1.606 -1.644 3.902
1.63 -1.643 3.89
1.655 -1.643 3.88
1.678 -1.642 3.867
1.704 -1.643 3.859
1.725 -1.638 3.839
1.74 -1.629 3.806
1.75 -1.615 3.763
1.755 -1.598 3.713
1.76 -1.58 3.66
1.757 -1.556 3.595
1.761 -1.539 3.545
1.769 -1.526 3.502
1.756 -1.495 3.421
1.697 -1.426 3.253
1.663 -1.381 3.138
1.671 -1.369 3.102
1.679 -1.36 3.07
1.685 -1.347 3.032
1.685 -1.331 2.985
1.68 -1.311 2.931
1.673 -1.291 2.874
1.668 -1.272 2.822
1.667 -1.257 2.777
1.655 -1.233 2.716
1.65 -1.216 2.668
-2.205 -1.618 3.702
-2.188 -1.624 3.73
-2.16 -1.622 3.738
-2.133 -1.622 3.75
-2.112 -1.625 3.77
-2.085 -1.625 3.78
-2.06 -1.625 3.793
-2.035 -1.626 3.807
-2.014 -1.629 3.827
-1.988 -1.629 3.838
-1.966 -1.632 3.857
-1.943 -1.635 3.874
-1.917 -1.635 3.885
-1.885 -1.63 3.884
-1.858 -1.629 3.891
-1.83 -1.626 3.896
-1.801 -1.624 3.901
-1.775 -1.624 3.911
-1.75 -1.625 3.922
-1.725 -1.625 3.932
-1.699 -1.624 3.941
-1.673 -1.624 3.95
-1.647 -1.624 3.959
-1.622 -1.625 3.969
-1.593 -1.622 3.97
-1.565 -1.62 3.974
-1.539 -1.619 3.981
-1.511 -1.616 3.982
-1.484 -1.615 3.988
-1.461 -1.618 4.002
-1.436 -1.618 4.01
-1.411 -1.619 4.02
-1.386 -1.619 4.029
-1.361 -1.62 4.039
-1.334 -1.619 4.043
-1.308 -1.618 4.046
-1.281 -1.616 4.049
-1.255 -1.616 4.056
-1.229 -1.615 4.06
-1.202 -1.614 4.062
-1.177 -1.615 4.071
-1.152 -1.615 4.077
-1.124 -1.612 4.075
-1.099 -1.612 4.081
-1.074 -1.613 4.089
-1.049 -1.613 4.094
-1.025 -1.616 4.107
-1 -1.617 4.114
-0.975 -1.617 4.121
-0.95 -1.618 4.129
-0.925 -1.619 4.136
-0.898 -1.617 4.134
-0.873 -1.617 4.138
-0.847 -1.617 4.143
-0.821 -1.615 4.141
-0.794 -1.612 4.139
-0.77 -1.614 4.147
-0.744 -1.614 4.152
-0.718 -1.612 4.148
-0.695 -1.617 4.165
-0.67 -1.619 4.174
-0.645 -1.619 4.177
-0.619 -1.62 4.183
-0.594 -1.619 4.183
-0.567 -1.615 4.175
-0.541 -1.614 4.173
-0.515 -1.612 4.172
-0.489 -1.612 4.173
-0.465 -1.615 4.184
-0.44 -1.616 4.189
-0.415 -1.617 4.193
-0.39 -1.618 4.198
-0.364 -1.619 4.2
-0.339 -1.618 4.201
-0.313 -1.619 4.204
-0.288 -1.618 4.204
-0.263 -1.618 4.204
-0.237 -1.617 4.203
-0.211 -1.616 4.2
-0.186 -1.616 4.201
-0.161 -1.617 4.203
-0.135 -1.616 4.202
-0.11 -1.614 4.198
-0.085 -1.615 4.2
-0.059 -1.616 4.203
-0.034 -1.615 4.201
-0.009 -1.615 4.2
0.016 -1.615 4.201
0.041 -1.615 4.199
0.066 -1.613 4.194
0.091 -1.613 4.192
0.117 -1.612 4.19
0.142 -1.613 4.191
0.167 -1.614 4.193
0.193 -1.613 4.189
0.218 -1.612 4.186
0.243 -1.614 4.189
0.268 -1.614 4.186
0.293 -1.612 4.18
0.318 -1.611 4.175
0.344 -1.613 4.178
0.369 -1.612 4.175
0.394 -1.612 4.172
0.42 -1.614 4.174
0.445 -1.616 4.175
0.47 -1.614 4.168
0.495 -1.611 4.159
0.52 -1.612 4.159
0.545 -1.612 4.156
0.571 -1.614 4.158
0.598 -1.617 4.162
0.624 -1.619 4.164
0.649 -1.62 4.163
0.674 -1.62 4.157
0.7 -1.62 4.155
0.724 -1.619 4.146
0.75 -1.619 4.142
0.775 -1.619 4.138
0.8 -1.619 4.135
0.825 -1.618 4.127
0.852 -1.621 4.13
0.878 -1.622 4.128
0.903 -1.623 4.125
0.93 -1.624 4.124
0.956 -1.626 4.122
0.98 -1.624 4.112
1.006 -1.625 4.109
1.032 -1.626 4.106
1.058 -1.627 4.103
1.085 -1.63 4.104
1.112 -1.633 4.105
1.138 -1.633 4.099
1.164 -1.634 4.094
1.191 -1.636 4.094
1.217 -1.637 4.087
1.243 -1.637 4.082
1.27 -1.64 4.081
1.297 -1.641 4.076
1.321 -1.639 4.064
1.346 -1.639 4.056
1.372 -1.639 4.049
1.396 -1.638 4.037
1.422 -1.639 4.032
1.449 -1.64 4.027
1.474 -1.639 4.016
1.5 -1.641 4.011
1.527 -1.642 4.006
1.551 -1.641 3.994
1.576 -1.641 3.983
1.602 -1.641 3.975
1.626 -1.64 3.962
1.652 -1.639 3.951
1.677 -1.639 3.941
1.699 -1.636 3.924
1.723 -1.634 3.91
1.74 -1.627 3.882
1.752 -1.615 3.841
1.759 -1.599 3.793
1.763 -1.58 3.738
1.767 -1.561 3.683
1.762 -1.537 3.615
1.768 -1.521 3.566
1.776 -1.508 3.526
1.786 -1.497 3.488
1.683 -1.393 3.234
1.646 -1.345 3.113
1.665 -1.343 3.099
1.674 -1.334 3.068
1.682 -1.324 3.034
1.685 -1.311 2.994
1.681 -1.292 2.94
1.675 -1.273 2.886
1.67 -1.254 2.834
1.667 -1.237 2.785
1.673 -1.228 2.753
1.657 -1.202 2.686
-2.237 -1.615 3.766
-2.226 -1.626 3.805
-2.194 -1.622 3.807
-2.169 -1.623 3.822
-2.145 -1.625 3.839
-2.119 -1.624 3.851
-2.092 -1.624 3.863
-2.066 -1.624 3.874
-2.043 -1.627 3.892
-2.016 -1.626 3.903
-1.993 -1.629 3.921
-1.969 -1.631 3.936
-1.943 -1.631 3.948
-1.913 -1.628 3.951
-1.885 -1.627 3.959
-1.856 -1.624 3.962
-1.828 -1.622 3.969
-1.802 -1.622 3.978
-1.776 -1.622 3.989
-1.751 -1.623 4.001
-1.724 -1.623 4.009
-1.698 -1.622 4.018
-1.671 -1.622 4.026
-1.644 -1.621 4.034
-1.615 -1.619 4.036
-1.588 -1.617 4.042
-1.561 -1.616 4.048
-1.533 -1.614 4.051
-1.507 -1.614 4.057
-1.482 -1.615 4.068
-1.456 -1.615 4.078
-1.43 -1.615 4.085
-1.405 -1.616 4.094
-1.379 -1.616 4.101
-1.353 -1.616 4.11
-1.326 -1.615 4.113
-1.299 -1.614 4.117
-1.274 -1.614 4.126
-1.248 -1.614 4.131
-1.22 -1.612 4.132
-1.194 -1.612 4.138
-1.168 -1.611 4.143
-1.14 -1.608 4.141
-1.114 -1.608 4.146
-1.089 -1.609 4.155
-1.064 -1.61 4.162
-1.039 -1.612 4.172
-1.014 -1.613 4.181
-0.989 -1.615 4.19
-0.964 -1.615 4.196
-0.937 -1.615 4.2
-0.91 -1.613 4.198
-0.884 -1.613 4.203
-0.858 -1.611 4.204
-0.831 -1.609 4.202
-0.804 -1.607 4.201
-0.779 -1.609 4.209
-0.753 -1.608 4.209
-0.726 -1.604 4.203
-0.702 -1.608 4.216
-0.677 -1.611 4.227
-0.651 -1.609 4.226
-0.625 -1.61 4.232
-0.6 -1.611 4.237
-0.573 -1.609 4.233
-0.546 -1.605 4.227
-0.52 -1.604 4.227
-0.494 -1.603 4.225
-0.469 -1.605 4.233
-0.444 -1.606 4.236
-0.418 -1.606 4.24
-0.393 -1.606 4.242
-0.367 -1.606 4.244
-0.341 -1.605 4.243
-0.316 -1.605 4.244
-0.29 -1.605 4.245
-0.264 -1.605 4.246
-0.239 -1.606 4.248
-0.213 -1.605 4.247
-0.187 -1.604 4.244
-0.162 -1.604 4.247
-0.136 -1.603 4.244
-0.111 -1.602 4.242
-0.085 -1.602 4.241
-0.06 -1.602 4.241
-0.034 -1.6 4.237
-0.009 -1.6 4.237
0.016 -1.599 4.233
0.041 -1.599 4.232
0.067 -1.599 4.231
0.092 -1.598 4.228
0.118 -1.598 4.228
0.143 -1.6 4.231
0.169 -1.601 4.233
0.194 -1.6 4.229
0.22 -1.6 4.228
0.245 -1.601 4.23
0.27 -1.6 4.224
0.296 -1.599 4.22
0.321 -1.598 4.215
0.347 -1.599 4.217
0.372 -1.599 4.213
0.397 -1.598 4.21
0.423 -1.599 4.211
0.448 -1.6 4.209
0.473 -1.599 4.204
0.498 -1.597 4.196
0.524 -1.599 4.199
0.55 -1.599 4.196
0.576 -1.6 4.196
0.602 -1.603 4.198
0.628 -1.604 4.199
0.653 -1.604 4.195
0.679 -1.604 4.191
0.705 -1.605 4.191
0.729 -1.603 4.181
0.755 -1.604 4.179
0.781 -1.605 4.177
0.806 -1.606 4.174
0.832 -1.605 4.169
0.859 -1.609 4.173
0.885 -1.609 4.169
0.91 -1.609 4.165
0.937 -1.611 4.164
0.963 -1.612 4.162
0.988 -1.611 4.154
1.014 -1.613 4.152
1.041 -1.614 4.149
1.067 -1.615 4.145
1.094 -1.617 4.145
1.121 -1.62 4.146
1.147 -1.62 4.14
1.174 -1.621 4.137
1.201 -1.624 4.137
1.227 -1.624 4.131
1.253 -1.625 4.124
1.28 -1.627 4.122
1.307 -1.628 4.118
1.331 -1.626 4.106
1.358 -1.627 4.1
1.384 -1.628 4.095
1.41 -1.628 4.086
1.437 -1.63 4.082
1.464 -1.632 4.079
1.489 -1.63 4.066
1.516 -1.631 4.06
1.543 -1.633 4.056
1.567 -1.632 4.043
1.593 -1.632 4.034
1.62 -1.633 4.028
1.646 -1.633 4.018
1.67 -1.632 4.005
1.696 -1.632 3.996
1.719 -1.629 3.978
1.74 -1.625 3.959
1.757 -1.617 3.928
1.767 -1.603 3.884
1.775 -1.588 3.837
1.777 -1.567 3.776
1.779 -1.548 3.718
1.777 -1.525 3.654
1.778 -1.506 3.596
1.786 -1.492 3.553
0 0 0
0 0 0
1.658 -1.334 3.144
1.668 -1.325 3.114
1.678 -1.316 3.083
1.685 -1.306 3.048
1.689 -1.293 3.008
1.683 -1.273 2.951
1.679 -1.255 2.899
1.673 -1.237 2.846
1.669 -1.219 2.795
1.661 -1.2 2.74
1.672 -1.194 2.717
-2.288 -1.626 3.863
-2.228 -1.601 3.818
-2.223 -1.617 3.869
-2.197 -1.618 3.882
-2.173 -1.619 3.899
-2.145 -1.618 3.909
-2.119 -1.619 3.922
-2.092 -1.618 3.933
-2.07 -1.622 3.955
-2.043 -1.622 3.966
-2.02 -1.625 3.984
-1.995 -1.626 3.999
-1.971 -1.628 4.015
-1.942 -1.626 4.021
-1.914 -1.625 4.029
-1.884 -1.622 4.032
-1.856 -1.621 4.04
-1.828 -1.619 4.047
-1.802 -1.62 4.058
-1.775 -1.619 4.066
-1.75 -1.621 4.08
-1.723 -1.621 4.089
-1.697 -1.621 4.098
-1.669 -1.619 4.104
-1.64 -1.617 4.108
-1.612 -1.615 4.112
-1.584 -1.613 4.116
-1.556 -1.612 4.122
-1.531 -1.613 4.132
-1.504 -1.613 4.141
-1.479 -1.614 4.151
-1.453 -1.614 4.159
-1.426 -1.614 4.167
-1.398 -1.613 4.169
-1.372 -1.613 4.177
-1.344 -1.611 4.178
-1.317 -1.61 4.183
-1.29 -1.609 4.189
-1.264 -1.609 4.195
-1.236 -1.607 4.195
-1.21 -1.607 4.202
-1.183 -1.606 4.207
-1.155 -1.604 4.207
-1.129 -1.604 4.212
-1.104 -1.605 4.22
-1.078 -1.606 4.227
-1.051 -1.605 4.232
-1.025 -1.605 4.237
-1 -1.607 4.246
-0.974 -1.607 4.251
-0.947 -1.605 4.25
-0.92 -1.605 4.255
-0.894 -1.604 4.257
-0.867 -1.602 4.257
-0.839 -1.6 4.254
-0.813 -1.598 4.254
-0.787 -1.598 4.257
-0.76 -1.597 4.259
-0.733 -1.594 4.254
-0.708 -1.596 4.263
-0.682 -1.597 4.269
-0.655 -1.595 4.266
-0.629 -1.595 4.269
-0.604 -1.596 4.273
-0.577 -1.594 4.272
-0.551 -1.593 4.271
-0.525 -1.593 4.273
-0.499 -1.592 4.274
-0.473 -1.593 4.277
-0.447 -1.592 4.278
-0.421 -1.592 4.278
-0.395 -1.591 4.278
-0.369 -1.59 4.277
-0.343 -1.589 4.275
-0.317 -1.589 4.277
-0.292 -1.589 4.278
-0.266 -1.587 4.275
-0.24 -1.588 4.278
-0.214 -1.587 4.277
-0.188 -1.586 4.275
-0.163 -1.586 4.275
-0.137 -1.586 4.274
-0.111 -1.584 4.271
-0.085 -1.584 4.271
-0.06 -1.583 4.267
-0.034 -1.582 4.265
-0.008 -1.583 4.268
0.016 -1.584 4.269
0.042 -1.583 4.267
0.067 -1.584 4.267
0.093 -1.583 4.265
0.119 -1.582 4.262
0.144 -1.583 4.263
0.17 -1.583 4.261
0.195 -1.581 4.256
0.221 -1.581 4.253
0.246 -1.581 4.253
0.272 -1.58 4.247
0.297 -1.579 4.243
0.322 -1.579 4.241
0.348 -1.58 4.241
0.373 -1.579 4.236
0.399 -1.579 4.234
0.425 -1.58 4.234
0.45 -1.58 4.232
0.475 -1.579 4.227
0.501 -1.58 4.226
0.527 -1.581 4.226
0.552 -1.581 4.223
0.578 -1.582 4.223
0.605 -1.584 4.225
0.63 -1.584 4.223
0.656 -1.584 4.217
0.681 -1.584 4.214
0.707 -1.586 4.215
0.732 -1.583 4.204
0.758 -1.584 4.202
0.784 -1.586 4.203
0.81 -1.587 4.201
0.835 -1.586 4.193
0.863 -1.59 4.199
0.889 -1.591 4.197
0.915 -1.591 4.193
0.941 -1.593 4.192
0.968 -1.595 4.192
0.994 -1.595 4.187
1.021 -1.596 4.185
1.046 -1.597 4.18
1.073 -1.598 4.176
1.1 -1.599 4.175
1.126 -1.601 4.172
1.152 -1.6 4.164
1.178 -1.601 4.159
1.206 -1.604 4.16
1.232 -1.604 4.155
1.259 -1.606 4.151
1.286 -1.608 4.148
1.313 -1.609 4.146
1.339 -1.609 4.137
1.366 -1.611 4.134
1.392 -1.611 4.127
1.419 -1.612 4.12
1.447 -1.615 4.12
1.474 -1.616 4.115
1.499 -1.615 4.103
1.527 -1.617 4.1
1.555 -1.619 4.097
1.58 -1.619 4.086
1.607 -1.62 4.079
1.636 -1.622 4.076
1.661 -1.622 4.065
1.687 -1.622 4.055
1.712 -1.621 4.043
1.735 -1.618 4.024
1.753 -1.611 3.998
1.768 -1.601 3.963
1.778 -1.587 3.917
1.787 -1.573 3.871
1.788 -1.552 3.809
1.792 -1.534 3.754
1.79 -1.512 3.688
1.785 -1.487 3.617
0 0 0
0 0 0
0 0 0
1.656 -1.311 3.147
1.661 -1.298 3.107
1.672 -1.29 3.079
1.682 -1.282 3.049
1.688 -1.272 3.013
1.683 -1.253 2.958
1.681 -1.237 2.91
1.676 -1.219 2.857
1.669 -1.2 2.803
1.667 -1.185 2.757
1.647 -1.158 2.684
-2.289 -1.6 3.875
-2.27 -1.605 3.9
-2.26 -1.617 3.943
-2.232 -1.616 3.954
-2.205 -1.617 3.968
-2.176 -1.615 3.976
-2.15 -1.616 3.99
-2.122 -1.615 4
-2.1 -1.618 4.021
-2.072 -1.617 4.031
-2.047 -1.619 4.047
-2.02 -1.619 4.057
-1.995 -1.621 4.073
-1.967 -1.62 4.084
-1.94 -1.62 4.094
-1.912 -1.619 4.101
-1.886 -1.62 4.114
-1.857 -1.618 4.121
-1.829 -1.618 4.13
-1.802 -1.617 4.139
-1.775 -1.617 4.148
-1.746 -1.615 4.152
-1.718 -1.614 4.159
-1.69 -1.613 4.166
-1.662 -1.612 4.172
-1.635 -1.612 4.18
-1.606 -1.61 4.185
-1.58 -1.611 4.195
-1.553 -1.61 4.202
-1.525 -1.609 4.206
-1.499 -1.609 4.216
-1.473 -1.61 4.226
-1.445 -1.609 4.231
-1.416 -1.606 4.231
-1.391 -1.609 4.244
-1.362 -1.606 4.244
-1.334 -1.604 4.246
-1.307 -1.603 4.251
-1.28 -1.603 4.257
-1.251 -1.6 4.254
-1.224 -1.599 4.26
-1.196 -1.597 4.261
-1.168 -1.595 4.261
-1.141 -1.594 4.265
-1.114 -1.594 4.269
-1.087 -1.593 4.273
-1.06 -1.592 4.276
-1.034 -1.592 4.281
-1.008 -1.593 4.289
-0.982 -1.594 4.294
-0.955 -1.592 4.295
-0.928 -1.592 4.3
-0.902 -1.592 4.304
-0.874 -1.589 4.301
-0.846 -1.587 4.298
-0.819 -1.585 4.297
-0.793 -1.584 4.299
-0.765 -1.582 4.297
-0.738 -1.579 4.293
-0.712 -1.581 4.3
-0.686 -1.58 4.302
-0.659 -1.578 4.3
-0.633 -1.578 4.302
-0.607 -1.577 4.303
-0.58 -1.575 4.3
-0.553 -1.573 4.297
-0.527 -1.573 4.297
-0.5 -1.571 4.294
-0.474 -1.571 4.298
-0.448 -1.571 4.298
-0.423 -1.572 4.303
-0.397 -1.571 4.303
-0.37 -1.57 4.302
-0.344 -1.568 4.298
-0.318 -1.569 4.301
-0.292 -1.567 4.298
-0.266 -1.566 4.294
-0.24 -1.566 4.297
-0.215 -1.566 4.296
-0.189 -1.564 4.292
-0.163 -1.564 4.292
-0.137 -1.564 4.293
-0.111 -1.563 4.29
-0.085 -1.561 4.287
-0.06 -1.561 4.285
-0.034 -1.56 4.282
-0.008 -1.56 4.282
0.016 -1.56 4.282
0.042 -1.561 4.284
0.068 -1.561 4.282
0.093 -1.559 4.278
0.119 -1.558 4.275
0.145 -1.559 4.276
0.17 -1.559 4.274
0.196 -1.558 4.27
0.221 -1.557 4.267
0.247 -1.558 4.268
0.272 -1.556 4.26
0.297 -1.555 4.256
0.323 -1.555 4.254
0.349 -1.556 4.255
0.374 -1.555 4.248
0.4 -1.555 4.248
0.425 -1.556 4.248
0.451 -1.556 4.245
0.476 -1.556 4.241
0.502 -1.556 4.24
0.528 -1.558 4.241
0.554 -1.558 4.239
0.58 -1.559 4.239
0.606 -1.561 4.24
0.632 -1.561 4.238
0.657 -1.561 4.234
0.682 -1.561 4.229
0.709 -1.563 4.231
0.734 -1.562 4.223
0.759 -1.562 4.219
0.786 -1.563 4.219
0.812 -1.564 4.218
0.837 -1.564 4.212
0.864 -1.566 4.214
0.891 -1.569 4.215
0.917 -1.569 4.211
0.943 -1.57 4.207
0.97 -1.572 4.208
0.997 -1.574 4.208
1.023 -1.574 4.204
1.05 -1.576 4.201
1.076 -1.577 4.197
1.103 -1.578 4.195
1.129 -1.579 4.191
1.156 -1.58 4.187
1.181 -1.58 4.18
1.209 -1.583 4.181
1.235 -1.583 4.174
1.262 -1.584 4.172
1.29 -1.586 4.17
1.318 -1.589 4.17
1.344 -1.589 4.163
1.373 -1.592 4.162
1.399 -1.592 4.154
1.425 -1.593 4.148
1.453 -1.595 4.146
1.481 -1.597 4.141
1.506 -1.596 4.131
1.535 -1.599 4.129
1.563 -1.601 4.126
1.59 -1.602 4.119
1.618 -1.604 4.114
1.646 -1.606 4.111
1.674 -1.607 4.104
1.7 -1.607 4.094
1.723 -1.605 4.078
1.746 -1.602 4.06
1.765 -1.595 4.033
1.779 -1.585 3.996
1.791 -1.573 3.955
1.804 -1.562 3.917
1.809 -1.544 3.862
1.814 -1.528 3.809
1.815 -1.508 3.749
0 0 0
0 0 0
0 0 0
0 0 0
1.669 -1.3 3.18
1.668 -1.282 3.127
1.676 -1.273 3.094
1.686 -1.265 3.064
1.692 -1.254 3.028
1.684 -1.233 2.968
1.682 -1.217 2.919
1.677 -1.2 2.866
1.671 -1.182 2.812
1.68 -1.175 2.786
1.665 -1.152 2.72
-2.304 -1.583 3.909
-2.337 -1.625 4.026
-2.288 -1.61 4.002
-2.263 -1.612 4.019
-2.234 -1.61 4.029
-2.206 -1.61 4.041
-2.181 -1.612 4.057
-2.064 -1.544 3.899
-2.041 -1.547 3.917
-2.015 -1.547 3.93
-1.992 -1.55 3.947
-1.964 -1.549 3.956
-2.023 -1.617 4.142
-1.996 -1.617 4.152
-1.968 -1.616 4.162
-1.937 -1.614 4.167
-1.91 -1.614 4.178
-1.882 -1.613 4.187
-1.855 -1.613 4.197
-1.826 -1.612 4.205
-1.8 -1.613 4.217
-1.772 -1.612 4.224
-1.742 -1.61 4.227
-1.713 -1.608 4.232
-1.685 -1.607 4.239
-1.657 -1.606 4.246
-1.628 -1.604 4.249
-1.602 -1.605 4.261
-1.573 -1.604 4.266
-1.545 -1.603 4.271
-1.518 -1.603 4.281
-1.491 -1.604 4.289
-1.462 -1.601 4.29
-1.432 -1.598 4.289
-1.406 -1.599 4.299
-1.375 -1.595 4.295
-1.347 -1.593 4.297
-1.319 -1.592 4.301
-1.292 -1.591 4.307
-1.262 -1.587 4.302
-1.235 -1.587 4.308
-1.206 -1.585 4.307
-1.178 -1.583 4.309
-1.151 -1.582 4.312
-1.124 -1.581 4.315
-1.096 -1.579 4.315
-1.069 -1.579 4.319
-1.041 -1.578 4.322
-1.015 -1.578 4.327
-0.988 -1.578 4.331
-0.961 -1.576 4.333
-0.934 -1.575 4.335
-0.906 -1.574 4.334
-0.878 -1.57 4.33
-0.85 -1.568 4.326
-0.823 -1.566 4.325
-0.795 -1.564 4.322
-0.768 -1.561 4.32
-0.74 -1.559 4.317
-0.714 -1.56 4.322
-0.687 -1.558 4.321
-0.66 -1.556 4.318
-0.635 -1.556 4.322
-0.608 -1.555 4.321
-0.581 -1.553 4.318
-0.554 -1.551 4.316
-0.528 -1.551 4.316
-0.501 -1.548 4.31
-0.475 -1.548 4.313
-0.449 -1.547 4.312
-0.423 -1.548 4.317
-0.397 -1.548 4.318
-0.371 -1.547 4.319
-0.345 -1.545 4.315
-0.319 -1.545 4.314
-0.292 -1.542 4.308
-0.266 -1.54 4.302
-0.24 -1.54 4.303
-0.214 -1.539 4.301
-0.188 -1.538 4.3
-0.163 -1.538 4.299
-0.137 -1.538 4.3
-0.111 -1.536 4.296
-0.085 -1.535 4.291
-0.059 -1.534 4.289
-0.034 -1.532 4.285
-0.008 -1.532 4.285
0.016 -1.533 4.285
0.042 -1.533 4.286
0.068 -1.533 4.284
0.093 -1.532 4.281
0.119 -1.532 4.28
0.145 -1.532 4.28
0.17 -1.532 4.278
0.196 -1.532 4.277
0.221 -1.533 4.278
0.247 -1.532 4.276
0.272 -1.53 4.268
0.298 -1.53 4.266
0.323 -1.53 4.264
0.349 -1.53 4.261
0.374 -1.529 4.257
0.4 -1.53 4.258
0.426 -1.532 4.259
0.451 -1.531 4.255
0.477 -1.531 4.253
0.502 -1.531 4.251
0.528 -1.532 4.25
0.554 -1.533 4.249
0.58 -1.533 4.246
0.606 -1.534 4.246
0.631 -1.535 4.244
0.657 -1.535 4.242
0.682 -1.535 4.237
0.709 -1.537 4.239
0.735 -1.538 4.237
0.761 -1.539 4.235
0.787 -1.54 4.234
0.813 -1.541 4.232
0.839 -1.54 4.227
0.864 -1.54 4.222
0.891 -1.542 4.222
0.917 -1.542 4.217
0.943 -1.544 4.216
0.97 -1.546 4.216
0.998 -1.549 4.219
1.024 -1.55 4.216
1.051 -1.552 4.215
1.077 -1.552 4.21
1.104 -1.553 4.207
1.13 -1.553 4.201
1.156 -1.554 4.197
1.182 -1.554 4.191
1.209 -1.556 4.189
1.235 -1.556 4.182
1.263 -1.559 4.183
1.291 -1.562 4.183
1.319 -1.564 4.182
1.347 -1.566 4.179
1.376 -1.57 4.181
1.401 -1.569 4.171
1.429 -1.57 4.166
1.458 -1.574 4.167
1.485 -1.575 4.162
1.511 -1.575 4.153
1.54 -1.578 4.152
1.568 -1.579 4.147
1.595 -1.581 4.141
1.623 -1.583 4.137
1.652 -1.585 4.134
1.68 -1.586 4.127
1.706 -1.587 4.119
1.729 -1.584 4.101
1.751 -1.579 4.079
1.769 -1.572 4.05
1.785 -1.564 4.018
1.798 -1.553 3.979
1.815 -1.545 3.948
1.83 -1.536 3.914
1.837 -1.522 3.866
0 0 0
0 0 0
0 0 0
0 0 0
0 0 0
1.675 -1.282 3.198
1.669 -1.262 3.136
1.678 -1.253 3.105
1.688 -1.245 3.074
1.693 -1.235 3.038
1.688 -1.216 2.981
1.685 -1.2 2.931
1.68 -1.182 2.878
1.672 -1.163 2.821
1.657 -1.14 2.754
1.652 -1.123 2.704
-2.395 -1.618 4.075
-2.39 -1.634 4.127
-1.942 -1.344 3.404
-1.923 -1.347 3.421
-1.896 -1.344 3.425
-1.781 -1.278 3.268
-1.759 -1.278 3.278
-1.736 -1.277 3.285
-1.716 -1.279 3.3
-1.696 -1.281 3.313
-1.678 -1.283 3.33
-1.739 -1.348 3.509
-1.801 -1.415 3.695
-1.859 -1.48 3.875
-1.912 -1.544 4.053
-1.882 -1.541 4.057
-1.777 -1.476 3.895
-1.751 -1.476 3.903
-1.725 -1.475 3.911
-1.7 -1.476 3.922
-1.748 -1.54 4.104
-1.794 -1.605 4.288
-1.763 -1.602 4.289
-1.735 -1.602 4.297
-1.705 -1.599 4.3
-1.677 -1.599 4.308
-1.647 -1.596 4.309
-1.62 -1.597 4.321
-1.59 -1.594 4.321
-1.561 -1.592 4.325
-1.533 -1.592 4.331
-1.505 -1.591 4.338
-1.474 -1.588 4.336
-1.445 -1.585 4.336
-1.418 -1.585 4.345
-1.387 -1.582 4.342
-1.357 -1.579 4.34
-1.328 -1.576 4.34
-1.3 -1.575 4.343
-1.27 -1.571 4.339
-1.242 -1.569 4.342
-1.214 -1.568 4.343
-1.186 -1.567 4.347
-1.158 -1.565 4.347
-1.129 -1.562 4.346
-1.1 -1.56 4.343
-1.072 -1.558 4.343
-1.045 -1.556 4.344
-1.018 -1.556 4.349
-0.991 -1.556 4.353
-0.964 -1.555 4.354
-0.936 -1.554 4.357
-0.908 -1.551 4.354
-0.88 -1.548 4.348
-0.851 -1.544 4.341
-0.824 -1.542 4.341
-0.796 -1.54 4.337
-0.769 -1.537 4.334
-0.741 -1.535 4.331
-0.715 -1.536 4.336
-0.688 -1.533 4.332
-0.661 -1.531 4.33
-0.635 -1.531 4.333
-0.608 -1.53 4.333
-0.582 -1.529 4.331
-0.555 -1.528 4.331
-0.528 -1.526 4.329
-0.502 -1.524 4.325
-0.475 -1.524 4.326
-0.449 -1.522 4.322
-0.423 -1.522 4.325
-0.397 -1.522 4.326
-0.371 -1.52 4.323
-0.344 -1.519 4.32
-0.318 -1.518 4.32
-0.292 -1.516 4.313
-0.266 -1.514 4.31
-0.24 -1.514 4.311
-0.214 -1.513 4.309
-0.188 -1.511 4.304
-0.162 -1.511 4.304
-0.137 -1.51 4.301
-0.111 -1.508 4.297
-0.085 -1.507 4.292
-0.059 -1.506 4.29
-0.034 -1.504 4.286
-0.008 -1.505 4.286
0.017 -1.506 4.289
0.042 -1.506 4.289
0.068 -1.506 4.289
0.093 -1.506 4.287
0.119 -1.505 4.285
0.145 -1.505 4.283
0.17 -1.505 4.281
0.196 -1.504 4.28
0.221 -1.505 4.279
0.247 -1.505 4.278
0.272 -1.503 4.272
0.298 -1.503 4.27
0.323 -1.504 4.27
0.349 -1.504 4.267
0.374 -1.504 4.265
0.4 -1.504 4.265
0.426 -1.505 4.264
0.451 -1.505 4.261
0.477 -1.505 4.258
0.502 -1.505 4.255
0.528 -1.505 4.254
0.554 -1.506 4.254
0.579 -1.506 4.249
0.605 -1.506 4.247
0.631 -1.507 4.245
0.656 -1.508 4.244
0.682 -1.508 4.24
0.709 -1.511 4.244
0.735 -1.512 4.244
0.761 -1.512 4.242
0.787 -1.514 4.242
0.813 -1.515 4.24
0.839 -1.515 4.234
0.865 -1.515 4.23
0.891 -1.516 4.229
0.917 -1.516 4.224
0.943 -1.517 4.221
0.97 -1.519 4.221
0.997 -1.522 4.223
1.023 -1.522 4.219
1.05 -1.524 4.218
1.077 -1.525 4.215
1.103 -1.526 4.212
1.129 -1.527 4.207
1.156 -1.528 4.206
1.182 -1.528 4.199
1.21 -1.531 4.198
1.236 -1.531 4.194
1.264 -1.534 4.194
1.292 -1.536 4.191
1.32 -1.538 4.191
1.347 -1.54 4.189
1.376 -1.544 4.19
1.402 -1.543 4.18
1.429 -1.545 4.177
1.458 -1.547 4.175
1.485 -1.548 4.169
1.511 -1.548 4.161
1.54 -1.551 4.16
1.568 -1.553 4.156
1.597 -1.556 4.154
1.626 -1.559 4.152
1.655 -1.561 4.149
1.683 -1.563 4.144
1.709 -1.562 4.133
1.732 -1.56 4.116
1.753 -1.555 4.094
1.773 -1.549 4.067
1.791 -1.542 4.039
1.807 -1.534 4.007
1.824 -1.527 3.977
1.837 -1.517 3.94
0 0 0
0 0 0
0 0 0
0 0 0
0 0 0
0 0 0
1.673 -1.26 3.201
1.675 -1.246 3.156
1.684 -1.237 3.124
1.692 -1.228 3.09
1.698 -1.217 3.053
1.693 -1.199 2.997
1.687 -1.181 2.942
1.681 -1.163 2.887
1.675 -1.146 2.833
1.678 -1.135 2.797
1.677 -1.122 2.753
-2.36 -1.567 4.024
-2.4 -1.612 4.155
-1.659 -1.128 2.912
-1.578 -1.086 2.811
-1.465 -1.021 2.65
-1.357 -0.957 2.492
-1.341 -0.958 2.501
-1.323 -0.957 2.506
-1.309 -0.959 2.519
-1.292 -0.959 2.527
-1.361 -1.024 2.706
-1.511 -1.151 3.053
-1.575 -1.216 3.236
-1.634 -1.279 3.413
-1.691 -1.342 3.591
-1.586 -1.277 3.424
-1.406 -1.148 3.085
-1.384 -1.147 3.09
-1.44 -1.211 3.27
-1.419 -1.211 3.278
-1.544 -1.337 3.63
-1.666 -1.465 3.988
-1.708 -1.525 4.162
-1.68 -1.524 4.169
-1.72 -1.585 4.346
-1.691 -1.585 4.354
-1.66 -1.582 4.355
-1.634 -1.582 4.365
-1.603 -1.579 4.365
-1.573 -1.577 4.368
-1.543 -1.575 4.371
-1.515 -1.575 4.377
-1.483 -1.57 4.371
-1.452 -1.566 4.369
-1.424 -1.565 4.373
-1.395 -1.563 4.374
-1.364 -1.559 4.371
-1.335 -1.557 4.372
-1.306 -1.555 4.373
-1.276 -1.552 4.37
-1.247 -1.549 4.37
-1.218 -1.547 4.369
-1.19 -1.545 4.37
-1.161 -1.543 4.37
-1.132 -1.54 4.366
-1.102 -1.536 4.36
-1.074 -1.534 4.359
-1.047 -1.533 4.362
-1.019 -1.532 4.364
-0.992 -1.531 4.366
-0.964 -1.529 4.364
-0.937 -1.528 4.366
-0.907 -1.523 4.357
-0.879 -1.52 4.352
-0.851 -1.517 4.347
-0.824 -1.516 4.349
-0.796 -1.513 4.344
-0.769 -1.512 4.345
-0.742 -1.51 4.342
-0.715 -1.51 4.346
-0.688 -1.507 4.339
-0.661 -1.505 4.337
-0.634 -1.504 4.337
-0.607 -1.502 4.335
-0.58 -1.5 4.332
-0.554 -1.5 4.335
-0.528 -1.499 4.333
-0.501 -1.497 4.331
-0.475 -1.497 4.331
-0.449 -1.495 4.329
-0.422 -1.495 4.328
-0.397 -1.495 4.332
-0.37 -1.493 4.328
-0.344 -1.492 4.326
-0.318 -1.49 4.322
-0.292 -1.488 4.316
-0.265 -1.486 4.311
-0.24 -1.486 4.311
-0.214 -1.484 4.307
-0.188 -1.483 4.305
-0.162 -1.483 4.305
-0.136 -1.482 4.304
-0.11 -1.481 4.299
-0.085 -1.479 4.296
-0.059 -1.479 4.294
-0.033 -1.478 4.292
-0.008 -1.478 4.291
0.017 -1.48 4.295
0.042 -1.48 4.297
0.068 -1.48 4.296
0.094 -1.479 4.292
0.119 -1.478 4.288
0.145 -1.477 4.285
0.17 -1.476 4.281
0.195 -1.476 4.28
0.221 -1.477 4.279
0.247 -1.477 4.279
0.272 -1.476 4.276
0.298 -1.477 4.275
0.323 -1.477 4.275
0.349 -1.477 4.272
0.374 -1.477 4.268
0.4 -1.477 4.268
0.425 -1.478 4.267
0.451 -1.478 4.264
0.477 -1.478 4.263
0.502 -1.479 4.263
0.528 -1.479 4.26
0.554 -1.48 4.26
0.579 -1.479 4.255
0.605 -1.48 4.252
0.63 -1.48 4.25
0.656 -1.481 4.248
0.681 -1.48 4.243
0.708 -1.483 4.246
0.734 -1.484 4.246
0.76 -1.485 4.243
0.786 -1.486 4.243
0.812 -1.487 4.24
0.837 -1.486 4.233
0.863 -1.486 4.229
0.89 -1.488 4.229
0.916 -1.489 4.227
0.942 -1.49 4.225
0.969 -1.492 4.226
0.997 -1.495 4.228
1.023 -1.495 4.224
1.05 -1.497 4.223
1.076 -1.498 4.22
1.103 -1.499 4.218
1.129 -1.499 4.212
1.156 -1.501 4.21
1.182 -1.502 4.205
1.209 -1.503 4.203
1.236 -1.504 4.199
1.264 -1.508 4.201
1.292 -1.509 4.199
1.319 -1.511 4.196
1.347 -1.513 4.194
1.375 -1.516 4.194
1.4 -1.515 4.183
1.428 -1.516 4.18
1.455 -1.518 4.176
1.482 -1.519 4.17
1.509 -1.52 4.163
1.538 -1.523 4.164
1.566 -1.525 4.159
1.596 -1.528 4.159
1.625 -1.531 4.157
1.653 -1.533 4.154
1.681 -1.535 4.149
1.708 -1.535 4.139
1.731 -1.532 4.122
1.752 -1.528 4.1
1.773 -1.523 4.076
1.792 -1.517 4.05
1.812 -1.512 4.026
1.829 -1.505 3.997
1.848 -1.499 3.97
0 0 0
0 0 0
0 0 0
0 0 0
0 0 0
0 0 0
1.345 -0.996 2.579
1.509 -1.104 2.849
1.573 -1.136 2.924
1.693 -1.207 3.098
1.697 -1.196 3.059
1.694 -1.179 3.005
1.69 -1.163 2.953
1.683 -1.145 2.897
1.676 -1.127 2.841
1.674 -1.113 2.796
1.658 -1.09 2.727
-0.012 -0.009 0.008
-0.035 -0.025 0.048
-1.205 -0.805 2.116
-1.144 -0.774 2.04
-1.034 -0.709 1.872
-0.931 -0.646 1.71
-0.921 -0.647 1.718
-0.909 -0.647 1.723
-0.9 -0.648 1.732
-0.888 -0.648 1.736
-0.961 -0.71 1.91
-1.111 -0.832 2.247
-1.18 -0.896 2.426
-1.242 -0.956 2.597
-1.304 -1.017 2.772
-1.204 -0.953 2.603
-1.029 -0.826 2.26
-1.012 -0.824 2.259
-1.149 -0.95 2.613
-1.208 -1.013 2.795
-1.409 -1.2 3.321
-1.606 -1.388 3.853
-1.72 -1.509 4.202
-1.692 -1.508 4.207
-1.73 -1.567 4.382
-1.701 -1.566 4.388
-1.67 -1.563 4.39
-1.643 -1.564 4.399
-1.611 -1.56 4.397
-1.581 -1.558 4.4
-1.55 -1.554 4.398
-1.52 -1.553 4.401
-1.488 -1.547 4.393
-1.457 -1.544 4.393
-1.427 -1.542 4.392
-1.398 -1.54 4.395
-1.367 -1.535 4.389
-1.339 -1.534 4.393
-1.309 -1.531 4.39
-1.279 -1.528 4.389
-1.249 -1.525 4.385
-1.22 -1.523 4.384
-1.191 -1.52 4.383
-1.162 -1.517 4.381
-1.132 -1.513 4.375
-1.103 -1.51 4.37
-1.074 -1.507 4.368
-1.046 -1.505 4.368
-1.018 -1.504 4.368
-0.991 -1.503 4.372
-0.963 -1.501 4.37
-0.936 -1.5 4.372
-0.907 -1.496 4.364
-0.879 -1.493 4.36
-0.85 -1.49 4.354
-0.823 -1.489 4.355
-0.795 -1.486 4.35
-0.769 -1.486 4.353
-0.741 -1.483 4.347
-0.715 -1.483 4.35
-0.687 -1.479 4.344
-0.66 -1.477 4.341
-0.633 -1.475 4.338
-0.606 -1.474 4.338
-0.58 -1.472 4.334
-0.553 -1.472 4.335
-0.527 -1.47 4.332
-0.5 -1.469 4.332
-0.474 -1.469 4.332
-0.448 -1.467 4.331
-0.422 -1.466 4.329
-0.396 -1.467 4.334
-0.37 -1.466 4.331
-0.344 -1.464 4.328
-0.317 -1.463 4.326
-0.291 -1.462 4.323
-0.265 -1.46 4.32
-0.239 -1.46 4.319
-0.213 -1.458 4.314
-0.187 -1.456 4.309
-0.162 -1.456 4.31
-0.136 -1.455 4.307
-0.11 -1.453 4.3
-0.084 -1.451 4.296
-0.059 -1.451 4.296
-0.033 -1.45 4.292
-0.008 -1.449 4.29
0.017 -1.45 4.292
0.042 -1.452 4.296
0.068 -1.452 4.297
0.094 -1.451 4.292
0.119 -1.45 4.287
0.145 -1.45 4.287
0.17 -1.449 4.284
0.195 -1.449 4.283
0.221 -1.449 4.281
0.246 -1.45 4.281
0.272 -1.449 4.277
0.297 -1.449 4.276
0.323 -1.448 4.272
0.348 -1.449 4.272
0.374 -1.449 4.271
0.399 -1.45 4.269
0.425 -1.45 4.269
0.451 -1.451 4.269
0.476 -1.451 4.265
0.502 -1.451 4.263
0.527 -1.451 4.262
0.553 -1.453 4.263
0.578 -1.452 4.256
0.604 -1.453 4.255
0.63 -1.454 4.256
0.656 -1.454 4.251
0.681 -1.453 4.245
0.707 -1.455 4.248
0.734 -1.457 4.25
0.759 -1.456 4.244
0.785 -1.458 4.244
0.811 -1.458 4.24
0.836 -1.458 4.235
0.861 -1.457 4.227
0.888 -1.46 4.23
0.914 -1.46 4.228
0.941 -1.463 4.229
0.969 -1.465 4.231
0.996 -1.468 4.233
1.022 -1.468 4.229
1.049 -1.47 4.229
1.075 -1.471 4.224
1.102 -1.472 4.222
1.128 -1.472 4.216
1.155 -1.474 4.215
1.181 -1.474 4.209
1.208 -1.476 4.208
1.235 -1.477 4.204
1.263 -1.48 4.206
1.291 -1.482 4.203
1.318 -1.484 4.201
1.346 -1.486 4.2
1.374 -1.488 4.198
1.399 -1.488 4.189
1.427 -1.489 4.184
1.454 -1.491 4.182
1.481 -1.491 4.174
1.508 -1.493 4.17
1.538 -1.496 4.17
1.565 -1.497 4.165
1.594 -1.5 4.162
1.623 -1.503 4.161
1.651 -1.505 4.157
1.679 -1.506 4.151
1.706 -1.507 4.143
1.729 -1.504 4.125
1.752 -1.501 4.106
1.774 -1.497 4.087
1.796 -1.494 4.068
1.816 -1.489 4.043
1.838 -1.486 4.025
0 0 0
0 0 0
0 0 0
0 0 0
0 0 0
0 0 0
0 0 0
1.025 -0.747 1.967
1.351 -0.971 2.555
1.464 -1.039 2.727
1.692 -1.186 3.103
1.697 -1.175 3.064
1.695 -1.16 3.015
1.689 -1.142 2.958
1.685 -1.126 2.906
1.678 -1.109 2.851
1.679 -1.097 2.811
1.685 -1.088 2.778
0 0 0
-2.391 -1.55 4.158
-0.736 -0.484 1.291
-0.703 -0.468 1.252
-0.6 -0.404 1.082
-0.501 -0.342 0.916
-0.495 -0.342 0.919
-0.488 -0.342 0.922
-0.483 -0.342 0.925
-0.475 -0.341 0.925
-0.553 -0.402 1.096
-0.71 -0.523 1.435
-0.782 -0.583 1.606
-0.849 -0.642 1.775
-0.915 -0.702 1.946
-0.82 -0.637 1.771
-0.648 -0.511 1.421
-0.635 -0.509 1.417
-0.854 -0.693 1.941
-0.991 -0.816 2.294
-1.27 -1.062 2.998
-1.542 -1.309 3.707
-1.729 -1.491 4.233
-1.7 -1.488 4.236
-1.737 -1.546 4.41
-1.706 -1.543 4.41
-1.675 -1.54 4.412
-1.646 -1.539 4.416
-1.614 -1.535 4.415
-1.584 -1.533 4.417
-1.552 -1.529 4.412
-1.521 -1.525 4.411
-1.488 -1.521 4.405
-1.458 -1.517 4.403
-1.427 -1.514 4.4
-1.398 -1.513 4.403
-1.367 -1.508 4.398
-1.338 -1.506 4.398
-1.307 -1.502 4.393
-1.278 -1.5 4.392
-1.248 -1.496 4.389
-1.219 -1.494 4.388
-1.19 -1.492 4.388
-1.162 -1.49 4.387
-1.132 -1.486 4.383
-1.102 -1.483 4.377
-1.074 -1.481 4.376
-1.046 -1.478 4.375
-1.018 -1.476 4.373
-0.991 -1.476 4.378
-0.962 -1.474 4.375
-0.935 -1.472 4.374
-0.905 -1.467 4.364
-0.878 -1.465 4.364
-0.849 -1.462 4.357
-0.823 -1.461 4.359
-0.795 -1.458 4.354
-0.768 -1.459 4.358
-0.74 -1.455 4.35
-0.713 -1.454 4.35
-0.686 -1.451 4.345
-0.659 -1.45 4.344
-0.632 -1.447 4.338
-0.606 -1.447 4.341
-0.579 -1.444 4.336
-0.552 -1.443 4.336
-0.526 -1.442 4.334
-0.5 -1.441 4.334
-0.473 -1.44 4.331
-0.447 -1.44 4.333
-0.421 -1.439 4.332
-0.395 -1.439 4.333
-0.369 -1.438 4.331
-0.343 -1.437 4.331
-0.317 -1.435 4.327
-0.291 -1.434 4.325
-0.265 -1.433 4.322
-0.239 -1.433 4.323
-0.213 -1.431 4.316
-0.187 -1.429 4.312
-0.161 -1.429 4.312
-0.136 -1.427 4.308
-0.11 -1.426 4.303
-0.084 -1.425 4.301
-0.059 -1.425 4.3
-0.033 -1.424 4.298
-0.007 -1.424 4.299
0.017 -1.425 4.299
0.043 -1.425 4.301
0.068 -1.426 4.303
0.094 -1.425 4.299
0.119 -1.424 4.294
0.145 -1.424 4.293
0.17 -1.423 4.29
0.195 -1.422 4.286
0.221 -1.422 4.283
0.246 -1.422 4.281
0.272 -1.422 4.28
0.297 -1.422 4.279
0.323 -1.422 4.277
0.348 -1.423 4.277
0.374 -1.424 4.278
0.399 -1.423 4.275
0.425 -1.424 4.274
0.451 -1.425 4.274
0.476 -1.424 4.27
0.502 -1.425 4.268
0.527 -1.425 4.267
0.553 -1.427 4.269
0.578 -1.425 4.261
0.604 -1.427 4.261
0.63 -1.428 4.262
0.655 -1.427 4.257
0.68 -1.426 4.249
0.707 -1.428 4.252
0.733 -1.43 4.252
0.758 -1.429 4.245
0.785 -1.432 4.251
0.811 -1.433 4.249
0.836 -1.432 4.242
0.861 -1.431 4.233
0.888 -1.433 4.235
0.913 -1.433 4.229
0.94 -1.434 4.228
0.967 -1.436 4.23
0.995 -1.439 4.233
1.02 -1.44 4.229
1.047 -1.441 4.228
1.074 -1.443 4.226
1.101 -1.444 4.223
1.126 -1.444 4.218
1.154 -1.446 4.217
1.18 -1.447 4.212
1.207 -1.448 4.209
1.233 -1.449 4.206
1.261 -1.452 4.207
1.288 -1.453 4.203
1.316 -1.455 4.201
1.344 -1.458 4.202
1.373 -1.46 4.201
1.399 -1.46 4.194
1.427 -1.463 4.192
1.455 -1.465 4.191
1.482 -1.466 4.184
1.509 -1.467 4.18
1.538 -1.47 4.179
1.565 -1.471 4.173
1.593 -1.472 4.168
1.622 -1.475 4.166
1.65 -1.476 4.16
1.678 -1.478 4.156
1.704 -1.478 4.147
1.728 -1.476 4.131
1.752 -1.474 4.114
1.774 -1.471 4.096
1.796 -1.468 4.076
1.816 -1.463 4.052
0 0 0
0 0 0
0 0 0
0 0 0
0 0 0
0 0 0
0 0 0
0 0 0
0.861 -0.617 1.655
1.31 -0.925 2.482
1.444 -1.007 2.695
1.689 -1.163 3.104
1.694 -1.152 3.067
1.697 -1.141 3.025
1.692 -1.124 2.97
1.688 -1.108 2.918
1.68 -1.09 2.86
1.673 -1.074 2.807
1.651 -1.048 2.728
-0.131 -0.084 0.213
-0.128 -0.083 0.211
-0.278 -0.18 0.48
-0.265 -0.174 0.465
-0.164 -0.11 0.288
-0.068 -0.047 0.114
-0.068 -0.047 0.115
-0.153 -0.106 0.281
-0.151 -0.106 0.28
-0.146 -0.104 0.276
-0.225 -0.162 0.44
-0.384 -0.278 0.771
-0.375 -0.276 0.766
-0.447 -0.332 0.93
-0.519 -0.391 1.1
-0.508 -0.389 1.096
-0.341 -0.265 0.743
-0.331 -0.261 0.734
-0.628 -0.501 1.428
-0.767 -0.621 1.777
-1.049 -0.861 2.478
-1.397 -1.164 3.364
-1.66 -1.405 4.071
-1.633 -1.404 4.078
-1.741 -1.521 4.428
-1.71 -1.518 4.429
-1.678 -1.515 4.428
-1.647 -1.512 4.429
-1.615 -1.508 4.425
-1.584 -1.506 4.427
-1.551 -1.501 4.419
-1.521 -1.498 4.421
-1.489 -1.494 4.415
-1.458 -1.491 4.413
-1.427 -1.487 4.409
-1.399 -1.486 4.413
-1.367 -1.481 4.405
-1.337 -1.479 4.405
-1.307 -1.475 4.402
-1.277 -1.472 4.399
-1.247 -1.469 4.395
-1.219 -1.467 4.396
-1.19 -1.465 4.395
-1.161 -1.462 4.393
-1.131 -1.459 4.388
-1.102 -1.455 4.383
-1.072 -1.452 4.377
-1.044 -1.449 4.374
-1.015 -1.446 4.369
-0.988 -1.445 4.372
-0.96 -1.443 4.371
-0.933 -1.442 4.373
-0.904 -1.439 4.368
-0.878 -1.439 4.371
-0.85 -1.436 4.367
-0.822 -1.435 4.367
-0.795 -1.433 4.365
-0.769 -1.433 4.368
-0.741 -1.43 4.36
-0.714 -1.428 4.359
-0.686 -1.426 4.356
-0.659 -1.423 4.351
-0.631 -1.42 4.342
-0.605 -1.42 4.345
-0.578 -1.417 4.34
-0.552 -1.416 4.338
-0.525 -1.414 4.336
-0.499 -1.414 4.338
-0.473 -1.413 4.336
-0.447 -1.413 4.338
-0.421 -1.412 4.335
-0.395 -1.412 4.337
-0.368 -1.41 4.334
-0.342 -1.41 4.333
-0.316 -1.408 4.33
-0.291 -1.408 4.33
-0.264 -1.406 4.324
-0.239 -1.405 4.324
-0.212 -1.403 4.317
-0.187 -1.401 4.312
-0.161 -1.401 4.312
-0.135 -1.399 4.306
-0.11 -1.398 4.304
-0.084 -1.398 4.304
-0.058 -1.398 4.303
-0.033 -1.398 4.302
-0.007 -1.399 4.307
0.017 -1.399 4.307
0.043 -1.401 4.31
0.068 -1.402 4.314
0.094 -1.4 4.308
0.119 -1.398 4.301
0.145 -1.398 4.298
0.17 -1.398 4.297
0.196 -1.396 4.291
0.221 -1.395 4.285
0.246 -1.396 4.287
0.272 -1.396 4.287
0.297 -1.396 4.284
0.323 -1.396 4.282
0.349 -1.398 4.286
0.374 -1.398 4.285
0.399 -1.397 4.279
0.425 -1.397 4.276
0.451 -1.398 4.278
0.476 -1.397 4.272
0.502 -1.399 4.273
0.527 -1.4 4.273
0.553 -1.401 4.275
0.578 -1.399 4.267
0.604 -1.4 4.267
0.63 -1.401 4.265
0.655 -1.4 4.258
0.68 -1.399 4.251
0.706 -1.4 4.252
0.732 -1.401 4.251
0.757 -1.401 4.245
0.785 -1.405 4.254
0.811 -1.406 4.254
0.836 -1.405 4.246
0.861 -1.405 4.24
0.888 -1.407 4.242
0.913 -1.407 4.235
0.939 -1.407 4.231
0.966 -1.409 4.232
0.993 -1.411 4.233
1.019 -1.411 4.228
1.045 -1.413 4.227
1.072 -1.415 4.227
1.1 -1.417 4.227
1.126 -1.418 4.223
1.153 -1.42 4.223
1.18 -1.42 4.218
1.206 -1.422 4.216
1.233 -1.422 4.211
1.26 -1.424 4.209
1.286 -1.424 4.203
1.314 -1.427 4.203
1.342 -1.429 4.201
1.37 -1.431 4.2
1.396 -1.431 4.193
1.424 -1.434 4.193
1.452 -1.436 4.189
1.479 -1.437 4.184
1.507 -1.438 4.18
1.536 -1.442 4.181
1.564 -1.443 4.177
1.592 -1.445 4.172
1.621 -1.447 4.171
1.649 -1.449 4.167
1.676 -1.45 4.16
1.705 -1.452 4.156
1.729 -1.451 4.141
1.754 -1.45 4.129
1.779 -1.449 4.116
1.804 -1.448 4.102
1.818 -1.439 4.065
0 0 0
0 0 0
0 0 0
0 0 0
0 0 0
0 0 0
0 0 0
0 0 0
0.861 -0.606 1.658
1.266 -0.878 2.404
1.426 -0.976 2.666
1.689 -1.142 3.111
1.694 -1.132 3.073
1.696 -1.119 3.029
1.693 -1.104 2.978
1.689 -1.089 2.927
1.681 -1.071 2.868
1.67 -1.053 2.807
1.682 -1.049 2.786
-0.022 -0.015 0.026
-0.131 -0.083 0.217
-0.207 -0.132 0.355
-0.194 -0.125 0.337
-0.093 -0.062 0.159
-0.087 -0.059 0.15
-0.087 -0.059 0.151
-0.082 -0.057 0.145
-0.078 -0.055 0.14
-0.071 -0.051 0.129
-0.151 -0.107 0.292
-0.224 -0.16 0.446
-0.215 -0.156 0.434
-0.205 -0.15 0.42
-0.199 -0.148 0.414
-0.19 -0.144 0.403
-0.183 -0.14 0.393
-0.176 -0.137 0.385
-0.552 -0.433 1.256
-0.767 -0.609 1.78
-1.05 -0.847 2.486
-1.325 -1.084 3.195
-1.661 -1.38 4.083
-1.633 -1.378 4.085
-1.741 -1.493 4.436
-1.708 -1.489 4.433
-1.677 -1.486 4.434
-1.645 -1.482 4.431
-1.613 -1.479 4.429
-1.583 -1.477 4.433
-1.55 -1.472 4.425
-1.519 -1.469 4.424
-1.488 -1.465 4.421
-1.456 -1.461 4.416
-1.425 -1.457 4.41
-1.396 -1.456 4.413
-1.365 -1.452 4.408
-1.336 -1.45 4.408
-1.307 -1.448 4.408
-1.277 -1.445 4.407
-1.247 -1.442 4.404
-1.218 -1.439 4.402
-1.19 -1.438 4.404
-1.161 -1.436 4.401
-1.131 -1.432 4.396
-1.102 -1.429 4.394
-1.073 -1.426 4.39
-1.044 -1.423 4.383
-1.014 -1.419 4.376
-0.987 -1.418 4.377
-0.959 -1.416 4.377
-0.932 -1.415 4.378
-0.904 -1.413 4.376
-0.878 -1.413 4.38
-0.85 -1.411 4.378
-0.823 -1.409 4.376
-0.795 -1.408 4.374
-0.769 -1.407 4.377
-0.741 -1.404 4.369
-0.713 -1.402 4.366
-0.686 -1.4 4.363
-0.659 -1.397 4.357
-0.631 -1.393 4.346
-0.605 -1.393 4.349
-0.577 -1.39 4.343
-0.551 -1.388 4.339
-0.525 -1.387 4.339
-0.498 -1.387 4.34
-0.472 -1.386 4.34
-0.446 -1.385 4.339
-0.42 -1.383 4.333
-0.394 -1.383 4.334
-0.368 -1.382 4.333
-0.342 -1.381 4.332
-0.316 -1.381 4.333
-0.29 -1.382 4.335
-0.264 -1.379 4.328
-0.238 -1.378 4.325
-0.212 -1.375 4.316
-0.186 -1.373 4.311
-0.161 -1.373 4.312
-0.135 -1.371 4.306
-0.109 -1.371 4.308
-0.084 -1.372 4.309
-0.058 -1.371 4.308
-0.033 -1.371 4.305
-0.007 -1.375 4.317
0.017 -1.374 4.314
0.043 -1.375 4.319
0.069 -1.376 4.321
0.094 -1.374 4.311
0.119 -1.371 4.302
0.145 -1.371 4.301
0.17 -1.37 4.298
0.195 -1.369 4.292
0.221 -1.368 4.289
0.246 -1.369 4.291
0.272 -1.37 4.29
0.297 -1.37 4.29
0.323 -1.371 4.29
0.349 -1.372 4.293
0.374 -1.372 4.291
0.399 -1.372 4.286
0.425 -1.372 4.284
0.45 -1.372 4.282
0.475 -1.37 4.275
0.501 -1.372 4.278
0.527 -1.373 4.277
0.553 -1.375 4.279
0.578 -1.373 4.272
0.604 -1.375 4.275
0.63 -1.376 4.274
0.655 -1.374 4.265
0.68 -1.373 4.258
0.706 -1.375 4.259
0.732 -1.375 4.257
0.756 -1.373 4.247
0.785 -1.379 4.26
0.811 -1.38 4.259
0.836 -1.379 4.25
0.86 -1.378 4.242
0.888 -1.381 4.248
0.913 -1.38 4.24
0.938 -1.38 4.234
0.965 -1.381 4.234
0.992 -1.384 4.237
1.018 -1.384 4.231
1.044 -1.385 4.229
1.071 -1.387 4.23
1.099 -1.389 4.23
1.124 -1.389 4.223
1.151 -1.39 4.221
1.177 -1.391 4.216
1.204 -1.393 4.214
1.23 -1.393 4.209
1.257 -1.395 4.207
1.283 -1.395 4.201
1.312 -1.398 4.202
1.339 -1.4 4.201
1.367 -1.402 4.199
1.394 -1.403 4.195
1.423 -1.406 4.196
1.451 -1.408 4.194
1.478 -1.409 4.188
1.506 -1.411 4.186
1.535 -1.414 4.185
1.562 -1.415 4.18
1.589 -1.416 4.173
1.618 -1.419 4.171
1.646 -1.42 4.166
1.673 -1.42 4.158
1.7 -1.422 4.153
1.725 -1.421 4.139
1.75 -1.42 4.127
1.774 -1.418 4.112
1.8 -1.418 4.1
0 0 0
0 0 0
0 0 0
0 0 0
0 0 0
0 0 0
0 0 0
0 0 0
0 0 0
0 0 0
1.123 -0.765 2.136
1.372 -0.922 2.57
1.684 -1.118 3.108
1.69 -1.108 3.072
1.693 -1.097 3.03
1.694 -1.085 2.986
1.691 -1.07 2.936
1.679 -1.051 2.872
1.683 -1.041 2.835
1.662 -1.017 2.758
-0.145 -0.089 0.238
-0.178 -0.111 0.3
-0.131 -0.083 0.221
-0.123 -0.079 0.21
-0.11 -0.071 0.189
-0.103 -0.068 0.179
-0.097 -0.064 0.17
-0.09 -0.061 0.16
-0.084 -0.058 0.152
-0.077 -0.054 0.14
-0.072 -0.051 0.132
-0.063 -0.045 0.115
-0.054 -0.04 0.1
-0.047 -0.035 0.086
-0.041 -0.031 0.075
-0.192 -0.142 0.408
-0.261 -0.196 0.569
-0.253 -0.193 0.56
-0.627 -0.482 1.431
-0.916 -0.714 2.134
-1.123 -0.888 2.665
-1.396 -1.121 3.374
-1.731 -1.412 4.264
-1.701 -1.409 4.265
-1.738 -1.463 4.438
-1.705 -1.459 4.434
-1.674 -1.456 4.436
-1.643 -1.453 4.435
-1.611 -1.45 4.432
-1.581 -1.448 4.435
-1.549 -1.443 4.43
-1.518 -1.44 4.427
-1.485 -1.436 4.421
-1.454 -1.432 4.417
-1.423 -1.428 4.412
-1.393 -1.426 4.412
-1.362 -1.422 4.408
-1.333 -1.42 4.409
-1.305 -1.418 4.41
-1.275 -1.416 4.408
-1.246 -1.413 4.406
-1.217 -1.411 4.405
-1.189 -1.41 4.408
-1.16 -1.408 4.407
-1.131 -1.405 4.402
-1.102 -1.402 4.4
-1.073 -1.4 4.397
-1.043 -1.395 4.386
-1.013 -1.39 4.377
-0.985 -1.389 4.378
-0.959 -1.389 4.382
-0.931 -1.388 4.382
-0.905 -1.387 4.385
-0.878 -1.388 4.391
-0.85 -1.385 4.387
-0.823 -1.383 4.383
-0.796 -1.382 4.384
-0.769 -1.381 4.383
-0.74 -1.377 4.374
-0.713 -1.376 4.373
-0.686 -1.374 4.371
-0.658 -1.37 4.361
-0.63 -1.366 4.352
-0.605 -1.367 4.357
-0.577 -1.364 4.349
-0.55 -1.361 4.341
-0.524 -1.36 4.342
-0.498 -1.359 4.342
-0.472 -1.359 4.341
-0.445 -1.357 4.337
-0.419 -1.354 4.33
-0.393 -1.354 4.331
-0.367 -1.354 4.333
-0.341 -1.354 4.333
-0.316 -1.354 4.336
-0.29 -1.355 4.339
-0.264 -1.352 4.331
-0.238 -1.35 4.326
-0.212 -1.347 4.318
-0.186 -1.346 4.313
-0.16 -1.345 4.312
-0.134 -1.344 4.308
-0.109 -1.345 4.31
-0.084 -1.345 4.312
-0.058 -1.344 4.307
-0.032 -1.342 4.302
-0.007 -1.346 4.314
0.017 -1.343 4.304
0.043 -1.346 4.312
0.069 -1.348 4.319
0.094 -1.347 4.315
0.119 -1.346 4.311
0.145 -1.347 4.313
0.171 -1.346 4.31
0.196 -1.345 4.303
0.221 -1.342 4.294
0.246 -1.342 4.291
0.272 -1.342 4.29
0.297 -1.342 4.287
0.322 -1.342 4.285
0.348 -1.344 4.292
0.374 -1.347 4.297
0.399 -1.346 4.291
0.425 -1.345 4.286
0.45 -1.346 4.287
0.475 -1.343 4.275
0.501 -1.344 4.276
0.526 -1.344 4.273
0.553 -1.348 4.283
0.578 -1.347 4.277
0.605 -1.35 4.284
0.631 -1.351 4.283
0.656 -1.35 4.276
0.679 -1.346 4.259
0.705 -1.347 4.26
0.731 -1.348 4.259
0.755 -1.345 4.244
0.785 -1.354 4.268
0.812 -1.357 4.273
0.836 -1.354 4.26
0.86 -1.351 4.247
0.888 -1.355 4.255
0.913 -1.354 4.245
0.937 -1.353 4.237
0.964 -1.354 4.237
0.991 -1.357 4.239
1.017 -1.356 4.232
1.043 -1.358 4.23
1.07 -1.359 4.23
1.097 -1.361 4.229
1.122 -1.361 4.223
1.149 -1.363 4.222
1.175 -1.363 4.217
1.202 -1.364 4.214
1.228 -1.365 4.208
1.255 -1.366 4.206
1.281 -1.367 4.201
1.31 -1.37 4.203
1.338 -1.372 4.203
1.366 -1.375 4.203
1.394 -1.377 4.201
1.423 -1.38 4.202
1.451 -1.382 4.2
1.478 -1.383 4.195
1.506 -1.385 4.192
1.533 -1.386 4.188
1.561 -1.388 4.185
1.588 -1.388 4.177
1.617 -1.391 4.175
1.644 -1.392 4.169
1.671 -1.393 4.162
1.699 -1.394 4.157
1.724 -1.394 4.145
1.75 -1.393 4.134
1.775 -1.392 4.121
1.804 -1.394 4.116
0 0 0
0 0 0
0 0 0
0 0 0
0 0 0
0 0 0
0 0 0
0 0 0
0 0 0
0 0 0
0 0 0
1.461 -0.964 2.743
1.679 -1.094 3.105
1.687 -1.085 3.071
1.693 -1.077 3.037
1.695 -1.066 2.995
1.691 -1.051 2.943
1.68 -1.032 2.879
1.68 -1.02 2.837
1.667 -1.001 2.772
-0.226 -0.136 0.379
-0.166 -0.101 0.279
-0.143 -0.088 0.243
-0.135 -0.085 0.233
-0.122 -0.078 0.212
-0.113 -0.073 0.198
-0.102 -0.066 0.181
-0.092 -0.061 0.164
-0.085 -0.057 0.154
-0.077 -0.053 0.14
-0.072 -0.05 0.132
-0.064 -0.045 0.119
-0.055 -0.04 0.102
-0.046 -0.034 0.085
-0.039 -0.029 0.071
-0.19 -0.138 0.403
-0.337 -0.248 0.739
-0.406 -0.302 0.908
-0.777 -0.586 1.78
-1.063 -0.813 2.483
-1.267 -0.983 3.014
-1.464 -1.153 3.546
-1.726 -1.381 4.26
-1.697 -1.379 4.263
-1.735 -1.432 4.439
-1.702 -1.428 4.435
-1.671 -1.426 4.436
-1.639 -1.422 4.433
-1.608 -1.419 4.431
-1.578 -1.417 4.434
-1.547 -1.414 4.432
-1.516 -1.411 4.431
-1.484 -1.407 4.425
-1.452 -1.403 4.418
-1.422 -1.4 4.416
-1.391 -1.397 4.414
-1.361 -1.394 4.411
-1.332 -1.392 4.413
-1.305 -1.392 4.418
-1.275 -1.389 4.415
-1.245 -1.386 4.413
-1.216 -1.383 4.41
-1.188 -1.383 4.414
-1.159 -1.38 4.411
-1.13 -1.377 4.406
-1.101 -1.374 4.404
-1.073 -1.372 4.402
-1.043 -1.368 4.394
-1.012 -1.363 4.381
-0.984 -1.361 4.379
-0.958 -1.362 4.386
-0.929 -1.359 4.381
-0.903 -1.359 4.385
-0.878 -1.36 4.394
-0.85 -1.358 4.392
-0.822 -1.355 4.385
-0.796 -1.356 4.391
-0.768 -1.354 4.388
-0.74 -1.351 4.381
-0.714 -1.35 4.383
-0.687 -1.349 4.382
-0.658 -1.344 4.368
-0.631 -1.341 4.362
-0.605 -1.342 4.366
-0.577 -1.337 4.353
-0.549 -1.332 4.338
-0.523 -1.333 4.345
-0.496 -1.331 4.339
-0.47 -1.328 4.334
-0.444 -1.327 4.332
-0.418 -1.326 4.33
-0.392 -1.325 4.326
-0.366 -1.325 4.33
-0.34 -1.326 4.333
-0.315 -1.326 4.336
-0.289 -1.326 4.336
-0.263 -1.324 4.329
-0.237 -1.321 4.322
-0.211 -1.319 4.314
-0.185 -1.317 4.308
-0.16 -1.317 4.309
-0.134 -1.317 4.309
-0.109 -1.318 4.314
-0.083 -1.319 4.318
-0.058 -1.319 4.317
-0.032 -1.318 4.314
0 0 0
0 0 0
0 0 0
0 0 0
0 0 0
0 0 0
0 0 0
0 0 0
0 0 0
0 0 0
0 0 0
0 0 0
0 0 0
0 0 0
0 0 0
0 0 0
0 0 0
0 0 0
0 0 0
0 0 0
0 0 0
0 0 0
0 0 0
0 0 0
0 0 0
0 0 0
0 0 0
0 0 0
0 0 0
0 0 0
0 0 0
0 0 0
0 0 0
0 0 0
0.863 -1.33 4.268
0.888 -1.329 4.258
0.911 -1.326 4.244
0.935 -1.324 4.232
0.961 -1.325 4.231
0.989 -1.327 4.234
1.014 -1.328 4.229
1.041 -1.329 4.229
1.068 -1.331 4.228
1.095 -1.333 4.229
1.121 -1.333 4.224
1.149 -1.336 4.226
1.174 -1.336 4.22
1.201 -1.338 4.218
1.227 -1.338 4.212
1.253 -1.338 4.206
1.279 -1.339 4.202
1.308 -1.342 4.205
1.336 -1.344 4.203
1.364 -1.347 4.204
1.393 -1.349 4.205
1.421 -1.352 4.204
1.448 -1.353 4.2
1.476 -1.355 4.197
1.504 -1.357 4.194
1.531 -1.358 4.19
1.559 -1.36 4.187
1.587 -1.361 4.181
1.616 -1.363 4.179
1.643 -1.365 4.174
1.67 -1.365 4.165
1.696 -1.365 4.157
1.723 -1.366 4.148
1.748 -1.365 4.136
1.773 -1.364 4.123
1.801 -1.366 4.118
0 0 0
0 0 0
0 0 0
0 0 0
0 0 0
0 0 0
0 0 0
0 0 0
0 0 0
0 0 0
0 0 0
1.668 -1.079 3.139
1.682 -1.075 3.117
1.689 -1.066 3.081
1.694 -1.057 3.045
1.698 -1.047 3.005
1.693 -1.032 2.952
1.682 -1.014 2.889
1.682 -1.002 2.845
1.644 -0.969 2.74
-0.173 -0.102 0.288
-0.195 -0.116 0.331
-0.156 -0.094 0.266
-0.144 -0.088 0.248
-0.13 -0.081 0.226
-0.118 -0.075 0.209
-0.105 -0.067 0.187
-0.093 -0.061 0.167
-0.086 -0.056 0.155
-0.077 -0.052 0.142
-0.07 -0.048 0.129
-0.061 -0.042 0.113
-0.053 -0.037 0.097
-0.043 -0.031 0.078
-0.035 -0.026 0.062
-0.186 -0.133 0.396
-0.413 -0.297 0.909
-0.558 -0.407 1.255
-0.926 -0.684 2.13
-1.211 -0.908 2.836
-1.412 -1.074 3.368
-1.535 -1.185 3.726
-1.724 -1.352 4.262
-1.695 -1.35 4.266
-1.733 -1.403 4.442
-1.701 -1.4 4.441
-1.67 -1.397 4.44
-1.638 -1.394 4.438
-1.606 -1.39 4.435
-1.577 -1.388 4.438
-1.545 -1.385 4.434
-1.514 -1.382 4.434
-1.481 -1.377 4.424
-1.45 -1.373 4.42
-1.419 -1.37 4.416
-1.389 -1.367 4.414
-1.358 -1.363 4.409
-1.333 -1.365 4.422
-1.305 -1.365 4.428
-1.275 -1.362 4.425
-1.246 -1.36 4.424
-1.217 -1.358 4.422
-1.189 -1.357 4.425
-1.16 -1.354 4.422
-1.131 -1.351 4.418
-1.101 -1.348 4.413
-1.072 -1.346 4.409
-1.041 -1.34 4.396
-1.009 -1.332 4.374
-0.978 -1.326 4.36
-0.954 -1.33 4.377
-0.927 -1.329 4.378
-0.902 -1.331 4.388
-0.878 -1.334 4.403
-0.852 -1.335 4.41
-0.823 -1.331 4.401
-0.799 -1.335 4.416
-0.771 -1.333 4.412
0 0 0
0 0 0
0 0 0
0 0 0
0 0 0
0 0 0
0 0 0
0 0 0
0 0 0
0 0 0
0 0 0
