0.904 -1.624 4.128
0.929 -1.623 4.12
0.955 -1.624 4.119
0.98 -1.623 4.111
1.005 -1.624 4.106
1.032 -1.626 4.106
1.059 -1.629 4.107
1.087 -1.632 4.11
1.113 -1.633 4.106
1.138 -1.634 4.1
1.165 -1.635 4.098
1.19 -1.635 4.09
1.214 -1.633 4.079
1.241 -1.636 4.078
1.269 -1.639 4.078
1.295 -1.639 4.073
1.321 -1.64 4.066
1.348 -1.641 4.061
1.373 -1.641 4.053
1.398 -1.64 4.044
1.422 -1.639 4.033
1.449 -1.641 4.028
1.475 -1.641 4.02
1.501 -1.641 4.012
1.523 -1.638 3.995
1.549 -1.638 3.986
1.575 -1.639 3.978
1.601 -1.64 3.972
1.625 -1.638 3.959
1.652 -1.64 3.953
1.677 -1.64 3.942
1.699 -1.636 3.924
1.717 -1.629 3.897
1.735 -1.622 3.87
1.749 -1.612 3.836
1.76 -1.6 3.795
1.77 -1.586 3.753
1.777 -1.571 3.705
1.783 -1.555 3.658
1.793 -1.543 3.618
1.796 -1.525 3.566
1.803 -1.511 3.522
1.721 -1.424 3.308
1.651 -1.349 3.123
1.666 -1.345 3.102
1.676 -1.336 3.072
1.684 -1.326 3.039
1.687 -1.312 2.997
1.681 -1.292 2.941
1.673 -1.271 2.883
1.666 -1.251 2.826
1.662 -1.234 2.778
1.662 -1.22 2.736
1.697 -1.232 2.751
-2.179 -1.573 3.668
-2.185 -1.596 3.734
-2.191 -1.62 3.802
-2.166 -1.62 3.817
-2.141 -1.621 3.832
-2.116 -1.622 3.845
-2.09 -1.623 3.859
-2.064 -1.623 3.871
-2.038 -1.623 3.883
-2.017 -1.627 3.904
-1.992 -1.628 3.918
-1.965 -1.628 3.929
-1.937 -1.626 3.935
-1.911 -1.626 3.947
-1.881 -1.623 3.949
-1.854 -1.622 3.958
-1.826 -1.621 3.965
-1.801 -1.621 3.976
-1.774 -1.621 3.985
-1.749 -1.622 3.997
-1.721 -1.62 4.002
-1.696 -1.621 4.014
-1.668 -1.619 4.02
-1.641 -1.618 4.025
-1.614 -1.617 4.032
-1.589 -1.618 4.044
-1.563 -1.619 4.053
-1.538 -1.619 4.063
-1.513 -1.62 4.073
-1.488 -1.622 4.087
-1.462 -1.621 4.093
-1.435 -1.621 4.098
-1.407 -1.618 4.1
-1.38 -1.618 4.106
-1.352 -1.615 4.107
-1.326 -1.615 4.113
-1.303 -1.618 4.128
-1.278 -1.62 4.139
-1.25 -1.617 4.139
-1.224 -1.617 4.144
-1.198 -1.617 4.152
-1.17 -1.614 4.151
-1.142 -1.611 4.149
-1.117 -1.613 4.158
-1.091 -1.613 4.164
-1.064 -1.611 4.165
-1.037 -1.609 4.166
-1.013 -1.612 4.177
-0.986 -1.61 4.178
-0.96 -1.609 4.179
-0.934 -1.609 4.183
-0.908 -1.609 4.189
-0.882 -1.608 4.189
-0.857 -1.609 4.197
-0.831 -1.61 4.204
-0.806 -1.611 4.21
-0.781 -1.613 4.219
-0.756 -1.614 4.225
-0.73 -1.614 4.23
-0.703 -1.612 4.227
-0.678 -1.612 4.23
-0.651 -1.609 4.227
-0.625 -1.61 4.231
-0.598 -1.606 4.225
-0.573 -1.606 4.228
-0.547 -1.607 4.233
-0.522 -1.608 4.238
-0.495 -1.606 4.235
-0.47 -1.607 4.238
-0.444 -1.606 4.238
-0.418 -1.604 4.234
-0.391 -1.6 4.226
-0.366 -1.601 4.229
-0.341 -1.602 4.234
-0.315 -1.602 4.235
-0.29 -1.602 4.237
-0.264 -1.603 4.24
-0.239 -1.603 4.242
-0.213 -1.603 4.24
-0.187 -1.602 4.239
-0.162 -1.601 4.237
-0.136 -1.601 4.238
-0.111 -1.6 4.235
-0.085 -1.599 4.234
-0.06 -1.602 4.24
-0.034 -1.602 4.241
-0.009 -1.603 4.243
0.016 -1.602 4.24
0.041 -1.603 4.243
0.067 -1.601 4.236
0.092 -1.599 4.231
0.118 -1.598 4.229
0.143 -1.6 4.231
0.169 -1.599 4.228
0.194 -1.599 4.227
0.219 -1.599 4.226
0.245 -1.597 4.219
0.27 -1.596 4.215
0.295 -1.596 4.213
0.321 -1.596 4.211
0.346 -1.596 4.209
0.372 -1.598 4.211
0.397 -1.598 4.21
0.423 -1.599 4.209
0.448 -1.599 4.208
0.474 -1.601 4.209
0.499 -1.601 4.206
0.525 -1.6 4.201
0.55 -1.6 4.198
0.576 -1.601 4.199
0.602 -1.602 4.198
0.627 -1.602 4.192
0.653 -1.603 4.191
0.678 -1.604 4.191
0.704 -1.603 4.186
0.729 -1.603 4.181
0.755 -1.604 4.179
0.78 -1.604 4.176
0.806 -1.605 4.174
0.833 -1.607 4.174
0.859 -1.608 4.172
0.885 -1.61 4.172
0.911 -1.61 4.167
0.936 -1.61 4.16
0.961 -1.61 4.155
0.987 -1.61 4.149
1.012 -1.61 4.144
1.04 -1.613 4.145
1.067 -1.615 4.146
1.094 -1.618 4.148
1.122 -1.62 4.147
1.148 -1.621 4.142
1.175 -1.623 4.14
1.2 -1.623 4.134
1.226 -1.623 4.126
1.253 -1.624 4.123
1.28 -1.627 4.122
1.306 -1.626 4.114
1.332 -1.627 4.108
1.358 -1.628 4.103
1.384 -1.628 4.094
1.411 -1.629 4.089
1.436 -1.629 4.081
1.463 -1.63 4.075
1.49 -1.631 4.069
1.517 -1.633 4.064
1.541 -1.631 4.05
1.567 -1.631 4.042
1.593 -1.632 4.034
1.62 -1.633 4.027
1.643 -1.63 4.011
1.67 -1.631 4.004
1.694 -1.629 3.99
1.716 -1.627 3.973
1.732 -1.617 3.94
1.748 -1.609 3.909
1.761 -1.598 3.871
1.774 -1.587 3.834
1.784 -1.574 3.792
1.793 -1.56 3.747
1.805 -1.549 3.71
1.813 -1.535 3.666
1.814 -1.516 3.608
0 0 0
0 0 0
1.645 -1.323 3.118
1.663 -1.321 3.104
1.675 -1.314 3.077
1.683 -1.304 3.044
1.688 -1.292 3.005
1.685 -1.275 2.955
1.676 -1.254 2.895
1.667 -1.232 2.835
1.664 -1.216 2.788
1.636 -1.182 2.7
1.647 -1.176 2.676
-2.31 -1.641 3.9
-2.245 -1.614 3.848
-2.226 -1.619 3.873
-2.2 -1.619 3.887
-2.174 -1.62 3.901
-2.148 -1.62 3.914
-2.122 -1.621 3.929
-2.096 -1.621 3.941
-2.069 -1.621 3.953
-2.047 -1.625 3.973
-2.021 -1.625 3.986
-1.993 -1.624 3.994
-1.965 -1.623 4.001
-1.938 -1.622 4.012
-1.908 -1.62 4.016
-1.881 -1.62 4.027
-1.855 -1.62 4.038
-1.83 -1.621 4.051
-1.803 -1.621 4.06
-1.776 -1.621 4.069
-1.748 -1.619 4.076
-1.72 -1.618 4.082
-1.691 -1.616 4.086
-1.665 -1.615 4.094
-1.639 -1.616 4.104
-1.612 -1.615 4.112
-1.586 -1.616 4.122
-1.561 -1.617 4.133
-1.534 -1.617 4.142
-1.508 -1.618 4.151
-1.481 -1.617 4.158
-1.454 -1.616 4.163
-1.425 -1.613 4.162
-1.397 -1.611 4.166
-1.37 -1.61 4.169
-1.344 -1.61 4.177
-1.319 -1.613 4.191
-1.295 -1.615 4.204
-1.268 -1.614 4.207
-1.24 -1.613 4.211
-1.214 -1.613 4.217
-1.187 -1.611 4.219
-1.158 -1.608 4.215
-1.132 -1.608 4.222
-1.105 -1.607 4.227
-1.078 -1.605 4.227
-1.05 -1.603 4.227
-1.025 -1.604 4.234
-0.998 -1.604 4.238
-0.972 -1.603 4.241
-0.945 -1.602 4.244
-0.918 -1.601 4.244
-0.892 -1.6 4.246
-0.865 -1.6 4.25
-0.839 -1.599 4.252
-0.813 -1.599 4.255
-0.788 -1.601 4.264
-0.762 -1.601 4.269
-0.735 -1.6 4.27
-0.708 -1.597 4.265
-0.683 -1.599 4.273
-0.656 -1.597 4.27
-0.63 -1.597 4.273
-0.603 -1.593 4.266
-0.577 -1.594 4.271
-0.551 -1.594 4.273
-0.526 -1.595 4.278
-0.499 -1.593 4.277
-0.473 -1.593 4.28
-0.447 -1.592 4.278
-0.421 -1.589 4.271
-0.394 -1.585 4.262
-0.368 -1.584 4.26
-0.342 -1.585 4.265
-0.316 -1.584 4.264
-0.291 -1.584 4.264
-0.265 -1.584 4.265
-0.239 -1.584 4.268
-0.214 -1.584 4.267
-0.188 -1.583 4.266
-0.162 -1.583 4.266
-0.137 -1.584 4.268
-0.111 -1.583 4.266
-0.085 -1.582 4.264
-0.06 -1.584 4.269
-0.034 -1.584 4.271
-0.008 -1.585 4.273
0.016 -1.583 4.267
0.042 -1.585 4.27
0.067 -1.583 4.266
0.093 -1.581 4.259
0.118 -1.579 4.254
0.144 -1.581 4.258
0.169 -1.58 4.254
0.195 -1.579 4.25
0.22 -1.579 4.247
0.246 -1.577 4.242
0.271 -1.576 4.238
0.296 -1.576 4.235
0.322 -1.576 4.233
0.347 -1.577 4.233
0.373 -1.578 4.233
0.399 -1.579 4.235
0.425 -1.58 4.236
0.45 -1.58 4.234
0.476 -1.581 4.231
0.502 -1.581 4.231
0.527 -1.581 4.227
0.552 -1.581 4.223
0.578 -1.582 4.223
0.604 -1.582 4.221
0.629 -1.581 4.213
0.654 -1.58 4.208
0.68 -1.581 4.207
0.705 -1.581 4.203
0.732 -1.583 4.203
0.758 -1.584 4.203
0.784 -1.586 4.203
0.811 -1.588 4.205
0.838 -1.591 4.206
0.864 -1.591 4.204
0.89 -1.593 4.202
0.915 -1.592 4.196
0.941 -1.592 4.189
0.966 -1.592 4.183
0.992 -1.592 4.178
1.018 -1.593 4.176
1.046 -1.596 4.177
1.072 -1.597 4.176
1.1 -1.6 4.177
1.127 -1.603 4.177
1.154 -1.604 4.174
1.181 -1.606 4.171
1.208 -1.607 4.167
1.233 -1.606 4.16
1.26 -1.608 4.157
1.288 -1.61 4.155
1.314 -1.61 4.148
1.341 -1.611 4.143
1.367 -1.613 4.138
1.393 -1.613 4.13
1.42 -1.614 4.126
1.447 -1.615 4.12
1.474 -1.616 4.115
1.501 -1.617 4.109
1.528 -1.619 4.104
1.553 -1.618 4.092
1.58 -1.618 4.084
1.606 -1.619 4.076
1.633 -1.62 4.069
1.658 -1.619 4.057
1.685 -1.62 4.051
1.709 -1.618 4.035
1.73 -1.613 4.014
1.745 -1.604 3.979
1.758 -1.592 3.941
1.769 -1.579 3.898
1.783 -1.569 3.862
1.794 -1.557 3.822
1.806 -1.546 3.784
1.823 -1.54 3.757
1.835 -1.529 3.719
0 0 0
0 0 0
0 0 0
1.662 -1.316 3.159
1.67 -1.305 3.125
1.676 -1.294 3.086
1.685 -1.285 3.054
1.691 -1.274 3.018
1.685 -1.255 2.962
1.677 -1.234 2.903
1.67 -1.214 2.847
1.666 -1.198 2.797
1.656 -1.177 2.738
1.672 -1.175 2.724
-2.302 -1.609 3.896
-2.289 -1.618 3.933
-2.259 -1.616 3.941
-2.234 -1.617 3.957
-2.208 -1.619 3.973
-2.182 -1.619 3.987
-2.155 -1.619 3.999
-2.129 -1.62 4.013
-2.102 -1.62 4.025
-2.077 -1.622 4.041
-2.05 -1.622 4.052
-2.021 -1.62 4.061
-1.993 -1.619 4.07
-1.964 -1.618 4.076
-1.936 -1.617 4.085
-1.907 -1.615 4.092
-1.88 -1.615 4.101
-1.855 -1.617 4.117
-1.829 -1.618 4.129
-1.802 -1.617 4.138
-1.776 -1.618 4.151
-1.747 -1.616 4.156
-1.718 -1.614 4.158
-1.689 -1.612 4.163
-1.663 -1.613 4.174
-1.635 -1.612 4.18
-1.609 -1.612 4.191
-1.581 -1.611 4.196
-1.554 -1.612 4.206
-1.527 -1.611 4.213
-1.499 -1.61 4.217
-1.472 -1.61 4.225
-1.443 -1.607 4.224
-1.415 -1.605 4.228
-1.388 -1.604 4.233
-1.362 -1.606 4.243
-1.336 -1.607 4.254
-1.312 -1.61 4.269
-1.285 -1.61 4.276
-1.257 -1.608 4.276
-1.229 -1.606 4.277
-1.2 -1.603 4.277
-1.171 -1.599 4.273
-1.143 -1.598 4.274
-1.116 -1.597 4.277
-1.088 -1.595 4.277
-1.06 -1.592 4.275
-1.034 -1.593 4.283
-1.007 -1.592 4.285
-0.98 -1.591 4.288
-0.953 -1.59 4.288
-0.926 -1.588 4.29
-0.899 -1.587 4.29
-0.872 -1.586 4.292
-0.845 -1.585 4.293
-0.819 -1.585 4.297
-0.793 -1.585 4.301
-0.767 -1.585 4.305
-0.74 -1.585 4.307
-0.713 -1.582 4.304
-0.687 -1.582 4.307
-0.66 -1.581 4.307
-0.633 -1.58 4.306
-0.606 -1.577 4.3
-0.58 -1.576 4.303
-0.554 -1.576 4.304
-0.528 -1.575 4.305
-0.502 -1.575 4.306
-0.475 -1.573 4.304
-0.449 -1.571 4.3
-0.422 -1.568 4.293
-0.395 -1.566 4.288
-0.369 -1.564 4.284
-0.343 -1.564 4.287
-0.318 -1.564 4.289
-0.292 -1.565 4.29
-0.266 -1.564 4.291
-0.24 -1.564 4.291
-0.214 -1.564 4.29
-0.188 -1.562 4.287
-0.162 -1.561 4.284
-0.137 -1.56 4.282
-0.111 -1.559 4.281
-0.085 -1.559 4.28
-0.06 -1.56 4.283
-0.034 -1.56 4.283
-0.008 -1.561 4.285
0.016 -1.559 4.279
0.042 -1.559 4.279
0.068 -1.558 4.276
0.093 -1.557 4.271
0.119 -1.556 4.268
0.144 -1.558 4.271
0.17 -1.557 4.269
0.195 -1.556 4.266
0.221 -1.557 4.266
0.246 -1.555 4.26
0.272 -1.556 4.26
0.298 -1.556 4.257
0.323 -1.554 4.252
0.348 -1.555 4.251
0.374 -1.555 4.25
0.4 -1.555 4.248
0.425 -1.556 4.247
0.451 -1.558 4.249
0.477 -1.558 4.247
0.503 -1.559 4.248
0.528 -1.559 4.246
0.554 -1.558 4.24
0.58 -1.559 4.24
0.605 -1.56 4.237
0.63 -1.559 4.23
0.656 -1.558 4.226
0.682 -1.56 4.227
0.708 -1.56 4.223
0.734 -1.561 4.222
0.76 -1.563 4.223
0.787 -1.565 4.223
0.813 -1.567 4.225
0.84 -1.569 4.226
0.866 -1.57 4.224
0.893 -1.571 4.222
0.918 -1.571 4.216
0.943 -1.57 4.209
0.969 -1.57 4.203
0.994 -1.57 4.196
1.021 -1.571 4.194
1.048 -1.573 4.195
1.075 -1.575 4.193
1.102 -1.577 4.194
1.13 -1.58 4.194
1.157 -1.581 4.191
1.183 -1.582 4.187
1.21 -1.584 4.185
1.236 -1.584 4.178
1.263 -1.586 4.175
1.291 -1.588 4.174
1.318 -1.589 4.169
1.345 -1.59 4.165
1.373 -1.592 4.162
1.399 -1.593 4.156
1.426 -1.594 4.151
1.453 -1.595 4.145
1.481 -1.597 4.141
1.509 -1.599 4.139
1.537 -1.601 4.135
1.564 -1.602 4.129
1.592 -1.604 4.124
1.618 -1.604 4.115
1.644 -1.604 4.106
1.669 -1.603 4.092
1.695 -1.603 4.083
1.717 -1.599 4.064
1.738 -1.595 4.041
1.754 -1.585 4.007
1.767 -1.574 3.968
1.778 -1.561 3.925
1.79 -1.55 3.885
1.802 -1.539 3.847
1.814 -1.528 3.809
1.832 -1.522 3.784
0 0 0
0 0 0
0 0 0
0 0 0
1.659 -1.291 3.16
1.669 -1.284 3.13
1.675 -1.272 3.093
1.687 -1.265 3.065
1.691 -1.253 3.026
1.687 -1.235 2.972
1.679 -1.216 2.914
1.673 -1.197 2.859
1.666 -1.178 2.805
1.659 -1.16 2.751
1.679 -1.161 2.743
-2.367 -1.627 4.017
-2.314 -1.609 3.986
-2.202 -1.55 3.851
-2.174 -1.548 3.861
-2.057 -1.483 3.709
-2.124 -1.55 3.889
-2.098 -1.55 3.902
-2.071 -1.55 3.912
-2.043 -1.549 3.922
-2.104 -1.616 4.104
-2.076 -1.615 4.115
-2.048 -1.615 4.125
-2.02 -1.614 4.135
-1.992 -1.613 4.144
-1.964 -1.613 4.153
-1.936 -1.612 4.163
-1.908 -1.612 4.173
-1.883 -1.614 4.189
-1.857 -1.615 4.203
-1.83 -1.615 4.212
-1.801 -1.614 4.22
-1.773 -1.613 4.227
-1.742 -1.61 4.229
-1.713 -1.608 4.232
-1.685 -1.608 4.241
-1.658 -1.608 4.25
-1.63 -1.606 4.255
-1.602 -1.605 4.261
-1.575 -1.606 4.271
-1.547 -1.605 4.277
-1.517 -1.602 4.276
-1.49 -1.602 4.285
-1.458 -1.597 4.28
-1.429 -1.595 4.281
-1.401 -1.593 4.284
-1.375 -1.595 4.294
-1.348 -1.594 4.301
-1.323 -1.597 4.314
-1.296 -1.596 4.319
-1.267 -1.594 4.321
-1.238 -1.591 4.319
-1.21 -1.589 4.319
-1.181 -1.586 4.318
-1.153 -1.585 4.32
-1.124 -1.582 4.319
-1.097 -1.581 4.319
-1.069 -1.579 4.32
-1.042 -1.579 4.325
-1.015 -1.577 4.326
-0.987 -1.576 4.327
-0.96 -1.575 4.328
-0.932 -1.572 4.326
-0.905 -1.571 4.326
-0.877 -1.569 4.326
-0.85 -1.569 4.328
-0.824 -1.569 4.333
-0.797 -1.567 4.332
-0.77 -1.565 4.331
-0.743 -1.565 4.334
-0.716 -1.562 4.329
-0.689 -1.561 4.329
-0.662 -1.56 4.33
-0.635 -1.559 4.329
-0.608 -1.555 4.322
-0.582 -1.555 4.324
-0.555 -1.554 4.324
-0.529 -1.553 4.322
-0.502 -1.552 4.323
-0.476 -1.55 4.318
-0.449 -1.547 4.312
-0.422 -1.544 4.305
-0.396 -1.543 4.305
-0.37 -1.541 4.301
-0.344 -1.541 4.302
-0.318 -1.541 4.305
-0.292 -1.541 4.306
-0.266 -1.541 4.304
-0.24 -1.539 4.301
-0.214 -1.539 4.302
-0.188 -1.538 4.3
-0.162 -1.536 4.294
-0.137 -1.534 4.29
-0.111 -1.534 4.291
-0.085 -1.534 4.289
-0.059 -1.533 4.288
-0.034 -1.534 4.289
-0.008 -1.534 4.29
0.016 -1.532 4.284
0.042 -1.533 4.285
0.068 -1.533 4.285
0.093 -1.533 4.284
0.119 -1.532 4.281
0.145 -1.534 4.284
0.17 -1.533 4.281
0.196 -1.532 4.277
0.221 -1.532 4.277
0.247 -1.531 4.27
0.272 -1.53 4.267
0.298 -1.529 4.263
0.323 -1.528 4.259
0.348 -1.528 4.256
0.374 -1.529 4.258
0.4 -1.531 4.26
0.426 -1.531 4.258
0.452 -1.532 4.259
0.477 -1.532 4.255
0.503 -1.532 4.253
0.528 -1.533 4.251
0.554 -1.533 4.248
0.58 -1.534 4.247
0.605 -1.534 4.245
0.631 -1.533 4.239
0.656 -1.532 4.233
0.682 -1.533 4.232
0.707 -1.533 4.228
0.733 -1.535 4.228
0.76 -1.536 4.229
0.786 -1.538 4.23
0.813 -1.541 4.232
0.84 -1.543 4.233
0.867 -1.545 4.233
0.893 -1.546 4.232
0.919 -1.546 4.228
0.945 -1.546 4.223
0.97 -1.546 4.216
0.996 -1.546 4.211
1.022 -1.546 4.206
1.049 -1.548 4.205
1.075 -1.549 4.202
1.103 -1.552 4.204
1.13 -1.554 4.202
1.157 -1.556 4.201
1.184 -1.557 4.198
1.212 -1.56 4.199
1.238 -1.56 4.193
1.266 -1.563 4.193
1.294 -1.565 4.19
1.32 -1.565 4.184
1.347 -1.566 4.179
1.375 -1.568 4.177
1.402 -1.569 4.172
1.429 -1.571 4.168
1.456 -1.572 4.163
1.484 -1.574 4.16
1.513 -1.576 4.157
1.54 -1.578 4.152
1.568 -1.58 4.148
1.596 -1.582 4.144
1.622 -1.582 4.135
1.649 -1.582 4.125
1.675 -1.582 4.116
1.702 -1.583 4.108
1.724 -1.579 4.087
1.745 -1.575 4.067
1.761 -1.566 4.033
1.774 -1.555 3.994
1.785 -1.541 3.949
1.797 -1.53 3.909
1.804 -1.515 3.86
1.816 -1.504 3.822
0 0 0
0 0 0
0 0 0
0 0 0
0 0 0
0 0 0
1.671 -1.264 3.141
1.676 -1.252 3.1
1.687 -1.245 3.073
1.692 -1.233 3.034
1.689 -1.217 2.984
1.682 -1.198 2.926
1.676 -1.18 2.872
1.67 -1.162 2.817
1.653 -1.137 2.747
1.664 -1.132 2.724
-2.399 -1.621 4.082
-2.339 -1.599 4.039
-1.946 -1.346 3.41
-1.922 -1.346 3.421
-1.809 -1.282 3.268
-1.88 -1.349 3.451
-1.858 -1.35 3.462
-1.833 -1.349 3.47
-1.809 -1.348 3.478
-1.957 -1.478 3.826
-1.93 -1.476 3.833
-1.988 -1.541 4.012
-1.961 -1.541 4.024
-1.852 -1.475 3.861
-1.826 -1.474 3.87
-1.801 -1.475 3.881
-1.776 -1.475 3.891
-1.752 -1.477 3.906
-1.805 -1.544 4.094
-1.778 -1.543 4.103
-1.825 -1.607 4.284
-1.795 -1.606 4.289
-1.764 -1.603 4.291
-1.733 -1.6 4.292
-1.704 -1.598 4.297
-1.676 -1.598 4.305
-1.647 -1.596 4.309
-1.617 -1.593 4.311
-1.589 -1.593 4.318
-1.56 -1.592 4.324
-1.53 -1.588 4.322
-1.502 -1.588 4.33
-1.472 -1.585 4.328
-1.442 -1.582 4.329
-1.414 -1.581 4.332
-1.387 -1.581 4.34
-1.359 -1.58 4.345
-1.333 -1.581 4.355
-1.305 -1.581 4.361
-1.276 -1.579 4.361
-1.247 -1.576 4.36
-1.217 -1.572 4.356
-1.188 -1.57 4.355
-1.159 -1.567 4.352
-1.131 -1.565 4.352
-1.103 -1.563 4.353
-1.075 -1.561 4.353
-1.047 -1.56 4.354
-1.019 -1.557 4.353
-0.99 -1.555 4.35
-0.962 -1.551 4.345
-0.934 -1.549 4.344
-0.906 -1.548 4.344
-0.879 -1.545 4.342
-0.852 -1.544 4.343
-0.825 -1.545 4.347
-0.798 -1.543 4.346
-0.77 -1.54 4.343
-0.744 -1.54 4.347
-0.716 -1.537 4.341
-0.689 -1.536 4.34
-0.662 -1.534 4.339
-0.635 -1.532 4.336
-0.608 -1.529 4.33
-0.581 -1.528 4.33
-0.554 -1.526 4.327
-0.528 -1.524 4.322
-0.502 -1.524 4.325
-0.475 -1.521 4.319
-0.448 -1.519 4.316
-0.422 -1.518 4.313
-0.396 -1.517 4.314
-0.37 -1.516 4.31
-0.344 -1.516 4.313
-0.318 -1.517 4.315
-0.292 -1.515 4.313
-0.266 -1.514 4.31
-0.24 -1.512 4.306
-0.214 -1.512 4.306
-0.188 -1.511 4.304
-0.162 -1.509 4.3
-0.136 -1.508 4.296
-0.111 -1.509 4.299
-0.085 -1.508 4.297
-0.059 -1.507 4.293
-0.034 -1.507 4.292
-0.008 -1.507 4.294
0.017 -1.505 4.288
0.042 -1.506 4.288
0.068 -1.505 4.287
0.093 -1.506 4.288
0.119 -1.505 4.284
0.145 -1.507 4.288
0.17 -1.505 4.283
0.196 -1.505 4.282
0.221 -1.505 4.28
0.247 -1.504 4.275
0.272 -1.503 4.27
0.297 -1.502 4.266
0.323 -1.501 4.261
0.348 -1.501 4.261
0.374 -1.503 4.263
0.4 -1.504 4.263
0.426 -1.505 4.263
0.451 -1.506 4.263
0.477 -1.505 4.259
0.502 -1.505 4.256
0.528 -1.506 4.257
0.554 -1.507 4.255
0.579 -1.507 4.251
0.605 -1.506 4.247
0.63 -1.506 4.244
0.655 -1.505 4.237
0.681 -1.506 4.234
0.707 -1.507 4.234
0.733 -1.508 4.233
0.76 -1.51 4.235
0.786 -1.512 4.236
0.813 -1.514 4.239
0.84 -1.516 4.239
0.867 -1.518 4.239
0.893 -1.519 4.237
0.919 -1.521 4.236
0.945 -1.521 4.232
0.971 -1.52 4.225
0.997 -1.521 4.222
1.022 -1.521 4.216
1.049 -1.522 4.213
1.075 -1.522 4.208
1.102 -1.525 4.209
1.129 -1.526 4.207
1.157 -1.529 4.207
1.184 -1.53 4.204
1.212 -1.533 4.206
1.239 -1.535 4.202
1.266 -1.536 4.2
1.293 -1.538 4.197
1.32 -1.538 4.191
1.346 -1.538 4.184
1.374 -1.541 4.182
1.401 -1.542 4.178
1.429 -1.544 4.175
1.456 -1.546 4.171
1.485 -1.548 4.17
1.513 -1.551 4.168
1.542 -1.553 4.165
1.57 -1.555 4.161
1.599 -1.557 4.159
1.626 -1.559 4.152
1.653 -1.559 4.144
1.679 -1.559 4.135
1.706 -1.56 4.125
1.727 -1.555 4.104
1.748 -1.55 4.081
1.765 -1.542 4.05
1.78 -1.533 4.014
1.792 -1.522 3.974
1.808 -1.513 3.942
1.815 -1.498 3.891
0 0 0
0 0 0
0 0 0
0 0 0
0 0 0
0 0 0
0 0 0
1.668 -1.24 3.141
1.675 -1.23 3.106
1.688 -1.224 3.081
1.691 -1.212 3.041
1.689 -1.196 2.991
1.682 -1.177 2.933
1.676 -1.159 2.877
1.667 -1.14 2.82
1.681 -1.137 2.801
1.674 -1.119 2.747
-2.429 -1.613 4.142
-2.401 -1.613 4.157
-1.506 -1.025 2.643
-1.488 -1.024 2.65
-1.381 -0.963 2.498
-1.459 -1.03 2.682
-1.44 -1.029 2.687
-1.421 -1.028 2.693
-1.4 -1.026 2.696
-1.553 -1.152 3.039
-1.528 -1.149 3.039
-1.59 -1.212 3.214
-1.569 -1.212 3.223
-1.463 -1.146 3.056
-1.443 -1.146 3.063
-1.424 -1.147 3.074
-1.405 -1.147 3.083
-1.386 -1.148 3.093
-1.52 -1.278 3.453
-1.572 -1.341 3.634
-1.695 -1.468 3.988
-1.741 -1.531 4.169
-1.782 -1.592 4.345
-1.751 -1.588 4.345
-1.721 -1.587 4.35
-1.692 -1.585 4.355
-1.662 -1.583 4.358
-1.631 -1.58 4.359
-1.601 -1.578 4.362
-1.57 -1.575 4.361
-1.539 -1.571 4.358
-1.51 -1.569 4.361
-1.48 -1.567 4.363
-1.451 -1.565 4.366
-1.424 -1.565 4.372
-1.396 -1.564 4.378
-1.367 -1.563 4.381
-1.339 -1.562 4.384
-1.311 -1.561 4.389
-1.281 -1.557 4.385
-1.251 -1.554 4.382
-1.221 -1.551 4.379
-1.192 -1.547 4.376
-1.162 -1.544 4.372
-1.133 -1.541 4.37
-1.105 -1.539 4.37
-1.076 -1.537 4.368
-1.048 -1.535 4.369
-1.02 -1.533 4.366
-0.992 -1.53 4.364
-0.963 -1.527 4.36
-0.935 -1.525 4.358
-0.907 -1.523 4.356
-0.879 -1.52 4.352
-0.852 -1.519 4.353
-0.825 -1.518 4.353
-0.797 -1.515 4.349
-0.769 -1.512 4.346
-0.743 -1.513 4.35
-0.716 -1.51 4.347
-0.689 -1.509 4.345
-0.662 -1.508 4.346
-0.635 -1.506 4.343
-0.608 -1.503 4.338
-0.581 -1.501 4.336
-0.554 -1.5 4.333
-0.527 -1.497 4.327
-0.501 -1.497 4.331
-0.475 -1.495 4.326
-0.448 -1.493 4.322
-0.422 -1.492 4.322
-0.396 -1.492 4.323
-0.369 -1.49 4.317
-0.344 -1.49 4.319
-0.318 -1.49 4.321
-0.292 -1.488 4.316
-0.266 -1.487 4.314
-0.239 -1.485 4.31
-0.214 -1.484 4.308
-0.188 -1.484 4.307
-0.162 -1.483 4.304
-0.136 -1.481 4.3
-0.111 -1.482 4.304
-0.085 -1.482 4.303
-0.059 -1.48 4.298
-0.033 -1.48 4.296
-0.008 -1.479 4.295
0.017 -1.477 4.289
0.042 -1.477 4.288
0.068 -1.477 4.288
0.093 -1.478 4.289
0.119 -1.479 4.29
0.145 -1.481 4.295
0.17 -1.479 4.289
0.196 -1.479 4.288
0.222 -1.48 4.288
0.247 -1.478 4.281
0.272 -1.477 4.276
0.297 -1.476 4.272
0.323 -1.475 4.269
0.348 -1.476 4.268
0.374 -1.477 4.268
0.4 -1.477 4.266
0.425 -1.478 4.267
0.451 -1.478 4.264
0.476 -1.477 4.259
0.502 -1.478 4.258
0.528 -1.479 4.259
0.553 -1.479 4.256
0.579 -1.479 4.253
0.604 -1.478 4.248
0.63 -1.479 4.246
0.655 -1.478 4.241
0.68 -1.478 4.237
0.707 -1.48 4.237
0.732 -1.481 4.236
0.759 -1.482 4.235
0.785 -1.483 4.234
0.812 -1.486 4.239
0.838 -1.487 4.236
0.865 -1.49 4.239
0.892 -1.491 4.24
0.919 -1.493 4.24
0.945 -1.494 4.237
0.97 -1.493 4.23
0.996 -1.494 4.227
1.022 -1.494 4.221
1.048 -1.495 4.218
1.074 -1.495 4.213
1.102 -1.499 4.216
1.128 -1.499 4.211
1.156 -1.501 4.21
1.183 -1.503 4.208
1.211 -1.506 4.211
1.238 -1.508 4.208
1.266 -1.51 4.208
1.293 -1.512 4.205
1.32 -1.512 4.198
1.346 -1.512 4.192
1.374 -1.515 4.191
1.401 -1.516 4.187
1.429 -1.518 4.184
1.457 -1.52 4.182
1.485 -1.522 4.178
1.514 -1.525 4.177
1.542 -1.527 4.175
1.571 -1.529 4.171
1.599 -1.531 4.168
1.627 -1.532 4.162
1.654 -1.534 4.156
1.681 -1.534 4.146
1.706 -1.533 4.134
1.728 -1.53 4.115
1.749 -1.525 4.093
1.768 -1.519 4.066
1.786 -1.512 4.037
1.803 -1.505 4.007
1.817 -1.495 3.97
0 0 0
0 0 0
0 0 0
0 0 0
0 0 0
0 0 0
0 0 0
1.25 -0.926 2.396
1.463 -1.07 2.762
1.678 -1.211 3.119
1.691 -1.206 3.094
1.694 -1.194 3.052
1.692 -1.178 3.002
1.688 -1.161 2.949
1.681 -1.143 2.893
1.671 -1.124 2.833
1.653 -1.099 2.761
1.669 -1.097 2.746
-2.43 -1.585 4.153
-0.005 -0.004 -0.004
-1.115 -0.745 1.957
-1.097 -0.742 1.955
-0.954 -0.654 1.726
-1.032 -0.716 1.897
-1.016 -0.714 1.897
-1.001 -0.712 1.898
-0.988 -0.712 1.902
-1.145 -0.835 2.242
-1.125 -0.832 2.239
-1.191 -0.892 2.41
-1.173 -0.891 2.413
-1.073 -0.826 2.242
-1.056 -0.824 2.243
-1.042 -0.824 2.249
-1.026 -0.823 2.253
-1.011 -0.823 2.257
-1.15 -0.95 2.614
-1.283 -1.076 2.97
-1.485 -1.264 3.499
-1.608 -1.389 3.858
-1.724 -1.512 4.21
-1.764 -1.572 4.387
-1.733 -1.569 4.388
-1.703 -1.568 4.393
-1.671 -1.565 4.393
-1.64 -1.561 4.393
-1.609 -1.558 4.392
-1.577 -1.554 4.389
-1.545 -1.55 4.384
-1.516 -1.548 4.388
-1.486 -1.545 4.388
-1.456 -1.543 4.39
-1.428 -1.542 4.394
-1.4 -1.541 4.399
-1.37 -1.539 4.399
-1.341 -1.537 4.401
-1.313 -1.536 4.403
-1.282 -1.532 4.398
-1.251 -1.528 4.393
-1.221 -1.524 4.387
-1.191 -1.52 4.383
-1.161 -1.516 4.378
-1.133 -1.514 4.377
-1.104 -1.512 4.376
-1.076 -1.509 4.374
-1.048 -1.508 4.375
-1.019 -1.505 4.371
-0.991 -1.502 4.369
-0.962 -1.499 4.364
-0.934 -1.498 4.364
-0.906 -1.495 4.359
-0.878 -1.492 4.356
-0.851 -1.492 4.359
-0.824 -1.491 4.36
-0.796 -1.488 4.356
-0.769 -1.486 4.355
-0.743 -1.486 4.358
-0.715 -1.483 4.353
-0.688 -1.481 4.349
-0.662 -1.481 4.351
-0.634 -1.478 4.346
-0.607 -1.476 4.344
-0.581 -1.475 4.342
-0.554 -1.474 4.34
-0.527 -1.47 4.333
-0.501 -1.47 4.335
-0.474 -1.468 4.331
-0.447 -1.466 4.326
-0.421 -1.465 4.325
-0.395 -1.465 4.326
-0.369 -1.463 4.322
-0.343 -1.462 4.322
-0.317 -1.463 4.326
-0.291 -1.462 4.324
-0.265 -1.461 4.321
-0.239 -1.459 4.315
-0.213 -1.457 4.312
-0.187 -1.457 4.31
-0.161 -1.454 4.304
-0.136 -1.453 4.301
-0.11 -1.454 4.303
-0.085 -1.454 4.304
-0.059 -1.452 4.298
-0.033 -1.452 4.298
-0.008 -1.451 4.295
0.017 -1.45 4.291
0.042 -1.45 4.29
0.068 -1.45 4.29
0.094 -1.451 4.292
0.119 -1.452 4.294
0.145 -1.453 4.297
0.17 -1.452 4.293
0.196 -1.453 4.294
0.221 -1.453 4.292
0.247 -1.451 4.285
0.272 -1.45 4.281
0.297 -1.449 4.276
0.323 -1.449 4.274
0.348 -1.449 4.272
0.374 -1.45 4.273
0.4 -1.451 4.272
0.425 -1.451 4.27
0.451 -1.452 4.27
0.476 -1.451 4.267
0.502 -1.451 4.264
0.528 -1.452 4.263
0.553 -1.453 4.263
0.578 -1.451 4.255
0.604 -1.452 4.252
0.63 -1.453 4.252
0.655 -1.453 4.248
0.68 -1.452 4.242
0.707 -1.454 4.244
0.732 -1.454 4.242
0.758 -1.455 4.239
0.784 -1.455 4.235
0.811 -1.458 4.24
0.836 -1.458 4.236
0.863 -1.46 4.236
0.89 -1.463 4.24
0.917 -1.465 4.24
0.943 -1.465 4.236
0.968 -1.465 4.229
0.995 -1.466 4.229
1.02 -1.466 4.222
1.047 -1.468 4.221
1.074 -1.469 4.219
1.102 -1.472 4.221
1.127 -1.472 4.214
1.154 -1.473 4.213
1.182 -1.475 4.211
1.21 -1.478 4.212
1.236 -1.479 4.209
1.264 -1.481 4.208
1.291 -1.482 4.204
1.318 -1.483 4.2
1.345 -1.484 4.195
1.373 -1.487 4.194
1.401 -1.489 4.193
1.429 -1.492 4.192
1.456 -1.493 4.187
1.483 -1.494 4.181
1.512 -1.496 4.179
1.54 -1.498 4.177
1.568 -1.5 4.173
1.597 -1.503 4.172
1.626 -1.505 4.169
1.653 -1.506 4.162
1.679 -1.506 4.151
1.705 -1.506 4.14
1.728 -1.503 4.123
1.75 -1.499 4.103
1.771 -1.495 4.081
1.794 -1.492 4.063
1.812 -1.486 4.034
1.828 -1.478 4.002
0 0 0
0 0 0
0 0 0
0 0 0
0 0 0
0 0 0
0 0 0
0 0 0
1.433 -1.03 2.71
1.681 -1.193 3.132
1.694 -1.187 3.107
1.696 -1.174 3.063
1.697 -1.161 3.018
1.692 -1.144 2.964
1.684 -1.125 2.905
1.673 -1.105 2.843
1.664 -1.087 2.785
1.646 -1.063 2.713
-0.075 -0.05 0.117
-0.041 -0.028 0.059
-0.681 -0.448 1.193
-0.646 -0.43 1.148
-0.524 -0.353 0.944
-0.605 -0.413 1.109
-0.592 -0.409 1.102
-0.581 -0.406 1.098
-0.57 -0.404 1.096
-0.732 -0.525 1.433
-0.717 -0.521 1.426
-0.789 -0.581 1.595
-0.775 -0.578 1.592
-0.68 -0.514 1.418
-0.667 -0.512 1.416
-0.657 -0.511 1.417
-0.646 -0.51 1.417
-0.634 -0.508 1.415
-0.853 -0.693 1.94
-1.066 -0.878 2.471
-1.344 -1.124 3.172
-1.542 -1.309 3.706
-1.732 -1.493 4.239
-1.773 -1.552 4.419
-1.74 -1.548 4.417
-1.71 -1.547 4.422
-1.677 -1.542 4.416
-1.645 -1.538 4.415
-1.612 -1.533 4.409
-1.58 -1.529 4.405
-1.548 -1.525 4.401
-1.518 -1.523 4.404
-1.487 -1.519 4.401
-1.458 -1.518 4.404
-1.429 -1.516 4.406
-1.4 -1.514 4.407
-1.369 -1.51 4.404
-1.34 -1.508 4.405
-1.31 -1.505 4.402
-1.279 -1.501 4.397
-1.249 -1.498 4.394
-1.219 -1.495 4.39
-1.19 -1.492 4.389
-1.161 -1.49 4.386
-1.133 -1.488 4.387
-1.104 -1.485 4.384
-1.076 -1.483 4.385
-1.047 -1.48 4.38
-1.018 -1.477 4.374
-0.989 -1.473 4.368
-0.96 -1.47 4.364
-0.932 -1.467 4.36
-0.904 -1.465 4.359
-0.877 -1.464 4.358
-0.85 -1.464 4.362
-0.823 -1.462 4.362
-0.796 -1.461 4.361
-0.769 -1.459 4.359
-0.742 -1.458 4.359
-0.714 -1.455 4.354
-0.686 -1.452 4.348
-0.66 -1.451 4.347
-0.633 -1.449 4.346
-0.606 -1.448 4.346
-0.58 -1.447 4.345
-0.553 -1.446 4.344
-0.527 -1.444 4.34
-0.5 -1.443 4.34
-0.474 -1.441 4.335
-0.447 -1.439 4.329
-0.421 -1.438 4.33
-0.395 -1.438 4.33
-0.369 -1.436 4.326
-0.343 -1.435 4.326
-0.317 -1.436 4.328
-0.291 -1.434 4.325
-0.265 -1.432 4.32
-0.239 -1.431 4.316
-0.213 -1.43 4.314
-0.187 -1.429 4.312
-0.161 -1.428 4.308
-0.135 -1.427 4.305
-0.11 -1.427 4.307
-0.084 -1.425 4.302
-0.059 -1.424 4.297
-0.033 -1.424 4.296
-0.007 -1.423 4.295
0.017 -1.421 4.289
0.043 -1.424 4.296
0.068 -1.424 4.295
0.094 -1.425 4.297
0.119 -1.425 4.298
0.145 -1.426 4.301
0.17 -1.425 4.295
0.196 -1.426 4.296
0.221 -1.425 4.293
0.247 -1.424 4.288
0.272 -1.423 4.283
0.297 -1.422 4.279
0.323 -1.423 4.279
0.348 -1.422 4.276
0.374 -1.423 4.276
0.4 -1.424 4.277
0.425 -1.424 4.274
0.45 -1.424 4.271
0.476 -1.424 4.268
0.501 -1.423 4.264
0.527 -1.424 4.264
0.553 -1.425 4.264
0.578 -1.424 4.257
0.603 -1.425 4.255
0.629 -1.426 4.256
0.655 -1.426 4.252
0.68 -1.425 4.245
0.706 -1.428 4.25
0.732 -1.428 4.248
0.756 -1.424 4.232
0.781 -1.425 4.229
0.809 -1.429 4.236
0.834 -1.429 4.232
0.861 -1.431 4.234
0.891 -1.437 4.248
0.917 -1.438 4.246
0.942 -1.438 4.239
0.967 -1.437 4.232
0.994 -1.438 4.23
1.019 -1.438 4.223
1.046 -1.44 4.222
1.073 -1.441 4.22
1.101 -1.444 4.224
1.126 -1.444 4.217
1.154 -1.446 4.218
1.181 -1.448 4.217
1.209 -1.451 4.218
1.236 -1.452 4.214
1.263 -1.453 4.211
1.289 -1.454 4.206
1.316 -1.455 4.202
1.343 -1.457 4.199
1.372 -1.459 4.198
1.4 -1.461 4.197
1.428 -1.464 4.197
1.456 -1.466 4.193
1.483 -1.467 4.187
1.51 -1.468 4.182
1.539 -1.471 4.181
1.566 -1.471 4.174
1.594 -1.473 4.171
1.623 -1.476 4.169
1.651 -1.478 4.165
1.678 -1.478 4.156
1.706 -1.48 4.152
1.731 -1.478 4.137
1.754 -1.476 4.12
1.778 -1.475 4.105
1.803 -1.473 4.092
1.815 -1.462 4.05
0 0 0
0 0 0
0 0 0
0 0 0
0 0 0
0 0 0
0 0 0
0 0 0
0 0 0
1.34 -0.946 2.539
1.686 -1.175 3.146
1.697 -1.168 3.119
1.699 -1.155 3.074
1.702 -1.144 3.033
1.697 -1.127 2.978
1.687 -1.107 2.916
1.675 -1.087 2.852
1.683 -1.08 2.824
1.662 -1.055 2.747
-0.13 -0.083 0.211
0 0 0
-0.297 -0.193 0.515
-0.279 -0.184 0.491
-0.269 -0.179 0.48
-0.26 -0.175 0.47
-0.252 -0.172 0.464
-0.244 -0.168 0.455
-0.239 -0.167 0.452
-0.317 -0.224 0.615
-0.307 -0.22 0.604
-0.381 -0.276 0.765
-0.371 -0.272 0.756
-0.28 -0.209 0.577
-0.353 -0.266 0.743
-0.343 -0.263 0.735
-0.335 -0.261 0.731
-0.405 -0.319 0.9
-0.703 -0.561 1.599
-0.918 -0.742 2.129
-1.273 -1.045 3.011
-1.544 -1.287 3.72
-1.735 -1.468 4.255
-1.775 -1.527 4.435
-1.742 -1.522 4.431
-1.71 -1.519 4.431
-1.679 -1.516 4.43
-1.646 -1.511 4.425
-1.612 -1.505 4.417
-1.579 -1.501 4.413
-1.549 -1.498 4.413
-1.517 -1.494 4.409
-1.487 -1.492 4.409
-1.456 -1.489 4.407
-1.427 -1.486 4.408
-1.396 -1.483 4.404
-1.366 -1.48 4.403
-1.337 -1.478 4.403
-1.308 -1.476 4.404
-1.278 -1.473 4.4
-1.249 -1.471 4.4
-1.219 -1.467 4.396
-1.19 -1.465 4.395
-1.161 -1.462 4.393
-1.132 -1.46 4.392
-1.103 -1.457 4.389
-1.075 -1.455 4.388
-1.045 -1.451 4.38
-1.016 -1.447 4.374
-0.987 -1.443 4.367
-0.958 -1.441 4.363
-0.93 -1.439 4.362
-0.903 -1.437 4.359
-0.876 -1.436 4.361
-0.85 -1.437 4.368
-0.823 -1.436 4.369
-0.794 -1.432 4.361
-0.767 -1.431 4.361
-0.74 -1.429 4.359
-0.712 -1.426 4.352
-0.684 -1.422 4.344
-0.659 -1.423 4.349
-0.632 -1.422 4.349
-0.606 -1.422 4.352
-0.58 -1.421 4.351
-0.553 -1.421 4.353
-0.527 -1.419 4.351
-0.5 -1.418 4.348
-0.474 -1.415 4.343
-0.447 -1.413 4.338
-0.421 -1.412 4.335
-0.394 -1.411 4.334
-0.368 -1.409 4.329
-0.342 -1.408 4.327
-0.316 -1.407 4.325
-0.29 -1.406 4.323
-0.264 -1.403 4.316
-0.238 -1.403 4.317
-0.212 -1.402 4.314
-0.187 -1.401 4.313
-0.161 -1.4 4.311
-0.135 -1.4 4.309
-0.11 -1.399 4.308
-0.084 -1.398 4.304
-0.058 -1.397 4.3
-0.033 -1.397 4.3
-0.007 -1.397 4.3
0.017 -1.395 4.294
0.043 -1.397 4.301
0.068 -1.398 4.301
0.094 -1.398 4.302
0.119 -1.398 4.301
0.145 -1.4 4.304
0.17 -1.399 4.3
0.196 -1.399 4.301
0.221 -1.399 4.297
0.247 -1.398 4.295
0.272 -1.398 4.293
0.298 -1.397 4.288
0.323 -1.398 4.289
0.349 -1.398 4.286
0.374 -1.398 4.285
0.399 -1.398 4.281
0.425 -1.397 4.277
0.45 -1.397 4.274
0.476 -1.397 4.272
0.501 -1.396 4.267
0.527 -1.398 4.269
0.553 -1.399 4.268
0.577 -1.397 4.26
0.603 -1.398 4.26
0.63 -1.4 4.264
0.655 -1.401 4.26
0.68 -1.4 4.253
0.707 -1.403 4.259
0.732 -1.402 4.254
0.755 -1.397 4.232
0.78 -1.397 4.229
0.808 -1.401 4.237
0.833 -1.401 4.232
0.86 -1.403 4.234
0.89 -1.41 4.251
0.916 -1.411 4.248
0.941 -1.409 4.239
0.966 -1.409 4.232
0.993 -1.411 4.231
1.018 -1.41 4.224
1.044 -1.411 4.223
1.071 -1.413 4.223
1.099 -1.416 4.225
1.124 -1.415 4.217
1.152 -1.418 4.219
1.18 -1.421 4.22
1.207 -1.422 4.217
1.233 -1.423 4.213
1.26 -1.424 4.209
1.286 -1.424 4.202
1.313 -1.425 4.198
1.341 -1.428 4.2
1.37 -1.431 4.2
1.398 -1.433 4.198
1.427 -1.436 4.2
1.454 -1.438 4.196
1.48 -1.438 4.188
1.508 -1.439 4.183
1.537 -1.442 4.183
1.564 -1.443 4.177
1.593 -1.446 4.175
1.622 -1.448 4.174
1.651 -1.451 4.172
1.677 -1.451 4.162
1.704 -1.451 4.153
1.729 -1.45 4.14
1.752 -1.448 4.123
1.775 -1.445 4.106
1.799 -1.443 4.09
0 0 0
0 0 0
0 0 0
0 0 0
0 0 0
0 0 0
0 0 0
0 0 0
0 0 0
0 0 0
1.336 -0.926 2.537
1.685 -1.153 3.151
1.695 -1.146 3.122
1.697 -1.134 3.078
1.701 -1.123 3.038
1.697 -1.107 2.986
1.688 -1.088 2.924
1.676 -1.069 2.861
1.67 -1.053 2.808
1.672 -1.042 2.769
0 0 0
-0.124 -0.079 0.205
-0.122 -0.078 0.204
-0.111 -0.072 0.187
-0.107 -0.071 0.183
-0.099 -0.066 0.172
-0.09 -0.061 0.158
-0.083 -0.057 0.146
-0.078 -0.055 0.14
-0.071 -0.05 0.127
-0.063 -0.045 0.113
-0.055 -0.041 0.1
-0.048 -0.036 0.086
-0.043 -0.033 0.078
-0.118 -0.088 0.24
-0.189 -0.143 0.4
-0.26 -0.199 0.566
-0.329 -0.254 0.73
-0.626 -0.49 1.427
-0.917 -0.729 2.133
-1.198 -0.966 2.839
-1.47 -1.203 3.547
-1.733 -1.44 4.259
-1.773 -1.497 4.438
-1.74 -1.493 4.435
-1.709 -1.49 4.435
-1.677 -1.487 4.435
-1.646 -1.483 4.434
-1.612 -1.478 4.427
-1.58 -1.474 4.423
-1.549 -1.471 4.423
-1.517 -1.467 4.418
-1.486 -1.464 4.415
-1.455 -1.46 4.411
-1.425 -1.457 4.411
-1.393 -1.453 4.405
-1.363 -1.45 4.402
-1.333 -1.447 4.4
-1.305 -1.446 4.402
-1.274 -1.442 4.398
-1.246 -1.44 4.399
-1.217 -1.438 4.399
-1.189 -1.437 4.399
-1.16 -1.435 4.399
-1.131 -1.432 4.395
-1.102 -1.429 4.393
-1.074 -1.427 4.391
-1.044 -1.423 4.385
-1.015 -1.42 4.379
-0.986 -1.417 4.375
-0.959 -1.415 4.373
-0.93 -1.412 4.369
-0.902 -1.41 4.365
-0.875 -1.409 4.368
-0.85 -1.411 4.378
-0.823 -1.41 4.377
-0.794 -1.406 4.369
-0.768 -1.405 4.37
-0.74 -1.402 4.364
-0.712 -1.398 4.355
-0.683 -1.394 4.345
-0.658 -1.395 4.35
-0.631 -1.394 4.35
-0.606 -1.395 4.356
-0.579 -1.394 4.355
-0.553 -1.394 4.358
-0.527 -1.393 4.356
-0.5 -1.391 4.354
-0.473 -1.389 4.348
-0.446 -1.386 4.34
-0.42 -1.383 4.333
-0.393 -1.382 4.331
-0.367 -1.38 4.327
-0.341 -1.378 4.322
-0.315 -1.378 4.323
-0.289 -1.378 4.323
-0.263 -1.376 4.318
-0.238 -1.376 4.32
-0.212 -1.375 4.318
-0.186 -1.374 4.314
-0.16 -1.372 4.31
-0.135 -1.371 4.307
-0.109 -1.37 4.303
-0.084 -1.369 4.3
-0.058 -1.368 4.298
-0.033 -1.37 4.302
-0.007 -1.37 4.301
0.017 -1.368 4.296
0.043 -1.371 4.305
0.068 -1.372 4.308
0.094 -1.372 4.307
0.12 -1.374 4.31
0.145 -1.374 4.312
0.171 -1.374 4.309
0.196 -1.374 4.308
0.222 -1.374 4.306
0.247 -1.373 4.302
0.273 -1.374 4.304
0.298 -1.373 4.299
0.324 -1.374 4.301
0.349 -1.373 4.294
0.374 -1.373 4.293
0.4 -1.372 4.288
0.425 -1.371 4.281
0.45 -1.37 4.278
0.476 -1.371 4.278
0.501 -1.37 4.272
0.526 -1.371 4.272
0.552 -1.372 4.272
0.577 -1.37 4.263
0.603 -1.372 4.265
0.629 -1.374 4.268
0.655 -1.375 4.266
0.68 -1.373 4.258
0.707 -1.377 4.265
0.732 -1.376 4.259
0.753 -1.367 4.227
0.778 -1.368 4.226
0.807 -1.373 4.237
0.832 -1.373 4.232
0.859 -1.376 4.237
0.89 -1.384 4.256
0.915 -1.383 4.25
0.939 -1.381 4.239
0.964 -1.381 4.232
0.991 -1.382 4.231
1.017 -1.382 4.226
1.043 -1.384 4.224
1.07 -1.386 4.225
1.098 -1.389 4.227
1.123 -1.388 4.219
1.151 -1.39 4.219
1.178 -1.392 4.219
1.205 -1.393 4.216
1.231 -1.394 4.212
1.258 -1.396 4.21
1.285 -1.397 4.205
1.312 -1.398 4.202
1.34 -1.401 4.204
1.368 -1.403 4.203
1.396 -1.405 4.2
1.424 -1.407 4.199
1.451 -1.409 4.195
1.478 -1.409 4.187
1.504 -1.409 4.18
1.533 -1.412 4.18
1.561 -1.414 4.176
1.59 -1.416 4.174
1.619 -1.419 4.173
1.648 -1.422 4.172
1.675 -1.422 4.164
1.701 -1.423 4.155
1.728 -1.423 4.145
1.753 -1.422 4.133
1.777 -1.421 4.119
1.803 -1.421 4.108
0 0 0
0 0 0
0 0 0
0 0 0
0 0 0
0 0 0
0 0 0
0 0 0
0 0 0
0 0 0
0 0 0
1.689 -1.135 3.167
1.697 -1.126 3.131
1.698 -1.113 3.085
1.704 -1.104 3.05
1.701 -1.09 2.999
1.691 -1.071 2.937
1.68 -1.051 2.873
1.695 -1.049 2.855
1.659 -1.015 2.753
-0.166 -0.102 0.274
-0.097 -0.061 0.157
-0.141 -0.089 0.239
-0.128 -0.082 0.219
-0.12 -0.078 0.208
-0.106 -0.07 0.186
-0.097 -0.064 0.171
-0.091 -0.062 0.163
-0.084 -0.058 0.152
-0.076 -0.053 0.138
-0.07 -0.049 0.127
-0.063 -0.045 0.116
-0.053 -0.039 0.098
-0.048 -0.035 0.088
-0.121 -0.089 0.247
-0.271 -0.2 0.58
-0.418 -0.313 0.919
-0.562 -0.426 1.259
-0.855 -0.657 1.956
-1.143 -0.891 2.667
-1.346 -1.064 3.197
-1.542 -1.238 3.729
-1.731 -1.412 4.264
-1.772 -1.467 4.442
-1.738 -1.463 4.438
-1.706 -1.459 4.436
-1.674 -1.456 4.436
-1.642 -1.452 4.432
-1.61 -1.448 4.428
-1.578 -1.445 4.426
-1.548 -1.443 4.428
-1.516 -1.439 4.423
-1.485 -1.435 4.419
-1.454 -1.431 4.415
-1.423 -1.428 4.412
-1.391 -1.424 4.406
-1.361 -1.421 4.404
-1.332 -1.419 4.405
-1.303 -1.417 4.405
-1.274 -1.414 4.403
-1.246 -1.414 4.407
-1.217 -1.412 4.407
-1.188 -1.409 4.405
-1.16 -1.407 4.405
-1.13 -1.404 4.4
-1.101 -1.401 4.396
-1.073 -1.4 4.396
-1.043 -1.395 4.388
-1.014 -1.392 4.381
-0.985 -1.389 4.376
-0.957 -1.387 4.376
-0.929 -1.384 4.37
-0.901 -1.382 4.368
-0.875 -1.382 4.373
-0.85 -1.385 4.386
-0.823 -1.383 4.385
-0.795 -1.38 4.378
-0.768 -1.379 4.379
-0.74 -1.376 4.371
-0.711 -1.37 4.357
-0.683 -1.367 4.348
-0.657 -1.367 4.352
-0.63 -1.366 4.352
-0.606 -1.369 4.364
-0.579 -1.369 4.366
-0.553 -1.368 4.366
-0.527 -1.369 4.372
-0.5 -1.367 4.365
-0.473 -1.363 4.356
-0.445 -1.355 4.333
-0.418 -1.352 4.323
-0.392 -1.351 4.322
-0.366 -1.35 4.319
-0.34 -1.348 4.316
-0.314 -1.35 4.321
-0.289 -1.35 4.323
-0.263 -1.348 4.318
-0.237 -1.348 4.32
-0.212 -1.348 4.318
-0.186 -1.346 4.313
-0.16 -1.344 4.308
-0.134 -1.343 4.304
-0.109 -1.341 4.3
-0.083 -1.34 4.295
-0.058 -1.34 4.294
-0.032 -1.341 4.3
-0.007 -1.342 4.301
0.017 -1.341 4.297
0.043 -1.347 4.316
0.069 -1.348 4.319
0.094 -1.347 4.316
0.12 -1.35 4.322
0.145 -1.35 4.322
0.171 -1.349 4.318
0.196 -1.349 4.319
0.222 -1.347 4.31
0.247 -1.347 4.306
0.273 -1.347 4.305
0.298 -1.346 4.3
0.323 -1.345 4.297
0.349 -1.345 4.295
0.374 -1.346 4.296
0.4 -1.347 4.296
0.425 -1.344 4.285
0.451 -1.348 4.294
0.476 -1.347 4.287
0.501 -1.345 4.281
0.527 -1.346 4.279
0.554 -1.349 4.287
0.577 -1.344 4.268
0.604 -1.348 4.277
0.63 -1.349 4.275
0.655 -1.349 4.272
0.68 -1.347 4.262
0.707 -1.35 4.269
0.732 -1.35 4.265
0.75 -1.337 4.219
0.777 -1.339 4.222
0.806 -1.345 4.237
0.831 -1.346 4.235
0.858 -1.348 4.238
0.889 -1.356 4.258
0.913 -1.355 4.249
0.937 -1.352 4.234
0.963 -1.353 4.231
0.989 -1.354 4.231
1.016 -1.355 4.228
1.042 -1.356 4.226
1.07 -1.359 4.229
1.097 -1.361 4.228
1.122 -1.36 4.22
1.149 -1.362 4.221
1.176 -1.364 4.221
1.203 -1.365 4.217
1.229 -1.366 4.213
1.257 -1.368 4.211
1.283 -1.369 4.207
1.311 -1.371 4.205
1.339 -1.373 4.205
1.366 -1.375 4.204
1.394 -1.377 4.201
1.421 -1.378 4.198
1.448 -1.379 4.193
1.475 -1.381 4.188
1.501 -1.381 4.18
1.53 -1.383 4.178
1.558 -1.385 4.175
1.586 -1.387 4.172
1.615 -1.39 4.171
1.645 -1.393 4.172
1.673 -1.394 4.166
1.7 -1.395 4.158
1.727 -1.395 4.15
1.752 -1.395 4.138
1.777 -1.394 4.126
1.804 -1.395 4.117
0 0 0
0 0 0
0 0 0
0 0 0
0 0 0
0 0 0
0 0 0
0 0 0
0 0 0
0 0 0
0 0 0
1.689 -1.114 3.172
1.697 -1.106 3.139
1.701 -1.095 3.097
1.707 -1.086 3.062
1.701 -1.069 3.005
1.692 -1.051 2.943
1.68 -1.032 2.879
1.671 -1.015 2.82
1.665 -1 2.769
-0.175 -0.105 0.29
-0.151 -0.092 0.253
-0.145 -0.09 0.246
-0.133 -0.084 0.229
-0.126 -0.08 0.219
-0.113 -0.073 0.199
-0.102 -0.067 0.181
-0.096 -0.063 0.172
-0.086 -0.058 0.155
-0.075 -0.051 0.137
-0.07 -0.048 0.128
-0.063 -0.044 0.117
-0.052 -0.038 0.096
-0.046 -0.033 0.084
-0.119 -0.086 0.243
-0.348 -0.252 0.751
-0.574 -0.421 1.268
-0.793 -0.589 1.787
-1.16 -0.874 2.665
-1.444 -1.103 3.378
-1.568 -1.216 3.733
-1.686 -1.328 4.088
-1.802 -1.441 4.447
-1.769 -1.437 4.445
-1.735 -1.433 4.439
-1.703 -1.429 4.436
-1.671 -1.426 4.436
-1.638 -1.421 4.43
-1.606 -1.418 4.427
-1.576 -1.415 4.428
-1.546 -1.414 4.431
-1.514 -1.409 4.425
-1.483 -1.406 4.423
-1.452 -1.403 4.419
-1.421 -1.399 4.416
-1.39 -1.395 4.409
-1.359 -1.392 4.406
-1.33 -1.39 4.406
-1.301 -1.388 4.406
-1.272 -1.386 4.405
-1.245 -1.386 4.412
-1.217 -1.385 4.415
-1.189 -1.383 4.416
-1.161 -1.382 4.417
-1.13 -1.377 4.408
-1.101 -1.374 4.402
-1.072 -1.372 4.4
-1.042 -1.367 4.39
-1.012 -1.363 4.382
-0.983 -1.36 4.377
-0.956 -1.359 4.378
-0.928 -1.356 4.373
-0.9 -1.354 4.371
-0.874 -1.355 4.378
-0.85 -1.359 4.393
-0.823 -1.357 4.391
-0.793 -1.352 4.377
-0.766 -1.351 4.378
-0.738 -1.347 4.37
-0.709 -1.342 4.356
-0.681 -1.338 4.345
-0.656 -1.339 4.352
-0.63 -1.339 4.355
-0.605 -1.342 4.367
-0.579 -1.341 4.368
-0.552 -1.341 4.367
-0.528 -1.344 4.382
-0.5 -1.341 4.373
-0.473 -1.336 4.36
-0.442 -1.323 4.316
-0.416 -1.321 4.313
-0.39 -1.321 4.315
-0.365 -1.32 4.313
-0.339 -1.32 4.313
-0.314 -1.322 4.32
-0.288 -1.321 4.32
-0.262 -1.32 4.316
-0.237 -1.32 4.319
-0.211 -1.32 4.317
-0.185 -1.318 4.313
-0.16 -1.317 4.309
-0.134 -1.316 4.306
-0.109 -1.315 4.303
-0.083 -1.313 4.298
-0.058 -1.313 4.295
-0.032 -1.312 4.295
0 0 0
0 0 0
0 0 0
0 0 0
0 0 0
0 0 0
0 0 0
0 0 0
0 0 0
0 0 0
0 0 0
0 0 0
0 0 0
0 0 0
0 0 0
0 0 0
0 0 0
0 0 0
0 0 0
0 0 0
0 0 0
0 0 0
0 0 0
0 0 0
0 0 0
0 0 0
0 0 0
0 0 0
0 0 0
0 0 0
0 0 0
0 0 0
0 0 0
0.828 -1.314 4.222
0.858 -1.322 4.241
0.89 -1.332 4.269
0.914 -1.33 4.258
0.938 -1.327 4.245
0.963 -1.327 4.239
0.989 -1.328 4.235
1.015 -1.329 4.233
1.041 -1.329 4.229
1.068 -1.331 4.227
1.095 -1.332 4.227
1.12 -1.333 4.222
1.148 -1.335 4.224
1.175 -1.337 4.224
1.202 -1.339 4.221
1.229 -1.34 4.218
1.256 -1.341 4.215
1.282 -1.341 4.209
1.309 -1.342 4.205
1.336 -1.345 4.205
1.364 -1.347 4.205
1.391 -1.348 4.201
1.42 -1.35 4.2
1.447 -1.352 4.197
1.475 -1.354 4.194
1.5 -1.353 4.184
1.529 -1.355 4.182
1.556 -1.357 4.178
1.584 -1.359 4.174
1.612 -1.361 4.171
1.642 -1.364 4.172
1.67 -1.365 4.166
1.697 -1.366 4.158
1.724 -1.366 4.15
1.75 -1.366 4.14
1.774 -1.365 4.126
1.8 -1.365 4.115
0 0 0
0 0 0
0 0 0
0 0 0
0 0 0
0 0 0
0 0 0
0 0 0
0 0 0
0 0 0
0 0 0
1.683 -1.088 3.166
1.691 -1.081 3.133
1.696 -1.071 3.095
1.702 -1.062 3.059
1.7 -1.049 3.01
1.692 -1.032 2.95
1.682 -1.013 2.888
1.664 -0.991 2.814
1.646 -0.97 2.743
-0.202 -0.119 0.338
-0.176 -0.105 0.298
-0.148 -0.09 0.253
-0.135 -0.083 0.233
-0.126 -0.079 0.22
-0.113 -0.071 0.198
-0.102 -0.065 0.181
-0.095 -0.061 0.17
-0.084 -0.055 0.151
-0.073 -0.049 0.133
-0.067 -0.046 0.123
-0.06 -0.041 0.11
-0.049 -0.035 0.09
-0.043 -0.031 0.078
-0.196 -0.138 0.411
-0.505 -0.358 1.097
-0.729 -0.524 1.617
-0.946 -0.689 2.138
-1.311 -0.968 3.019
-1.517 -1.136 3.556
-1.566 -1.191 3.736
-1.684 -1.3 4.089
-1.798 -1.41 4.446
-1.765 -1.406 4.443
-1.731 -1.402 4.437
-1.698 -1.397 4.433
-1.668 -1.396 4.436
-1.636 -1.392 4.432
-1.604 -1.388 4.43
-1.574 -1.386 4.432
-1.544 -1.384 4.433
-1.512 -1.38 4.426
-1.481 -1.377 4.425
-1.451 -1.374 4.423
-1.42 -1.371 4.42
-1.389 -1.367 4.414
-1.359 -1.365 4.413
-1.329 -1.361 4.409
-1.301 -1.361 4.414
-1.272 -1.359 4.414
-1.246 -1.36 4.424
-1.219 -1.36 4.429
-1.191 -1.358 4.429
-1.162 -1.356 4.428
-1.129 -1.35 4.412
-1.099 -1.346 4.404
-1.07 -1.342 4.398
-1.04 -1.339 4.391
-1.011 -1.336 4.386
-0.983 -1.334 4.384
-0.957 -1.334 4.388
-0.929 -1.332 4.387
-0.901 -1.329 4.382
-0.875 -1.33 4.389
-0.853 -1.337 4.415
-0.825 -1.335 4.414
-0.792 -1.324 4.379
-0.765 -1.322 4.377
-0.737 -1.319 4.369
0 0 0
0 0 0
0 0 0
0 0 0
0 0 0
0 0 0
0 0 0
0 0 0
0 0 0
0 0 0
-0.438 -1.285 4.282
-0.414 -1.289 4.298
-0.389 -1.291 4.306
-0.364 -1.292 4.31
-0.338 -1.292 4.311
-0.313 -1.293 4.318
-0.287 -1.293 4.319
-0.262 -1.292 4.317
-0.236 -1.293 4.318
-0.211 -1.292 4.318
-0.185 -1.291 4.315
-0.159 -1.29 4.309
-0.134 -1.289 4.309
-0.108 -1.288 4.305
-0.083 -1.288 4.304
-0.057 -1.287 4.3
-0.032 -1.29 4.31
0 0 0
0 0 0
0 0 0
0 0 0
0 0 0
0 0 0
0 0 0
0 0 0
0 0 0
0 0 0
0 0 0
0 0 0
0 0 0
0 0 0
0 0 0
0 0 0
0 0 0
0 0 0
0 0 0
0 0 0
0 0 0
0 0 0
0 0 0
0 0 0
0 0 0
0 0 0
0 0 0
0 0 0
0 0 0
0 0 0
0 0 0
0 0 0
0 0 0
0 0 0
0 0 0
0.879 -1.291 4.225
0.907 -1.294 4.231
0.933 -1.295 4.23
0.959 -1.296 4.229
0.986 -1.298 4.228
1.013 -1.3 4.229
1.038 -1.3 4.224
1.065 -1.301 4.223
1.092 -1.303 4.222
1.118 -1.304 4.218
1.145 -1.306 4.22
1.173 -1.309 4.222
1.2 -1.31 4.22
1.227 -1.311 4.217
1.254 -1.313 4.216
1.28 -1.314 4.211
1.307 -1.315 4.208
1.335 -1.317 4.206
1.363 -1.319 4.206
1.39 -1.32 4.202
1.417 -1.322 4.199
1.444 -1.323 4.195
1.472 -1.325 4.192
1.498 -1.325 4.183
1.525 -1.326 4.18
1.553 -1.328 4.176
1.581 -1.33 4.174
1.609 -1.332 4.17
1.639 -1.335 4.17
1.667 -1.336 4.166
1.693 -1.337 4.157
1.72 -1.337 4.148
1.746 -1.337 4.139
1.77 -1.336 4.124
1.793 -1.334 4.107
0 0 0
0 0 0
0 0 0
0 0 0
0 0 0
0 0 0
0 0 0
0 0 0
0 0 0
0 0 0
0 0 0
1.674 -1.062 3.156
1.683 -1.055 3.125
1.69 -1.046 3.089
1.697 -1.038 3.055
1.697 -1.026 3.01
1.691 -1.01 2.953
1.682 -0.994 2.893
1.673 -0.978 2.836
1.667 -0.963 2.784
-0.188 -0.109 0.315
-0.181 -0.106 0.307
-0.149 -0.089 0.255
-0.137 -0.083 0.237
-0.126 -0.077 0.22
-0.112 -0.07 0.198
-0.099 -0.062 0.176
-0.092 -0.058 0.165
-0.082 -0.053 0.148
-0.072 -0.047 0.13
-0.063 -0.042 0.116
-0.057 -0.039 0.105
-0.047 -0.033 0.086
-0.039 -0.028 0.071
-0.194 -0.134 0.406
-0.504 -0.35 1.098
-0.729 -0.513 1.62
-0.869 -0.62 1.966
-1.235 -0.893 2.847
-1.441 -1.058 3.384
-1.49 -1.111 3.561
-1.609 -1.218 3.914
-1.795 -1.379 4.445
-1.761 -1.375 4.441
-1.728 -1.371 4.436
-1.695 -1.367 4.433
-1.663 -1.364 4.431
-1.632 -1.361 4.43
-1.601 -1.358 4.429
-1.571 -1.356 4.43
-1.542 -1.355 4.433
-1.51 -1.351 4.429
-1.48 -1.349 4.429
-1.451 -1.347 4.43
-1.421 -1.344 4.429
-1.389 -1.34 4.423
-1.36 -1.338 4.423
-1.328 -1.334 4.414
-1.3 -1.332 4.416
-1.269 -1.328 4.408
-1.243 -1.33 4.419
-1.219 -1.333 4.435
-1.191 -1.332 4.438
-1.162 -1.33 4.437
-1.129 -1.323 4.419
0 0 0
0 0 0
0 0 0
0 0 0
0 0 0
0 0 0
0 0 0
0 0 0
0 0 0
0 0 0
0 0 0
0 0 0
0 0 0
0 0 0
0 0 0
0 0 0
0 0 0
0 0 0
0 0 0
0 0 0
0 0 0
0 0 0
0 0 0
0 0 0
-0.436 -1.255 4.273
-0.414 -1.263 4.302
-0.389 -1.264 4.309
-0.363 -1.265 4.313
-0.338 -1.265 4.313
-0.313 -1.267 4.322
-0.287 -1.266 4.319
-0.261 -1.266 4.32
-0.236 -1.265 4.319
-0.21 -1.265 4.319
-0.185 -1.265 4.317
-0.159 -1.263 4.313
-0.134 -1.263 4.311
-0.108 -1.262 4.309
-0.083 -1.262 4.308
-0.057 -1.262 4.307
-0.032 -1.262 4.31
0 0 0
0 0 0
0 0 0
0 0 0
0 0 0
0 0 0
0 0 0
0 0 0
0 0 0
0 0 0
0 0 0
0 0 0
0 0 0
0 0 0
0 0 0
0 0 0
0 0 0
0 0 0
0 0 0
0 0 0
0 0 0
0 0 0
0 0 0
0 0 0
0 0 0
0 0 0
0 0 0
0 0 0
0 0 0
0 0 0
0 0 0
0 0 0
0 0 0
0 0 0
0 0 0
0.875 -1.259 4.21
0.904 -1.264 4.221
0.931 -1.266 4.225
0.958 -1.268 4.226
0.984 -1.269 4.225
1.011 -1.272 4.229
1.037 -1.273 4.226
1.063 -1.274 4.223
1.09 -1.275 4.222
1.116 -1.276 4.217
1.143 -1.278 4.218
1.171 -1.28 4.219
1.198 -1.282 4.219
1.224 -1.283 4.215
1.253 -1.286 4.217
1.28 -1.287 4.215
1.307 -1.289 4.213
1.334 -1.29 4.209
1.362 -1.292 4.21
1.388 -1.292 4.203
1.415 -1.294 4.199
1.442 -1.295 4.195
1.47 -1.297 4.193
1.496 -1.297 4.186
1.523 -1.299 4.182
1.551 -1.3 4.178
1.58 -1.303 4.177
1.607 -1.304 4.171
1.636 -1.306 4.169
1.664 -1.308 4.165
1.693 -1.31 4.162
1.719 -1.31 4.153
1.747 -1.311 4.147
1.773 -1.311 4.137
1.804 -1.315 4.138
0 0 0
0 0 0
0 0 0
0 0 0
0 0 0
0 0 0
0 0 0
0 0 0
0 0 0
0 0 0
0 0 0
1.674 -1.041 3.162
1.68 -1.032 3.124
1.689 -1.025 3.094
1.696 -1.017 3.059
1.698 -1.007 3.017
1.692 -0.991 2.96
1.683 -0.975 2.902
1.698 -0.973 2.884
1.67 -0.946 2.794
-0.178 -0.101 0.297
-0.166 -0.095 0.281
-0.148 -0.086 0.253
-0.136 -0.08 0.235
-0.122 -0.073 0.214
-0.108 -0.066 0.191
-0.095 -0.059 0.169
-0.088 -0.055 0.157
-0.078 -0.049 0.14
-0.068 -0.044 0.123
-0.06 -0.039 0.108
-0.052 -0.035 0.095
-0.125 -0.083 0.249
-0.198 -0.132 0.409
-0.35 -0.236 0.747
-0.66 -0.449 1.444
-0.839 -0.578 1.869
-0.943 -0.659 2.139
-1.258 -0.892 2.908
-1.484 -1.067 3.491
-1.537 -1.122 3.679
-1.674 -1.241 4.08
-1.792 -1.35 4.448
-1.759 -1.345 4.443
-1.724 -1.341 4.436
-1.693 -1.338 4.434
-1.661 -1.334 4.432
-1.629 -1.331 4.429
-1.597 -1.328 4.426
-1.568 -1.326 4.429
-1.539 -1.325 4.432
-1.507 -1.321 4.428
-1.478 -1.32 4.431
-1.45 -1.319 4.437
-1.42 -1.316 4.434
-1.389 -1.313 4.429
-1.362 -1.313 4.438
0 0 0
0 0 0
0 0 0
0 0 0
0 0 0
0 0 0
0 0 0
0 0 0
0 0 0
0 0 0
0 0 0
0 0 0
0 0 0
0 0 0
0 0 0
0 0 0
0 0 0
0 0 0
0 0 0
0 0 0
0 0 0
0 0 0
0 0 0
0 0 0
0 0 0
0 0 0
0 0 0
0 0 0
0 0 0
0 0 0
0 0 0
0 0 0
-0.436 -1.229 4.276
-0.413 -1.238 4.309
-0.389 -1.24 4.317
-0.363 -1.24 4.321
-0.338 -1.24 4.321
-0.313 -1.242 4.33
-0.287 -1.24 4.325
-0.261 -1.239 4.322
-0.235 -1.238 4.319
-0.21 -1.238 4.318
-0.184 -1.237 4.316
-0.159 -1.236 4.313
-0.133 -1.235 4.31
-0.108 -1.235 4.309
-0.082 -1.234 4.307
-0.057 -1.233 4.303
-0.032 -1.233 4.303
0 0 0
0 0 0
0 0 0
0 0 0
0 0 0
0 0 0
0 0 0
0 0 0
0 0 0
0 0 0
0 0 0
0 0 0
0 0 0
0 0 0
0 0 0
0 0 0
0 0 0
0 0 0
0 0 0
0 0 0
0 0 0
0 0 0
0 0 0
0 0 0
0 0 0
0 0 0
0 0 0
0 0 0
0 0 0
0 0 0
0 0 0
0 0 0
0 0 0
0 0 0
0 0 0
0.873 -1.23 4.205
0.902 -1.236 4.219
0.929 -1.239 4.224
0.956 -1.24 4.223
0.981 -1.241 4.22
1.009 -1.244 4.226
1.036 -1.245 4.224
1.062 -1.246 4.221
1.088 -1.247 4.22
1.114 -1.248 4.218
1.142 -1.251 4.22
1.169 -1.252 4.219
1.196 -1.254 4.219
1.223 -1.256 4.218
1.251 -1.258 4.219
1.278 -1.259 4.215
1.304 -1.26 4.211
1.331 -1.261 4.208
1.359 -1.263 4.206
1.386 -1.264 4.202
1.413 -1.266 4.199
1.441 -1.268 4.197
1.468 -1.269 4.193
1.495 -1.27 4.189
1.521 -1.27 4.181
1.548 -1.271 4.176
1.576 -1.273 4.174
1.604 -1.275 4.169
1.632 -1.277 4.166
1.661 -1.279 4.164
1.691 -1.282 4.164
1.717 -1.282 4.155
1.745 -1.284 4.15
1.772 -1.284 4.142
1.806 -1.29 4.15
0 0 0
0 0 0
0 0 0
0 0 0
0 0 0
0 0 0
0 0 0
0 0 0
0 0 0
0 0 0
0 0 0
1.662 -1.013 3.145
1.67 -1.005 3.111
1.681 -1 3.084
1.689 -0.993 3.053
1.692 -0.983 3.011
1.688 -0.969 2.959
1.681 -0.954 2.904
1.667 -0.936 2.836
1.668 -0.926 2.797
-0.149 -0.083 0.248
-0.125 -0.071 0.209
-0.14 -0.08 0.24
-0.13 -0.075 0.225
-0.116 -0.068 0.202
-0.104 -0.062 0.183
-0.093 -0.056 0.164
-0.084 -0.052 0.15
-0.074 -0.046 0.134
-0.066 -0.042 0.119
-0.055 -0.036 0.099
-0.047 -0.031 0.083
-0.12 -0.078 0.24
-0.194 -0.126 0.401
-0.428 -0.281 0.917
-0.657 -0.438 1.44
-0.835 -0.563 1.863
-0.894 -0.612 2.031
-1.225 -0.851 2.836
-1.374 -0.969 3.238
-1.518 -1.086 3.64
-1.665 -1.209 4.066
-1.79 -1.32 4.451
-1.757 -1.317 4.447
-1.723 -1.312 4.44
-1.691 -1.309 4.439
-1.659 -1.305 4.435
-1.628 -1.302 4.433
-1.595 -1.299 4.429
-1.566 -1.297 4.431
-1.535 -1.295 4.431
-1.503 -1.29 4.424
-1.474 -1.289 4.427
-1.446 -1.288 4.431
