 0.507 -1.623 4.042
 0.531 -1.621 4.033
 0.556 -1.623 4.036
 0.584 -1.631 4.052
 0.602 -1.615 4.008
 0.625 -1.61 3.994
 0.661 -1.638 4.059
 0.677 -1.619 4.007
 0.715 -1.649 4.077
 0.734 -1.637 4.043
 0.758 -1.633 4.031
 0.785 -1.638 4.038
 0.81 -1.638 4.034
 0.829 -1.628 4.004
 0.849 -1.618 3.976
 0.877 -1.625 3.987
 0.908 -1.638 4.014
 0.93 -1.633 3.995
 0.958 -1.639 4.005
 0.978 -1.63 3.979
 1.006 -1.636 3.988
 1.022 -1.622 3.947
 1.065 -1.65 4.01
 1.081 -1.637 3.973
 1.103 -1.633 3.955
 1.127 -1.633 3.949
 1.141 -1.617 3.905
 1.172 -1.626 3.919
 1.209 -1.643 3.953
 1.223 -1.629 3.914
 1.253 -1.636 3.921
 1.281 -1.64 3.925
 1.304 -1.638 3.913
 1.321 -1.628 3.881
 1.36 -1.646 3.916
 1.383 -1.644 3.904
 1.4 -1.635 3.874
 1.429 -1.64 3.878
 1.439 -1.623 3.829
 1.475 -1.636 3.85
 1.492 -1.628 3.824
 1.518 -1.63 3.819
 1.538 -1.625 3.799
 1.576 -1.639 3.821
 1.596 -1.634 3.8
 1.624 -1.638 3.799
 1.659 -1.648 3.814
 1.678 -1.643 3.791
 1.689 -1.629 3.749
 1.713 -1.629 3.739
 1.746 -1.636 3.745
 1.761 -1.627 3.714
 1.791 -1.633 3.717
 1.822 -1.639 3.718
 1.846 -1.638 3.707
 1.871 -1.638 3.695
 1.871 -1.618 3.637
 1.887 -1.61 3.609
 1.872 -1.577 3.523
 1.901 -1.582 3.522
 1.869 -1.536 3.408
 1.875 -1.523 3.367
 1.84 -1.476 3.253
 1.869 -1.482 3.254
 1.852 -1.451 3.175
 1.844 -1.428 3.112
 1.83 -1.401 3.043
 1.839 -1.392 3.011
 1.842 -1.378 2.971
 -2.193 -1.634 3.671
 -2.161 -1.629 3.674
 -2.153 -1.642 3.716
 -2.098 -1.62 3.677
 -2.09 -1.634 3.721
 -2.058 -1.629 3.721
 -2.046 -1.639 3.757
 -2.023 -1.642 3.775
 -2.005 -1.648 3.8
 -1.966 -1.636 3.785
 -1.944 -1.639 3.803
 -1.912 -1.634 3.802
 -1.89 -1.638 3.821
 -1.85 -1.625 3.801
 -1.841 -1.639 3.845
 -1.801 -1.627 3.826
 -1.783 -1.633 3.852
 -1.764 -1.639 3.876
 -1.711 -1.613 3.824
 -1.706 -1.633 3.88
 -1.692 -1.643 3.915
 -1.638 -1.616 3.858
 -1.63 -1.632 3.907
 -1.584 -1.612 3.867
 -1.579 -1.633 3.926
 -1.565 -1.644 3.963
 -1.525 -1.63 3.935
 -1.498 -1.628 3.939
 -1.468 -1.622 3.934
 -1.446 -1.626 3.95
 -1.422 -1.628 3.964
 -1.393 -1.623 3.959
 -1.358 -1.613 3.94
 -1.34 -1.621 3.968
 -1.325 -1.634 4.006
 -1.279 -1.607 3.948
 -1.255 -1.609 3.959
 -1.251 -1.636 4.033
 -1.226 -1.636 4.039
 -1.189 -1.62 4.007
 -1.165 -1.623 4.019
 -1.151 -1.639 4.064
 -1.106 -1.611 4
 -1.089 -1.623 4.036
 -1.07 -1.632 4.065
 -1.033 -1.614 4.025
 -1.002 -1.604 4.004
 -0.988 -1.622 4.056
 -0.97 -1.635 4.092
 -0.942 -1.63 4.084
 -0.912 -1.621 4.066
 -0.885 -1.618 4.065
 -0.855 -1.609 4.045
 -0.831 -1.611 4.054
 -0.808 -1.613 4.065
 -0.79 -1.628 4.105
 -0.761 -1.622 4.094
 -0.735 -1.619 4.09
 -0.706 -1.611 4.073
 -0.687 -1.625 4.111
 -0.659 -1.617 4.094
 -0.645 -1.645 4.168
 -0.612 -1.624 4.12
 -0.587 -1.626 4.127
 -0.559 -1.618 4.108
 -0.533 -1.615 4.104
 -0.514 -1.635 4.156
 -0.487 -1.629 4.143
 -0.456 -1.607 4.09
 -0.436 -1.627 4.142
 -0.41 -1.622 4.131
 -0.384 -1.621 4.131
 -0.362 -1.632 4.162
 -0.335 -1.624 4.142
 -0.306 -1.605 4.096
 -0.285 -1.623 4.143
 -0.259 -1.619 4.132
 -0.233 -1.614 4.121
 -0.21 -1.626 4.152
 -0.184 -1.619 4.136
 -0.158 -1.613 4.122
 -0.134 -1.621 4.142
 -0.109 -1.622 4.143
 -0.084 -1.625 4.153
 -0.058 -1.611 4.115
 -0.034 -1.621 4.142
 -0.009 -1.618 4.134
 0.015 -1.615 4.126
 0.04 -1.611 4.115
 0.065 -1.625 4.15
 0.091 -1.63 4.162
 0.116 -1.624 4.147
 0.141 -1.625 4.147
 0.164 -1.61 4.109
 0.19 -1.617 4.125
 0.214 -1.609 4.103
 0.238 -1.607 4.097
 0.265 -1.618 4.123
 0.29 -1.618 4.121
 0.312 -1.605 4.088
 0.335 -1.598 4.068
 0.366 -1.624 4.132
 0.386 -1.605 4.079
 0.417 -1.627 4.135
 0.44 -1.621 4.116
 0.463 -1.615 4.098
 0.489 -1.617 4.102
 0.513 -1.615 4.093
 0.534 -1.604 4.061
 0.567 -1.629 4.122
 0.59 -1.623 4.104
 0.611 -1.612 4.073
 0.642 -1.628 4.108
 0.667 -1.627 4.103
 0.693 -1.631 4.108
 0.718 -1.631 4.105
 0.745 -1.635 4.11
 0.765 -1.623 4.076
 0.796 -1.635 4.103
 0.811 -1.615 4.048
 0.847 -1.637 4.097
 0.867 -1.628 4.071
 0.885 -1.615 4.033
 0.915 -1.624 4.051
 0.94 -1.624 4.045
 0.965 -1.624 4.04
 1.002 -1.644 4.085
 1.019 -1.631 4.046
 1.04 -1.625 4.024
 1.071 -1.635 4.043
 1.092 -1.629 4.022
 1.12 -1.633 4.027
 1.138 -1.624 3.996
 1.174 -1.638 4.026
 1.202 -1.642 4.029
 1.229 -1.644 4.027
 1.248 -1.637 4.003
 1.279 -1.645 4.014
 1.288 -1.624 3.956
 1.311 -1.621 3.941
 1.352 -1.641 3.981
 1.389 -1.656 4.01
 1.4 -1.638 3.959
 1.427 -1.641 3.956
 1.45 -1.639 3.943
 1.479 -1.643 3.945
 1.499 -1.637 3.922
 1.525 -1.639 3.918
 1.547 -1.636 3.9
 1.578 -1.641 3.905
 1.598 -1.637 3.884
 1.617 -1.631 3.86
 1.649 -1.638 3.868
 1.67 -1.633 3.847
 1.693 -1.632 3.834
 1.731 -1.644 3.851
 1.747 -1.636 3.822
 1.764 -1.628 3.794
 1.785 -1.624 3.775
 1.825 -1.638 3.796
 1.844 -1.633 3.773
 1.876 -1.639 3.775
 1.893 -1.633 3.75
 1.869 -1.591 3.641
 1.872 -1.573 3.59
 1.872 -1.553 3.533
 1.889 -1.547 3.508
 1.876 -1.518 3.431
 1.871 -1.496 3.367
 1.87 -1.477 3.314
 1.814 -1.416 3.165
 1.851 -1.428 3.182
 1.847 -1.408 3.125
 1.854 -1.398 3.091
 1.854 -1.382 3.044
 1.841 -1.357 2.977
 -2.243 -1.645 3.765
 -2.21 -1.64 3.767
 -2.174 -1.633 3.763
 -2.15 -1.634 3.778
 -2.133 -1.642 3.808
 -2.109 -1.643 3.823
 -2.045 -1.613 3.765
 -2.071 -1.654 3.873
 -2.021 -1.635 3.841
 -1.981 -1.624 3.825
 -1.973 -1.638 3.87
 -1.94 -1.632 3.868
 -1.922 -1.639 3.895
 -1.88 -1.625 3.872
 -1.866 -1.636 3.909
 -1.842 -1.638 3.923
 -1.798 -1.622 3.895
 -1.78 -1.628 3.921
 -1.744 -1.619 3.908
 -1.735 -1.634 3.955
 -1.71 -1.635 3.967
 -1.674 -1.626 3.953
 -1.632 -1.61 3.924
 -1.618 -1.621 3.96
 -1.597 -1.625 3.979
 -1.578 -1.633 4.005
 -1.544 -1.624 3.994
 -1.524 -1.63 4.017
 -1.494 -1.626 4.014
 -1.459 -1.615 3.996
 -1.444 -1.627 4.034
 -1.409 -1.617 4.015
 -1.383 -1.616 4.021
 -1.361 -1.62 4.038
 -1.336 -1.622 4.049
 -1.304 -1.613 4.035
 -1.276 -1.61 4.034
 -1.245 -1.603 4.023
 -1.232 -1.62 4.071
 -1.201 -1.611 4.056
 -1.186 -1.627 4.101
 -1.154 -1.618 4.085
 -1.13 -1.62 4.097
 -1.103 -1.617 4.095
 -1.072 -1.609 4.079
 -1.051 -1.616 4.102
 -1.031 -1.624 4.129
 -0.991 -1.602 4.077
 -0.969 -1.607 4.094
 -0.951 -1.62 4.133
 -0.919 -1.609 4.109
 -0.903 -1.624 4.153
 -0.865 -1.603 4.103
 -0.852 -1.626 4.166
 -0.826 -1.624 4.166
 -0.794 -1.611 4.136
 -0.769 -1.612 4.141
 -0.74 -1.605 4.128
 -0.723 -1.625 4.182
 -0.699 -1.627 4.192
 -0.667 -1.612 4.156
 -0.645 -1.62 4.18
 -0.615 -1.61 4.155
 -0.592 -1.614 4.169
 -0.567 -1.615 4.176
 -0.538 -1.604 4.15
 -0.517 -1.619 4.19
 -0.49 -1.613 4.176
 -0.463 -1.607 4.163
 -0.437 -1.606 4.163
 -0.413 -1.611 4.177
 -0.386 -1.604 4.161
 -0.365 -1.624 4.214
 -0.336 -1.607 4.171
 -0.313 -1.618 4.203
 -0.288 -1.621 4.21
 -0.262 -1.613 4.19
 -0.237 -1.615 4.198
 -0.212 -1.62 4.21
 -0.186 -1.611 4.189
 -0.161 -1.615 4.198
 -0.134 -1.601 4.162
 -0.11 -1.613 4.194
 -0.085 -1.613 4.195
 -0.059 -1.609 4.185
 -0.034 -1.628 4.233
 -0.009 -1.627 4.232
 0.016 -1.608 4.181
 0.041 -1.609 4.184
 0.066 -1.607 4.177
 0.091 -1.609 4.182
 0.118 -1.634 4.246
 0.142 -1.615 4.196
 0.167 -1.607 4.174
 0.192 -1.61 4.181
 0.216 -1.602 4.159
 0.243 -1.616 4.193
 0.266 -1.599 4.147
 0.296 -1.625 4.212
 0.316 -1.602 4.151
 0.344 -1.613 4.177
 0.366 -1.597 4.135
 0.394 -1.613 4.173
 0.425 -1.633 4.223
 0.444 -1.609 4.159
 0.467 -1.605 4.144
 0.497 -1.619 4.179
 0.52 -1.612 4.159
 0.545 -1.612 4.153
 0.569 -1.609 4.144
 0.596 -1.613 4.152
 0.623 -1.618 4.16
 0.645 -1.61 4.135
 0.672 -1.614 4.143
 0.699 -1.618 4.148
 0.724 -1.617 4.143
 0.754 -1.629 4.168
 0.767 -1.603 4.099
 0.794 -1.606 4.101
 0.822 -1.613 4.113
 0.849 -1.615 4.115
 0.879 -1.624 4.132
 0.897 -1.611 4.094
 0.93 -1.625 4.125
 0.962 -1.636 4.148
 0.981 -1.625 4.115
 1.006 -1.625 4.11
 1.024 -1.613 4.074
 1.052 -1.618 4.079
 1.081 -1.625 4.09
 1.109 -1.628 4.093
 1.129 -1.62 4.067
 1.157 -1.624 4.07
 1.186 -1.63 4.077
 1.207 -1.624 4.055
 1.235 -1.627 4.057
 1.263 -1.631 4.058
 1.283 -1.623 4.032
 1.323 -1.642 4.071
 1.345 -1.638 4.053
 1.38 -1.65 4.075
 1.382 -1.621 3.996
 1.409 -1.623 3.993
 1.458 -1.651 4.053
 1.471 -1.637 4.01
 1.496 -1.636 3.999
 1.528 -1.643 4.007
 1.55 -1.639 3.989
 1.575 -1.639 3.98
 1.603 -1.641 3.975
 1.616 -1.63 3.937
 1.639 -1.627 3.922
 1.68 -1.643 3.95
 1.698 -1.635 3.921
 1.712 -1.624 3.884
 1.727 -1.615 3.853
 1.755 -1.617 3.848
 1.804 -1.64 3.891
 1.826 -1.637 3.872
 1.858 -1.642 3.873
 1.866 -1.627 3.827
 1.859 -1.6 3.751
 1.864 -1.582 3.7
 1.89 -1.584 3.693
 1.871 -1.548 3.596
 1.897 -1.55 3.589
 1.885 -1.521 3.511
 1.886 -1.503 3.457
 1.925 -1.515 3.473
 0 0 0
 0 0 0
 1.803 -1.37 3.107
 1.858 -1.395 3.153
 1.849 -1.372 3.089
 1.853 -1.36 3.051
 1.844 -1.338 2.99
 0 0 0
 -2.23 -1.629 3.812
 -2.201 -1.627 3.82
 -2.192 -1.64 3.862
 -2.128 -1.612 3.808
 -2.127 -1.631 3.866
 -2.074 -1.61 3.83
 -2.066 -1.624 3.875
 -2.043 -1.627 3.892
 -1.998 -1.612 3.868
 -1.984 -1.622 3.903
 -1.97 -1.631 3.937
 -1.93 -1.62 3.921
 -1.925 -1.638 3.976
 -1.88 -1.622 3.947
 -1.859 -1.627 3.97
 -1.833 -1.626 3.979
 -1.797 -1.618 3.968
 -1.797 -1.642 4.037
 -1.746 -1.619 3.99
 -1.737 -1.635 4.039
 -1.714 -1.638 4.057
 -1.654 -1.605 3.985
 -1.639 -1.617 4.022
 -1.616 -1.619 4.038
 -1.592 -1.621 4.051
 -1.559 -1.615 4.043
 -1.519 -1.6 4.014
 -1.509 -1.617 4.065
 -1.485 -1.619 4.078
 -1.463 -1.623 4.098
 -1.427 -1.612 4.076
 -1.396 -1.606 4.069
 -1.383 -1.621 4.115
 -1.357 -1.621 4.121
 -1.329 -1.618 4.121
 -1.305 -1.621 4.136
 -1.275 -1.616 4.13
 -1.25 -1.618 4.141
 -1.22 -1.612 4.132
 -1.201 -1.621 4.161
 -1.164 -1.606 4.129
 -1.15 -1.623 4.178
 -1.105 -1.595 4.112
 -1.09 -1.612 4.161
 -1.066 -1.614 4.172
 -1.033 -1.603 4.15
 -1.013 -1.611 4.175
 -0.984 -1.607 4.17
 -0.954 -1.599 4.154
 -0.93 -1.603 4.167
 -0.91 -1.612 4.196
 -0.881 -1.606 4.184
 -0.855 -1.605 4.188
 -0.825 -1.598 4.173
 -0.808 -1.614 4.218
 -0.777 -1.604 4.196
 -0.746 -1.594 4.173
 -0.732 -1.618 4.239
 -0.706 -1.618 4.244
 -0.677 -1.609 4.224
 -0.651 -1.61 4.23
 -0.625 -1.609 4.229
 -0.588 -1.58 4.155
 -0.572 -1.606 4.226
 -0.544 -1.598 4.207
 -0.521 -1.606 4.231
 -0.497 -1.61 4.244
 -0.47 -1.608 4.24
 -0.443 -1.601 4.225
 -0.421 -1.616 4.267
 -0.391 -1.597 4.218
 -0.368 -1.609 4.252
 -0.34 -1.598 4.224
 -0.315 -1.6 4.229
 -0.287 -1.591 4.206
 -0.265 -1.608 4.252
 -0.239 -1.609 4.256
 -0.211 -1.589 4.203
 -0.188 -1.605 4.248
 -0.162 -1.607 4.253
 -0.136 -1.601 4.237
 -0.11 -1.592 4.214
 -0.085 -1.593 4.217
 -0.06 -1.609 4.259
 -0.034 -1.591 4.211
 -0.009 -1.601 4.237
 0.016 -1.609 4.259
 0.041 -1.599 4.233
 0.067 -1.608 4.254
 0.093 -1.604 4.245
 0.118 -1.6 4.232
 0.143 -1.595 4.219
 0.168 -1.595 4.216
 0.195 -1.604 4.239
 0.22 -1.606 4.244
 0.244 -1.593 4.208
 0.27 -1.598 4.22
 0.296 -1.601 4.225
 0.32 -1.595 4.209
 0.348 -1.608 4.239
 0.372 -1.6 4.216
 0.405 -1.629 4.29
 0.421 -1.591 4.19
 0.449 -1.602 4.214
 0.472 -1.593 4.189
 0.503 -1.611 4.232
 0.523 -1.595 4.187
 0.556 -1.617 4.242
 0.578 -1.606 4.211
 0.601 -1.6 4.192
 0.627 -1.603 4.197
 0.656 -1.612 4.216
 0.68 -1.607 4.199
 0.707 -1.611 4.204
 0.732 -1.609 4.196
 0.758 -1.611 4.197
 0.786 -1.617 4.208
 0.814 -1.62 4.213
 0.837 -1.615 4.194
 0.862 -1.614 4.187
 0.892 -1.622 4.204
 0.913 -1.614 4.177
 0.938 -1.613 4.17
 0.967 -1.62 4.181
 0.994 -1.622 4.181
 1.02 -1.621 4.173
 1.044 -1.619 4.162
 1.067 -1.615 4.145
 1.104 -1.632 4.182
 1.125 -1.625 4.16
 1.142 -1.612 4.12
 1.17 -1.616 4.124
 1.201 -1.624 4.136
 1.231 -1.629 4.143
 1.254 -1.627 4.129
 1.273 -1.618 4.1
 1.313 -1.636 4.137
 1.325 -1.619 4.086
 1.354 -1.622 4.088
 1.39 -1.635 4.111
 1.417 -1.637 4.108
 1.438 -1.631 4.086
 1.473 -1.641 4.103
 1.481 -1.622 4.045
 1.507 -1.622 4.037
 1.534 -1.623 4.031
 1.557 -1.621 4.017
 1.578 -1.616 3.995
 1.617 -1.63 4.021
 1.644 -1.631 4.013
 1.658 -1.62 3.977
 1.695 -1.63 3.992
 1.717 -1.627 3.975
 1.741 -1.626 3.96
 1.769 -1.628 3.955
 1.79 -1.624 3.935
 1.829 -1.636 3.953
 1.839 -1.622 3.909
 1.866 -1.624 3.901
 1.903 -1.633 3.912
 1.895 -1.605 3.834
 1.886 -1.576 3.752
 1.893 -1.561 3.707
 1.893 -1.541 3.647
 1.908 -1.534 3.619
 1.913 -1.519 3.57
 0 0 0
 0 0 0
 0 0 0
 0 0 0
 1.821 -1.361 3.145
 1.838 -1.358 3.126
 1.877 -1.371 3.145
 1.851 -1.337 3.055
 1.832 -1.309 2.979
 -2.276 -1.617 3.843
 -2.253 -1.62 3.862
 -2.21 -1.608 3.846
 -2.18 -1.605 3.852
 -2.19 -1.632 3.93
 -2.161 -1.63 3.938
 -2.124 -1.622 3.931
 -2.085 -1.613 3.92
 -2.086 -1.634 3.985
 -2.049 -1.626 3.977
 -2.024 -1.628 3.992
 -1.976 -1.611 3.961
 -1.969 -1.626 4.011
 -1.942 -1.626 4.021
 -1.912 -1.623 4.024
 -1.872 -1.611 4.006
 -1.856 -1.62 4.039
 -1.832 -1.623 4.055
 -1.8 -1.618 4.053
 -1.774 -1.619 4.065
 -1.771 -1.64 4.128
 -1.714 -1.612 4.067
 -1.706 -1.629 4.12
 -1.653 -1.604 4.064
 -1.647 -1.624 4.125
 -1.604 -1.608 4.092
 -1.574 -1.604 4.092
 -1.555 -1.611 4.119
 -1.537 -1.62 4.15
 -1.506 -1.615 4.144
 -1.468 -1.602 4.12
 -1.455 -1.617 4.166
 -1.428 -1.616 4.171
 -1.401 -1.616 4.177
 -1.368 -1.608 4.163
 -1.338 -1.604 4.16
 -1.315 -1.608 4.178
 -1.288 -1.606 4.18
 -1.257 -1.601 4.172
 -1.225 -1.593 4.159
 -1.206 -1.602 4.19
 -1.191 -1.617 4.235
 -1.164 -1.616 4.238
 -1.136 -1.614 4.239
 -1.104 -1.606 4.223
 -1.074 -1.601 4.214
 -1.064 -1.624 4.281
 -1.016 -1.591 4.199
 -0.995 -1.599 4.224
 -0.972 -1.604 4.244
 -0.944 -1.6 4.237
 -0.91 -1.588 4.209
 -0.898 -1.611 4.275
 -0.871 -1.609 4.276
 -0.846 -1.613 4.29
 -0.807 -1.588 4.225
 -0.789 -1.604 4.272
 -0.757 -1.591 4.242
 -0.727 -1.582 4.222
 -0.712 -1.605 4.288
 -0.678 -1.589 4.245
 -0.651 -1.584 4.236
 -0.626 -1.586 4.245
 -0.6 -1.587 4.25
 -0.576 -1.592 4.265
 -0.547 -1.581 4.238
 -0.523 -1.588 4.259
 -0.5 -1.596 4.285
 -0.47 -1.583 4.252
 -0.448 -1.595 4.285
 -0.42 -1.586 4.263
 -0.392 -1.576 4.239
 -0.368 -1.583 4.26
 -0.341 -1.58 4.251
 -0.317 -1.586 4.27
 -0.289 -1.576 4.244
 -0.262 -1.567 4.221
 -0.238 -1.574 4.239
 -0.213 -1.575 4.244
 -0.186 -1.564 4.214
 -0.161 -1.568 4.226
 -0.137 -1.583 4.267
 -0.111 -1.578 4.254
 -0.085 -1.582 4.265
 -0.059 -1.564 4.216
 -0.034 -1.567 4.223
 -0.008 -1.576 4.249
 0.016 -1.576 4.247
 0.042 -1.582 4.264
 0.067 -1.579 4.254
 0.092 -1.565 4.215
 0.118 -1.578 4.251
 0.144 -1.58 4.254
 0.169 -1.572 4.232
 0.196 -1.586 4.268
 0.22 -1.578 4.246
 0.246 -1.579 4.247
 0.271 -1.578 4.243
 0.297 -1.582 4.251
 0.323 -1.583 4.252
 0.347 -1.576 4.232
 0.373 -1.578 4.235
 0.398 -1.577 4.228
 0.425 -1.581 4.238
 0.45 -1.578 4.226
 0.478 -1.587 4.248
 0.5 -1.576 4.217
 0.526 -1.577 4.216
 0.554 -1.585 4.234
 0.58 -1.586 4.233
 0.607 -1.59 4.24
 0.63 -1.583 4.219
 0.655 -1.582 4.212
 0.682 -1.586 4.221
 0.711 -1.594 4.237
 0.732 -1.583 4.204
 0.763 -1.595 4.232
 0.79 -1.597 4.233
 0.817 -1.6 4.235
 0.836 -1.588 4.2
 0.868 -1.599 4.223
 0.886 -1.585 4.181
 0.917 -1.594 4.202
 0.946 -1.601 4.213
 0.974 -1.604 4.216
 1.001 -1.606 4.215
 1.018 -1.592 4.173
 1.052 -1.605 4.201
 1.081 -1.609 4.207
 1.097 -1.596 4.165
 1.128 -1.603 4.178
 1.16 -1.612 4.194
 1.178 -1.601 4.16
 1.211 -1.61 4.177
 1.228 -1.6 4.143
 1.268 -1.618 4.183
 1.289 -1.612 4.159
 1.317 -1.615 4.159
 1.356 -1.629 4.189
 1.371 -1.616 4.148
 1.397 -1.616 4.14
 1.432 -1.628 4.161
 1.452 -1.621 4.134
 1.486 -1.629 4.148
 1.501 -1.617 4.108
 1.533 -1.623 4.115
 1.553 -1.617 4.091
 1.582 -1.62 4.089
 1.606 -1.619 4.077
 1.637 -1.624 4.08
 1.659 -1.619 4.059
 1.697 -1.631 4.077
 1.712 -1.62 4.041
 1.722 -1.606 3.995
 1.773 -1.629 4.042
 1.786 -1.617 4.002
 1.828 -1.632 4.028
 1.825 -1.606 3.953
 1.864 -1.618 3.971
 1.878 -1.608 3.935
 1.89 -1.596 3.896
 1.881 -1.567 3.813
 1.896 -1.559 3.782
 1.873 -1.521 3.677
 1.905 -1.526 3.679
 1.898 -1.502 3.609
 1.902 -1.486 3.56
 0 0 0
 0 0 0
 0 0 0
 0 0 0
 0 0 0
 1.855 -1.349 3.164
 1.859 -1.336 3.123
 1.865 -1.325 3.085
 1.839 -1.292 2.997
 -2.326 -1.626 3.938
 -2.279 -1.611 3.916
 -2.251 -1.61 3.926
 -2.222 -1.609 3.937
 -2.208 -1.618 3.972
 -2.172 -1.612 3.969
 -2.138 -1.607 3.968
 -2.139 -1.627 4.031
 -2.105 -1.622 4.031
 -2.079 -1.623 4.045
 -2.042 -1.615 4.037
 -2.023 -1.622 4.065
 -1.999 -1.624 4.082
 -1.95 -1.606 4.047
 -1.944 -1.623 4.101
 -1.905 -1.613 4.086
 -1.872 -1.608 4.085
 -1.838 -1.601 4.078
 -1.827 -1.615 4.124
 -1.799 -1.614 4.131
 -1.778 -1.62 4.156
 -1.746 -1.616 4.154
 -1.712 -1.608 4.144
 -1.681 -1.605 4.145
 -1.657 -1.607 4.16
 -1.633 -1.61 4.176
 -1.597 -1.601 4.16
 -1.578 -1.608 4.189
 -1.547 -1.604 4.186
 -1.514 -1.597 4.176
 -1.499 -1.609 4.216
 -1.47 -1.608 4.219
 -1.436 -1.599 4.204
 -1.407 -1.596 4.205
 -1.393 -1.611 4.25
 -1.363 -1.607 4.246
 -1.328 -1.597 4.227
 -1.302 -1.598 4.237
 -1.268 -1.588 4.217
 -1.251 -1.601 4.257
 -1.222 -1.597 4.253
 -1.203 -1.607 4.286
 -1.169 -1.598 4.268
 -1.145 -1.601 4.281
 -1.112 -1.59 4.26
 -1.08 -1.582 4.243
 -1.053 -1.582 4.247
 -1.029 -1.585 4.262
 -1 -1.581 4.254
 -0.978 -1.588 4.278
 -0.947 -1.579 4.261
 -0.919 -1.576 4.256
 -0.89 -1.571 4.247
 -0.863 -1.57 4.248
 -0.843 -1.581 4.281
 -0.811 -1.569 4.252
 -0.786 -1.572 4.265
 -0.759 -1.57 4.264
 -0.733 -1.568 4.262
 -0.706 -1.568 4.264
 -0.684 -1.576 4.29
 -0.657 -1.574 4.287
 -0.628 -1.566 4.269
 -0.604 -1.571 4.284
 -0.576 -1.566 4.275
 -0.547 -1.557 4.253
 -0.519 -1.55 4.236
 -0.499 -1.566 4.28
 -0.472 -1.564 4.277
 -0.447 -1.566 4.286
 -0.417 -1.552 4.248
 -0.395 -1.564 4.283
 -0.37 -1.569 4.298
 -0.342 -1.558 4.269
 -0.317 -1.56 4.276
 -0.29 -1.556 4.266
 -0.263 -1.55 4.251
 -0.238 -1.551 4.255
 -0.214 -1.562 4.285
 -0.188 -1.561 4.285
 -0.163 -1.562 4.287
 -0.136 -1.554 4.266
 -0.11 -1.549 4.251
 -0.085 -1.552 4.262
 -0.059 -1.552 4.262
 -0.034 -1.544 4.238
 -0.008 -1.548 4.249
 0.016 -1.553 4.263
 0.042 -1.549 4.252
 0.067 -1.54 4.225
 0.093 -1.56 4.28
 0.119 -1.558 4.274
 0.145 -1.562 4.283
 0.17 -1.557 4.268
 0.195 -1.554 4.258
 0.221 -1.555 4.262
 0.246 -1.552 4.25
 0.273 -1.56 4.272
 0.298 -1.558 4.263
 0.323 -1.557 4.259
 0.347 -1.55 4.239
 0.373 -1.55 4.236
 0.399 -1.554 4.245
 0.424 -1.551 4.235
 0.449 -1.551 4.232
 0.478 -1.56 4.254
 0.506 -1.568 4.272
 0.529 -1.562 4.252
 0.551 -1.55 4.217
 0.578 -1.555 4.227
 0.603 -1.555 4.223
 0.632 -1.563 4.243
 0.657 -1.561 4.234
 0.682 -1.559 4.225
 0.711 -1.567 4.243
 0.733 -1.56 4.22
 0.761 -1.566 4.23
 0.789 -1.569 4.234
 0.814 -1.567 4.226
 0.841 -1.571 4.232
 0.866 -1.569 4.221
 0.895 -1.575 4.233
 0.922 -1.578 4.236
 0.948 -1.578 4.23
 0.979 -1.586 4.246
 1.003 -1.583 4.231
 1.031 -1.586 4.235
 1.056 -1.586 4.228
 1.077 -1.578 4.2
 1.109 -1.587 4.218
 1.131 -1.581 4.198
 1.165 -1.593 4.223
 1.189 -1.589 4.206
 1.22 -1.596 4.218
 1.241 -1.59 4.194
 1.272 -1.596 4.203
 1.293 -1.591 4.181
 1.318 -1.589 4.169
 1.358 -1.606 4.207
 1.381 -1.602 4.188
 1.41 -1.606 4.19
 1.43 -1.598 4.161
 1.466 -1.609 4.181
 1.491 -1.607 4.169
 1.516 -1.607 4.158
 1.555 -1.619 4.183
 1.569 -1.607 4.141
 1.6 -1.613 4.146
 1.629 -1.615 4.144
 1.67 -1.629 4.169
 1.683 -1.617 4.128
 1.705 -1.613 4.108
 1.733 -1.614 4.1
 1.763 -1.617 4.098
 1.781 -1.61 4.069
 1.811 -1.613 4.067
 1.818 -1.596 4.014
 1.855 -1.606 4.027
 1.859 -1.587 3.969
 1.881 -1.584 3.95
 1.899 -1.577 3.922
 1.887 -1.547 3.834
 1.879 -1.52 3.757
 1.894 -1.513 3.727
 1.904 -1.501 3.686
 1.941 -1.511 3.699
 0 0 0
 0 0 0
 0 0 0
 0 0 0
 0 0 0
 0 0 0
 1.839 -1.316 3.144
 1.875 -1.326 3.158
 1.856 -1.298 3.079
 1.834 -1.268 2.996
 -2.363 -1.624 4.01
 -2.327 -1.618 4.009
 -2.275 -1.601 3.979
 -2.268 -1.615 4.028
 -2.237 -1.612 4.034
 -2.222 -1.622 4.07
 -2.173 -1.606 4.043
 -2.181 -1.632 4.121
 -2.112 -1.601 4.054
 -2.106 -1.617 4.108
 -2.069 -1.61 4.101
 -2.044 -1.612 4.117
 -2.014 -1.61 4.123
 -1.984 -1.607 4.128
 -1.953 -1.604 4.13
 -1.936 -1.612 4.164
 -1.905 -1.609 4.166
 -1.872 -1.605 4.165
 -1.851 -1.609 4.187
 -1.817 -1.604 4.184
 -1.797 -1.61 4.209
 -1.781 -1.621 4.246
 -1.733 -1.602 4.206
 -1.712 -1.607 4.231
 -1.684 -1.606 4.236
 -1.651 -1.6 4.231
 -1.616 -1.593 4.221
 -1.578 -1.582 4.198
 -1.558 -1.589 4.225
 -1.533 -1.591 4.238
 -1.504 -1.588 4.24
 -1.476 -1.588 4.246
 -1.458 -1.597 4.279
 -1.43 -1.595 4.282
 -1.404 -1.597 4.293
 -1.376 -1.595 4.296
 -1.34 -1.584 4.274
 -1.303 -1.572 4.249
 -1.281 -1.578 4.269
 -1.256 -1.581 4.284
 -1.233 -1.584 4.3
 -1.197 -1.573 4.275
 -1.166 -1.566 4.263
 -1.15 -1.581 4.308
 -1.117 -1.571 4.288
 -1.076 -1.551 4.237
 -1.065 -1.573 4.304
 -1.031 -1.562 4.28
 -1.008 -1.567 4.298
 -0.978 -1.562 4.287
 -0.946 -1.552 4.264
 -0.923 -1.558 4.285
 -0.898 -1.56 4.296
 -0.864 -1.545 4.258
 -0.845 -1.559 4.303
 -0.814 -1.55 4.281
 -0.789 -1.552 4.291
 -0.762 -1.549 4.286
 -0.735 -1.548 4.286
 -0.708 -1.546 4.284
 -0.683 -1.547 4.289
 -0.654 -1.541 4.276
 -0.629 -1.543 4.286
 -0.601 -1.538 4.275
 -0.573 -1.532 4.259
 -0.553 -1.549 4.308
 -0.521 -1.53 4.258
 -0.494 -1.525 4.247
 -0.47 -1.533 4.27
 -0.445 -1.532 4.272
 -0.418 -1.529 4.265
 -0.394 -1.535 4.283
 -0.367 -1.531 4.274
 -0.341 -1.529 4.268
 -0.317 -1.536 4.289
 -0.289 -1.525 4.261
 -0.265 -1.532 4.281
 -0.24 -1.536 4.291
 -0.212 -1.52 4.249
 -0.187 -1.529 4.274
 -0.162 -1.537 4.296
 -0.136 -1.532 4.283
 -0.11 -1.523 4.259
 -0.085 -1.531 4.281
 -0.059 -1.528 4.272
 -0.034 -1.527 4.269
 -0.008 -1.53 4.278
 0.016 -1.527 4.27
 0.042 -1.529 4.275
 0.067 -1.524 4.259
 0.093 -1.523 4.257
 0.119 -1.526 4.265
 0.144 -1.526 4.262
 0.169 -1.519 4.243
 0.196 -1.531 4.274
 0.221 -1.527 4.262
 0.245 -1.522 4.246
 0.272 -1.529 4.264
 0.297 -1.525 4.252
 0.324 -1.533 4.271
 0.348 -1.526 4.251
 0.375 -1.533 4.268
 0.399 -1.527 4.248
 0.427 -1.534 4.266
 0.45 -1.527 4.244
 0.478 -1.534 4.261
 0.504 -1.537 4.266
 0.524 -1.521 4.22
 0.555 -1.534 4.253
 0.578 -1.529 4.236
 0.606 -1.536 4.252
 0.63 -1.532 4.235
 0.658 -1.538 4.249
 0.685 -1.541 4.253
 0.711 -1.541 4.251
 0.735 -1.539 4.239
 0.759 -1.535 4.225
 0.787 -1.54 4.235
 0.812 -1.539 4.227
 0.832 -1.528 4.193
 0.868 -1.548 4.241
 0.891 -1.542 4.222
 0.92 -1.548 4.232
 0.95 -1.555 4.248
 0.975 -1.554 4.237
 1.002 -1.555 4.236
 1.027 -1.554 4.228
 1.058 -1.562 4.242
 1.084 -1.562 4.237
 1.11 -1.562 4.232
 1.14 -1.567 4.239
 1.171 -1.575 4.252
 1.191 -1.567 4.224
 1.214 -1.562 4.204
 1.248 -1.572 4.226
 1.272 -1.57 4.211
 1.3 -1.573 4.212
 1.333 -1.58 4.224
 1.348 -1.567 4.182
 1.392 -1.588 4.23
 1.41 -1.579 4.198
 1.429 -1.571 4.168
 1.473 -1.591 4.212
 1.502 -1.593 4.209
 1.517 -1.581 4.169
 1.555 -1.594 4.194
 1.591 -1.602 4.208
 1.609 -1.594 4.178
 1.645 -1.604 4.193
 1.66 -1.593 4.154
 1.697 -1.602 4.169
 1.721 -1.6 4.153
 1.749 -1.602 4.147
 1.781 -1.607 4.15
 1.806 -1.606 4.136
 1.834 -1.606 4.127
 1.836 -1.586 4.064
 1.866 -1.589 4.061
 1.884 -1.582 4.032
 1.869 -1.548 3.933
 1.892 -1.545 3.916
 1.884 -1.519 3.837
 1.903 -1.514 3.813
 1.879 -1.475 3.704
 0 0 0
 0 0 0
 0 0 0
 0 0 0
 0 0 0
 0 0 0
 0 0 0
 0 0 0
 1.823 -1.282 3.123
 1.872 -1.302 3.16
 1.861 -1.28 3.094
 1.834 -1.247 3.004
 -2.369 -1.6 4.029
 -2.35 -1.607 4.059
 -2.309 -1.597 4.048
 -2.301 -1.611 4.096
 -2.269 -1.608 4.103
 -2.227 -1.598 4.089
 -2.235 -1.624 4.168
 -2.182 -1.605 4.133
 -2.165 -1.613 4.167
 -2.139 -1.615 4.182
 -2.084 -1.594 4.139
 -2.057 -1.595 4.153
 -2.054 -1.614 4.214
 -2.011 -1.602 4.195
 -1.978 -1.597 4.193
 -1.956 -1.601 4.216
 -1.939 -1.611 4.251
 -1.895 -1.597 4.225
 -1.875 -1.603 4.252
 -1.831 -1.589 4.225
 -1.82 -1.603 4.273
 -1.785 -1.597 4.265
 -1.754 -1.594 4.267
 -1.721 -1.589 4.262
 -1.703 -1.597 4.294
 -1.663 -1.585 4.272
 -1.625 -1.575 4.253
 -1.619 -1.596 4.317
 -1.58 -1.584 4.295
 -1.541 -1.573 4.271
 -1.517 -1.575 4.285
 -1.503 -1.589 4.332
 -1.461 -1.574 4.298
 -1.42 -1.558 4.262
 -1.402 -1.567 4.296
 -1.375 -1.567 4.303
 -1.349 -1.569 4.313
 -1.329 -1.576 4.341
 -1.282 -1.552 4.281
 -1.257 -1.555 4.296
 -1.226 -1.549 4.285
 -1.202 -1.552 4.3
 -1.171 -1.547 4.292
 -1.154 -1.56 4.334
 -1.108 -1.533 4.264
 -1.085 -1.538 4.284
 -1.054 -1.531 4.269
 -1.033 -1.539 4.296
 -1.002 -1.532 4.281
 -0.98 -1.539 4.307
 -0.947 -1.529 4.281
 -0.921 -1.529 4.286
 -0.895 -1.528 4.287
 -0.871 -1.533 4.306
 -0.841 -1.525 4.287
 -0.815 -1.525 4.291
 -0.783 -1.514 4.265
 -0.764 -1.528 4.309
 -0.732 -1.516 4.277
 -0.703 -1.509 4.261
 -0.68 -1.515 4.281
 -0.656 -1.52 4.297
 -0.629 -1.518 4.294
 -0.602 -1.515 4.29
 -0.578 -1.518 4.302
 -0.55 -1.515 4.294
 -0.519 -1.499 4.251
 -0.494 -1.502 4.262
 -0.473 -1.517 4.308
 -0.443 -1.503 4.269
 -0.42 -1.51 4.29
 -0.392 -1.503 4.274
 -0.367 -1.504 4.278
 -0.342 -1.51 4.294
 -0.315 -1.503 4.276
 -0.293 -1.521 4.329
 -0.263 -1.495 4.256
 -0.236 -1.491 4.245
 -0.214 -1.513 4.31
 -0.188 -1.507 4.291
 -0.163 -1.514 4.314
 -0.136 -1.501 4.277
 -0.111 -1.507 4.293
 -0.084 -1.497 4.266
 -0.059 -1.498 4.269
 -0.033 -1.489 4.241
 -0.008 -1.497 4.264
 0.017 -1.501 4.277
 0.042 -1.494 4.255
 0.068 -1.498 4.266
 0.093 -1.502 4.277
 0.119 -1.5 4.271
 0.144 -1.501 4.271
 0.17 -1.505 4.283
 0.194 -1.492 4.243
 0.22 -1.497 4.256
 0.247 -1.505 4.277
 0.273 -1.507 4.282
 0.298 -1.504 4.273
 0.323 -1.505 4.272
 0.347 -1.496 4.245
 0.375 -1.507 4.275
 0.403 -1.514 4.292
 0.423 -1.497 4.24
 0.449 -1.499 4.243
 0.478 -1.508 4.267
 0.5 -1.499 4.238
 0.527 -1.504 4.25
 0.551 -1.499 4.233
 0.577 -1.501 4.236
 0.605 -1.506 4.246
 0.631 -1.507 4.245
 0.66 -1.516 4.266
 0.682 -1.508 4.242
 0.711 -1.516 4.26
 0.738 -1.518 4.262
 0.761 -1.513 4.245
 0.788 -1.515 4.245
 0.815 -1.518 4.249
 0.847 -1.529 4.274
 0.869 -1.523 4.252
 0.894 -1.521 4.243
 0.919 -1.521 4.236
 0.95 -1.528 4.252
 0.976 -1.529 4.25
 0.999 -1.524 4.229
 1.02 -1.518 4.207
 1.055 -1.531 4.239
 1.079 -1.528 4.225
 1.113 -1.54 4.25
 1.138 -1.538 4.239
 1.163 -1.537 4.229
 1.191 -1.54 4.231
 1.214 -1.535 4.212
 1.248 -1.545 4.232
 1.285 -1.559 4.263
 1.297 -1.543 4.21
 1.331 -1.551 4.226
 1.357 -1.551 4.218
 1.387 -1.555 4.222
 1.409 -1.551 4.202
 1.444 -1.561 4.221
 1.467 -1.557 4.201
 1.494 -1.558 4.195
 1.52 -1.558 4.186
 1.552 -1.564 4.194
 1.579 -1.564 4.185
 1.612 -1.571 4.194
 1.645 -1.577 4.202
 1.67 -1.575 4.187
 1.696 -1.575 4.177
 1.729 -1.581 4.182
 1.751 -1.577 4.161
 1.781 -1.579 4.158
 1.809 -1.581 4.151
 1.843 -1.588 4.158
 1.862 -1.581 4.129
 1.871 -1.566 4.08
 1.865 -1.54 3.999
 1.889 -1.538 3.984
 1.898 -1.524 3.937
 1.903 -1.508 3.884
 1.881 -1.471 3.777
 0 0 0
 0 0 0
 0 0 0
 0 0 0
 0 0 0
 0 0 0
 0 0 0
 0 0 0
 0 0 0
 0 0 0
 1.881 -1.286 3.182
 1.856 -1.255 3.093
 1.86 -1.244 3.054
 -2.472 -1.642 4.216
 -2.395 -1.609 4.146
 -2.351 -1.599 4.133
 -2.326 -1.6 4.151
 -2.293 -1.597 4.156
 -2.265 -1.597 4.168
 -2.24 -1.599 4.187
 -2.216 -1.602 4.207
 -2.197 -1.609 4.238
 -2.152 -1.597 4.218
 -2.12 -1.593 4.22
 -2.092 -1.593 4.232
 -2.059 -1.59 4.235
 -2.026 -1.586 4.236
 -2.017 -1.601 4.287
 -1.969 -1.584 4.254
 -1.942 -1.585 4.267
 -1.912 -1.584 4.273
 -1.893 -1.591 4.304
 -1.859 -1.586 4.3
 -1.827 -1.582 4.299
 -1.796 -1.579 4.301
 -1.758 -1.57 4.285
 -1.726 -1.566 4.284
 -1.703 -1.57 4.304
 -1.663 -1.558 4.281
 -1.646 -1.568 4.317
 -1.609 -1.559 4.3
 -1.577 -1.554 4.295
 -1.545 -1.55 4.291
 -1.515 -1.547 4.291
 -1.498 -1.557 4.327
 -1.459 -1.544 4.299
 -1.423 -1.534 4.279
 -1.405 -1.544 4.314
 -1.376 -1.542 4.315
 -1.337 -1.528 4.284
 -1.313 -1.531 4.299
 -1.274 -1.517 4.264
 -1.254 -1.525 4.295
 -1.226 -1.522 4.293
 -1.196 -1.519 4.289
 -1.173 -1.524 4.309
 -1.146 -1.523 4.311
 -1.111 -1.511 4.285
 -1.086 -1.514 4.297
 -1.059 -1.512 4.298
 -1.029 -1.507 4.288
 -0.999 -1.501 4.277
 -0.98 -1.512 4.312
 -0.943 -1.496 4.271
 -0.92 -1.501 4.289
 -0.896 -1.504 4.301
 -0.867 -1.5 4.294
 -0.838 -1.494 4.282
 -0.819 -1.508 4.325
 -0.785 -1.492 4.284
 -0.762 -1.499 4.307
 -0.736 -1.498 4.308
 -0.708 -1.495 4.303
 -0.681 -1.491 4.294
 -0.65 -1.48 4.264
 -0.628 -1.489 4.293
 -0.604 -1.493 4.31
 -0.578 -1.493 4.311
 -0.55 -1.488 4.298
 -0.521 -1.479 4.274
 -0.496 -1.481 4.282
 -0.468 -1.473 4.263
 -0.446 -1.485 4.299
 -0.421 -1.491 4.318
 -0.393 -1.48 4.289
 -0.366 -1.478 4.283
 -0.341 -1.48 4.291
 -0.315 -1.476 4.281
 -0.289 -1.475 4.278
 -0.265 -1.484 4.306
 -0.237 -1.473 4.274
 -0.212 -1.475 4.28
 -0.186 -1.474 4.278
 -0.16 -1.468 4.263
 -0.135 -1.466 4.256
 -0.11 -1.474 4.279
 -0.084 -1.474 4.279
 -0.059 -1.469 4.266
 -0.033 -1.462 4.245
 -0.008 -1.47 4.267
 0.017 -1.476 4.284
 0.042 -1.468 4.262
 0.067 -1.468 4.26
 0.093 -1.473 4.274
 0.118 -1.468 4.26
 0.144 -1.47 4.264
 0.169 -1.465 4.248
 0.195 -1.476 4.277
 0.221 -1.473 4.27
 0.245 -1.47 4.258
 0.273 -1.48 4.287
 0.297 -1.475 4.268
 0.322 -1.474 4.264
 0.346 -1.465 4.238
 0.375 -1.482 4.283
 0.4 -1.48 4.275
 0.425 -1.478 4.267
 0.449 -1.47 4.243
 0.474 -1.472 4.245
 0.499 -1.468 4.232
 0.525 -1.47 4.235
 0.553 -1.478 4.255
 0.58 -1.483 4.265
 0.607 -1.487 4.272
 0.63 -1.48 4.249
 0.659 -1.488 4.268
 0.679 -1.476 4.23
 0.71 -1.488 4.26
 0.737 -1.489 4.262
 0.764 -1.492 4.264
 0.785 -1.483 4.235
 0.815 -1.491 4.254
 0.836 -1.483 4.226
 0.864 -1.488 4.235
 0.888 -1.485 4.22
 0.921 -1.497 4.251
 0.948 -1.499 4.251
 0.977 -1.504 4.26
 1.001 -1.502 4.248
 1.024 -1.497 4.228
 1.055 -1.504 4.243
 1.086 -1.512 4.259
 1.105 -1.503 4.227
 1.135 -1.507 4.234
 1.158 -1.504 4.218
 1.193 -1.516 4.246
 1.222 -1.519 4.248
 1.252 -1.524 4.255
 1.282 -1.528 4.259
 1.303 -1.523 4.236
 1.323 -1.516 4.209
 1.351 -1.518 4.208
 1.39 -1.532 4.239
 1.415 -1.531 4.227
 1.442 -1.532 4.222
 1.465 -1.528 4.203
 1.496 -1.533 4.21
 1.528 -1.539 4.215
 1.566 -1.55 4.238
 1.591 -1.549 4.225
 1.607 -1.539 4.188
 1.634 -1.54 4.182
 1.677 -1.555 4.214
 1.704 -1.556 4.206
 1.73 -1.554 4.192
 1.761 -1.559 4.194
 1.787 -1.558 4.182
 1.81 -1.555 4.163
 1.822 -1.542 4.117
 1.849 -1.543 4.11
 1.86 -1.531 4.065
 1.902 -1.543 4.086
 1.899 -1.52 4.013
 1.92 -1.516 3.992
 1.925 -1.5 3.938
 0 0 0
 0 0 0
 0 0 0
 0 0 0
 0 0 0
 0 0 0
 0 0 0
 0 0 0
 0 0 0
 0 0 0
 1.797 -1.222 3.094
 1.859 -1.25 3.152
 1.862 -1.237 3.11
 1.895 -1.245 3.118
 -2.462 -1.606 4.208
 -2.433 -1.606 4.222
 -2.399 -1.603 4.227
 -2.378 -1.608 4.254
 -2.299 -1.573 4.176
 -2.293 -1.589 4.231
 -2.28 -1.6 4.273
 -2.27 -1.613 4.321
 -2.214 -1.594 4.281
 -2.185 -1.593 4.292
 -2.138 -1.579 4.268
 -2.124 -1.59 4.307
 -2.078 -1.577 4.284
 -2.039 -1.568 4.272
 -2.02 -1.575 4.303
 -1.986 -1.571 4.301
 -1.948 -1.563 4.29
 -1.918 -1.561 4.296
 -1.901 -1.57 4.331
 -1.858 -1.557 4.306
 -1.821 -1.549 4.294
 -1.805 -1.559 4.332
 -1.773 -1.556 4.332
 -1.745 -1.555 4.339
 -1.708 -1.547 4.325
 -1.67 -1.538 4.308
 -1.641 -1.536 4.312
 -1.613 -1.536 4.32
 -1.571 -1.521 4.288
 -1.552 -1.529 4.317
 -1.529 -1.534 4.339
 -1.496 -1.528 4.33
 -1.462 -1.52 4.317
 -1.421 -1.505 4.282
 -1.404 -1.517 4.322
 -1.374 -1.513 4.316
 -1.341 -1.506 4.305
 -1.314 -1.506 4.31
 -1.282 -1.5 4.301
 -1.256 -1.501 4.308
 -1.221 -1.491 4.286
 -1.2 -1.498 4.313
 -1.165 -1.487 4.288
 -1.139 -1.487 4.294
 -1.113 -1.487 4.3
 -1.09 -1.492 4.319
 -1.06 -1.487 4.309
 -1.031 -1.483 4.303
 -1.008 -1.488 4.323
 -0.975 -1.479 4.3
 -0.946 -1.474 4.289
 -0.919 -1.474 4.294
 -0.899 -1.483 4.327
 -0.862 -1.465 4.277
 -0.845 -1.481 4.328
 -0.806 -1.458 4.264
 -0.785 -1.467 4.293
 -0.754 -1.456 4.267
 -0.735 -1.47 4.311
 -0.704 -1.461 4.287
 -0.684 -1.472 4.324
 -0.652 -1.46 4.291
 -0.621 -1.447 4.253
 -0.602 -1.464 4.308
 -0.574 -1.458 4.292
 -0.544 -1.447 4.262
 -0.521 -1.453 4.281
 -0.494 -1.452 4.28
 -0.471 -1.457 4.298
 -0.444 -1.454 4.291
 -0.419 -1.458 4.303
 -0.394 -1.459 4.308
 -0.369 -1.463 4.321
 -0.338 -1.442 4.262
 -0.313 -1.444 4.268
 -0.288 -1.444 4.269
 -0.262 -1.442 4.264
 -0.236 -1.438 4.254
 -0.212 -1.448 4.285
 -0.186 -1.448 4.286
 -0.16 -1.441 4.266
 -0.135 -1.444 4.274
 -0.11 -1.446 4.28
 -0.084 -1.44 4.262
 -0.059 -1.453 4.301
 -0.033 -1.452 4.298
 -0.008 -1.441 4.264
 0.017 -1.453 4.299
 0.042 -1.45 4.292
 0.068 -1.447 4.282
 0.093 -1.443 4.268
 0.118 -1.437 4.251
 0.143 -1.436 4.246
 0.17 -1.449 4.284
 0.194 -1.441 4.258
 0.221 -1.447 4.273
 0.245 -1.443 4.261
 0.273 -1.454 4.291
 0.297 -1.447 4.271
 0.321 -1.439 4.245
 0.347 -1.446 4.262
 0.372 -1.441 4.247
 0.4 -1.454 4.281
 0.426 -1.455 4.283
 0.448 -1.441 4.24
 0.476 -1.45 4.263
 0.502 -1.451 4.264
 0.528 -1.453 4.266
 0.555 -1.457 4.274
 0.58 -1.455 4.266
 0.607 -1.46 4.277
 0.63 -1.452 4.251
 0.656 -1.456 4.257
 0.679 -1.45 4.236
 0.709 -1.459 4.26
 0.735 -1.459 4.257
 0.76 -1.459 4.251
 0.784 -1.456 4.239
 0.815 -1.465 4.26
 0.84 -1.465 4.255
 0.859 -1.453 4.215
 0.891 -1.464 4.243
 0.92 -1.469 4.251
 0.942 -1.464 4.232
 0.978 -1.48 4.273
 1.001 -1.474 4.252
 1.029 -1.478 4.256
 1.053 -1.475 4.242
 1.084 -1.482 4.257
 1.113 -1.487 4.264
 1.135 -1.482 4.243
 1.163 -1.484 4.243
 1.19 -1.486 4.242
 1.216 -1.485 4.234
 1.244 -1.488 4.233
 1.273 -1.492 4.238
 1.293 -1.484 4.209
 1.326 -1.492 4.225
 1.36 -1.502 4.244
 1.382 -1.497 4.223
 1.406 -1.494 4.207
 1.45 -1.513 4.252
 1.47 -1.507 4.227
 1.503 -1.514 4.237
 1.525 -1.509 4.216
 1.552 -1.51 4.21
 1.584 -1.515 4.215
 1.602 -1.508 4.184
 1.643 -1.521 4.211
 1.675 -1.526 4.217
 1.702 -1.526 4.207
 1.731 -1.528 4.203
 1.771 -1.54 4.226
 1.779 -1.524 4.17
 1.814 -1.531 4.18
 1.84 -1.531 4.168
 1.863 -1.528 4.149
 1.868 -1.51 4.09
 1.891 -1.508 4.072
 1.89 -1.487 4.003
 1.909 -1.481 3.976
 0 0 0
 0 0 0
 0 0 0
 0 0 0
 0 0 0
 0 0 0
 0 0 0
 0 0 0
 0 0 0
 0 0 0
 0 0 0
 1.806 -1.207 3.116
 1.863 -1.23 3.166
 1.889 -1.233 3.162
 1.843 -1.19 3.04
 -2.482 -1.59 4.253
 -2.485 -1.611 4.322
 -2.432 -1.596 4.295
 -2.393 -1.589 4.291
 -2.361 -1.587 4.3
 -2.325 -1.582 4.299
 -2.308 -1.59 4.334
 -2.252 -1.572 4.296
 -2.217 -1.567 4.297
 -2.197 -1.574 4.326
 -2.167 -1.572 4.334
 -2.122 -1.56 4.313
 -2.101 -1.566 4.341
 -2.042 -1.543 4.288
 -2.014 -1.542 4.298
 -1.985 -1.542 4.307
 -1.952 -1.538 4.307
 -1.929 -1.542 4.331
 -1.893 -1.536 4.323
 -1.848 -1.522 4.293
 -1.834 -1.533 4.335
 -1.8 -1.527 4.329
 -1.766 -1.522 4.324
 -1.737 -1.521 4.33
 -1.707 -1.519 4.333
 -1.662 -1.503 4.297
 -1.644 -1.512 4.33
 -1.606 -1.502 4.31
 -1.592 -1.515 4.355
 -1.551 -1.502 4.326
 -1.517 -1.495 4.314
 -1.486 -1.491 4.309
 -1.457 -1.489 4.313
 -1.427 -1.485 4.308
 -1.406 -1.492 4.336
 -1.37 -1.482 4.313
 -1.343 -1.481 4.319
 -1.314 -1.479 4.319
 -1.281 -1.472 4.304
 -1.249 -1.466 4.294
 -1.218 -1.461 4.284
 -1.191 -1.46 4.289
 -1.167 -1.463 4.302
 -1.141 -1.464 4.311
 -1.115 -1.465 4.319
 -1.085 -1.46 4.309
 -1.064 -1.466 4.334
 -1.022 -1.445 4.276
 -1.002 -1.453 4.305
 -0.977 -1.456 4.318
 -0.946 -1.449 4.3
 -0.923 -1.454 4.321
 -0.893 -1.447 4.305
 -0.858 -1.433 4.267
 -0.84 -1.446 4.309
 -0.812 -1.443 4.303
 -0.785 -1.441 4.302
 -0.756 -1.435 4.286
 -0.733 -1.441 4.308
 -0.702 -1.431 4.281
 -0.677 -1.433 4.291
 -0.651 -1.432 4.291
 -0.628 -1.437 4.309
 -0.6 -1.432 4.298
 -0.57 -1.422 4.269
 -0.547 -1.43 4.295
 -0.52 -1.426 4.284
 -0.494 -1.425 4.283
 -0.47 -1.432 4.306
 -0.443 -1.427 4.295
 -0.418 -1.427 4.295
 -0.392 -1.426 4.294
 -0.366 -1.427 4.299
 -0.339 -1.422 4.284
 -0.311 -1.409 4.248
 -0.288 -1.422 4.289
 -0.263 -1.423 4.291
 -0.236 -1.413 4.263
 -0.21 -1.413 4.262
 -0.185 -1.417 4.275
 -0.159 -1.404 4.236
 -0.135 -1.421 4.289
 -0.11 -1.424 4.297
 -0.083 -1.413 4.265
 -0.058 -1.417 4.276
 -0.033 -1.418 4.279
 -0.007 -1.41 4.254
 0.017 -1.422 4.292
 0.042 -1.412 4.259
 0.068 -1.422 4.29
 0.093 -1.415 4.268
 0.119 -1.42 4.283
 0.144 -1.42 4.281
 0.169 -1.418 4.275
 0.194 -1.411 4.25
 0.219 -1.413 4.257
 0.246 -1.418 4.271
 0.271 -1.417 4.264
 0.297 -1.42 4.274
 0.321 -1.416 4.258
 0.349 -1.425 4.284
 0.373 -1.422 4.272
 0.398 -1.42 4.265
 0.424 -1.422 4.267
 0.448 -1.416 4.247
 0.474 -1.419 4.254
 0.498 -1.416 4.241
 0.527 -1.426 4.268
 0.552 -1.423 4.258
 0.575 -1.418 4.24
 0.604 -1.427 4.261
 0.629 -1.425 4.254
 0.657 -1.43 4.266
 0.682 -1.429 4.258
 0.709 -1.433 4.266
 0.736 -1.436 4.27
 0.761 -1.435 4.264
 0.785 -1.431 4.248
 0.815 -1.439 4.266
 0.842 -1.441 4.269
 0.859 -1.428 4.224
 0.891 -1.438 4.25
 0.924 -1.449 4.278
 0.947 -1.446 4.262
 0.976 -1.45 4.27
 0.999 -1.446 4.253
 1.028 -1.45 4.259
 1.049 -1.443 4.234
 1.081 -1.452 4.252
 1.109 -1.455 4.255
 1.139 -1.461 4.266
 1.161 -1.456 4.245
 1.192 -1.462 4.256
 1.213 -1.456 4.231
 1.246 -1.464 4.249
 1.268 -1.459 4.228
 1.298 -1.465 4.236
 1.323 -1.463 4.224
 1.354 -1.468 4.233
 1.387 -1.476 4.246
 1.413 -1.475 4.236
 1.442 -1.478 4.237
 1.464 -1.474 4.216
 1.502 -1.486 4.243
 1.536 -1.493 4.255
 1.558 -1.488 4.232
 1.586 -1.49 4.228
 1.619 -1.496 4.235
 1.633 -1.485 4.195
 1.673 -1.498 4.221
 1.691 -1.49 4.189
 1.723 -1.495 4.193
 1.759 -1.502 4.204
 1.795 -1.51 4.216
 1.813 -1.503 4.185
 1.85 -1.512 4.199
 1.855 -1.494 4.139
 1.876 -1.49 4.116
 1.883 -1.475 4.062
 1.892 -1.462 4.015
 0 0 0
 0 0 0
 0 0 0
 0 0 0
 0 0 0
 0 0 0
 0 0 0
 0 0 0
 0 0 0
 0 0 0
 0 0 0
 0 0 0
 0 0 0
 1.853 -1.203 3.157
 1.868 -1.199 3.135
 1.859 -1.179 3.072
 0 0 0
 -2.477 -1.577 4.318
 -2.438 -1.571 4.315
 -2.389 -1.558 4.293
 -2.388 -1.576 4.358
 -2.334 -1.56 4.326
 -2.307 -1.561 4.343
 -2.262 -1.55 4.323
 -2.242 -1.556 4.354
 -2.2 -1.547 4.341
 -2.166 -1.543 4.342
 -2.143 -1.547 4.365
 -2.099 -1.536 4.345
 -2.063 -1.53 4.341
 -2.014 -1.515 4.307
 -2.011 -1.534 4.374
 -1.953 -1.511 4.32
 -1.931 -1.515 4.342
 -1.89 -1.506 4.325
 -1.854 -1.499 4.314
 -1.844 -1.513 4.366
 -1.802 -1.502 4.344
 -1.752 -1.483 4.298
 -1.733 -1.49 4.327
 -1.689 -1.476 4.295
 -1.674 -1.487 4.337
 -1.638 -1.479 4.323
 -1.617 -1.484 4.347
 -1.577 -1.473 4.321
 -1.546 -1.469 4.318
 -1.515 -1.465 4.315
 -1.483 -1.461 4.31
 -1.452 -1.457 4.304
 -1.432 -1.464 4.333
 -1.385 -1.443 4.278
 -1.369 -1.454 4.318
 -1.346 -1.459 4.339
 -1.31 -1.449 4.315
 -1.29 -1.455 4.343
 -1.255 -1.447 4.323
 -1.222 -1.44 4.308
 -1.192 -1.434 4.298
 -1.164 -1.432 4.298
 -1.149 -1.447 4.347
 -1.113 -1.436 4.319
 -1.076 -1.421 4.28
 -1.062 -1.438 4.336
 -1.028 -1.428 4.31
 -0.995 -1.418 4.284
 -0.969 -1.419 4.291
 -0.949 -1.428 4.324
 -0.918 -1.42 4.303
 -0.887 -1.412 4.284
 -0.86 -1.41 4.282
 -0.843 -1.426 4.335
 -0.811 -1.416 4.308
 -0.784 -1.413 4.304
 -0.756 -1.41 4.296
 -0.73 -1.409 4.299
 -0.702 -1.405 4.289
 -0.68 -1.412 4.314
 -0.653 -1.411 4.311
 -0.625 -1.405 4.297
 -0.597 -1.401 4.286
 -0.573 -1.405 4.301
 -0.547 -1.403 4.299
 -0.522 -1.407 4.313
 -0.491 -1.391 4.266
 -0.472 -1.412 4.333
 -0.443 -1.401 4.3
 -0.415 -1.393 4.279
 -0.391 -1.398 4.295
 -0.364 -1.393 4.28
 -0.341 -1.403 4.312
 -0.315 -1.403 4.314
 -0.289 -1.399 4.304
 -0.261 -1.39 4.275
 -0.236 -1.388 4.272
 -0.213 -1.404 4.32
 -0.186 -1.393 4.288
 -0.161 -1.398 4.304
 -0.133 -1.379 4.244
 -0.11 -1.404 4.323
 -0.083 -1.389 4.277
 -0.058 -1.393 4.289
 -0.033 -1.388 4.273
 -0.007 -1.389 4.276
 0.017 -1.386 4.267
 0.042 -1.386 4.264
 0.068 -1.39 4.276
 0.093 -1.392 4.282
 0.119 -1.397 4.298
 0.145 -1.395 4.291
 0.17 -1.392 4.281
 0.194 -1.386 4.259
 0.219 -1.386 4.26
 0.246 -1.392 4.276
 0.27 -1.388 4.26
 0.297 -1.393 4.274
 0.322 -1.392 4.271
 0.347 -1.391 4.264
 0.371 -1.386 4.247
 0.396 -1.387 4.247
 0.423 -1.391 4.257
 0.45 -1.397 4.274
 0.477 -1.4 4.281
 0.501 -1.396 4.266
 0.528 -1.401 4.279
 0.551 -1.395 4.257
 0.576 -1.395 4.254
 0.607 -1.407 4.286
 0.631 -1.404 4.275
 0.653 -1.395 4.244
 0.682 -1.404 4.266
 0.707 -1.403 4.26
 0.738 -1.412 4.285
 0.759 -1.404 4.255
 0.785 -1.406 4.258
 0.809 -1.403 4.244
 0.837 -1.407 4.25
 0.862 -1.406 4.242
 0.884 -1.4 4.22
 0.914 -1.408 4.239
 0.946 -1.418 4.264
 0.975 -1.422 4.271
 0.992 -1.41 4.231
 1.026 -1.422 4.26
 1.048 -1.416 4.238
 1.077 -1.42 4.244
 1.107 -1.426 4.256
 1.134 -1.427 4.252
 1.163 -1.431 4.258
 1.189 -1.432 4.254
 1.218 -1.435 4.256
 1.235 -1.425 4.219
 1.274 -1.439 4.254
 1.298 -1.437 4.241
 1.321 -1.434 4.225
 1.351 -1.438 4.229
 1.377 -1.438 4.221
 1.405 -1.44 4.22
 1.447 -1.457 4.26
 1.464 -1.447 4.223
 1.491 -1.448 4.219
 1.525 -1.456 4.232
 1.562 -1.466 4.251
 1.576 -1.455 4.21
 1.618 -1.468 4.241
 1.641 -1.465 4.222
 1.665 -1.463 4.206
 1.7 -1.47 4.217
 1.723 -1.467 4.199
 1.755 -1.472 4.203
 1.786 -1.476 4.204
 1.815 -1.478 4.197
 1.845 -1.48 4.195
 1.858 -1.469 4.153
 1.877 -1.464 4.126
 1.859 -1.43 4.018
 0 0 0
 0 0 0
 0 0 0
 0 0 0
 0 0 0
 0 0 0
 0 0 0
 0 0 0
 0 0 0
 0 0 0
 0 0 0
 0 0 0
 0 0 0
 0 0 0
 1.887 -1.202 3.221
 1.859 -1.171 3.126
 1.827 -1.138 3.026
 -2.553 -1.577 4.395
 -2.508 -1.567 4.383
 -2.457 -1.554 4.358
 -2.421 -1.55 4.361
 -2.38 -1.542 4.353
 -2.343 -1.537 4.352
 -2.323 -1.543 4.381
 -2.267 -1.525 4.343
 -2.238 -1.525 4.356
 -2.183 -1.507 4.316
 -2.17 -1.517 4.359
 -2.144 -1.519 4.376
 -2.084 -1.497 4.323
 -2.06 -1.5 4.344
 -2.023 -1.494 4.336
 -2 -1.498 4.36
 -1.96 -1.488 4.343
 -1.917 -1.477 4.32
 -1.895 -1.482 4.345
 -1.856 -1.473 4.329
 -1.827 -1.472 4.335
 -1.791 -1.465 4.324
 -1.754 -1.457 4.311
 -1.722 -1.453 4.309
 -1.696 -1.455 4.322
 -1.658 -1.445 4.303
 -1.632 -1.446 4.314
 -1.605 -1.447 4.325
 -1.581 -1.449 4.34
 -1.547 -1.444 4.331
 -1.516 -1.44 4.328
 -1.497 -1.448 4.36
 -1.45 -1.428 4.308
 -1.427 -1.432 4.326
 -1.391 -1.423 4.306
 -1.374 -1.432 4.342
 -1.334 -1.419 4.309
 -1.313 -1.425 4.332
 -1.287 -1.426 4.341
 -1.251 -1.415 4.316
 -1.227 -1.419 4.332
 -1.187 -1.402 4.288
 -1.167 -1.41 4.317
 -1.141 -1.41 4.324
 -1.107 -1.401 4.302
 -1.08 -1.401 4.305
 -1.057 -1.404 4.321
 -1.021 -1.392 4.289
 -0.999 -1.397 4.31
 -0.971 -1.395 4.307
 -0.945 -1.396 4.313
 -0.922 -1.4 4.33
 -0.89 -1.391 4.307
 -0.867 -1.396 4.325
 -0.83 -1.378 4.275
 -0.811 -1.39 4.316
 -0.782 -1.383 4.298
 -0.755 -1.383 4.3
 -0.734 -1.391 4.328
 -0.703 -1.382 4.305
 -0.674 -1.375 4.286
 -0.648 -1.374 4.286
 -0.626 -1.382 4.314
 -0.597 -1.375 4.294
 -0.572 -1.377 4.303
 -0.545 -1.373 4.291
 -0.525 -1.389 4.345
 -0.493 -1.371 4.291
 -0.47 -1.378 4.315
 -0.439 -1.363 4.269
 -0.411 -1.354 4.241
 0 0 0
 0 0 0
 0 0 0
 0 0 0
 -0.287 -1.366 4.287
 -0.262 -1.367 4.29
 -0.235 -1.358 4.263
 -0.211 -1.37 4.302
 -0.185 -1.366 4.289
 -0.16 -1.367 4.292
 -0.135 -1.373 4.311
 -0.108 -1.359 4.269
 -0.083 -1.366 4.291
 -0.058 -1.366 4.289
 -0.033 -1.371 4.307
 -0.007 -1.361 4.275
 0.018 -1.391 4.369
 0 0 0
 0 0 0
 0.095 -1.388 4.357
 0 0 0
 0 0 0
 0 0 0
 0.194 -1.361 4.268
 0.217 -1.348 4.225
 0.246 -1.37 4.292
 0.272 -1.371 4.294
 0.292 -1.345 4.21
 0.32 -1.359 4.255
 0.354 -1.392 4.355
 0.369 -1.354 4.234
 0.398 -1.366 4.27
 0.428 -1.382 4.317
 0.454 -1.382 4.314
 0.474 -1.365 4.259
 0.498 -1.364 4.253
 0.527 -1.374 4.28
 0.552 -1.373 4.273
 0.575 -1.366 4.251
 0.605 -1.377 4.28
 0.629 -1.373 4.265
 0.649 -1.362 4.226
 0.678 -1.369 4.244
 0.717 -1.396 4.325
 0.729 -1.371 4.243
 0.765 -1.39 4.298
 0.782 -1.374 4.246
 0.817 -1.39 4.289
 0.839 -1.384 4.266
 0.864 -1.383 4.258
 0.887 -1.38 4.244
 0.922 -1.394 4.284
 0.942 -1.385 4.249
 0.967 -1.385 4.243
 0.99 -1.381 4.228
 1.02 -1.387 4.24
 1.048 -1.391 4.246
 1.078 -1.396 4.257
 1.109 -1.402 4.269
 1.124 -1.389 4.223
 1.158 -1.399 4.248
 1.181 -1.396 4.23
 1.208 -1.397 4.227
 1.239 -1.403 4.239
 1.271 -1.409 4.251
 1.293 -1.406 4.233
 1.335 -1.422 4.276
 1.353 -1.414 4.243
 1.379 -1.414 4.236
 1.411 -1.42 4.245
 1.438 -1.421 4.24
 1.472 -1.429 4.256
 1.497 -1.427 4.242
 1.526 -1.43 4.241
 1.56 -1.437 4.254
 1.571 -1.423 4.203
 1.612 -1.436 4.233
 1.633 -1.431 4.209
 1.663 -1.435 4.21
 1.686 -1.432 4.192
 1.727 -1.444 4.217
 1.755 -1.445 4.211
 1.779 -1.443 4.194
 1.813 -1.449 4.201
 1.84 -1.449 4.191
 1.866 -1.449 4.18
 1.886 -1.444 4.155
 0 0 0
 0 0 0
 0 0 0
 0 0 0
 0 0 0
 0 0 0
 0 0 0
 0 0 0
 0 0 0
 0 0 0
 0 0 0
 0 0 0
 0 0 0
 0 0 0
 0 0 0
 1.835 -1.148 3.139
 1.875 -1.16 3.16
 1.865 -1.141 3.097
 -2.521 -1.528 4.349
 -2.494 -1.529 4.367
 -2.463 -1.529 4.379
 -2.414 -1.516 4.357
 -2.381 -1.514 4.365
 -2.362 -1.521 4.397
 -2.297 -1.497 4.343
 -2.269 -1.498 4.356
 -2.221 -1.484 4.331
 -2.177 -1.475 4.314
 -2.158 -1.481 4.344
 -2.133 -1.483 4.363
 -2.097 -1.478 4.359
 -2.058 -1.471 4.35
 -2.022 -1.465 4.344
 -1.999 -1.469 4.366
 -1.943 -1.448 4.315
 -1.916 -1.449 4.327
 -1.88 -1.442 4.318
 -1.849 -1.44 4.32
 -1.825 -1.443 4.34
 -1.812 -1.455 4.385
 -1.76 -1.435 4.335
 -1.729 -1.432 4.335
 -1.694 -1.426 4.326
 -1.678 -1.435 4.363
 -1.641 -1.428 4.348
 -1.613 -1.427 4.354
 -1.568 -1.411 4.314
 -1.553 -1.422 4.354
 -1.514 -1.411 4.331
 -1.484 -1.408 4.329
 -1.462 -1.413 4.352
 -1.426 -1.405 4.332
 -1.388 -1.393 4.303
 -1.369 -1.401 4.336
 -1.335 -1.393 4.318
 -1.304 -1.389 4.31
 -1.262 -1.372 4.264
 -1.253 -1.391 4.331
 -1.222 -1.386 4.321
 -1.186 -1.375 4.293
 -1.156 -1.371 4.286
 -1.124 -1.364 4.268
 -1.106 -1.374 4.305
 -1.085 -1.381 4.333
 -1.056 -1.377 4.324
 -1.021 -1.366 4.295
 -0.992 -1.361 4.286
 -0.98 -1.381 4.353
 -0.944 -1.368 4.316
 0 0 0
 0 0 0
 0 0 0
 0 0 0
 0 0 0
 0 0 0
 0 0 0
 0 0 0
 0 0 0
 0 0 0
 0 0 0
 0 0 0
 0 0 0
 0 0 0
 0 0 0
 0 0 0
 0 0 0
 0 0 0
 0 0 0
 0 0 0
 0 0 0
 0 0 0
 0 0 0
 0 0 0
 -0.287 -1.341 4.296
 -0.262 -1.342 4.298
 -0.236 -1.34 4.293
 -0.211 -1.346 4.314
 -0.184 -1.333 4.273
 -0.159 -1.336 4.281
 -0.134 -1.338 4.289
 -0.108 -1.332 4.269
 -0.083 -1.335 4.28
 -0.058 -1.337 4.285
 -0.032 -1.342 4.302
 -0.007 -1.332 4.269
 0 0 0
 0 0 0
 0 0 0
 0 0 0
 0 0 0
 0 0 0
 0 0 0
 0 0 0
 0 0 0
 0 0 0
 0 0 0
 0 0 0
 0 0 0
 0 0 0
 0 0 0
 0 0 0
 0 0 0
 0 0 0
 0 0 0
 0 0 0
 0 0 0
 0 0 0
 0 0 0
 0 0 0
 0 0 0
 0 0 0
 0 0 0
 0 0 0
 0 0 0
 0 0 0
 0 0 0
 0 0 0
 0 0 0
 0 0 0
 0 0 0
 0 0 0
 0 0 0
 0 0 0
 0 0 0
 1.023 -1.365 4.258
 1.05 -1.367 4.259
 1.074 -1.364 4.244
 1.096 -1.36 4.226
 1.133 -1.374 4.263
 1.155 -1.37 4.244
 1.186 -1.375 4.255
 1.211 -1.375 4.246
 1.241 -1.379 4.251
 1.268 -1.381 4.251
 1.292 -1.379 4.237
 1.318 -1.378 4.229
 1.342 -1.376 4.215
 1.378 -1.387 4.24
 1.413 -1.395 4.258
 1.437 -1.393 4.243
 1.465 -1.395 4.24
 1.488 -1.393 4.225
 1.524 -1.401 4.243
 1.549 -1.401 4.232
 1.58 -1.405 4.235
 1.609 -1.407 4.233
 1.644 -1.414 4.246
 1.665 -1.409 4.222
 1.687 -1.406 4.201
 1.721 -1.412 4.211
 1.754 -1.418 4.217
 1.777 -1.415 4.198
 1.806 -1.416 4.192
 1.842 -1.424 4.204
 1.863 -1.42 4.18
 0 0 0
 0 0 0
 0 0 0
 0 0 0
 0 0 0
 0 0 0
 0 0 0
 0 0 0
 0 0 0
 0 0 0
 0 0 0
 0 0 0
 0 0 0
 0 0 0
 0 0 0
 0 0 0
 1.831 -1.124 3.138
 1.845 -1.12 3.116
 1.882 -1.13 3.131
 -2.516 -1.496 4.35
 -2.492 -1.499 4.372
 -2.476 -1.507 4.411
 -2.427 -1.495 4.391
 -2.386 -1.488 4.382
 -2.337 -1.475 4.359
 -2.305 -1.473 4.365
 -2.264 -1.466 4.356
 -2.23 -1.463 4.359
 -2.188 -1.453 4.344
 -2.148 -1.446 4.333
 -2.129 -1.452 4.363
 -2.086 -1.442 4.345
 -2.054 -1.439 4.348
 -2.019 -1.435 4.346
 -1.992 -1.436 4.36
 -1.96 -1.433 4.362
 -1.911 -1.417 4.323
 -1.878 -1.413 4.322
 -1.853 -1.416 4.34
 -1.817 -1.409 4.329
 -1.795 -1.413 4.352
 -1.755 -1.404 4.331
 -1.73 -1.406 4.347
 -1.691 -1.396 4.327
 -1.664 -1.396 4.335
 -1.639 -1.399 4.351
 -1.592 -1.381 4.305
 -1.567 -1.383 4.318
 -1.539 -1.383 4.325
 -1.505 -1.376 4.311
 -1.472 -1.37 4.301
 -1.449 -1.374 4.321
 -1.427 -1.378 4.342
 -1.389 -1.368 4.315
 -1.361 -1.367 4.319
 -1.337 -1.369 4.333
 0 0 0
 0 0 0
 0 0 0
 0 0 0
 0 0 0
 0 0 0
 0 0 0
 0 0 0
 0 0 0
 0 0 0
 0 0 0
 0 0 0
 0 0 0
 0 0 0
 0 0 0
 0 0 0
 0 0 0
 0 0 0
 0 0 0
 0 0 0
 0 0 0
 0 0 0
 0 0 0
 0 0 0
 0 0 0
 0 0 0
 0 0 0
 0 0 0
 0 0 0
 0 0 0
 0 0 0
 0 0 0
 0 0 0
 0 0 0
 0 0 0
 0 0 0
 0 0 0
 0 0 0
 -0.286 -1.313 4.293
 -0.261 -1.314 4.296
 -0.235 -1.311 4.287
 -0.21 -1.312 4.293
 -0.184 -1.311 4.29
 -0.16 -1.318 4.313
 -0.133 -1.307 4.276
 -0.108 -1.31 4.287
 -0.083 -1.31 4.287
 -0.057 -1.299 4.251
 -0.032 -1.314 4.299
 -0.007 -1.292 4.227
 0 0 0
 0 0 0
 0 0 0
 0 0 0
 0 0 0
 0 0 0
 0 0 0
 0 0 0
 0 0 0
 0 0 0
 0 0 0
 0 0 0
 0 0 0
 0 0 0
 0 0 0
 0 0 0
 0 0 0
 0 0 0
 0 0 0
 0 0 0
 0 0 0
 0 0 0
 0 0 0
 0 0 0
 0 0 0
 0 0 0
 0 0 0
 0 0 0
 0 0 0
 0 0 0
 0 0 0
 0 0 0
 0 0 0
 0 0 0
 0 0 0
 0 0 0
 0 0 0
 0 0 0
 0 0 0
 1.028 -1.345 4.286
 1.042 -1.33 4.231
 1.076 -1.34 4.259
 1.101 -1.341 4.253
 1.127 -1.34 4.246
 1.154 -1.342 4.244
 1.182 -1.345 4.247
 1.201 -1.338 4.218
 1.23 -1.341 4.223
 1.265 -1.351 4.248
 1.297 -1.357 4.26
 1.319 -1.354 4.24
 1.358 -1.367 4.275
 1.378 -1.36 4.247
 1.395 -1.351 4.21
 1.431 -1.361 4.233
 1.458 -1.362 4.228
 1.494 -1.372 4.249
 1.519 -1.37 4.236
 1.548 -1.373 4.235
 1.579 -1.377 4.24
 1.599 -1.371 4.212
 1.632 -1.377 4.221
 1.655 -1.375 4.205
 1.698 -1.388 4.237
 1.727 -1.391 4.234
 1.738 -1.378 4.184
 1.78 -1.39 4.212
 1.815 -1.397 4.221
 1.828 -1.386 4.179
 0 0 0
 0 0 0
 0 0 0
 0 0 0
 0 0 0
 0 0 0
 0 0 0
 0 0 0
 0 0 0
 0 0 0
 0 0 0
 0 0 0
 0 0 0
 0 0 0
 0 0 0
 0 0 0
 0 0 0
 1.834 -1.105 3.15
 1.859 -1.107 3.145
 1.89 -1.113 3.151
 -2.523 -1.47 4.371
 -2.505 -1.477 4.406
 -2.442 -1.458 4.361
 -2.392 -1.445 4.335
 -2.394 -1.464 4.406
 -2.322 -1.437 4.339
 -2.284 -1.432 4.335
 -2.267 -1.439 4.371
 -2.229 -1.433 4.364
 -2.187 -1.425 4.351
 -2.158 -1.424 4.362
 -2.111 -1.412 4.336
 -2.082 -1.411 4.346
 -2.056 -1.413 4.361
 -2.021 -1.408 4.359
 -1.986 -1.404 4.355
 -1.942 -1.392 4.33
 -1.912 -1.391 4.335
 -1.885 -1.391 4.347
 -1.863 -1.395 4.369
 -1.822 -1.385 4.348
 -1.781 -1.375 4.326
 -1.76 -1.381 4.352
 -1.725 -1.374 4.342
 -1.693 -1.37 4.338
 -1.657 -1.363 4.325
