 0.606 -1.561 4.241
 0.632 -1.562 4.241
 0.658 -1.562 4.237
 0.683 -1.563 4.236
 0.71 -1.565 4.236
 0.735 -1.564 4.231
 0.761 -1.565 4.228
 0.787 -1.566 4.227
 0.814 -1.567 4.226
 0.839 -1.567 4.221
 0.866 -1.57 4.223
 0.893 -1.572 4.225
 0.92 -1.574 4.224
 0.946 -1.575 4.222
 0.973 -1.576 4.221
 1 -1.578 4.219
 1.026 -1.578 4.214
 1.052 -1.58 4.212
 1.079 -1.581 4.209
 1.107 -1.584 4.213
 1.135 -1.586 4.211
 1.162 -1.588 4.21
 1.19 -1.591 4.21
 1.217 -1.593 4.208
 1.243 -1.593 4.202
 1.271 -1.594 4.199
 1.297 -1.595 4.192
 1.324 -1.596 4.189
 1.351 -1.598 4.185
 1.378 -1.599 4.179
 1.405 -1.6 4.174
 1.434 -1.602 4.173
 1.46 -1.602 4.165
 1.487 -1.604 4.16
 1.515 -1.605 4.155
 1.541 -1.606 4.147
 1.568 -1.607 4.14
 1.596 -1.608 4.134
 1.623 -1.609 4.127
 1.65 -1.61 4.121
 1.677 -1.611 4.113
 1.704 -1.611 4.104
 1.731 -1.612 4.095
 1.756 -1.611 4.083
 1.781 -1.609 4.069
 1.805 -1.608 4.054
 1.827 -1.604 4.033
 1.846 -1.598 4.007
 1.862 -1.59 3.975
 1.873 -1.577 3.933
 1.881 -1.563 3.886
 1.886 -1.546 3.833
 1.891 -1.53 3.781
 1.897 -1.514 3.731
 1.902 -1.499 3.682
 1.913 -1.489 3.645
 1.926 -1.48 3.612
 0 0 0
 0 0 0
 0 0 0
 1.803 -1.32 3.177
 1.824 -1.32 3.166
 1.836 -1.314 3.14
 1.845 -1.305 3.106
 1.861 -1.301 3.088
 1.855 -1.282 3.03
 -2.348 -1.613 3.984
 -2.336 -1.624 4.024
 -2.291 -1.612 4.007
 -2.262 -1.611 4.017
 -2.238 -1.613 4.035
 -2.211 -1.614 4.05
 -2.184 -1.614 4.063
 -2.155 -1.613 4.073
 -2.128 -1.613 4.085
 -2.101 -1.613 4.098
 -2.073 -1.613 4.109
 -2.046 -1.613 4.121
 -2.019 -1.613 4.132
 -1.99 -1.612 4.14
 -1.96 -1.61 4.146
 -1.933 -1.61 4.158
 -1.905 -1.609 4.165
 -1.875 -1.607 4.17
 -1.848 -1.608 4.183
 -1.82 -1.606 4.189
 -1.79 -1.604 4.194
 -1.762 -1.603 4.2
 -1.735 -1.603 4.21
 -1.706 -1.601 4.215
 -1.677 -1.599 4.218
 -1.648 -1.598 4.223
 -1.619 -1.596 4.226
 -1.59 -1.594 4.231
 -1.56 -1.591 4.231
 -1.532 -1.589 4.235
 -1.504 -1.588 4.24
 -1.476 -1.587 4.245
 -1.448 -1.586 4.25
 -1.42 -1.585 4.254
 -1.392 -1.583 4.258
 -1.363 -1.58 4.256
 -1.334 -1.578 4.256
 -1.305 -1.575 4.256
 -1.278 -1.574 4.26
 -1.25 -1.572 4.261
 -1.223 -1.572 4.266
 -1.196 -1.571 4.269
 -1.168 -1.57 4.273
 -1.14 -1.567 4.272
 -1.113 -1.567 4.276
 -1.086 -1.565 4.276
 -1.058 -1.563 4.275
 -1.03 -1.56 4.273
 -1.003 -1.559 4.276
 -0.975 -1.557 4.275
 -0.948 -1.555 4.274
 -0.921 -1.554 4.275
 -0.895 -1.553 4.278
 -0.867 -1.551 4.277
 -0.84 -1.55 4.277
 -0.814 -1.549 4.277
 -0.786 -1.546 4.275
 -0.759 -1.544 4.272
 -0.733 -1.543 4.272
 -0.706 -1.542 4.272
 -0.68 -1.541 4.272
 -0.654 -1.54 4.274
 -0.628 -1.54 4.275
 -0.601 -1.539 4.275
 -0.575 -1.538 4.275
 -0.55 -1.538 4.279
 -0.524 -1.538 4.28
 -0.497 -1.537 4.279
 -0.471 -1.535 4.278
 -0.445 -1.534 4.277
 -0.419 -1.533 4.275
 -0.393 -1.532 4.273
 -0.367 -1.531 4.272
 -0.341 -1.53 4.272
 -0.316 -1.53 4.271
 -0.29 -1.528 4.269
 -0.264 -1.529 4.273
 -0.239 -1.53 4.275
 -0.213 -1.529 4.274
 -0.187 -1.529 4.274
 -0.162 -1.529 4.275
 -0.136 -1.527 4.269
 -0.11 -1.526 4.267
 -0.085 -1.526 4.267
 -0.059 -1.526 4.267
 -0.034 -1.525 4.265
 -0.008 -1.527 4.269
 0.016 -1.527 4.269
 0.042 -1.527 4.269
 0.067 -1.526 4.266
 0.093 -1.525 4.262
 0.118 -1.524 4.258
 0.144 -1.524 4.257
 0.169 -1.524 4.255
 0.195 -1.524 4.255
 0.22 -1.526 4.259
 0.246 -1.527 4.26
 0.272 -1.527 4.258
 0.297 -1.528 4.259
 0.323 -1.529 4.26
 0.349 -1.529 4.259
 0.374 -1.529 4.256
 0.4 -1.529 4.254
 0.425 -1.529 4.253
 0.451 -1.53 4.251
 0.476 -1.53 4.249
 0.502 -1.531 4.249
 0.528 -1.532 4.25
 0.554 -1.534 4.251
 0.58 -1.535 4.251
 0.606 -1.536 4.252
 0.632 -1.537 4.25
 0.658 -1.538 4.248
 0.684 -1.538 4.246
 0.71 -1.54 4.246
 0.736 -1.54 4.242
 0.762 -1.541 4.24
 0.788 -1.542 4.239
 0.815 -1.543 4.239
 0.841 -1.544 4.236
 0.867 -1.546 4.237
 0.894 -1.548 4.237
 0.921 -1.55 4.237
 0.948 -1.551 4.236
 0.975 -1.553 4.235
 1.001 -1.554 4.234
 1.028 -1.555 4.231
 1.055 -1.557 4.229
 1.082 -1.559 4.228
 1.11 -1.561 4.229
 1.137 -1.563 4.228
 1.165 -1.566 4.23
 1.193 -1.569 4.23
 1.22 -1.57 4.227
 1.247 -1.571 4.222
 1.275 -1.573 4.22
 1.301 -1.573 4.213
 1.329 -1.575 4.211
 1.357 -1.578 4.211
 1.385 -1.58 4.208
 1.412 -1.581 4.203
 1.441 -1.584 4.202
 1.467 -1.584 4.195
 1.494 -1.585 4.187
 1.522 -1.587 4.184
 1.55 -1.588 4.179
 1.578 -1.59 4.175
 1.606 -1.592 4.17
 1.634 -1.593 4.165
 1.662 -1.595 4.159
 1.689 -1.596 4.152
 1.717 -1.596 4.144
 1.744 -1.597 4.135
 1.769 -1.596 4.122
 1.793 -1.594 4.107
 1.817 -1.592 4.091
 1.837 -1.586 4.065
 1.855 -1.579 4.036
 1.871 -1.571 4.003
 1.881 -1.558 3.959
 1.89 -1.544 3.913
 1.897 -1.529 3.863
 1.903 -1.514 3.814
 1.91 -1.5 3.766
 1.918 -1.487 3.722
 1.933 -1.48 3.692
 0 0 0
 0 0 0
 0 0 0
 0 0 0
 1.804 -1.299 3.187
 1.825 -1.299 3.176
 1.837 -1.292 3.147
 1.845 -1.283 3.114
 1.846 -1.269 3.069
 1.83 -1.244 2.997
 -2.392 -1.616 4.069
 0 0 0
 -2.328 -1.61 4.082
 -2.297 -1.608 4.089
 -2.271 -1.609 4.105
 -2.241 -1.608 4.115
 -2.213 -1.608 4.128
 -2.184 -1.607 4.137
 -2.158 -1.608 4.152
 -2.129 -1.607 4.162
 -2.1 -1.606 4.172
 -2.071 -1.605 4.181
 -2.043 -1.605 4.191
 -2.011 -1.602 4.195
 -1.982 -1.6 4.202
 -1.954 -1.6 4.212
 -1.924 -1.598 4.218
 -1.894 -1.596 4.222
 -1.866 -1.596 4.233
 -1.836 -1.593 4.236
 -1.806 -1.591 4.241
 -1.777 -1.589 4.245
 -1.748 -1.588 4.252
 -1.718 -1.586 4.255
 -1.689 -1.584 4.259
 -1.658 -1.58 4.258
 -1.628 -1.578 4.26
 -1.599 -1.576 4.263
 -1.569 -1.573 4.265
 -1.54 -1.571 4.267
 -1.512 -1.57 4.273
 -1.484 -1.569 4.277
 -1.456 -1.568 4.282
 -1.427 -1.565 4.282
 -1.398 -1.563 4.283
 -1.368 -1.559 4.281
 -1.339 -1.557 4.281
 -1.309 -1.553 4.277
 -1.281 -1.552 4.281
 -1.253 -1.55 4.28
 -1.225 -1.549 4.284
 -1.197 -1.547 4.284
 -1.17 -1.545 4.286
 -1.141 -1.542 4.284
 -1.114 -1.542 4.288
 -1.087 -1.54 4.289
 -1.059 -1.538 4.288
 -1.03 -1.535 4.285
 -1.003 -1.534 4.287
 -0.976 -1.532 4.286
 -0.948 -1.53 4.285
 -0.922 -1.529 4.287
 -0.895 -1.528 4.29
 -0.868 -1.527 4.289
 -0.841 -1.525 4.289
 -0.814 -1.523 4.287
 -0.786 -1.521 4.284
 -0.759 -1.519 4.282
 -0.733 -1.518 4.282
 -0.707 -1.517 4.283
 -0.68 -1.516 4.283
 -0.654 -1.516 4.286
 -0.628 -1.515 4.288
 -0.602 -1.514 4.286
 -0.575 -1.512 4.283
 -0.549 -1.512 4.286
 -0.523 -1.511 4.284
 -0.497 -1.51 4.284
 -0.471 -1.509 4.284
 -0.445 -1.508 4.282
 -0.419 -1.507 4.281
 -0.393 -1.506 4.281
 -0.367 -1.505 4.279
 -0.341 -1.504 4.279
 -0.315 -1.504 4.279
 -0.289 -1.503 4.277
 -0.264 -1.503 4.278
 -0.238 -1.502 4.278
 -0.212 -1.501 4.276
 -0.187 -1.501 4.275
 -0.161 -1.502 4.279
 -0.136 -1.5 4.274
 -0.11 -1.5 4.274
 -0.085 -1.5 4.274
 -0.059 -1.5 4.273
 -0.033 -1.499 4.27
 -0.008 -1.5 4.274
 0.017 -1.5 4.273
 0.042 -1.501 4.275
 0.068 -1.501 4.274
 0.093 -1.5 4.271
 0.119 -1.499 4.268
 0.144 -1.499 4.265
 0.169 -1.498 4.263
 0.195 -1.499 4.263
 0.221 -1.5 4.266
 0.246 -1.501 4.268
 0.272 -1.502 4.267
 0.297 -1.502 4.266
 0.323 -1.502 4.265
 0.348 -1.502 4.263
 0.374 -1.502 4.26
 0.399 -1.502 4.259
 0.425 -1.503 4.258
 0.451 -1.503 4.257
 0.477 -1.504 4.257
 0.502 -1.506 4.258
 0.528 -1.507 4.258
 0.554 -1.508 4.258
 0.58 -1.509 4.258
 0.606 -1.51 4.257
 0.632 -1.511 4.256
 0.658 -1.511 4.254
 0.684 -1.512 4.253
 0.71 -1.514 4.253
 0.736 -1.514 4.249
 0.762 -1.514 4.246
 0.788 -1.516 4.246
 0.815 -1.518 4.247
 0.841 -1.519 4.246
 0.868 -1.521 4.248
 0.895 -1.523 4.249
 0.922 -1.525 4.249
 0.949 -1.526 4.247
 0.976 -1.528 4.247
 1.002 -1.529 4.245
 1.029 -1.53 4.242
 1.056 -1.532 4.241
 1.083 -1.534 4.24
 1.11 -1.536 4.239
 1.138 -1.538 4.238
 1.166 -1.54 4.239
 1.193 -1.542 4.237
 1.22 -1.544 4.235
 1.247 -1.545 4.231
 1.275 -1.547 4.231
 1.303 -1.549 4.228
 1.331 -1.552 4.227
 1.36 -1.554 4.227
 1.388 -1.556 4.224
 1.415 -1.557 4.218
 1.443 -1.559 4.216
 1.47 -1.56 4.21
 1.497 -1.561 4.204
 1.526 -1.564 4.203
 1.555 -1.566 4.201
 1.584 -1.568 4.197
 1.612 -1.571 4.194
 1.641 -1.573 4.19
 1.669 -1.574 4.185
 1.697 -1.575 4.178
 1.725 -1.577 4.172
 1.752 -1.577 4.163
 1.778 -1.577 4.151
 1.803 -1.576 4.137
 1.826 -1.573 4.119
 1.844 -1.566 4.089
 1.859 -1.557 4.055
 1.874 -1.547 4.019
 1.885 -1.535 3.975
 1.895 -1.522 3.931
 1.903 -1.508 3.883
 1.911 -1.495 3.838
 1.92 -1.483 3.795
 1.926 -1.468 3.745
 0 0 0
 0 0 0
 0 0 0
 0 0 0
 0 0 0
 1.803 -1.277 3.193
 1.824 -1.277 3.181
 1.836 -1.27 3.154
 1.844 -1.261 3.119
 1.865 -1.261 3.108
 1.844 -1.233 3.027
 -2.404 -1.596 4.1
 -2.364 -1.588 4.093
 -2.366 -1.609 4.159
 -2.333 -1.606 4.165
 -2.305 -1.605 4.177
 -2.272 -1.602 4.181
 -2.242 -1.601 4.19
 -2.209 -1.597 4.194
 -2.183 -1.599 4.21
 -2.152 -1.597 4.218
 -2.123 -1.596 4.227
 -2.093 -1.594 4.235
 -2.065 -1.594 4.246
 -2.031 -1.59 4.246
 -2.001 -1.588 4.252
 -1.971 -1.587 4.26
 -1.94 -1.584 4.263
 -1.909 -1.581 4.266
 -1.88 -1.58 4.273
 -1.848 -1.577 4.275
 -1.818 -1.574 4.278
 -1.787 -1.572 4.281
 -1.757 -1.569 4.283
 -1.726 -1.566 4.283
 -1.695 -1.563 4.285
 -1.664 -1.559 4.283
 -1.634 -1.557 4.285
 -1.605 -1.555 4.289
 -1.576 -1.553 4.293
 -1.547 -1.551 4.296
 -1.519 -1.55 4.301
 -1.489 -1.548 4.302
 -1.46 -1.546 4.303
 -1.43 -1.542 4.301
 -1.4 -1.539 4.3
 -1.37 -1.535 4.295
 -1.341 -1.533 4.296
 -1.311 -1.53 4.294
 -1.283 -1.528 4.295
 -1.254 -1.525 4.294
 -1.227 -1.524 4.298
 -1.198 -1.521 4.296
 -1.17 -1.519 4.296
 -1.141 -1.516 4.294
 -1.114 -1.515 4.296
 -1.086 -1.514 4.296
 -1.059 -1.512 4.296
 -1.03 -1.509 4.294
 -1.003 -1.508 4.295
 -0.976 -1.506 4.294
 -0.948 -1.504 4.292
 -0.921 -1.502 4.293
 -0.895 -1.502 4.298
 -0.868 -1.5 4.296
 -0.841 -1.499 4.295
 -0.813 -1.497 4.293
 -0.786 -1.495 4.291
 -0.759 -1.492 4.287
 -0.733 -1.491 4.288
 -0.706 -1.491 4.29
 -0.68 -1.49 4.29
 -0.654 -1.489 4.292
 -0.628 -1.489 4.293
 -0.601 -1.486 4.289
 -0.574 -1.484 4.286
 -0.548 -1.484 4.286
 -0.522 -1.483 4.286
 -0.496 -1.482 4.285
 -0.47 -1.481 4.287
 -0.444 -1.48 4.286
 -0.418 -1.48 4.285
 -0.392 -1.478 4.282
 -0.366 -1.477 4.281
 -0.34 -1.476 4.28
 -0.315 -1.477 4.282
 -0.289 -1.475 4.279
 -0.263 -1.475 4.28
 -0.238 -1.474 4.279
 -0.212 -1.474 4.278
 -0.186 -1.473 4.276
 -0.161 -1.474 4.28
 -0.135 -1.473 4.277
 -0.11 -1.473 4.278
 -0.084 -1.473 4.276
 -0.059 -1.472 4.275
 -0.033 -1.472 4.273
 -0.008 -1.473 4.275
 0.017 -1.473 4.276
 0.042 -1.474 4.278
 0.068 -1.474 4.278
 0.093 -1.473 4.276
 0.119 -1.473 4.274
 0.144 -1.473 4.272
 0.17 -1.472 4.27
 0.195 -1.473 4.269
 0.221 -1.474 4.271
 0.246 -1.474 4.271
 0.272 -1.475 4.27
 0.297 -1.475 4.269
 0.323 -1.476 4.27
 0.348 -1.476 4.268
 0.374 -1.476 4.265
 0.399 -1.476 4.264
 0.425 -1.477 4.265
 0.451 -1.477 4.262
 0.476 -1.478 4.262
 0.503 -1.48 4.264
 0.528 -1.481 4.264
 0.554 -1.481 4.264
 0.58 -1.483 4.264
 0.606 -1.483 4.262
 0.632 -1.484 4.261
 0.658 -1.484 4.258
 0.683 -1.485 4.256
 0.71 -1.486 4.257
 0.736 -1.487 4.254
 0.761 -1.487 4.251
 0.788 -1.489 4.252
 0.815 -1.491 4.254
 0.841 -1.492 4.252
 0.868 -1.495 4.254
 0.895 -1.497 4.256
 0.922 -1.498 4.255
 0.948 -1.499 4.253
 0.975 -1.501 4.251
 1.001 -1.502 4.248
 1.028 -1.502 4.245
 1.055 -1.504 4.243
 1.081 -1.505 4.241
 1.109 -1.507 4.241
 1.136 -1.509 4.24
 1.164 -1.512 4.241
 1.192 -1.514 4.241
 1.219 -1.516 4.239
 1.247 -1.518 4.236
 1.275 -1.521 4.238
 1.303 -1.522 4.235
 1.331 -1.525 4.234
 1.36 -1.528 4.235
 1.388 -1.53 4.232
 1.415 -1.531 4.228
 1.444 -1.533 4.226
 1.472 -1.535 4.223
 1.499 -1.537 4.218
 1.528 -1.539 4.216
 1.557 -1.541 4.214
 1.585 -1.543 4.211
 1.614 -1.546 4.208
 1.644 -1.549 4.207
 1.673 -1.551 4.203
 1.701 -1.553 4.198
 1.73 -1.555 4.192
 1.757 -1.555 4.183
 1.783 -1.555 4.173
 1.808 -1.553 4.157
 1.83 -1.549 4.136
 1.848 -1.542 4.106
 1.864 -1.533 4.072
 1.878 -1.524 4.036
 1.89 -1.512 3.994
 1.9 -1.5 3.95
 1.906 -1.485 3.9
 1.919 -1.476 3.863
 1.925 -1.461 3.812
 0 0 0
 0 0 0
 0 0 0
 0 0 0
 0 0 0
 0 0 0
 1.807 -1.258 3.206
 1.828 -1.258 3.195
 1.838 -1.25 3.165
 1.845 -1.24 3.128
 1.841 -1.224 3.075
 1.842 -1.21 3.031
 -2.473 -1.613 4.227
 -2.41 -1.591 4.182
 -2.399 -1.603 4.227
 -2.363 -1.597 4.227
 -2.331 -1.596 4.235
 -2.296 -1.591 4.235
 -2.264 -1.589 4.243
 -2.23 -1.584 4.244
 -2.203 -1.585 4.259
 -2.17 -1.582 4.262
 -2.14 -1.581 4.271
 -2.108 -1.578 4.276
 -2.078 -1.577 4.284
 -2.044 -1.572 4.282
 -2.013 -1.57 4.288
 -1.982 -1.567 4.292
 -1.95 -1.564 4.294
 -1.919 -1.562 4.298
 -1.889 -1.559 4.302
 -1.856 -1.556 4.302
 -1.825 -1.553 4.304
 -1.794 -1.55 4.306
 -1.762 -1.546 4.305
 -1.731 -1.543 4.306
 -1.701 -1.541 4.307
 -1.669 -1.537 4.306
 -1.638 -1.533 4.305
 -1.609 -1.532 4.309
 -1.58 -1.53 4.312
 -1.55 -1.527 4.312
 -1.52 -1.524 4.313
 -1.49 -1.522 4.313
 -1.46 -1.519 4.313
 -1.43 -1.515 4.31
 -1.4 -1.512 4.308
 -1.37 -1.508 4.304
 -1.341 -1.506 4.304
 -1.311 -1.503 4.302
 -1.282 -1.5 4.301
 -1.254 -1.499 4.303
 -1.227 -1.497 4.305
 -1.198 -1.495 4.305
 -1.169 -1.492 4.303
 -1.141 -1.49 4.3
 -1.113 -1.487 4.3
 -1.085 -1.486 4.3
 -1.057 -1.484 4.3
 -1.029 -1.481 4.298
 -1.003 -1.481 4.3
 -0.975 -1.479 4.299
 -0.947 -1.477 4.298
 -0.921 -1.475 4.299
 -0.894 -1.476 4.304
 -0.867 -1.474 4.303
 -0.84 -1.472 4.301
 -0.813 -1.47 4.299
 -0.786 -1.468 4.297
 -0.758 -1.465 4.292
 -0.731 -1.463 4.29
 -0.705 -1.463 4.293
 -0.679 -1.462 4.292
 -0.653 -1.461 4.293
 -0.627 -1.46 4.294
 -0.6 -1.459 4.292
 -0.573 -1.456 4.287
 -0.547 -1.456 4.288
 -0.521 -1.455 4.287
 -0.495 -1.453 4.285
 -0.469 -1.453 4.286
 -0.443 -1.452 4.286
 -0.417 -1.452 4.286
 -0.392 -1.451 4.285
 -0.366 -1.45 4.284
 -0.34 -1.45 4.284
 -0.315 -1.45 4.286
 -0.289 -1.448 4.283
 -0.263 -1.448 4.283
 -0.237 -1.448 4.282
 -0.212 -1.447 4.281
 -0.186 -1.446 4.278
 -0.161 -1.447 4.282
 -0.135 -1.446 4.28
 -0.11 -1.446 4.281
 -0.084 -1.446 4.28
 -0.059 -1.446 4.28
 -0.033 -1.445 4.277
 -0.008 -1.446 4.28
 0.017 -1.446 4.28
 0.042 -1.446 4.28
 0.068 -1.446 4.279
 0.093 -1.446 4.279
 0.119 -1.445 4.274
 0.144 -1.445 4.273
 0.169 -1.445 4.272
 0.195 -1.446 4.273
 0.221 -1.447 4.274
 0.246 -1.448 4.275
 0.272 -1.448 4.276
 0.297 -1.448 4.273
 0.323 -1.449 4.273
 0.348 -1.449 4.27
 0.374 -1.448 4.268
 0.399 -1.448 4.264
 0.425 -1.449 4.265
 0.45 -1.449 4.262
 0.476 -1.45 4.264
 0.502 -1.452 4.267
 0.528 -1.454 4.269
 0.554 -1.455 4.269
 0.58 -1.456 4.27
 0.606 -1.457 4.267
 0.631 -1.456 4.263
 0.657 -1.457 4.261
 0.683 -1.457 4.258
 0.709 -1.459 4.259
 0.735 -1.46 4.259
 0.761 -1.461 4.257
 0.788 -1.462 4.256
 0.815 -1.465 4.259
 0.841 -1.466 4.257
 0.867 -1.467 4.258
 0.894 -1.469 4.258
 0.921 -1.471 4.258
 0.947 -1.472 4.255
 0.974 -1.474 4.255
 1.001 -1.475 4.253
 1.027 -1.476 4.25
 1.054 -1.477 4.248
 1.081 -1.478 4.246
 1.108 -1.48 4.246
 1.136 -1.482 4.245
 1.164 -1.485 4.246
 1.191 -1.487 4.245
 1.219 -1.489 4.244
 1.246 -1.491 4.242
 1.274 -1.493 4.242
 1.302 -1.495 4.241
 1.33 -1.498 4.24
 1.359 -1.5 4.241
 1.388 -1.503 4.24
 1.415 -1.504 4.236
 1.444 -1.507 4.235
 1.472 -1.509 4.233
 1.5 -1.51 4.228
 1.528 -1.512 4.224
 1.556 -1.514 4.221
 1.585 -1.516 4.217
 1.614 -1.519 4.215
 1.644 -1.522 4.214
 1.673 -1.524 4.211
 1.702 -1.526 4.207
 1.73 -1.528 4.202
 1.758 -1.529 4.193
 1.785 -1.529 4.185
 1.811 -1.528 4.172
 1.834 -1.526 4.153
 1.853 -1.52 4.127
 1.87 -1.512 4.095
 1.886 -1.504 4.062
 1.897 -1.492 4.018
 1.91 -1.482 3.979
 1.923 -1.472 3.941
 1.942 -1.467 3.917
 0 0 0
 0 0 0
 0 0 0
 0 0 0
 0 0 0
 0 0 0
 0 0 0
 1.797 -1.229 3.197
 1.823 -1.233 3.194
 1.837 -1.227 3.169
 1.844 -1.218 3.135
 1.874 -1.224 3.138
 1.839 -1.188 3.033
 -2.505 -1.605 4.293
 -2.453 -1.591 4.267
 -2.422 -1.589 4.277
 -2.384 -1.583 4.275
 -2.352 -1.581 4.283
 -2.314 -1.575 4.279
 -2.282 -1.573 4.286
 -2.247 -1.568 4.286
 -2.218 -1.568 4.298
 -2.184 -1.564 4.3
 -2.152 -1.561 4.304
 -2.118 -1.557 4.305
 -2.086 -1.555 4.31
 -2.051 -1.549 4.306
 -2.019 -1.547 4.31
 -1.988 -1.544 4.313
 -1.954 -1.54 4.313
 -1.923 -1.537 4.315
 -1.892 -1.535 4.32
 -1.859 -1.531 4.318
 -1.828 -1.527 4.319
 -1.796 -1.524 4.319
 -1.763 -1.52 4.317
 -1.731 -1.516 4.315
 -1.7 -1.513 4.315
 -1.669 -1.509 4.314
 -1.638 -1.506 4.314
 -1.609 -1.504 4.316
 -1.578 -1.501 4.316
 -1.548 -1.499 4.317
 -1.518 -1.496 4.317
 -1.488 -1.493 4.316
 -1.459 -1.49 4.316
 -1.429 -1.487 4.315
 -1.399 -1.484 4.313
 -1.368 -1.48 4.308
 -1.339 -1.477 4.307
 -1.31 -1.475 4.306
 -1.281 -1.472 4.306
 -1.253 -1.471 4.307
 -1.226 -1.47 4.311
 -1.198 -1.468 4.311
 -1.169 -1.465 4.308
 -1.14 -1.463 4.307
 -1.112 -1.461 4.306
 -1.085 -1.459 4.306
 -1.057 -1.457 4.305
 -1.029 -1.454 4.303
 -1.002 -1.453 4.305
 -0.974 -1.45 4.301
 -0.946 -1.448 4.299
 -0.919 -1.447 4.3
 -0.893 -1.447 4.303
 -0.865 -1.445 4.302
 -0.839 -1.444 4.302
 -0.812 -1.442 4.3
 -0.785 -1.44 4.299
 -0.757 -1.438 4.295
 -0.731 -1.437 4.295
 -0.705 -1.436 4.297
 -0.678 -1.434 4.295
 -0.652 -1.434 4.297
 -0.626 -1.434 4.299
 -0.599 -1.431 4.294
 -0.573 -1.429 4.291
 -0.547 -1.428 4.29
 -0.52 -1.427 4.288
 -0.494 -1.426 4.289
 -0.469 -1.426 4.291
 -0.443 -1.426 4.292
 -0.418 -1.427 4.296
 -0.392 -1.427 4.296
 -0.366 -1.425 4.293
 -0.34 -1.424 4.292
 -0.314 -1.424 4.293
 -0.288 -1.423 4.29
 -0.263 -1.422 4.288
 -0.237 -1.421 4.287
 -0.211 -1.421 4.286
 -0.186 -1.419 4.281
 -0.16 -1.419 4.283
 -0.135 -1.419 4.282
 -0.109 -1.418 4.28
 -0.084 -1.418 4.281
 -0.058 -1.419 4.282
 -0.033 -1.418 4.281
 -0.007 -1.42 4.285
 0.017 -1.42 4.286
 0.042 -1.421 4.287
 0.068 -1.422 4.29
 0.094 -1.422 4.29
 0.119 -1.421 4.286
 0.144 -1.421 4.284
 0.17 -1.421 4.282
 0.195 -1.421 4.282
 0.221 -1.422 4.283
 0.247 -1.423 4.285
 0.272 -1.424 4.287
 0.298 -1.424 4.284
 0.323 -1.423 4.281
 0.348 -1.422 4.276
 0.373 -1.422 4.272
 0.399 -1.421 4.267
 0.424 -1.42 4.263
 0.449 -1.42 4.261
 0.475 -1.422 4.264
 0.501 -1.423 4.264
 0.527 -1.424 4.264
 0.554 -1.428 4.271
 0.579 -1.428 4.27
 0.605 -1.429 4.267
 0.631 -1.43 4.267
 0.657 -1.431 4.266
 0.682 -1.43 4.261
 0.709 -1.432 4.263
 0.735 -1.433 4.263
 0.761 -1.434 4.26
 0.787 -1.435 4.261
 0.814 -1.438 4.263
 0.84 -1.439 4.262
 0.867 -1.44 4.26
 0.893 -1.442 4.26
 0.92 -1.442 4.258
 0.946 -1.443 4.256
 0.973 -1.445 4.255
 0.999 -1.446 4.254
 1.026 -1.447 4.251
 1.053 -1.449 4.251
 1.08 -1.452 4.252
 1.107 -1.453 4.25
 1.135 -1.455 4.249
 1.163 -1.457 4.25
 1.19 -1.459 4.248
 1.217 -1.46 4.245
 1.245 -1.462 4.244
 1.273 -1.465 4.245
 1.301 -1.467 4.244
 1.329 -1.47 4.243
 1.358 -1.473 4.246
 1.387 -1.475 4.245
 1.414 -1.476 4.24
 1.443 -1.479 4.24
 1.471 -1.481 4.238
 1.499 -1.483 4.233
 1.527 -1.484 4.229
 1.556 -1.487 4.228
 1.585 -1.489 4.224
 1.614 -1.492 4.223
 1.643 -1.495 4.221
 1.673 -1.497 4.219
 1.702 -1.499 4.216
 1.73 -1.501 4.21
 1.758 -1.502 4.203
 1.785 -1.502 4.193
 1.811 -1.502 4.181
 1.836 -1.5 4.166
 1.857 -1.496 4.142
 1.874 -1.489 4.112
 1.895 -1.484 4.089
 1.91 -1.475 4.052
 1.917 -1.461 4.002
 1.933 -1.454 3.97
 0 0 0
 0 0 0
 0 0 0
 0 0 0
 0 0 0
 0 0 0
 0 0 0
 0 0 0
 1.789 -1.202 3.189
 1.82 -1.208 3.194
 1.835 -1.204 3.173
 1.844 -1.197 3.142
 1.864 -1.196 3.128
 1.851 -1.174 3.06
 -2.548 -1.603 4.377
 -2.494 -1.588 4.348
 -2.439 -1.572 4.318
 -2.4 -1.565 4.312
 -2.365 -1.561 4.315
 -2.325 -1.554 4.309
 -2.291 -1.55 4.312
 -2.255 -1.546 4.312
 -2.224 -1.544 4.32
 -2.19 -1.54 4.321
 -2.158 -1.537 4.326
 -2.123 -1.533 4.324
 -2.09 -1.53 4.328
 -2.055 -1.524 4.324
 -2.023 -1.521 4.327
 -1.99 -1.518 4.327
 -1.956 -1.513 4.325
 -1.923 -1.509 4.325
 -1.891 -1.506 4.327
 -1.858 -1.502 4.324
 -1.826 -1.499 4.325
 -1.794 -1.495 4.325
 -1.762 -1.491 4.322
 -1.73 -1.488 4.321
 -1.699 -1.484 4.32
 -1.667 -1.48 4.317
 -1.636 -1.477 4.317
 -1.606 -1.475 4.318
 -1.576 -1.472 4.318
 -1.546 -1.47 4.32
 -1.517 -1.468 4.322
 -1.487 -1.465 4.321
 -1.458 -1.462 4.322
 -1.428 -1.46 4.321
 -1.398 -1.456 4.318
 -1.367 -1.452 4.313
 -1.338 -1.449 4.311
 -1.308 -1.446 4.309
 -1.279 -1.444 4.308
 -1.251 -1.442 4.309
 -1.224 -1.442 4.314
 -1.196 -1.44 4.314
 -1.167 -1.436 4.31
 -1.138 -1.434 4.307
 -1.11 -1.431 4.305
 -1.082 -1.429 4.303
 -1.054 -1.427 4.303
 -1.027 -1.426 4.303
 -1 -1.425 4.307
 -0.973 -1.424 4.307
 -0.945 -1.422 4.305
 -0.918 -1.42 4.306
 -0.892 -1.42 4.309
 -0.865 -1.418 4.307
 -0.838 -1.417 4.307
 -0.811 -1.415 4.306
 -0.784 -1.414 4.304
 -0.757 -1.411 4.301
 -0.73 -1.41 4.301
 -0.704 -1.409 4.302
 -0.678 -1.408 4.302
 -0.652 -1.408 4.304
 -0.626 -1.407 4.304
 -0.599 -1.405 4.301
 -0.572 -1.403 4.297
 -0.546 -1.402 4.294
 -0.52 -1.4 4.292
 -0.494 -1.4 4.293
 -0.468 -1.4 4.294
 -0.443 -1.4 4.297
 -0.417 -1.4 4.3
 -0.391 -1.4 4.3
 -0.365 -1.397 4.294
 -0.339 -1.396 4.292
 -0.314 -1.396 4.293
 -0.288 -1.395 4.289
 -0.262 -1.394 4.288
 -0.237 -1.393 4.286
 -0.211 -1.393 4.287
 -0.185 -1.392 4.283
 -0.16 -1.392 4.285
 -0.134 -1.392 4.285
 -0.109 -1.392 4.284
 -0.084 -1.391 4.283
 -0.058 -1.391 4.283
 -0.033 -1.391 4.282
 -0.007 -1.392 4.286
 0.017 -1.393 4.287
 0.043 -1.393 4.288
 0.068 -1.396 4.296
 0.094 -1.397 4.298
 0.119 -1.395 4.292
 0.144 -1.395 4.291
 0.17 -1.395 4.289
 0.195 -1.396 4.289
 0.221 -1.396 4.289
 0.247 -1.398 4.292
 0.272 -1.399 4.294
 0.298 -1.399 4.293
 0.323 -1.397 4.287
 0.348 -1.396 4.281
 0.373 -1.396 4.277
 0.399 -1.394 4.271
 0.424 -1.393 4.265
 0.449 -1.394 4.265
 0.475 -1.396 4.269
 0.501 -1.397 4.269
 0.527 -1.399 4.271
 0.554 -1.402 4.279
 0.58 -1.403 4.278
 0.605 -1.403 4.274
 0.631 -1.404 4.275
 0.657 -1.405 4.272
 0.682 -1.404 4.266
 0.709 -1.406 4.269
 0.735 -1.407 4.269
 0.761 -1.408 4.267
 0.787 -1.41 4.268
 0.814 -1.412 4.27
 0.84 -1.412 4.268
 0.867 -1.414 4.268
 0.894 -1.416 4.268
 0.92 -1.416 4.264
 0.946 -1.417 4.262
 0.973 -1.419 4.261
 0.999 -1.419 4.258
 1.025 -1.42 4.254
 1.052 -1.422 4.255
 1.079 -1.424 4.254
 1.106 -1.425 4.253
 1.134 -1.427 4.253
 1.161 -1.43 4.253
 1.188 -1.431 4.25
 1.215 -1.432 4.246
 1.243 -1.434 4.246
 1.271 -1.436 4.245
 1.299 -1.438 4.244
 1.327 -1.441 4.244
 1.356 -1.444 4.247
 1.384 -1.446 4.245
 1.412 -1.448 4.242
 1.441 -1.451 4.242
 1.469 -1.453 4.24
 1.497 -1.454 4.235
 1.525 -1.456 4.232
 1.554 -1.459 4.231
 1.583 -1.461 4.228
 1.612 -1.463 4.225
 1.641 -1.465 4.223
 1.67 -1.468 4.221
 1.7 -1.471 4.218
 1.728 -1.472 4.213
 1.756 -1.473 4.206
 1.784 -1.474 4.199
 1.811 -1.474 4.189
 1.836 -1.474 4.176
 1.859 -1.47 4.155
 1.878 -1.465 4.128
 1.897 -1.459 4.101
 1.916 -1.453 4.074
 0 0 0
 0 0 0
 0 0 0
 0 0 0
 0 0 0
 0 0 0
 0 0 0
 0 0 0
 0 0 0
 0 0 0
 1.786 -1.179 3.191
 1.816 -1.184 3.195
 1.833 -1.182 3.177
 1.844 -1.175 3.147
 1.874 -1.181 3.152
 1.849 -1.152 3.063
 -2.533 -1.564 4.36
 -2.494 -1.559 4.358
 -2.448 -1.548 4.342
 -2.407 -1.541 4.336
 -2.37 -1.536 4.335
 -2.332 -1.529 4.33
 -2.295 -1.524 4.329
 -2.259 -1.52 4.329
 -2.226 -1.516 4.331
 -2.191 -1.512 4.332
 -2.158 -1.509 4.335
 -2.123 -1.505 4.334
 -2.091 -1.502 4.338
 -2.057 -1.498 4.337
 -2.024 -1.494 4.339
 -1.99 -1.49 4.337
 -1.956 -1.486 4.335
 -1.923 -1.481 4.333
 -1.89 -1.478 4.333
 -1.857 -1.473 4.33
 -1.825 -1.47 4.331
 -1.793 -1.467 4.33
 -1.76 -1.462 4.326
 -1.729 -1.459 4.326
 -1.697 -1.456 4.325
 -1.666 -1.452 4.323
 -1.636 -1.45 4.324
 -1.605 -1.447 4.325
 -1.574 -1.443 4.322
 -1.545 -1.441 4.325
 -1.515 -1.439 4.325
 -1.485 -1.436 4.323
 -1.456 -1.434 4.324
 -1.427 -1.432 4.326
 -1.397 -1.429 4.323
 -1.366 -1.425 4.319
 -1.337 -1.423 4.319
 -1.309 -1.421 4.319
 -1.28 -1.418 4.317
 -1.251 -1.416 4.317
 -1.224 -1.416 4.323
 -1.196 -1.413 4.322
 -1.167 -1.41 4.317
 -1.138 -1.407 4.314
 -1.109 -1.404 4.31
 -1.081 -1.402 4.309
 -1.054 -1.4 4.309
 -1.026 -1.399 4.309
 -1 -1.399 4.313
 -0.973 -1.397 4.314
 -0.945 -1.395 4.311
 -0.918 -1.394 4.311
 -0.892 -1.393 4.314
 -0.864 -1.391 4.311
 -0.837 -1.39 4.312
 -0.811 -1.389 4.312
 -0.784 -1.387 4.311
 -0.757 -1.385 4.307
 -0.73 -1.384 4.307
 -0.704 -1.383 4.308
 -0.677 -1.381 4.305
 -0.651 -1.381 4.306
 -0.625 -1.38 4.307
 -0.598 -1.378 4.303
 -0.572 -1.376 4.3
 -0.546 -1.375 4.299
 -0.519 -1.374 4.298
 -0.494 -1.374 4.3
 -0.468 -1.374 4.301
 -0.443 -1.374 4.304
 -0.417 -1.375 4.309
 -0.391 -1.374 4.307
 -0.364 -1.37 4.294
 -0.338 -1.368 4.289
 -0.313 -1.367 4.29
 -0.287 -1.366 4.287
 -0.262 -1.366 4.287
 -0.236 -1.366 4.288
 -0.211 -1.367 4.292
 -0.185 -1.366 4.289
 -0.16 -1.366 4.289
 -0.134 -1.366 4.289
 -0.109 -1.365 4.288
 -0.083 -1.364 4.284
 -0.058 -1.363 4.282
 -0.033 -1.363 4.282
 -0.007 -1.364 4.284
 0.017 -1.365 4.286
 0.043 -1.366 4.288
 0.068 -1.371 4.303
 0.094 -1.371 4.303
 0.119 -1.369 4.296
 0.145 -1.369 4.295
 0.17 -1.369 4.295
 0.196 -1.37 4.295
 0.221 -1.371 4.297
 0.247 -1.373 4.303
 0.273 -1.374 4.305
 0.298 -1.374 4.303
 0.323 -1.373 4.297
 0.349 -1.371 4.29
 0.374 -1.37 4.284
 0.398 -1.368 4.275
 0.423 -1.366 4.266
 0.449 -1.367 4.267
 0.475 -1.369 4.272
 0.501 -1.37 4.271
 0.527 -1.373 4.276
 0.554 -1.377 4.288
 0.58 -1.378 4.286
 0.606 -1.378 4.283
 0.631 -1.379 4.282
 0.657 -1.379 4.28
 0.682 -1.377 4.271
 0.708 -1.379 4.273
 0.735 -1.381 4.276
 0.761 -1.382 4.273
 0.787 -1.384 4.274
 0.814 -1.386 4.276
 0.84 -1.386 4.273
 0.866 -1.387 4.27
 0.893 -1.388 4.27
 0.918 -1.388 4.265
 0.945 -1.389 4.263
 0.971 -1.391 4.262
 0.998 -1.391 4.259
 1.024 -1.392 4.256
 1.05 -1.393 4.254
 1.077 -1.395 4.253
 1.104 -1.396 4.251
 1.132 -1.398 4.251
 1.159 -1.4 4.251
 1.187 -1.402 4.251
 1.213 -1.404 4.247
 1.241 -1.406 4.247
 1.269 -1.408 4.246
 1.297 -1.41 4.245
 1.325 -1.412 4.245
 1.354 -1.416 4.247
 1.383 -1.418 4.247
 1.41 -1.419 4.243
 1.439 -1.422 4.244
 1.468 -1.424 4.242
 1.496 -1.426 4.238
 1.523 -1.428 4.234
 1.553 -1.43 4.234
 1.581 -1.432 4.23
 1.609 -1.434 4.227
 1.639 -1.436 4.224
 1.667 -1.438 4.22
 1.696 -1.44 4.217
 1.725 -1.442 4.212
 1.754 -1.444 4.208
 1.782 -1.445 4.201
 1.81 -1.447 4.194
 1.837 -1.447 4.184
 1.862 -1.446 4.17
 1.887 -1.445 4.157
 1.91 -1.442 4.138
 1.933 -1.44 4.119
 0 0 0
 0 0 0
 0 0 0
 0 0 0
 0 0 0
 0 0 0
 0 0 0
 0 0 0
 0 0 0
 0 0 0
 0 0 0
 1.808 -1.158 3.187
 1.827 -1.157 3.173
 1.84 -1.151 3.147
 1.869 -1.156 3.15
 1.877 -1.148 3.116
 -2.528 -1.532 4.361
 -2.468 -1.514 4.323
 -2.447 -1.519 4.351
 -2.408 -1.512 4.346
 -2.369 -1.506 4.343
 -2.332 -1.501 4.34
 -2.296 -1.496 4.339
 -2.261 -1.492 4.34
 -2.225 -1.487 4.339
 -2.19 -1.483 4.339
 -2.157 -1.48 4.342
 -2.12 -1.475 4.337
 -2.087 -1.471 4.338
 -2.053 -1.467 4.338
 -2.021 -1.464 4.34
 -1.987 -1.459 4.338
 -1.953 -1.456 4.337
 -1.92 -1.452 4.336
 -1.887 -1.448 4.334
 -1.854 -1.444 4.332
 -1.822 -1.441 4.333
 -1.79 -1.437 4.332
 -1.758 -1.433 4.33
 -1.727 -1.43 4.33
 -1.696 -1.427 4.329
 -1.665 -1.424 4.329
 -1.634 -1.421 4.329
 -1.604 -1.419 4.329
 -1.572 -1.415 4.326
 -1.543 -1.413 4.328
 -1.513 -1.41 4.328
 -1.483 -1.407 4.325
 -1.454 -1.405 4.327
 -1.425 -1.403 4.328
 -1.395 -1.4 4.326
 -1.365 -1.397 4.324
 -1.336 -1.395 4.324
 -1.307 -1.392 4.322
 -1.279 -1.39 4.322
 -1.25 -1.388 4.322
 -1.223 -1.388 4.327
 -1.195 -1.386 4.327
 -1.166 -1.383 4.322
 -1.137 -1.38 4.318
 -1.108 -1.377 4.315
 -1.08 -1.374 4.312
 -1.053 -1.373 4.313
 -1.025 -1.372 4.313
 -0.999 -1.372 4.319
 -0.972 -1.371 4.32
 -0.944 -1.368 4.316
 -0.918 -1.367 4.317
 -0.891 -1.366 4.317
 -0.863 -1.363 4.313
 -0.836 -1.362 4.312
 -0.809 -1.361 4.312
 -0.783 -1.359 4.311
 -0.756 -1.358 4.31
 -0.729 -1.357 4.31
 -0.703 -1.356 4.312
 -0.676 -1.354 4.308
 -0.65 -1.354 4.309
 -0.624 -1.353 4.311
 -0.598 -1.351 4.307
 -0.572 -1.35 4.306
 -0.546 -1.35 4.307
 -0.519 -1.348 4.304
 -0.494 -1.349 4.307
 -0.468 -1.348 4.308
 -0.442 -1.348 4.311
 -0.417 -1.35 4.317
 -0.392 -1.35 4.32
 -0.364 -1.343 4.298
 -0.338 -1.34 4.288
 -0.312 -1.34 4.289
 -0.287 -1.339 4.288
 -0.261 -1.339 4.289
 -0.236 -1.339 4.289
 -0.21 -1.34 4.295
 -0.185 -1.339 4.291
 -0.159 -1.339 4.29
 -0.134 -1.338 4.289
 -0.108 -1.337 4.287
 -0.083 -1.336 4.283
 -0.058 -1.336 4.283
 -0.032 -1.336 4.282
 -0.007 -1.337 4.284
 0.017 -1.338 4.287
 0.043 -1.338 4.287
 0.069 -1.347 4.315
 0.094 -1.346 4.313
 0.119 -1.343 4.302
 0.145 -1.343 4.301
 0.17 -1.344 4.302
 0.196 -1.345 4.303
 0.221 -1.346 4.306
 0.248 -1.35 4.316
 0.273 -1.35 4.317
 0.299 -1.35 4.314
 0.323 -1.347 4.301
 0.348 -1.344 4.292
 0.373 -1.343 4.286
 0.398 -1.341 4.276
 0.422 -1.337 4.262
 0.448 -1.339 4.266
 0.475 -1.342 4.273
 0.5 -1.342 4.27
 0.526 -1.344 4.275
 0.554 -1.351 4.294
 0.58 -1.351 4.288
 0.605 -1.35 4.285
 0.631 -1.352 4.285
 0.657 -1.353 4.286
 0.682 -1.351 4.276
 0.708 -1.353 4.278
 0.735 -1.355 4.281
 0.761 -1.356 4.279
 0.787 -1.357 4.28
 0.814 -1.359 4.279
 0.839 -1.359 4.276
 0.865 -1.36 4.273
 0.892 -1.361 4.271
 0.917 -1.361 4.266
 0.944 -1.362 4.267
 0.971 -1.363 4.265
 0.997 -1.364 4.262
 1.023 -1.364 4.257
 1.049 -1.366 4.257
 1.076 -1.368 4.256
 1.103 -1.369 4.254
 1.131 -1.372 4.257
 1.159 -1.374 4.256
 1.186 -1.375 4.254
 1.212 -1.376 4.25
 1.24 -1.378 4.25
 1.267 -1.38 4.248
 1.295 -1.381 4.246
 1.323 -1.384 4.246
 1.352 -1.387 4.249
 1.38 -1.389 4.247
 1.408 -1.391 4.244
 1.437 -1.393 4.244
 1.465 -1.395 4.241
 1.493 -1.397 4.238
 1.521 -1.399 4.235
 1.55 -1.401 4.234
 1.579 -1.403 4.231
 1.607 -1.405 4.227
 1.636 -1.407 4.225
 1.664 -1.409 4.22
 1.693 -1.411 4.217
 1.721 -1.412 4.211
 1.75 -1.414 4.206
 1.777 -1.415 4.198
 1.806 -1.417 4.193
 1.835 -1.418 4.188
 1.863 -1.42 4.181
 1.892 -1.422 4.175
 1.926 -1.427 4.179
 0 0 0
 0 0 0
 0 0 0
 0 0 0
 0 0 0
 0 0 0
 0 0 0
 0 0 0
 0 0 0
 0 0 0
 0 0 0
 0 0 0
 1.805 -1.134 3.188
 1.825 -1.133 3.175
 1.838 -1.128 3.15
 1.857 -1.127 3.135
 1.861 -1.117 3.095
 -2.544 -1.512 4.397
 -2.477 -1.49 4.348
 -2.446 -1.489 4.358
 -2.405 -1.482 4.351
 -2.367 -1.476 4.348
 -2.329 -1.471 4.345
 -2.292 -1.465 4.341
 -2.257 -1.461 4.341
 -2.221 -1.457 4.341
 -2.188 -1.453 4.343
 -2.153 -1.449 4.344
 -2.117 -1.444 4.34
 -2.084 -1.441 4.341
 -2.051 -1.437 4.342
 -2.018 -1.434 4.344
 -1.985 -1.431 4.344
 -1.952 -1.427 4.343
 -1.919 -1.423 4.341
 -1.885 -1.419 4.339
 -1.852 -1.415 4.337
 -1.82 -1.412 4.337
 -1.788 -1.408 4.336
 -1.756 -1.405 4.334
 -1.725 -1.402 4.334
 -1.693 -1.398 4.332
 -1.662 -1.395 4.331
 -1.632 -1.393 4.333
 -1.602 -1.39 4.332
 -1.571 -1.386 4.329
 -1.541 -1.384 4.329
 -1.511 -1.382 4.33
 -1.48 -1.378 4.326
 -1.451 -1.376 4.327
 -1.421 -1.373 4.326
 -1.393 -1.371 4.326
 -1.363 -1.368 4.325
 -1.335 -1.367 4.327
 -1.306 -1.365 4.326
 -1.279 -1.364 4.33
 -1.249 -1.361 4.327
 -1.223 -1.361 4.332
 -1.194 -1.358 4.329
 -1.165 -1.355 4.325
 -1.135 -1.351 4.319
 -1.107 -1.349 4.317
 -1.079 -1.347 4.315
 -1.052 -1.346 4.317
 -1.024 -1.344 4.316
 -0.999 -1.345 4.323
 -0.972 -1.344 4.326
 -0.943 -1.341 4.319
 -0.917 -1.34 4.32
 -0.889 -1.338 4.317
 -0.86 -1.333 4.306
 -0.834 -1.333 4.309
 -0.808 -1.332 4.312
 -0.781 -1.332 4.313
 -0.755 -1.331 4.313
 -0.731 -1.333 4.324
 -0.704 -1.332 4.324
 -0.677 -1.329 4.316
 -0.65 -1.328 4.316
 -0.625 -1.329 4.321
 -0.598 -1.326 4.314
 -0.571 -1.325 4.313
 -0.545 -1.323 4.31
 -0.519 -1.322 4.31
 -0.494 -1.324 4.316
 -0.468 -1.324 4.319
 -0.443 -1.326 4.327
 0 0 0
 0 0 0
 -0.363 -1.316 4.299
 -0.336 -1.31 4.281
 -0.311 -1.311 4.287
 -0.286 -1.312 4.289
 -0.261 -1.311 4.289
 -0.235 -1.311 4.287
 -0.21 -1.312 4.293
 -0.184 -1.311 4.29
 -0.159 -1.31 4.288
 -0.134 -1.311 4.289
 -0.108 -1.31 4.287
 -0.083 -1.309 4.284
 -0.057 -1.308 4.282
 -0.032 -1.309 4.282
 -0.007 -1.308 4.279
 0.017 -1.308 4.278
 0.043 -1.306 4.272
 0 0 0
 0 0 0
 0 0 0
 0 0 0
 0 0 0
 0 0 0
 0 0 0
 0 0 0
 0 0 0
 0.3 -1.329 4.337
 0.324 -1.324 4.316
 0.349 -1.319 4.3
 0.374 -1.317 4.292
 0.398 -1.314 4.279
 0.421 -1.307 4.254
 0.447 -1.309 4.258
 0.474 -1.313 4.269
 0.498 -1.31 4.256
 0.524 -1.313 4.261
 0.554 -1.324 4.294
 0.579 -1.323 4.289
 0.605 -1.324 4.288
 0.633 -1.329 4.301
 0.659 -1.331 4.304
 0.682 -1.326 4.283
 0.709 -1.328 4.288
 0.735 -1.33 4.29
 0.76 -1.328 4.28
 0.786 -1.33 4.281
 0.812 -1.33 4.278
 0.838 -1.331 4.277
 0.863 -1.331 4.27
 0.89 -1.333 4.271
 0.914 -1.33 4.258
 0.942 -1.334 4.265
 0.969 -1.335 4.265
 0.995 -1.336 4.261
 1.021 -1.336 4.257
 1.048 -1.339 4.259
 1.075 -1.34 4.257
 1.102 -1.341 4.254
 1.13 -1.344 4.258
 1.157 -1.346 4.258
 1.184 -1.347 4.256
 1.211 -1.348 4.252
 1.239 -1.351 4.252
 1.266 -1.352 4.25
 1.293 -1.353 4.247
 1.322 -1.356 4.248
 1.351 -1.359 4.25
 1.379 -1.361 4.248
 1.406 -1.362 4.244
 1.435 -1.365 4.245
 1.462 -1.366 4.24
 1.49 -1.368 4.237
 1.519 -1.37 4.236
 1.548 -1.372 4.235
 1.576 -1.374 4.231
 1.604 -1.376 4.227
 1.633 -1.378 4.226
 1.662 -1.38 4.222
 1.69 -1.382 4.217
 1.719 -1.383 4.212
 1.747 -1.385 4.208
 1.775 -1.386 4.2
 1.803 -1.388 4.194
 1.833 -1.39 4.19
 1.862 -1.392 4.186
 1.894 -1.396 4.186
 0 0 0
 0 0 0
 0 0 0
 0 0 0
 0 0 0
 0 0 0
 0 0 0
 0 0 0
 0 0 0
 0 0 0
 0 0 0
 0 0 0
 0 0 0
 1.798 -1.109 3.183
 1.82 -1.109 3.173
 1.835 -1.106 3.152
 1.87 -1.114 3.164
 1.857 -1.094 3.096
 -2.507 -1.461 4.344
 -2.466 -1.454 4.337
 -2.443 -1.458 4.362
 -2.404 -1.452 4.357
 -2.367 -1.447 4.356
 -2.331 -1.443 4.356
 -2.291 -1.436 4.349
 -2.256 -1.432 4.349
 -2.22 -1.428 4.348
 -2.186 -1.424 4.349
 -2.151 -1.42 4.348
 -2.116 -1.415 4.346
 -2.082 -1.412 4.346
 -2.049 -1.408 4.346
 -2.016 -1.404 4.346
 -1.982 -1.401 4.345
 -1.948 -1.396 4.343
 -1.916 -1.393 4.343
 -1.883 -1.39 4.342
 -1.85 -1.386 4.341
 -1.819 -1.383 4.342
 -1.788 -1.381 4.343
 -1.755 -1.377 4.34
 -1.723 -1.373 4.338
 -1.691 -1.369 4.335
 -1.66 -1.366 4.333
 -1.629 -1.363 4.332
 -1.599 -1.361 4.333
 -1.569 -1.358 4.332
 -1.539 -1.356 4.333
 -1.51 -1.353 4.333
 -1.479 -1.35 4.33
 -1.45 -1.348 4.33
 -1.419 -1.344 4.327
 -1.391 -1.343 4.328
 -1.362 -1.341 4.328
 -1.334 -1.34 4.332
 -1.306 -1.338 4.332
 -1.28 -1.339 4.342
 -1.249 -1.334 4.331
 -1.222 -1.334 4.338
 -1.192 -1.33 4.331
 -1.163 -1.327 4.326
 -1.131 -1.321 4.312
 -1.104 -1.319 4.313
 -1.075 -1.316 4.307
 -1.049 -1.316 4.312
 -1.023 -1.316 4.317
 -0.998 -1.318 4.329
 0 0 0
 0 0 0
 0 0 0
 0 0 0
 0 0 0
 0 0 0
 0 0 0
 0 0 0
 0 0 0
 0 0 0
 0 0 0
 0 0 0
 -0.652 -1.307 4.338
 -0.627 -1.307 4.341
 -0.601 -1.307 4.345
 -0.571 -1.297 4.314
 0 0 0
 0 0 0
 0 0 0
 0 0 0
 0 0 0
 0 0 0
 0 0 0
 -0.361 -1.283 4.281
 -0.335 -1.281 4.276
 -0.31 -1.283 4.283
 -0.285 -1.283 4.285
 -0.26 -1.283 4.284
 -0.234 -1.283 4.285
 -0.209 -1.284 4.29
 -0.184 -1.283 4.288
 -0.158 -1.283 4.287
 -0.133 -1.284 4.29
 -0.108 -1.283 4.288
 -0.083 -1.282 4.285
 -0.057 -1.281 4.282
 -0.032 -1.281 4.282
 -0.007 -1.28 4.278
 0.018 -1.28 4.277
 0.043 -1.278 4.27
 0 0 0
 0 0 0
 0 0 0
 0 0 0
 0 0 0
 0 0 0
 0 0 0
 0 0 0
 0 0 0
 0 0 0
 0 0 0
 0 0 0
 0 0 0
 0 0 0
 0 0 0
 0 0 0
 0 0 0
 0 0 0
 0 0 0
 0 0 0
 0 0 0
 0 0 0
 0 0 0
 0 0 0
 0 0 0
 0 0 0
 0 0 0
 0 0 0
 0 0 0
 0 0 0
 0 0 0
 0 0 0
 0 0 0
 0 0 0
 0 0 0
 0.967 -1.306 4.26
 0.992 -1.306 4.256
 1.019 -1.308 4.255
 1.046 -1.31 4.255
 1.073 -1.311 4.253
 1.1 -1.313 4.254
 1.128 -1.316 4.258
 1.156 -1.318 4.257
 1.183 -1.319 4.257
 1.21 -1.321 4.254
 1.238 -1.323 4.255
 1.265 -1.325 4.253
 1.293 -1.326 4.251
 1.321 -1.329 4.252
 1.349 -1.331 4.251
 1.376 -1.332 4.248
 1.404 -1.333 4.244
 1.432 -1.336 4.243
 1.46 -1.337 4.24
 1.488 -1.339 4.238
 1.517 -1.342 4.237
 1.545 -1.344 4.235
 1.574 -1.345 4.232
 1.602 -1.347 4.228
 1.631 -1.35 4.227
 1.659 -1.351 4.221
 1.687 -1.352 4.215
 1.715 -1.354 4.21
 1.743 -1.355 4.204
 1.771 -1.357 4.199
 1.799 -1.358 4.192
 1.827 -1.359 4.185
 1.856 -1.361 4.18
 1.889 -1.365 4.182
 0 0 0
 0 0 0
 0 0 0
 0 0 0
 0 0 0
 0 0 0
 0 0 0
 0 0 0
 0 0 0
 0 0 0
 0 0 0
 0 0 0
 0 0 0
 1.793 -1.084 3.181
 1.814 -1.084 3.169
 1.829 -1.081 3.148
 1.855 -1.084 3.145
 1.852 -1.07 3.094
 -2.554 -1.459 4.434
 -2.474 -1.43 4.359
 -2.444 -1.429 4.372
 -2.403 -1.423 4.365
 -2.366 -1.418 4.363
 -2.328 -1.413 4.36
 -2.289 -1.406 4.353
 -2.252 -1.401 4.35
 -2.218 -1.398 4.352
 -2.183 -1.394 4.352
 -2.149 -1.39 4.351
 -2.113 -1.385 4.348
 -2.079 -1.382 4.348
 -2.045 -1.377 4.346
 -2.011 -1.373 4.345
 -1.976 -1.369 4.341
 -1.944 -1.366 4.342
 -1.913 -1.364 4.345
 -1.882 -1.361 4.348
 -1.848 -1.357 4.344
 -1.817 -1.354 4.345
 -1.786 -1.352 4.346
 -1.753 -1.347 4.341
 -1.72 -1.343 4.338
 -1.688 -1.34 4.335
 -1.658 -1.337 4.335
 -1.627 -1.334 4.334
 -1.597 -1.332 4.336
 -1.566 -1.329 4.333
 -1.537 -1.327 4.335
 -1.507 -1.324 4.333
 -1.476 -1.321 4.329
 -1.446 -1.318 4.327
 -1.416 -1.314 4.323
 -1.387 -1.313 4.325
 -1.359 -1.311 4.327
 -1.331 -1.311 4.331
 -1.303 -1.308 4.33
 0 0 0
 0 0 0
 0 0 0
 0 0 0
 0 0 0
 0 0 0
 0 0 0
 0 0 0
 0 0 0
 0 0 0
 0 0 0
 0 0 0
 0 0 0
 0 0 0
 0 0 0
 0 0 0
 0 0 0
 0 0 0
 0 0 0
 0 0 0
 0 0 0
 0 0 0
 0 0 0
 -0.651 -1.279 4.338
 -0.626 -1.279 4.342
 -0.6 -1.28 4.346
 -0.571 -1.273 4.326
 -0.544 -1.27 4.318
 0 0 0
 0 0 0
 0 0 0
 0 0 0
 0 0 0
 0 0 0
 -0.361 -1.258 4.287
 -0.335 -1.255 4.278
 -0.31 -1.256 4.285
 -0.285 -1.256 4.286
 -0.259 -1.256 4.285
 -0.234 -1.256 4.285
 -0.209 -1.256 4.288
 -0.183 -1.256 4.286
 -0.158 -1.255 4.285
 -0.133 -1.256 4.288
 -0.107 -1.255 4.285
 -0.082 -1.255 4.285
 -0.057 -1.254 4.282
 -0.032 -1.254 4.282
 -0.007 -1.253 4.279
 0.018 -1.254 4.28
 0.043 -1.251 4.27
 0 0 0
 0 0 0
 0 0 0
 0 0 0
 0 0 0
 0 0 0
 0 0 0
 0 0 0
 0 0 0
 0 0 0
 0 0 0
 0 0 0
 0 0 0
 0 0 0
 0 0 0
 0 0 0
 0 0 0
 0 0 0
 0 0 0
 0 0 0
 0 0 0
 0 0 0
 0 0 0
 0 0 0
 0 0 0
 0 0 0
 0 0 0
 0 0 0
 0 0 0
 0 0 0
 0 0 0
 0 0 0
 0 0 0
 0 0 0
 0 0 0
 0.964 -1.277 4.255
 0.991 -1.278 4.254
 1.017 -1.28 4.254
 1.045 -1.282 4.255
 1.071 -1.283 4.254
 1.099 -1.285 4.255
 1.127 -1.288 4.259
 1.154 -1.29 4.258
 1.181 -1.292 4.258
 1.208 -1.293 4.255
 1.237 -1.296 4.258
 1.264 -1.297 4.256
 1.292 -1.299 4.255
 1.319 -1.301 4.252
 1.347 -1.302 4.25
 1.373 -1.303 4.245
 1.401 -1.304 4.242
 1.429 -1.307 4.242
 1.457 -1.308 4.238
 1.485 -1.31 4.237
 1.514 -1.313 4.236
 1.542 -1.314 4.232
 1.569 -1.315 4.227
 1.598 -1.318 4.226
 1.628 -1.32 4.225
 1.656 -1.322 4.22
 1.684 -1.323 4.215
 1.712 -1.325 4.21
 1.739 -1.326 4.203
 1.768 -1.328 4.199
 1.796 -1.329 4.192
 1.824 -1.33 4.186
 1.854 -1.332 4.181
 1.886 -1.336 4.184
 0 0 0
 0 0 0
 0 0 0
 0 0 0
 0 0 0
 0 0 0
 0 0 0
 0 0 0
 0 0 0
 0 0 0
 0 0 0
 0 0 0
 0 0 0
 1.798 -1.066 3.196
 1.816 -1.064 3.179
 1.831 -1.06 3.157
 1.857 -1.064 3.155
 1.88 -1.064 3.147
 -2.507 -1.403 4.36
 -2.476 -1.402 4.372
 -2.441 -1.399 4.376
 -2.401 -1.392 4.369
 -2.364 -1.388 4.368
 -2.326 -1.383 4.365
 -2.287 -1.376 4.358
 -2.249 -1.371 4.353
 -2.215 -1.368 4.354
 -2.18 -1.364 4.354
 -2.144 -1.359 4.351
 -2.109 -1.354 4.347
 -2.075 -1.351 4.348
 -2.04 -1.346 4.344
 -2.005 -1.341 4.339
 -1.972 -1.338 4.34
 -1.941 -1.336 4.343
 -1.91 -1.334 4.346
 -1.88 -1.332 4.351
 -1.847 -1.328 4.348
 -1.813 -1.324 4.344
 -1.783 -1.322 4.346
 -1.75 -1.318 4.342
 -1.718 -1.315 4.34
 -1.687 -1.311 4.338
 -1.656 -1.308 4.337
 -1.625 -1.306 4.336
 -1.596 -1.304 4.339
 -1.565 -1.301 4.337
 -1.535 -1.298 4.335
 -1.504 -1.295 4.333
 -1.473 -1.292 4.329
 -1.443 -1.288 4.324
 -1.412 -1.285 4.32
 -1.385 -1.284 4.324
 -1.356 -1.282 4.324
 -1.329 -1.281 4.328
 -1.3 -1.279 4.327
 0 0 0
 0 0 0
 0 0 0
 0 0 0
 0 0 0
 0 0 0
 0 0 0
 0 0 0
 0 0 0
 0 0 0
 0 0 0
 0 0 0
 0 0 0
 0 0 0
 0 0 0
 0 0 0
 0 0 0
 0 0 0
 0 0 0
 0 0 0
 0 0 0
 0 0 0
 0 0 0
 -0.651 -1.254 4.346
 -0.626 -1.254 4.349
 -0.6 -1.254 4.353
 -0.571 -1.248 4.333
 -0.544 -1.245 4.325
 -0.518 -1.244 4.326
 -0.491 -1.241 4.317
 -0.462 -1.232 4.285
 -0.437 -1.232 4.289
 -0.412 -1.233 4.292
 0 0 0
 -0.36 -1.228 4.279
 -0.335 -1.23 4.287
 -0.31 -1.231 4.29
 -0.285 -1.231 4.291
 -0.259 -1.23 4.289
 -0.234 -1.229 4.288
 -0.208 -1.23 4.289
 -0.183 -1.229 4.287
 -0.158 -1.228 4.285
 -0.132 -1.229 4.287
 -0.107 -1.227 4.283
 -0.082 -1.228 4.284
 -0.057 -1.227 4.282
 -0.032 -1.228 4.284
 -0.006 -1.227 4.281
 0.018 -1.229 4.287
 0.043 -1.228 4.282
 0 0 0
 0 0 0
 0 0 0
 0 0 0
 0 0 0
 0 0 0
 0 0 0
 0 0 0
 0 0 0
 0 0 0
 0 0 0
 0 0 0
 0 0 0
 0 0 0
 0 0 0
 0 0 0
 0 0 0
 0 0 0
 0 0 0
 0 0 0
 0 0 0
 0 0 0
 0 0 0
 0 0 0
 0 0 0
 0 0 0
 0 0 0
 0 0 0
 0 0 0
 0 0 0
 0 0 0
 0 0 0
 0 0 0
 0 0 0
 0 0 0
 0.962 -1.248 4.251
 0.989 -1.25 4.254
 1.016 -1.253 4.256
 1.044 -1.255 4.258
 1.07 -1.256 4.255
 1.098 -1.258 4.257
 1.126 -1.261 4.261
 1.153 -1.262 4.259
 1.179 -1.263 4.256
 1.207 -1.265 4.255
 1.235 -1.268 4.259
 1.262 -1.269 4.255
 1.29 -1.271 4.254
 1.317 -1.273 4.253
 1.344 -1.273 4.248
 1.37 -1.274 4.242
 1.398 -1.276 4.24
 1.426 -1.278 4.239
 1.454 -1.279 4.235
 1.482 -1.281 4.234
 1.511 -1.283 4.233
 1.538 -1.285 4.229
 1.566 -1.286 4.225
 1.596 -1.289 4.226
 1.626 -1.292 4.226
 1.653 -1.293 4.221
 1.682 -1.295 4.216
 1.71 -1.297 4.212
 1.737 -1.297 4.204
 1.766 -1.299 4.201
 1.794 -1.3 4.194
 1.822 -1.302 4.187
 1.851 -1.303 4.182
 1.883 -1.307 4.184
 0 0 0
 0 0 0
 0 0 0
 0 0 0
 0 0 0
 0 0 0
 0 0 0
 0 0 0
 0 0 0
 0 0 0
 0 0 0
 0 0 0
 0 0 0
 1.8 -1.045 3.204
 1.814 -1.041 3.181
 1.829 -1.038 3.159
 1.838 -1.031 3.128
 1.845 -1.024 3.093
 -2.524 -1.383 4.399
 -2.484 -1.378 4.395
 -2.439 -1.369 4.38
 -2.398 -1.362 4.373
 -2.362 -1.358 4.372
 -2.324 -1.353 4.369
 -2.285 -1.347 4.362
 -2.247 -1.341 4.358
 -2.213 -1.338 4.359
 -2.177 -1.334 4.356
 -2.141 -1.329 4.352
 -2.106 -1.325 4.35
 -2.073 -1.321 4.35
 -2.037 -1.316 4.345
 -2.002 -1.312 4.341
 -1.97 -1.309 4.342
 -1.938 -1.307 4.345
 -1.907 -1.304 4.348
 -1.879 -1.304 4.356
 -1.844 -1.299 4.35
 -1.81 -1.294 4.343
 -1.78 -1.292 4.346
 -1.747 -1.289 4.343
 -1.716 -1.286 4.342
 -1.685 -1.283 4.341
 -1.654 -1.28 4.34
 -1.623 -1.277 4.338
 -1.593 -1.275 4.34
 -1.563 -1.272 4.338
 -1.532 -1.269 4.335
 -1.502 -1.267 4.334
 -1.472 -1.263 4.331
 -1.44 -1.26 4.325
 -1.41 -1.256 4.319
 -1.382 -1.255 4.322
 -1.353 -1.253 4.322
 -1.325 -1.251 4.323
 -1.297 -1.25 4.324
 0 0 0
 0 0 0
 0 0 0
 0 0 0
 0 0 0
 0 0 0
 0 0 0
 0 0 0
 0 0 0
 0 0 0
 0 0 0
 0 0 0
 0 0 0
 0 0 0
 0 0 0
 0 0 0
 0 0 0
 0 0 0
 0 0 0
 0 0 0
 0 0 0
 0 0 0
 -0.681 -1.235 4.375
 -0.653 -1.231 4.362
 -0.627 -1.231 4.366
 -0.601 -1.231 4.368
 -0.571 -1.222 4.34
 -0.544 -1.219 4.332
 -0.518 -1.219 4.333
 -0.491 -1.216 4.324
 -0.462 -1.207 4.292
 -0.437 -1.207 4.296
 -0.412 -1.208 4.299
 0 0 0
 -0.36 -1.204 4.288
 -0.335 -1.205 4.293
 -0.31 -1.205 4.294
 -0.284 -1.205 4.294
 -0.259 -1.204 4.292
 -0.233 -1.203 4.289
 -0.208 -1.202 4.289
 -0.183 -1.202 4.288
 -0.157 -1.201 4.284
 -0.132 -1.201 4.285
 -0.107 -1.201 4.283
 -0.082 -1.201 4.284
 -0.056 -1.2 4.281
 -0.031 -1.201 4.284
 -0.006 -1.2 4.281
 0.018 -1.201 4.283
 0.043 -1.199 4.276
 0 0 0
 0 0 0
 0 0 0
 0 0 0
 0 0 0
 0 0 0
 0 0 0
 0 0 0
 0 0 0
 0 0 0
 0 0 0
 0 0 0
 0 0 0
 0 0 0
 0 0 0
 0 0 0
 0 0 0
 0 0 0
 0 0 0
 0 0 0
 0 0 0
 0 0 0
 0 0 0
 0 0 0
 0 0 0
 0 0 0
 0 0 0
 0 0 0
 0 0 0
 0 0 0
 0 0 0
 0 0 0
 0 0 0
 0 0 0
 0 0 0
 0.961 -1.221 4.252
 0.989 -1.224 4.257
 1.016 -1.226 4.26
 1.043 -1.228 4.261
 1.069 -1.229 4.258
 1.097 -1.231 4.259
 1.124 -1.233 4.261
 1.151 -1.234 4.258
 1.177 -1.235 4.253
 1.204 -1.237 4.253
 1.232 -1.239 4.254
 1.259 -1.24 4.252
 1.287 -1.242 4.25
 1.314 -1.244 4.249
 1.341 -1.245 4.246
 1.369 -1.246 4.243
 1.396 -1.247 4.239
 1.424 -1.25 4.24
 1.452 -1.251 4.236
 1.48 -1.253 4.235
 1.508 -1.255 4.233
 1.537 -1.257 4.232
 1.565 -1.259 4.228
 1.595 -1.262 4.231
 1.624 -1.264 4.229
 1.652 -1.265 4.223
 1.679 -1.267 4.217
 1.708 -1.268 4.213
 1.735 -1.269 4.205
 1.765 -1.272 4.204
 1.793 -1.273 4.198
 1.822 -1.275 4.194
 1.851 -1.277 4.191
 1.885 -1.282 4.196
 0 0 0
 0 0 0
 0 0 0
 0 0 0
 0 0 0
 0 0 0
 0 0 0
 0 0 0
 0 0 0
 0 0 0
 0 0 0
 0 0 0
 0 0 0
 0 0 0
 1.81 -1.018 3.18
 1.827 -1.016 3.163
 1.853 -1.018 3.159
 1.861 -1.012 3.127
 -2.517 -1.35 4.394
 -2.467 -1.339 4.372
 -2.432 -1.336 4.376
 -2.393 -1.33 4.372
 -2.358 -1.327 4.374
 -2.32 -1.322 4.37
 -2.282 -1.316 4.364
 -2.245 -1.312 4.362
 -2.211 -1.308 4.362
 -2.174 -1.303 4.357
 -2.138 -1.299 4.353
 -2.103 -1.294 4.351
 -2.069 -1.291 4.35
 -2.033 -1.286 4.344
 -1.997 -1.281 4.339
 -1.964 -1.278 4.337
 -1.933 -1.276 4.341
 -1.902 -1.274 4.344
 -1.874 -1.273 4.353
 -1.839 -1.268 4.345
 -1.805 -1.263 4.338
 -1.775 -1.261 4.341
 -1.743 -1.258 4.339
 -1.712 -1.256 4.339
 -1.681 -1.253 4.338
 -1.65 -1.25 4.337
 -1.62 -1.248 4.337
 -1.59 -1.246 4.338
 -1.559 -1.243 4.336
 -1.53 -1.24 4.335
 -1.5 -1.238 4.335
 -1.47 -1.235 4.332
 -1.438 -1.231 4.326
 -1.408 -1.228 4.321
 -1.38 -1.227 4.323
 -1.35 -1.224 4.321
 -1.322 -1.222 4.32
 -1.293 -1.22 4.32
 0 0 0
 0 0 0
 0 0 0
 0 0 0
 0 0 0
 0 0 0
 0 0 0
 0 0 0
 0 0 0
 0 0 0
 0 0 0
 0 0 0
 0 0 0
 0 0 0
 0 0 0
 0 0 0
 0 0 0
 0 0 0
 0 0 0
 0 0 0
 0 0 0
 -0.706 -1.207 4.371
 -0.677 -1.202 4.356
 -0.651 -1.202 4.36
 -0.626 -1.203 4.366
 -0.6 -1.204 4.371
 -0.571 -1.197 4.347
 -0.546 -1.198 4.352
 -0.518 -1.193 4.336
 -0.491 -1.191 4.331
 -0.463 -1.184 4.309
 -0.438 -1.185 4.314
 -0.412 -1.184 4.31
 0 0 0
 -0.359 -1.175 4.28
 -0.334 -1.177 4.289
 -0.309 -1.177 4.289
 -0.283 -1.177 4.29
 -0.258 -1.177 4.291
 -0.233 -1.176 4.29
 -0.208 -1.176 4.29
 -0.182 -1.176 4.291
 -0.157 -1.175 4.289
 -0.132 -1.175 4.288
 -0.107 -1.175 4.286
 -0.081 -1.175 4.286
 -0.056 -1.174 4.283
 -0.031 -1.174 4.285
 -0.006 -1.174 4.283
 0.018 -1.175 4.285
 0.043 -1.174 4.281
 0 0 0
 0 0 0
 0 0 0
 0 0 0
 0 0 0
 0 0 0
 0 0 0
 0 0 0
 0 0 0
 0 0 0
 0 0 0
 0 0 0
 0 0 0
 0 0 0
 0 0 0
 0 0 0
 0 0 0
 0 0 0
 0 0 0
 0 0 0
 0 0 0
 0 0 0
 0 0 0
 0 0 0
 0 0 0
 0 0 0
 0 0 0
 0 0 0
 0 0 0
 0 0 0
 0 0 0
 0 0 0
 0 0 0
 0 0 0
 0 0 0
 0.958 -1.192 4.245
 0.987 -1.196 4.255
 1.015 -1.199 4.259
 1.041 -1.2 4.259
 1.068 -1.201 4.257
 1.095 -1.203 4.259
 1.122 -1.205 4.259
 1.149 -1.206 4.256
 1.175 -1.207 4.252
 1.202 -1.208 4.249
 1.23 -1.21 4.251
 1.257 -1.212 4.25
 1.284 -1.213 4.249
 1.312 -1.215 4.248
 1.34 -1.217 4.247
 1.367 -1.218 4.243
 1.393 -1.219 4.238
 1.422 -1.221 4.238
 1.45 -1.223 4.236
 1.478 -1.225 4.234
 1.506 -1.227 4.232
 1.535 -1.229 4.232
 1.562 -1.23 4.226
 1.592 -1.233 4.228
 1.62 -1.235 4.225
 1.647 -1.236 4.219
 1.676 -1.237 4.215
 1.705 -1.239 4.212
 1.731 -1.24 4.204
 1.762 -1.243 4.204
 1.79 -1.244 4.198
 1.817 -1.245 4.19
 1.846 -1.247 4.186
 1.877 -1.25 4.184
 0 0 0
 0 0 0
 0 0 0
 0 0 0
 0 0 0
 0 0 0
 0 0 0
 0 0 0
 0 0 0
 0 0 0
 0 0 0
 0 0 0
 0 0 0
 0 0 0
 1.811 -0.997 3.186
 1.824 -0.993 3.163
 1.845 -0.993 3.152
 1.857 -0.988 3.126
 -2.501 -1.313 4.375
 -2.469 -1.311 4.384
 -2.428 -1.305 4.376
 -2.389 -1.299 4.372
 -2.355 -1.296 4.375
 -2.316 -1.291 4.37
 -2.278 -1.286 4.364
 -2.242 -1.282 4.363
 -2.207 -1.278 4.362
 -2.17 -1.273 4.356
 -2.133 -1.268 4.352
 -2.099 -1.264 4.351
 -2.066 -1.261 4.352
 -2.03 -1.256 4.345
 -1.995 -1.252 4.341
 -1.961 -1.248 4.339
 -1.93 -1.246 4.342
 -1.897 -1.242 4.339
 -1.863 -1.239 4.335
 -1.827 -1.233 4.325
 -1.793 -1.228 4.317
 -1.764 -1.227 4.322
 -1.736 -1.226 4.33
 -1.708 -1.226 4.336
 -1.678 -1.224 4.337
 -1.647 -1.221 4.336
 -1.616 -1.218 4.335
 -1.587 -1.216 4.336
 -1.556 -1.213 4.334
 -1.526 -1.21 4.331
 -1.496 -1.208 4.331
 -1.466 -1.206 4.328
 -1.435 -1.202 4.323
 -1.404 -1.199 4.317
 -1.377 -1.198 4.32
 -1.348 -1.195 4.318
 -1.319 -1.193 4.317
 -1.289 -1.19 4.312
 0 0 0
 0 0 0
 0 0 0
 0 0 0
 0 0 0
 0 0 0
 0 0 0
 0 0 0
 0 0 0
 0 0 0
 0 0 0
 0 0 0
 0 0 0
 0 0 0
 0 0 0
 0 0 0
 0 0 0
 0 0 0
 0 0 0
 0 0 0
 -0.73 -1.178 4.362
 -0.707 -1.184 4.387
 -0.679 -1.179 4.372
 -0.652 -1.178 4.373
 -0.627 -1.179 4.376
 -0.6 -1.177 4.374
 -0.571 -1.172 4.355
 -0.546 -1.173 4.362
 -0.52 -1.172 4.362
 -0.493 -1.17 4.355
 -0.465 -1.162 4.327
 -0.439 -1.162 4.33
 -0.413 -1.161 4.328
 0 0 0
 -0.359 -1.151 4.29
 -0.333 -1.149 4.287
 -0.308 -1.149 4.288
 -0.283 -1.15 4.29
 -0.258 -1.15 4.291
 -0.232 -1.149 4.29
 -0.207 -1.149 4.291
 -0.182 -1.149 4.291
 -0.157 -1.149 4.288
 -0.132 -1.148 4.287
 -0.106 -1.148 4.287
 -0.081 -1.148 4.287
 -0.056 -1.147 4.284
 -0.031 -1.148 4.286
 -0.006 -1.148 4.284
 0.018 -1.147 4.283
 0.043 -1.146 4.278
 0 0 0
 0 0 0
 0 0 0
 0 0 0
 0 0 0
 0 0 0
 0 0 0
 0 0 0
 0 0 0
 0 0 0
 0 0 0
 0 0 0
 0 0 0
 0 0 0
 0 0 0
 0 0 0
 0 0 0
 0 0 0
 0 0 0
 0 0 0
 0 0 0
 0 0 0
 0 0 0
 0 0 0
 0 0 0
 0 0 0
 0 0 0
 0 0 0
 0 0 0
 0 0 0
 0 0 0
 0 0 0
 0 0 0
 0 0 0
 0 0 0
 0 0 0
 0.989 -1.172 4.268
 1.016 -1.174 4.268
 1.042 -1.175 4.266
 1.068 -1.175 4.262
 1.095 -1.177 4.262
 1.121 -1.178 4.26
 1.147 -1.179 4.256
 1.173 -1.179 4.251
 1.2 -1.18 4.249
 1.227 -1.182 4.249
 1.254 -1.183 4.245
 1.281 -1.184 4.243
 1.308 -1.186 4.242
 1.336 -1.188 4.241
 1.363 -1.189 4.237
 1.391 -1.19 4.236
 1.42 -1.193 4.238
 1.448 -1.195 4.236
 1.476 -1.197 4.235
 1.504 -1.199 4.233
 1.532 -1.201 4.231
 1.56 -1.202 4.226
 1.589 -1.204 4.227
 1.617 -1.206 4.222
 1.645 -1.207 4.217
 1.674 -1.209 4.216
 1.702 -1.211 4.213
 1.73 -1.212 4.206
 1.761 -1.215 4.207
 1.789 -1.217 4.202
 1.815 -1.217 4.192
 1.844 -1.218 4.186
 1.873 -1.22 4.182
 0 0 0
 0 0 0
 0 0 0
 0 0 0
 0 0 0
 0 0 0
 0 0 0
 0 0 0
 0 0 0
 0 0 0
 0 0 0
 0 0 0
 0 0 0
 0 0 0
 1.807 -0.974 3.186
 1.825 -0.972 3.17
 1.845 -0.972 3.158
 1.873 -0.975 3.158
 -2.509 -1.288 4.398
 -2.444 -1.269 4.348
 -2.424 -1.274 4.377
 -2.386 -1.269 4.374
 -2.352 -1.267 4.379
 -2.314 -1.262 4.374
 -2.276 -1.256 4.368
 -2.24 -1.252 4.366
 -2.203 -1.247 4.362
 -2.166 -1.242 4.356
