 1.825 -1.642 3.725
 1.826 -1.621 3.667
 1.841 -1.612 3.636
 1.835 -1.586 3.565
 1.876 -1.601 3.588
 1.856 -1.564 3.494
 1.876 -1.561 3.475
 1.838 -1.511 3.353
 1.858 -1.508 3.336
 1.843 -1.479 3.259
 1.84 -1.458 3.202
 1.835 -1.437 3.145
 1.826 -1.414 3.082
 1.839 -1.408 3.058
 1.841 -1.394 3.015
 1.822 -1.364 2.939
 -2.211 -1.648 3.702
 -2.154 -1.624 3.661
 -2.14 -1.633 3.694
 -2.115 -1.633 3.707
 -2.086 -1.631 3.713
 -2.06 -1.63 3.725
 -2.038 -1.633 3.742
 -2.013 -1.633 3.754
 -1.987 -1.633 3.766
 -1.965 -1.636 3.783
 -1.939 -1.635 3.794
 -1.913 -1.635 3.803
 -1.889 -1.636 3.818
 -1.865 -1.638 3.831
 -1.838 -1.636 3.839
 -1.812 -1.636 3.849
 -1.785 -1.635 3.856
 -1.758 -1.633 3.862
 -1.732 -1.633 3.872
 -1.707 -1.633 3.882
 -1.681 -1.633 3.889
 -1.655 -1.633 3.899
 -1.629 -1.631 3.905
 -1.6 -1.628 3.906
 -1.573 -1.627 3.911
 -1.547 -1.626 3.919
 -1.523 -1.627 3.93
 -1.497 -1.627 3.937
 -1.473 -1.628 3.948
 -1.448 -1.629 3.957
 -1.422 -1.628 3.963
 -1.394 -1.625 3.963
 -1.369 -1.625 3.971
 -1.344 -1.625 3.979
 -1.319 -1.626 3.987
 -1.295 -1.627 3.996
 -1.27 -1.628 4.006
 -1.244 -1.627 4.011
 -1.219 -1.627 4.017
 -1.193 -1.626 4.022
 -1.166 -1.624 4.022
 -1.141 -1.624 4.028
 -1.116 -1.625 4.036
 -1.09 -1.623 4.038
 -1.065 -1.624 4.044
 -1.04 -1.624 4.049
 -1.014 -1.622 4.051
 -0.988 -1.622 4.054
 -0.963 -1.621 4.059
 -0.937 -1.62 4.06
 -0.911 -1.619 4.062
 -0.885 -1.618 4.065
 -0.861 -1.62 4.072
 -0.836 -1.62 4.078
 -0.811 -1.62 4.082
 -0.785 -1.619 4.084
 -0.761 -1.62 4.089
 -0.736 -1.62 4.093
 -0.71 -1.619 4.094
 -0.685 -1.62 4.098
 -0.661 -1.621 4.106
 -0.636 -1.621 4.109
 -0.61 -1.621 4.112
 -0.585 -1.622 4.116
 -0.561 -1.623 4.122
 -0.536 -1.623 4.125
 -0.51 -1.623 4.126
 -0.485 -1.622 4.126
 -0.46 -1.623 4.13
 -0.434 -1.62 4.126
 -0.409 -1.619 4.125
 -0.384 -1.62 4.129
 -0.359 -1.619 4.127
 -0.334 -1.62 4.131
 -0.309 -1.621 4.135
 -0.284 -1.622 4.138
 -0.259 -1.62 4.136
 -0.234 -1.621 4.14
 -0.209 -1.621 4.14
 -0.184 -1.622 4.142
 -0.159 -1.621 4.14
 -0.134 -1.621 4.143
 -0.109 -1.621 4.141
 -0.084 -1.619 4.136
 -0.059 -1.617 4.131
 -0.034 -1.618 4.133
 -0.009 -1.616 4.13
 0.015 -1.619 4.135
 0.04 -1.619 4.137
 0.065 -1.622 4.142
 0.09 -1.62 4.137
 0.115 -1.62 4.135
 0.14 -1.617 4.129
 0.165 -1.617 4.127
 0.19 -1.616 4.122
 0.215 -1.617 4.125
 0.24 -1.617 4.122
 0.265 -1.618 4.122
 0.29 -1.619 4.124
 0.315 -1.618 4.12
 0.339 -1.618 4.117
 0.365 -1.619 4.118
 0.389 -1.619 4.116
 0.414 -1.617 4.109
 0.438 -1.616 4.103
 0.463 -1.616 4.101
 0.489 -1.617 4.101
 0.514 -1.619 4.102
 0.54 -1.621 4.104
 0.565 -1.623 4.108
 0.591 -1.624 4.106
 0.615 -1.623 4.101
 0.64 -1.623 4.097
 0.665 -1.624 4.096
 0.692 -1.627 4.1
 0.718 -1.629 4.101
 0.743 -1.63 4.097
 0.768 -1.629 4.093
 0.792 -1.629 4.086
 0.816 -1.627 4.077
 0.841 -1.627 4.071
 0.867 -1.627 4.068
 0.892 -1.628 4.065
 0.917 -1.629 4.062
 0.942 -1.629 4.057
 0.968 -1.629 4.052
 0.993 -1.631 4.05
 1.019 -1.631 4.045
 1.045 -1.632 4.043
 1.07 -1.633 4.038
 1.095 -1.633 4.032
 1.12 -1.633 4.025
 1.146 -1.634 4.022
 1.171 -1.635 4.017
 1.197 -1.636 4.014
 1.224 -1.638 4.011
 1.25 -1.64 4.008
 1.277 -1.642 4.006
 1.302 -1.642 4
 1.329 -1.644 3.996
 1.355 -1.645 3.99
 1.379 -1.644 3.981
 1.404 -1.644 3.972
 1.428 -1.642 3.96
 1.45 -1.639 3.944
 1.475 -1.639 3.935
 1.5 -1.638 3.925
 1.523 -1.637 3.912
 1.549 -1.638 3.905
 1.575 -1.638 3.897
 1.599 -1.637 3.886
 1.623 -1.637 3.875
 1.648 -1.637 3.865
 1.672 -1.635 3.852
 1.696 -1.635 3.841
 1.721 -1.634 3.829
 1.745 -1.634 3.818
 1.771 -1.635 3.809
 1.797 -1.635 3.8
 1.819 -1.633 3.783
 1.837 -1.627 3.758
 1.851 -1.618 3.726
 1.861 -1.605 3.685
 1.865 -1.587 3.634
 1.868 -1.57 3.582
 1.87 -1.552 3.529
 1.873 -1.535 3.479
 1.873 -1.516 3.425
 1.867 -1.493 3.361
 1.851 -1.462 3.281
 1.836 -1.433 3.204
 1.835 -1.415 3.153
 1.836 -1.4 3.107
 1.839 -1.387 3.066
 1.843 -1.374 3.026
 1.852 -1.365 2.996
 -2.24 -1.643 3.761
 -2.228 -1.654 3.798
 -2.171 -1.631 3.757
 -2.143 -1.629 3.767
 -2.114 -1.627 3.773
 -2.089 -1.627 3.786
 -2.065 -1.629 3.802
 -2.039 -1.629 3.814
 -2.015 -1.63 3.829
 -1.992 -1.633 3.846
 -1.966 -1.632 3.856
 -1.939 -1.632 3.866
 -1.914 -1.632 3.878
 -1.888 -1.632 3.89
 -1.861 -1.632 3.898
 -1.835 -1.632 3.909
 -1.81 -1.632 3.919
 -1.782 -1.63 3.925
 -1.756 -1.63 3.935
 -1.73 -1.63 3.944
 -1.704 -1.629 3.952
 -1.677 -1.628 3.96
 -1.65 -1.628 3.967
 -1.622 -1.625 3.97
 -1.594 -1.623 3.974
 -1.568 -1.623 3.981
 -1.543 -1.623 3.99
 -1.518 -1.623 4
 -1.493 -1.624 4.01
 -1.468 -1.625 4.02
 -1.441 -1.624 4.026
 -1.414 -1.622 4.028
 -1.387 -1.621 4.034
 -1.361 -1.62 4.039
 -1.335 -1.62 4.046
 -1.31 -1.621 4.055
 -1.286 -1.622 4.065
 -1.259 -1.621 4.069
 -1.233 -1.621 4.075
 -1.208 -1.622 4.082
 -1.181 -1.619 4.083
 -1.155 -1.619 4.089
 -1.13 -1.62 4.096
 -1.105 -1.62 4.102
 -1.078 -1.619 4.105
 -1.053 -1.619 4.112
 -1.027 -1.618 4.114
 -1.001 -1.617 4.117
 -0.974 -1.616 4.118
 -0.948 -1.615 4.12
 -0.922 -1.614 4.122
 -0.896 -1.613 4.125
 -0.872 -1.614 4.132
 -0.846 -1.615 4.137
 -0.821 -1.614 4.141
 -0.795 -1.614 4.143
 -0.769 -1.614 4.146
 -0.744 -1.613 4.149
 -0.718 -1.612 4.148
 -0.692 -1.612 4.151
 -0.667 -1.613 4.158
 -0.642 -1.613 4.161
 -0.616 -1.612 4.162
 -0.592 -1.614 4.168
 -0.567 -1.615 4.174
 -0.541 -1.615 4.176
 -0.515 -1.614 4.176
 -0.49 -1.614 4.179
 -0.465 -1.614 4.181
 -0.439 -1.611 4.176
 -0.413 -1.61 4.174
 -0.388 -1.611 4.18
 -0.362 -1.609 4.176
 -0.337 -1.611 4.181
 -0.312 -1.612 4.185
 -0.287 -1.612 4.187
 -0.261 -1.61 4.183
 -0.236 -1.61 4.185
 -0.211 -1.609 4.182
 -0.185 -1.61 4.184
 -0.16 -1.609 4.182
 -0.135 -1.609 4.185
 -0.11 -1.608 4.183
 -0.084 -1.607 4.179
 -0.059 -1.605 4.175
 -0.034 -1.607 4.178
 -0.009 -1.606 4.175
 0.016 -1.608 4.181
 0.041 -1.609 4.182
 0.066 -1.611 4.187
 0.091 -1.609 4.183
 0.116 -1.609 4.18
 0.141 -1.607 4.175
 0.167 -1.607 4.175
 0.192 -1.606 4.169
 0.217 -1.607 4.172
 0.242 -1.608 4.172
 0.268 -1.609 4.173
 0.293 -1.61 4.174
 0.318 -1.61 4.172
 0.343 -1.609 4.167
 0.368 -1.609 4.166
 0.393 -1.609 4.164
 0.418 -1.608 4.158
 0.443 -1.607 4.152
 0.468 -1.607 4.15
 0.493 -1.607 4.148
 0.519 -1.609 4.149
 0.545 -1.61 4.15
 0.571 -1.612 4.153
 0.596 -1.614 4.152
 0.622 -1.614 4.151
 0.647 -1.614 4.146
 0.673 -1.616 4.147
 0.699 -1.617 4.148
 0.725 -1.619 4.148
 0.75 -1.619 4.142
 0.775 -1.62 4.14
 0.8 -1.619 4.134
 0.826 -1.619 4.13
 0.851 -1.619 4.124
 0.877 -1.62 4.123
 0.902 -1.621 4.12
 0.928 -1.622 4.117
 0.953 -1.622 4.112
 0.979 -1.623 4.11
 1.006 -1.625 4.108
 1.031 -1.625 4.102
 1.058 -1.627 4.102
 1.084 -1.628 4.098
 1.108 -1.627 4.09
 1.134 -1.627 4.084
 1.16 -1.629 4.081
 1.186 -1.63 4.076
 1.213 -1.631 4.074
 1.24 -1.633 4.072
 1.267 -1.636 4.072
 1.294 -1.638 4.069
 1.319 -1.638 4.061
 1.346 -1.639 4.057
 1.372 -1.64 4.051
 1.397 -1.639 4.04
 1.421 -1.637 4.027
 1.445 -1.636 4.017
 1.469 -1.634 4.003
 1.494 -1.634 3.994
 1.519 -1.633 3.983
 1.544 -1.633 3.975
 1.571 -1.634 3.968
 1.595 -1.634 3.957
 1.62 -1.634 3.947
 1.645 -1.633 3.936
 1.67 -1.633 3.926
 1.695 -1.632 3.914
 1.72 -1.632 3.903
 1.744 -1.631 3.89
 1.769 -1.631 3.88
 1.793 -1.629 3.866
 1.817 -1.628 3.852
 1.836 -1.623 3.828
 1.851 -1.614 3.797
 1.862 -1.602 3.757
 1.871 -1.588 3.713
 1.875 -1.571 3.662
 1.879 -1.555 3.612
 1.881 -1.536 3.558
 1.884 -1.52 3.509
 1.884 -1.501 3.453
 1.871 -1.473 3.376
 1.848 -1.438 3.284
 1.831 -1.407 3.203
 1.831 -1.391 3.155
 1.834 -1.377 3.113
 1.84 -1.365 3.075
 1.835 -1.346 3.02
 1.82 -1.321 2.952
 -2.213 -1.598 3.725
 -2.222 -1.623 3.798
 -2.201 -1.627 3.82
 -2.173 -1.626 3.829
 -2.145 -1.624 3.838
 -2.119 -1.624 3.851
 -2.093 -1.625 3.864
 -2.068 -1.626 3.878
 -2.043 -1.626 3.892
 -2.019 -1.628 3.907
 -1.992 -1.628 3.918
 -1.966 -1.628 3.93
 -1.939 -1.627 3.939
 -1.914 -1.629 3.953
 -1.887 -1.628 3.963
 -1.86 -1.627 3.971
 -1.833 -1.627 3.98
 -1.805 -1.625 3.987
 -1.779 -1.625 3.996
 -1.751 -1.624 4.003
 -1.725 -1.624 4.012
 -1.698 -1.623 4.02
 -1.672 -1.623 4.03
 -1.644 -1.621 4.032
 -1.616 -1.619 4.038
 -1.59 -1.619 4.046
 -1.564 -1.619 4.054
 -1.538 -1.619 4.063
 -1.513 -1.62 4.075
 -1.487 -1.621 4.083
 -1.46 -1.62 4.088
 -1.433 -1.618 4.092
 -1.406 -1.617 4.096
 -1.378 -1.615 4.099
 -1.352 -1.615 4.106
 -1.326 -1.615 4.113
 -1.301 -1.615 4.121
 -1.274 -1.614 4.125
 -1.248 -1.614 4.131
 -1.222 -1.614 4.138
 -1.195 -1.614 4.143
 -1.17 -1.614 4.149
 -1.144 -1.614 4.155
 -1.118 -1.614 4.162
 -1.091 -1.612 4.161
 -1.064 -1.611 4.165
 -1.037 -1.609 4.165
 -1.012 -1.609 4.171
 -0.985 -1.608 4.172
 -0.959 -1.608 4.177
 -0.933 -1.607 4.179
 -0.906 -1.606 4.181
 -0.88 -1.605 4.182
 -0.854 -1.604 4.185
 -0.828 -1.603 4.187
 -0.801 -1.602 4.186
 -0.776 -1.602 4.19
 -0.75 -1.602 4.195
 -0.724 -1.6 4.193
 -0.698 -1.6 4.195
 -0.673 -1.601 4.202
 -0.647 -1.601 4.204
 -0.621 -1.599 4.204
 -0.596 -1.6 4.208
 -0.571 -1.601 4.213
 -0.545 -1.601 4.214
 -0.519 -1.6 4.215
 -0.494 -1.6 4.218
 -0.468 -1.6 4.22
 -0.442 -1.597 4.215
 -0.416 -1.596 4.214
 -0.391 -1.597 4.218
 -0.365 -1.595 4.215
 -0.339 -1.596 4.219
 -0.314 -1.597 4.223
 -0.289 -1.597 4.222
 -0.263 -1.595 4.22
 -0.237 -1.596 4.222
 -0.212 -1.595 4.22
 -0.186 -1.595 4.222
 -0.161 -1.594 4.22
 -0.136 -1.595 4.222
 -0.11 -1.594 4.219
 -0.085 -1.592 4.216
 -0.059 -1.591 4.212
 -0.034 -1.592 4.216
 -0.009 -1.592 4.213
 0.016 -1.593 4.216
 0.041 -1.594 4.219
 0.067 -1.595 4.222
 0.092 -1.595 4.219
 0.117 -1.595 4.219
 0.143 -1.594 4.215
 0.168 -1.594 4.214
 0.193 -1.593 4.211
 0.219 -1.593 4.21
 0.244 -1.593 4.209
 0.269 -1.594 4.209
 0.295 -1.594 4.208
 0.32 -1.594 4.206
 0.345 -1.594 4.202
 0.371 -1.594 4.202
 0.396 -1.595 4.202
 0.422 -1.595 4.198
 0.447 -1.594 4.195
 0.472 -1.595 4.193
 0.498 -1.595 4.192
 0.523 -1.596 4.191
 0.549 -1.598 4.192
 0.575 -1.599 4.192
 0.601 -1.599 4.19
 0.626 -1.6 4.187
 0.651 -1.6 4.184
 0.677 -1.601 4.183
 0.703 -1.602 4.183
 0.73 -1.605 4.185
 0.755 -1.605 4.183
 0.782 -1.607 4.183
 0.807 -1.607 4.179
 0.833 -1.608 4.176
 0.859 -1.608 4.171
 0.885 -1.61 4.171
 0.91 -1.61 4.166
 0.937 -1.611 4.163
 0.963 -1.612 4.161
 0.989 -1.613 4.159
 1.015 -1.614 4.156
 1.041 -1.615 4.151
 1.068 -1.616 4.149
 1.094 -1.617 4.145
 1.119 -1.617 4.138
 1.145 -1.617 4.132
 1.172 -1.619 4.129
 1.198 -1.62 4.126
 1.224 -1.621 4.121
 1.251 -1.623 4.119
 1.279 -1.625 4.118
 1.307 -1.628 4.117
 1.333 -1.628 4.11
 1.36 -1.63 4.108
 1.387 -1.632 4.104
 1.413 -1.631 4.095
 1.437 -1.63 4.083
 1.462 -1.629 4.072
 1.487 -1.628 4.061
 1.513 -1.628 4.053
 1.539 -1.628 4.044
 1.564 -1.628 4.035
 1.591 -1.63 4.029
 1.616 -1.629 4.018
 1.641 -1.629 4.008
 1.667 -1.628 3.997
 1.693 -1.629 3.988
 1.718 -1.628 3.976
 1.743 -1.627 3.964
 1.767 -1.626 3.952
 1.792 -1.626 3.939
 1.815 -1.623 3.923
 1.837 -1.621 3.905
 1.855 -1.613 3.877
 1.868 -1.603 3.84
 1.877 -1.59 3.797
 1.885 -1.575 3.75
 1.888 -1.557 3.697
 1.891 -1.54 3.643
 1.892 -1.521 3.588
 1.892 -1.502 3.532
 1.896 -1.487 3.484
 1.881 -1.458 3.404
 1.846 -1.413 3.288
 1.824 -1.38 3.199
 1.829 -1.367 3.159
 1.835 -1.356 3.121
 1.842 -1.346 3.086
 1.881 -1.358 3.104
 1.834 -1.31 2.982
 -2.28 -1.62 3.85
 -2.281 -1.639 3.909
 -2.231 -1.623 3.883
 -2.204 -1.623 3.895
 -2.177 -1.622 3.906
 -2.15 -1.622 3.917
 -2.123 -1.621 3.929
 -2.096 -1.622 3.942
 -2.07 -1.622 3.954
 -2.045 -1.623 3.968
 -2.019 -1.623 3.981
 -1.993 -1.624 3.994
 -1.965 -1.623 4.003
 -1.939 -1.623 4.015
 -1.912 -1.623 4.025
 -1.885 -1.623 4.035
 -1.858 -1.623 4.044
 -1.831 -1.622 4.053
 -1.803 -1.621 4.061
 -1.775 -1.619 4.067
 -1.749 -1.62 4.077
 -1.721 -1.618 4.083
 -1.694 -1.618 4.092
 -1.665 -1.616 4.095
 -1.638 -1.615 4.102
 -1.611 -1.614 4.109
 -1.584 -1.614 4.117
 -1.558 -1.614 4.126
 -1.532 -1.615 4.136
 -1.505 -1.614 4.143
 -1.477 -1.613 4.147
 -1.45 -1.611 4.151
 -1.422 -1.61 4.155
 -1.394 -1.608 4.158
 -1.368 -1.608 4.163
 -1.341 -1.607 4.17
 -1.315 -1.608 4.178
 -1.288 -1.607 4.182
 -1.261 -1.605 4.185
 -1.235 -1.606 4.192
 -1.208 -1.604 4.194
 -1.181 -1.603 4.197
 -1.154 -1.602 4.202
 -1.128 -1.603 4.209
 -1.101 -1.601 4.21
 -1.074 -1.601 4.214
 -1.047 -1.599 4.215
 -1.021 -1.599 4.219
 -0.994 -1.597 4.22
 -0.967 -1.596 4.223
 -0.941 -1.595 4.223
 -0.914 -1.593 4.223
 -0.887 -1.591 4.223
 -0.86 -1.59 4.225
 -0.834 -1.589 4.225
 -0.807 -1.587 4.224
 -0.781 -1.587 4.226
 -0.755 -1.586 4.23
 -0.728 -1.585 4.228
 -0.702 -1.584 4.23
 -0.677 -1.585 4.237
 -0.651 -1.585 4.239
 -0.625 -1.583 4.238
 -0.599 -1.583 4.24
 -0.573 -1.583 4.243
 -0.547 -1.582 4.242
 -0.521 -1.58 4.24
 -0.495 -1.581 4.243
 -0.47 -1.581 4.246
 -0.443 -1.579 4.242
 -0.417 -1.577 4.24
 -0.392 -1.578 4.244
 -0.366 -1.578 4.244
 -0.341 -1.578 4.245
 -0.315 -1.578 4.247
 -0.29 -1.578 4.249
 -0.264 -1.577 4.248
 -0.238 -1.577 4.248
 -0.213 -1.576 4.247
 -0.187 -1.577 4.25
 -0.162 -1.577 4.249
 -0.136 -1.576 4.249
 -0.11 -1.576 4.247
 -0.085 -1.575 4.245
 -0.059 -1.573 4.241
 -0.034 -1.574 4.243
 -0.008 -1.574 4.243
 0.016 -1.574 4.242
 0.042 -1.575 4.243
 0.067 -1.576 4.246
 0.093 -1.575 4.244
 0.118 -1.575 4.242
 0.144 -1.576 4.243
 0.169 -1.576 4.243
 0.194 -1.576 4.241
 0.22 -1.575 4.239
 0.245 -1.576 4.238
 0.271 -1.577 4.238
 0.296 -1.576 4.236
 0.322 -1.576 4.235
 0.347 -1.577 4.233
 0.373 -1.577 4.233
 0.399 -1.577 4.231
 0.424 -1.577 4.228
 0.449 -1.577 4.224
 0.475 -1.577 4.222
 0.5 -1.578 4.221
 0.526 -1.579 4.221
 0.552 -1.58 4.22
 0.578 -1.581 4.221
 0.604 -1.582 4.22
 0.629 -1.582 4.217
 0.655 -1.582 4.214
 0.681 -1.584 4.213
 0.707 -1.585 4.212
 0.734 -1.587 4.215
 0.76 -1.588 4.214
 0.786 -1.59 4.213
 0.813 -1.591 4.213
 0.839 -1.592 4.211
 0.864 -1.592 4.206
 0.89 -1.593 4.204
 0.916 -1.594 4.2
 0.943 -1.595 4.199
 0.97 -1.597 4.198
 0.996 -1.598 4.194
 1.022 -1.599 4.192
 1.049 -1.6 4.189
 1.075 -1.601 4.184
 1.102 -1.602 4.183
 1.128 -1.603 4.179
 1.155 -1.605 4.176
 1.182 -1.607 4.176
 1.21 -1.609 4.175
 1.236 -1.61 4.169
 1.263 -1.611 4.166
 1.29 -1.613 4.162
 1.318 -1.615 4.16
 1.343 -1.615 4.152
 1.371 -1.617 4.15
 1.398 -1.618 4.145
 1.425 -1.619 4.139
 1.45 -1.618 4.128
 1.477 -1.619 4.121
 1.502 -1.618 4.112
 1.529 -1.62 4.106
 1.555 -1.619 4.096
 1.581 -1.62 4.088
 1.608 -1.62 4.081
 1.634 -1.62 4.071
 1.66 -1.621 4.062
 1.687 -1.622 4.055
 1.714 -1.622 4.046
 1.739 -1.622 4.035
 1.764 -1.621 4.022
 1.788 -1.619 4.008
 1.812 -1.617 3.992
 1.833 -1.613 3.97
 1.852 -1.607 3.944
 1.866 -1.597 3.909
 1.876 -1.585 3.867
 1.884 -1.57 3.82
 1.891 -1.555 3.773
 1.896 -1.539 3.721
 1.9 -1.523 3.67
 1.896 -1.5 3.605
 1.904 -1.487 3.563
 1.915 -1.477 3.527
 1.912 -1.458 3.468
 1.837 -1.384 3.281
 1.81 -1.347 3.182
 1.821 -1.34 3.153
 1.835 -1.334 3.129
 1.842 -1.324 3.094
 1.832 -1.302 3.032
 1.821 -1.28 2.968
 -2.317 -1.619 3.922
 -2.273 -1.607 3.905
 -2.258 -1.615 3.939
 -2.231 -1.616 3.952
 -2.207 -1.618 3.97
 -2.179 -1.617 3.981
 -2.152 -1.617 3.993
 -2.126 -1.618 4.008
 -2.099 -1.618 4.019
 -2.072 -1.618 4.032
 -2.047 -1.62 4.047
 -2.02 -1.619 4.058
 -1.991 -1.618 4.065
 -1.965 -1.618 4.078
 -1.938 -1.618 4.089
 -1.91 -1.618 4.099
 -1.883 -1.617 4.108
 -1.854 -1.616 4.115
 -1.825 -1.614 4.121
 -1.798 -1.614 4.129
 -1.77 -1.613 4.137
 -1.742 -1.612 4.144
 -1.716 -1.612 4.154
 -1.688 -1.611 4.162
 -1.66 -1.61 4.167
 -1.631 -1.608 4.171
 -1.604 -1.607 4.178
 -1.577 -1.607 4.186
 -1.549 -1.606 4.192
 -1.521 -1.605 4.196
 -1.492 -1.603 4.199
 -1.464 -1.601 4.202
 -1.436 -1.599 4.203
 -1.407 -1.596 4.204
 -1.38 -1.595 4.21
 -1.352 -1.595 4.214
 -1.326 -1.594 4.221
 -1.298 -1.593 4.224
 -1.271 -1.591 4.226
 -1.244 -1.591 4.232
 -1.216 -1.59 4.235
 -1.189 -1.588 4.235
 -1.161 -1.586 4.238
 -1.135 -1.587 4.244
 -1.107 -1.584 4.244
 -1.08 -1.583 4.246
 -1.053 -1.582 4.248
 -1.027 -1.582 4.252
 -1 -1.581 4.254
 -0.973 -1.58 4.256
 -0.946 -1.579 4.258
 -0.919 -1.577 4.258
 -0.892 -1.575 4.257
 -0.865 -1.573 4.256
 -0.838 -1.571 4.256
 -0.811 -1.569 4.253
 -0.784 -1.568 4.255
 -0.758 -1.568 4.257
 -0.731 -1.566 4.255
 -0.705 -1.565 4.256
 -0.679 -1.565 4.261
 -0.653 -1.565 4.262
 -0.627 -1.563 4.259
 -0.601 -1.563 4.262
 -0.575 -1.563 4.265
 -0.549 -1.561 4.263
 -0.522 -1.56 4.262
 -0.497 -1.56 4.265
 -0.471 -1.559 4.264
 -0.444 -1.557 4.26
 -0.418 -1.556 4.259
 -0.393 -1.556 4.261
 -0.367 -1.555 4.261
 -0.341 -1.556 4.264
 -0.316 -1.556 4.266
 -0.29 -1.556 4.268
 -0.264 -1.556 4.267
 -0.239 -1.555 4.265
 -0.213 -1.554 4.263
 -0.187 -1.553 4.263
 -0.162 -1.553 4.262
 -0.136 -1.553 4.262
 -0.11 -1.552 4.261
 -0.085 -1.552 4.261
 -0.059 -1.551 4.259
 -0.034 -1.552 4.26
 -0.008 -1.552 4.261
 0.016 -1.552 4.258
 0.042 -1.552 4.259
 0.067 -1.552 4.259
 0.093 -1.552 4.258
 0.118 -1.551 4.254
 0.144 -1.552 4.255
 0.169 -1.552 4.254
 0.195 -1.551 4.251
 0.22 -1.551 4.25
 0.246 -1.551 4.249
 0.271 -1.551 4.247
 0.297 -1.551 4.245
 0.322 -1.552 4.246
 0.348 -1.553 4.246
 0.374 -1.554 4.246
 0.399 -1.555 4.246
 0.425 -1.555 4.245
 0.45 -1.555 4.242
 0.476 -1.555 4.24
 0.502 -1.556 4.24
 0.528 -1.557 4.239
 0.553 -1.558 4.238
 0.579 -1.559 4.238
 0.605 -1.559 4.236
 0.631 -1.561 4.237
 0.657 -1.561 4.235
 0.683 -1.563 4.234
 0.709 -1.564 4.233
 0.736 -1.566 4.234
 0.761 -1.566 4.23
 0.788 -1.568 4.233
 0.815 -1.57 4.234
 0.841 -1.572 4.233
 0.868 -1.572 4.23
 0.894 -1.574 4.229
 0.92 -1.573 4.223
 0.946 -1.575 4.221
 0.973 -1.577 4.221
 0.999 -1.578 4.218
 1.027 -1.58 4.218
 1.054 -1.581 4.217
 1.08 -1.582 4.213
 1.108 -1.585 4.213
 1.135 -1.586 4.211
 1.161 -1.587 4.208
 1.189 -1.59 4.207
 1.216 -1.592 4.205
 1.243 -1.592 4.199
 1.27 -1.593 4.196
 1.298 -1.596 4.195
 1.325 -1.598 4.192
 1.352 -1.598 4.186
 1.38 -1.601 4.185
 1.407 -1.602 4.181
 1.435 -1.603 4.176
 1.461 -1.604 4.168
 1.488 -1.605 4.162
 1.514 -1.605 4.153
 1.542 -1.607 4.15
 1.569 -1.607 4.142
 1.596 -1.608 4.134
 1.623 -1.609 4.127
 1.65 -1.61 4.119
 1.677 -1.61 4.112
 1.704 -1.611 4.104
 1.731 -1.612 4.096
 1.758 -1.612 4.086
 1.782 -1.611 4.072
 1.806 -1.609 4.056
 1.828 -1.605 4.037
 1.847 -1.599 4.009
 1.864 -1.591 3.979
 1.876 -1.58 3.94
 1.884 -1.565 3.89
 1.892 -1.551 3.845
 1.901 -1.538 3.801
 1.905 -1.521 3.748
 1.91 -1.505 3.697
 1.905 -1.483 3.63
 1.911 -1.469 3.585
 1.922 -1.459 3.549
 0 0 0
 1.824 -1.351 3.264
 1.808 -1.324 3.187
 1.823 -1.319 3.164
 1.838 -1.315 3.142
 1.844 -1.304 3.105
 1.849 -1.293 3.067
 1.825 -1.262 2.982
 -2.367 -1.627 4.016
 -2.302 -1.601 3.965
 -2.293 -1.613 4.01
 -2.263 -1.612 4.02
 -2.238 -1.614 4.037
 -2.21 -1.613 4.047
 -2.181 -1.611 4.057
 -2.154 -1.612 4.07
 -2.126 -1.612 4.082
 -2.099 -1.611 4.093
 -2.072 -1.612 4.107
 -2.045 -1.612 4.119
 -2.015 -1.61 4.125
 -1.989 -1.611 4.138
 -1.962 -1.612 4.151
 -1.933 -1.61 4.158
 -1.905 -1.609 4.166
 -1.876 -1.607 4.172
 -1.846 -1.606 4.178
 -1.817 -1.604 4.183
 -1.79 -1.604 4.192
 -1.761 -1.603 4.199
 -1.734 -1.602 4.207
 -1.705 -1.601 4.213
 -1.676 -1.599 4.218
 -1.647 -1.597 4.221
 -1.619 -1.596 4.227
 -1.591 -1.595 4.233
 -1.563 -1.593 4.238
 -1.534 -1.591 4.24
 -1.504 -1.589 4.242
 -1.476 -1.587 4.244
 -1.446 -1.584 4.245
 -1.417 -1.581 4.244
 -1.39 -1.58 4.249
 -1.361 -1.578 4.251
 -1.334 -1.578 4.256
 -1.306 -1.576 4.258
 -1.278 -1.574 4.259
 -1.25 -1.573 4.263
 -1.223 -1.572 4.266
 -1.194 -1.569 4.264
 -1.166 -1.567 4.265
 -1.14 -1.567 4.271
 -1.112 -1.565 4.27
 -1.084 -1.563 4.271
 -1.057 -1.562 4.274
 -1.031 -1.562 4.278
 -1.004 -1.561 4.28
 -0.977 -1.559 4.281
 -0.949 -1.558 4.281
 -0.922 -1.556 4.28
 -0.895 -1.553 4.278
 -0.867 -1.551 4.275
 -0.84 -1.549 4.274
 -0.813 -1.548 4.275
 -0.787 -1.547 4.276
 -0.76 -1.546 4.277
 -0.733 -1.544 4.276
 -0.707 -1.544 4.279
 -0.681 -1.544 4.281
 -0.654 -1.542 4.279
 -0.628 -1.54 4.277
 -0.602 -1.54 4.28
 -0.575 -1.538 4.277
 -0.549 -1.536 4.274
 -0.523 -1.536 4.275
 -0.497 -1.535 4.275
 -0.471 -1.534 4.274
 -0.445 -1.533 4.273
 -0.419 -1.532 4.273
 -0.393 -1.531 4.272
 -0.367 -1.531 4.272
 -0.341 -1.531 4.273
 -0.316 -1.53 4.274
 -0.29 -1.53 4.275
 -0.264 -1.531 4.277
 -0.239 -1.53 4.276
 -0.213 -1.529 4.275
 -0.187 -1.529 4.273
 -0.162 -1.527 4.271
 -0.136 -1.527 4.27
 -0.11 -1.527 4.27
 -0.085 -1.526 4.268
 -0.059 -1.525 4.265
 -0.034 -1.526 4.267
 -0.008 -1.526 4.267
 0.016 -1.525 4.263
 0.042 -1.525 4.264
 0.067 -1.526 4.265
 0.093 -1.526 4.264
 0.118 -1.525 4.261
 0.144 -1.526 4.262
 0.169 -1.526 4.262
 0.195 -1.526 4.26
 0.22 -1.525 4.257
 0.246 -1.526 4.257
 0.271 -1.526 4.255
 0.297 -1.525 4.252
 0.322 -1.526 4.253
 0.348 -1.528 4.255
 0.374 -1.528 4.254
 0.4 -1.529 4.255
 0.425 -1.531 4.256
 0.451 -1.53 4.253
 0.476 -1.53 4.25
 0.502 -1.531 4.249
 0.528 -1.531 4.247
 0.553 -1.531 4.245
 0.579 -1.532 4.244
 0.605 -1.533 4.244
 0.631 -1.535 4.243
 0.658 -1.536 4.244
 0.684 -1.538 4.244
 0.71 -1.539 4.243
 0.736 -1.541 4.244
 0.762 -1.542 4.243
 0.789 -1.543 4.243
 0.816 -1.545 4.244
 0.842 -1.547 4.244
 0.868 -1.548 4.242
 0.895 -1.549 4.24
 0.921 -1.549 4.235
 0.947 -1.55 4.233
 0.974 -1.552 4.232
 1.001 -1.554 4.232
 1.028 -1.555 4.231
 1.055 -1.558 4.231
 1.082 -1.559 4.23
 1.11 -1.562 4.23
 1.136 -1.563 4.226
 1.164 -1.564 4.224
 1.192 -1.567 4.225
 1.22 -1.569 4.224
 1.246 -1.57 4.219
 1.274 -1.572 4.217
 1.302 -1.574 4.215
 1.329 -1.576 4.212
 1.356 -1.577 4.207
 1.385 -1.58 4.208
 1.413 -1.582 4.206
 1.441 -1.584 4.204
 1.468 -1.585 4.196
 1.495 -1.586 4.19
 1.522 -1.586 4.183
 1.551 -1.589 4.18
 1.577 -1.589 4.173
 1.605 -1.591 4.167
 1.634 -1.593 4.164
 1.661 -1.594 4.157
 1.689 -1.595 4.151
 1.716 -1.596 4.142
 1.743 -1.597 4.134
 1.77 -1.597 4.124
 1.795 -1.595 4.11
 1.817 -1.592 4.09
 1.838 -1.587 4.067
 1.856 -1.58 4.037
 1.869 -1.57 4
 1.881 -1.558 3.959
 1.889 -1.543 3.91
 1.9 -1.531 3.869
 1.91 -1.519 3.827
 1.916 -1.504 3.777
 1.929 -1.495 3.743
 1.941 -1.486 3.708
 0 0 0
 0 0 0
 0 0 0
 0 0 0
 1.813 -1.306 3.203
 1.826 -1.3 3.177
 1.838 -1.293 3.149
 1.844 -1.282 3.112
 1.878 -1.291 3.122
 1.854 -1.261 3.038
 -2.381 -1.609 4.05
 0 0 0
 -2.326 -1.609 4.078
 -2.296 -1.608 4.089
 -2.27 -1.609 4.105
 -2.24 -1.607 4.112
 -2.211 -1.606 4.122
 -2.183 -1.606 4.136
 -2.155 -1.606 4.146
 -2.125 -1.605 4.155
 -2.099 -1.606 4.17
 -2.071 -1.605 4.181
 -2.04 -1.602 4.185
 -2.011 -1.601 4.194
 -1.984 -1.602 4.206
 -1.954 -1.6 4.212
 -1.923 -1.597 4.215
 -1.894 -1.596 4.222
 -1.864 -1.594 4.228
 -1.834 -1.591 4.231
 -1.805 -1.59 4.238
 -1.777 -1.589 4.245
 -1.748 -1.588 4.251
 -1.719 -1.587 4.257
 -1.689 -1.584 4.26
 -1.66 -1.583 4.265
 -1.631 -1.58 4.267
 -1.601 -1.578 4.27
 -1.571 -1.575 4.271
 -1.542 -1.573 4.272
 -1.511 -1.57 4.271
 -1.483 -1.568 4.273
 -1.453 -1.565 4.273
 -1.423 -1.562 4.272
 -1.396 -1.56 4.276
 -1.366 -1.558 4.276
 -1.338 -1.556 4.278
 -1.31 -1.554 4.279
 -1.281 -1.552 4.28
 -1.253 -1.55 4.282
 -1.226 -1.549 4.284
 -1.197 -1.546 4.282
 -1.169 -1.544 4.284
 -1.141 -1.543 4.285
 -1.113 -1.54 4.284
 -1.085 -1.538 4.284
 -1.059 -1.538 4.288
 -1.031 -1.537 4.289
 -1.005 -1.536 4.293
 -0.978 -1.535 4.294
 -0.95 -1.533 4.292
 -0.923 -1.531 4.291
 -0.895 -1.528 4.289
 -0.867 -1.526 4.286
 -0.84 -1.524 4.284
 -0.813 -1.522 4.285
 -0.786 -1.521 4.284
 -0.76 -1.52 4.285
 -0.733 -1.519 4.285
 -0.707 -1.518 4.286
 -0.681 -1.517 4.287
 -0.654 -1.516 4.286
 -0.628 -1.514 4.285
 -0.602 -1.514 4.285
 -0.575 -1.512 4.283
 -0.549 -1.51 4.281
 -0.522 -1.509 4.28
 -0.496 -1.508 4.281
 -0.47 -1.507 4.279
 -0.445 -1.507 4.28
 -0.419 -1.506 4.28
 -0.393 -1.505 4.278
 -0.367 -1.505 4.279
 -0.341 -1.504 4.279
 -0.315 -1.503 4.278
 -0.29 -1.503 4.278
 -0.264 -1.503 4.28
 -0.238 -1.503 4.28
 -0.213 -1.502 4.279
 -0.187 -1.502 4.279
 -0.161 -1.501 4.277
 -0.136 -1.501 4.276
 -0.11 -1.501 4.276
 -0.085 -1.5 4.275
 -0.059 -1.499 4.272
 -0.033 -1.5 4.274
 -0.008 -1.5 4.273
 0.017 -1.499 4.269
 0.042 -1.499 4.268
 0.068 -1.499 4.27
 0.093 -1.499 4.27
 0.119 -1.5 4.27
 0.144 -1.501 4.272
 0.17 -1.501 4.272
 0.195 -1.502 4.271
 0.221 -1.501 4.268
 0.246 -1.501 4.267
 0.271 -1.5 4.261
 0.297 -1.499 4.259
 0.322 -1.5 4.258
 0.348 -1.501 4.259
 0.374 -1.502 4.26
 0.4 -1.503 4.262
 0.426 -1.504 4.262
 0.451 -1.505 4.261
 0.477 -1.505 4.258
 0.502 -1.506 4.258
 0.528 -1.506 4.256
 0.554 -1.507 4.255
 0.58 -1.507 4.253
 0.605 -1.508 4.252
 0.631 -1.508 4.249
 0.657 -1.51 4.249
 0.683 -1.51 4.248
 0.709 -1.511 4.247
 0.736 -1.514 4.249
 0.762 -1.515 4.25
 0.789 -1.517 4.249
 0.815 -1.519 4.25
 0.842 -1.52 4.249
 0.868 -1.521 4.247
 0.894 -1.522 4.245
 0.92 -1.522 4.241
 0.947 -1.524 4.24
 0.974 -1.526 4.241
 1.001 -1.527 4.239
 1.028 -1.529 4.238
 1.055 -1.532 4.239
 1.082 -1.533 4.237
 1.11 -1.535 4.237
 1.137 -1.537 4.235
 1.164 -1.538 4.233
 1.192 -1.541 4.233
 1.22 -1.543 4.233
 1.247 -1.544 4.229
 1.274 -1.546 4.226
 1.302 -1.548 4.225
 1.33 -1.55 4.223
 1.358 -1.552 4.221
 1.386 -1.554 4.22
 1.415 -1.557 4.219
 1.444 -1.56 4.218
 1.471 -1.562 4.214
 1.499 -1.563 4.21
 1.527 -1.565 4.206
 1.556 -1.567 4.204
 1.584 -1.569 4.198
 1.612 -1.57 4.193
 1.641 -1.572 4.189
 1.669 -1.574 4.184
 1.697 -1.575 4.178
 1.724 -1.576 4.17
 1.753 -1.578 4.164
 1.779 -1.578 4.155
 1.805 -1.577 4.141
 1.826 -1.573 4.119
 1.846 -1.567 4.093
 1.862 -1.558 4.059
 1.875 -1.548 4.02
 1.887 -1.537 3.98
 1.896 -1.523 3.934
 1.909 -1.513 3.896
 1.922 -1.503 3.86
 1.928 -1.489 3.81
 1.94 -1.479 3.773
 0 0 0
 0 0 0
 0 0 0
 0 0 0
 0 0 0
 1.809 -1.281 3.203
 1.825 -1.278 3.183
 1.839 -1.272 3.158
 1.845 -1.262 3.121
 1.878 -1.27 3.13
 1.82 -1.217 2.988
 -2.418 -1.606 4.124
 -2.348 -1.578 4.065
 -2.359 -1.604 4.146
 -2.328 -1.602 4.156
 -2.3 -1.602 4.169
 -2.268 -1.599 4.174
 -2.241 -1.6 4.189
 -2.211 -1.599 4.197
 -2.181 -1.597 4.206
 -2.149 -1.594 4.211
 -2.12 -1.594 4.222
 -2.091 -1.593 4.23
 -2.058 -1.589 4.233
 -2.028 -1.587 4.239
 -1.999 -1.587 4.249
 -1.969 -1.585 4.254
 -1.937 -1.581 4.255
 -1.908 -1.58 4.263
 -1.876 -1.577 4.265
 -1.846 -1.574 4.268
 -1.816 -1.573 4.273
 -1.787 -1.571 4.279
 -1.757 -1.569 4.282
 -1.727 -1.567 4.287
 -1.697 -1.564 4.289
 -1.668 -1.563 4.293
 -1.638 -1.56 4.295
 -1.608 -1.558 4.297
 -1.578 -1.555 4.299
 -1.547 -1.552 4.296
 -1.516 -1.548 4.294
 -1.487 -1.545 4.295
 -1.457 -1.542 4.293
 -1.426 -1.538 4.29
 -1.398 -1.537 4.294
 -1.369 -1.535 4.295
 -1.34 -1.532 4.294
 -1.312 -1.53 4.294
 -1.283 -1.528 4.295
 -1.255 -1.526 4.297
 -1.226 -1.523 4.296
 -1.198 -1.521 4.294
 -1.169 -1.519 4.294
 -1.142 -1.517 4.295
 -1.113 -1.515 4.294
 -1.086 -1.513 4.294
 -1.059 -1.512 4.297
 -1.031 -1.51 4.298
 -1.004 -1.509 4.299
 -0.977 -1.508 4.301
 -0.949 -1.505 4.298
 -0.922 -1.504 4.298
 -0.895 -1.502 4.297
 -0.867 -1.499 4.293
 -0.84 -1.497 4.291
 -0.813 -1.496 4.291
 -0.786 -1.494 4.29
 -0.76 -1.493 4.291
 -0.733 -1.492 4.29
 -0.707 -1.491 4.292
 -0.68 -1.49 4.293
 -0.654 -1.489 4.291
 -0.627 -1.487 4.29
 -0.601 -1.487 4.292
 -0.575 -1.485 4.289
 -0.548 -1.484 4.287
 -0.522 -1.483 4.287
 -0.496 -1.482 4.287
 -0.47 -1.481 4.285
 -0.444 -1.48 4.284
 -0.418 -1.479 4.284
 -0.392 -1.478 4.282
 -0.366 -1.478 4.283
 -0.341 -1.477 4.283
 -0.315 -1.477 4.283
 -0.289 -1.476 4.281
 -0.264 -1.477 4.285
 -0.238 -1.476 4.283
 -0.212 -1.475 4.281
 -0.187 -1.475 4.28
 -0.161 -1.475 4.281
 -0.135 -1.473 4.278
 -0.11 -1.474 4.279
 -0.084 -1.474 4.28
 -0.059 -1.473 4.277
 -0.033 -1.474 4.279
 -0.008 -1.474 4.278
 0.017 -1.473 4.276
 0.042 -1.472 4.274
 0.068 -1.473 4.276
 0.093 -1.473 4.274
 0.119 -1.473 4.273
 0.144 -1.474 4.274
 0.17 -1.474 4.274
 0.195 -1.474 4.273
 0.221 -1.474 4.272
 0.246 -1.474 4.27
 0.271 -1.473 4.265
 0.297 -1.473 4.264
 0.322 -1.474 4.263
 0.348 -1.474 4.264
 0.374 -1.476 4.265
 0.4 -1.477 4.268
 0.425 -1.478 4.267
 0.451 -1.478 4.265
 0.476 -1.478 4.262
 0.502 -1.478 4.26
 0.527 -1.478 4.257
 0.553 -1.479 4.257
 0.579 -1.48 4.255
 0.605 -1.481 4.255
 0.631 -1.481 4.253
 0.657 -1.483 4.254
 0.683 -1.484 4.254
 0.709 -1.485 4.253
 0.736 -1.487 4.254
 0.762 -1.489 4.256
 0.788 -1.489 4.253
 0.814 -1.49 4.251
 0.841 -1.492 4.252
 0.867 -1.493 4.25
 0.894 -1.494 4.248
 0.92 -1.496 4.247
 0.947 -1.498 4.247
 0.974 -1.499 4.246
 1.001 -1.501 4.247
 1.028 -1.503 4.246
 1.055 -1.505 4.247
 1.082 -1.507 4.245
 1.11 -1.51 4.247
 1.137 -1.511 4.244
 1.165 -1.513 4.244
 1.193 -1.515 4.243
 1.22 -1.517 4.242
 1.247 -1.518 4.237
 1.275 -1.52 4.236
 1.302 -1.522 4.233
 1.33 -1.524 4.232
 1.358 -1.526 4.23
 1.387 -1.529 4.23
 1.415 -1.531 4.228
 1.444 -1.534 4.228
 1.472 -1.536 4.225
 1.5 -1.537 4.221
 1.529 -1.539 4.218
 1.558 -1.543 4.217
 1.586 -1.544 4.212
 1.614 -1.546 4.207
 1.643 -1.548 4.205
 1.672 -1.551 4.202
 1.7 -1.551 4.194
 1.728 -1.553 4.189
 1.757 -1.555 4.184
 1.785 -1.557 4.177
 1.81 -1.555 4.161
 1.832 -1.551 4.14
 1.85 -1.544 4.111
 1.866 -1.536 4.078
 1.878 -1.524 4.035
 1.891 -1.513 3.996
 1.899 -1.5 3.949
 1.913 -1.49 3.912
 1.924 -1.479 3.872
 1.926 -1.462 3.815
 0 0 0
 0 0 0
 0 0 0
 0 0 0
 0 0 0
 0 0 0
 1.806 -1.257 3.205
 1.824 -1.255 3.188
 1.839 -1.251 3.166
 1.846 -1.241 3.131
 1.843 -1.225 3.078
 1.845 -1.212 3.035
 -2.454 -1.601 4.194
 -2.412 -1.592 4.185
 -2.392 -1.598 4.215
 -2.361 -1.596 4.224
 -2.329 -1.594 4.231
 -2.296 -1.591 4.236
 -2.267 -1.59 4.247
 -2.235 -1.588 4.253
 -2.203 -1.585 4.259
 -2.17 -1.582 4.263
 -2.141 -1.582 4.274
 -2.109 -1.579 4.277
 -2.075 -1.574 4.276
 -2.042 -1.571 4.279
 -2.012 -1.569 4.284
 -1.979 -1.565 4.285
 -1.946 -1.561 4.286
 -1.916 -1.559 4.292
 -1.885 -1.557 4.295
 -1.854 -1.554 4.297
 -1.823 -1.551 4.299
 -1.792 -1.548 4.301
 -1.761 -1.545 4.302
 -1.731 -1.543 4.305
 -1.7 -1.54 4.306
 -1.671 -1.538 4.31
 -1.64 -1.535 4.31
 -1.61 -1.533 4.312
 -1.581 -1.531 4.315
 -1.549 -1.527 4.311
 -1.519 -1.523 4.309
 -1.489 -1.521 4.311
 -1.459 -1.517 4.307
 -1.428 -1.513 4.303
 -1.399 -1.511 4.306
 -1.37 -1.508 4.304
 -1.34 -1.505 4.302
 -1.311 -1.503 4.301
 -1.283 -1.501 4.304
 -1.255 -1.499 4.305
 -1.226 -1.497 4.305
 -1.198 -1.495 4.304
 -1.17 -1.493 4.304
 -1.142 -1.491 4.305
 -1.114 -1.489 4.304
 -1.086 -1.487 4.303
 -1.058 -1.485 4.304
 -1.031 -1.484 4.304
 -1.003 -1.482 4.304
 -0.976 -1.481 4.306
 -0.949 -1.478 4.303
 -0.921 -1.477 4.304
 -0.894 -1.475 4.304
 -0.867 -1.473 4.3
 -0.839 -1.471 4.298
 -0.813 -1.47 4.299
 -0.786 -1.469 4.299
 -0.759 -1.467 4.297
 -0.732 -1.465 4.296
 -0.706 -1.464 4.296
 -0.679 -1.463 4.295
 -0.652 -1.46 4.291
 -0.626 -1.459 4.29
 -0.6 -1.459 4.293
 -0.574 -1.458 4.291
 -0.548 -1.457 4.291
 -0.522 -1.457 4.293
 -0.496 -1.457 4.295
 -0.47 -1.455 4.291
 -0.444 -1.454 4.291
 -0.418 -1.453 4.291
 -0.392 -1.452 4.288
 -0.366 -1.451 4.287
 -0.34 -1.451 4.287
 -0.315 -1.45 4.287
 -0.289 -1.448 4.283
 -0.263 -1.449 4.285
 -0.237 -1.448 4.283
 -0.212 -1.447 4.282
 -0.186 -1.446 4.28
 -0.161 -1.447 4.282
 -0.135 -1.446 4.278
 -0.11 -1.445 4.278
 -0.084 -1.446 4.279
 -0.059 -1.445 4.276
 -0.033 -1.445 4.278
 -0.008 -1.445 4.278
 0.017 -1.445 4.277
 0.042 -1.445 4.276
 0.068 -1.446 4.28
 0.093 -1.446 4.278
 0.119 -1.446 4.277
 0.144 -1.446 4.277
 0.17 -1.446 4.275
 0.195 -1.446 4.273
 0.221 -1.446 4.273
 0.246 -1.447 4.272
 0.271 -1.446 4.269
 0.297 -1.447 4.269
 0.322 -1.447 4.269
 0.348 -1.447 4.266
 0.374 -1.448 4.268
 0.399 -1.45 4.269
 0.425 -1.45 4.268
 0.451 -1.451 4.268
 0.476 -1.451 4.266
 0.502 -1.451 4.264
 0.527 -1.451 4.26
 0.553 -1.452 4.26
 0.579 -1.452 4.258
 0.604 -1.453 4.257
 0.63 -1.453 4.254
 0.656 -1.455 4.256
 0.682 -1.456 4.255
 0.708 -1.457 4.253
 0.734 -1.458 4.254
 0.761 -1.461 4.257
 0.787 -1.461 4.254
 0.813 -1.462 4.251
 0.84 -1.464 4.251
 0.866 -1.465 4.251
 0.892 -1.466 4.249
 0.919 -1.468 4.248
 0.946 -1.47 4.249
 0.973 -1.472 4.25
 1 -1.474 4.251
 1.027 -1.475 4.249
 1.055 -1.478 4.25
 1.082 -1.479 4.249
 1.11 -1.482 4.251
 1.136 -1.483 4.248
 1.164 -1.486 4.249
 1.192 -1.487 4.247
 1.219 -1.489 4.245
 1.246 -1.49 4.241
 1.274 -1.492 4.24
 1.301 -1.494 4.237
 1.329 -1.496 4.236
 1.357 -1.499 4.235
 1.386 -1.501 4.234
 1.414 -1.504 4.234
 1.443 -1.506 4.233
 1.472 -1.509 4.232
 1.5 -1.511 4.229
 1.529 -1.513 4.226
 1.558 -1.516 4.225
 1.587 -1.518 4.222
 1.615 -1.52 4.218
 1.644 -1.522 4.215
 1.673 -1.524 4.211
 1.7 -1.525 4.203
 1.729 -1.526 4.198
 1.758 -1.529 4.193
 1.787 -1.531 4.189
 1.812 -1.529 4.175
 1.835 -1.526 4.156
 1.854 -1.52 4.128
 1.871 -1.513 4.097
 1.882 -1.501 4.053
 1.897 -1.492 4.017
 1.904 -1.477 3.967
 1.918 -1.468 3.93
 1.929 -1.457 3.89
 0 0 0
 0 0 0
 0 0 0
 0 0 0
 0 0 0
 0 0 0
 0 0 0
 1.808 -1.237 3.216
 1.829 -1.237 3.205
 1.842 -1.231 3.178
 1.847 -1.22 3.14
 1.87 -1.222 3.132
 1.843 -1.19 3.04
 -2.495 -1.599 4.275
 -2.455 -1.592 4.27
 -2.415 -1.585 4.266
 -2.382 -1.582 4.272
 -2.353 -1.582 4.284
 -2.318 -1.578 4.287
 -2.287 -1.576 4.294
 -2.252 -1.572 4.297
 -2.218 -1.568 4.298
 -2.183 -1.563 4.298
 -2.151 -1.561 4.303
 -2.118 -1.557 4.305
 -2.083 -1.552 4.302
 -2.049 -1.548 4.303
 -2.018 -1.546 4.308
 -1.985 -1.542 4.308
 -1.952 -1.538 4.307
 -1.921 -1.536 4.311
 -1.89 -1.533 4.314
 -1.857 -1.529 4.313
 -1.826 -1.526 4.314
 -1.795 -1.523 4.316
 -1.763 -1.52 4.317
 -1.732 -1.517 4.317
 -1.701 -1.514 4.318
 -1.672 -1.512 4.321
 -1.64 -1.508 4.32
 -1.61 -1.506 4.321
 -1.58 -1.503 4.322
 -1.549 -1.499 4.319
 -1.518 -1.495 4.315
 -1.489 -1.493 4.317
 -1.458 -1.49 4.314
 -1.428 -1.486 4.312
 -1.399 -1.484 4.313
 -1.37 -1.482 4.313
 -1.34 -1.478 4.31
 -1.31 -1.475 4.308
 -1.282 -1.474 4.309
 -1.254 -1.471 4.309
 -1.225 -1.469 4.309
 -1.197 -1.467 4.309
 -1.169 -1.466 4.31
 -1.141 -1.464 4.31
 -1.113 -1.462 4.31
 -1.085 -1.459 4.308
 -1.057 -1.457 4.307
 -1.03 -1.456 4.308
 -1.002 -1.454 4.307
 -0.975 -1.453 4.307
 -0.947 -1.45 4.305
 -0.92 -1.449 4.307
 -0.893 -1.448 4.307
 -0.866 -1.445 4.304
 -0.838 -1.443 4.301
 -0.812 -1.442 4.301
 -0.785 -1.44 4.299
 -0.758 -1.438 4.297
 -0.731 -1.438 4.299
 -0.705 -1.436 4.298
 -0.679 -1.435 4.298
 -0.652 -1.434 4.297
 -0.625 -1.432 4.294
 -0.599 -1.432 4.296
 -0.574 -1.431 4.297
 -0.547 -1.43 4.296
 -0.521 -1.429 4.294
 -0.496 -1.43 4.298
 -0.469 -1.428 4.296
 -0.443 -1.427 4.294
 -0.417 -1.426 4.294
 -0.392 -1.426 4.295
 -0.366 -1.425 4.293
 -0.34 -1.424 4.291
 -0.314 -1.424 4.291
 -0.288 -1.422 4.288
 -0.263 -1.422 4.288
 -0.237 -1.421 4.285
 -0.211 -1.421 4.286
 -0.186 -1.419 4.283
 -0.16 -1.42 4.285
 -0.135 -1.418 4.279
 -0.109 -1.418 4.279
 -0.084 -1.418 4.278
 -0.058 -1.417 4.276
 -0.033 -1.417 4.277
 -0.007 -1.418 4.279
 0.017 -1.418 4.279
 0.042 -1.418 4.278
 0.068 -1.42 4.283
 0.093 -1.419 4.281
 0.119 -1.42 4.284
 0.144 -1.421 4.284
 0.17 -1.421 4.283
 0.195 -1.421 4.282
 0.221 -1.422 4.282
 0.246 -1.423 4.284
 0.272 -1.422 4.279
 0.297 -1.423 4.281
 0.323 -1.422 4.278
 0.348 -1.422 4.274
 0.373 -1.421 4.271
 0.399 -1.423 4.274
 0.425 -1.424 4.274
 0.451 -1.425 4.275
 0.476 -1.425 4.273
 0.502 -1.425 4.269
 0.527 -1.425 4.265
 0.552 -1.425 4.262
 0.578 -1.425 4.26
 0.604 -1.427 4.261
 0.63 -1.427 4.259
 0.656 -1.428 4.26
 0.682 -1.43 4.26
 0.708 -1.43 4.256
 0.733 -1.431 4.255
 0.761 -1.433 4.259
 0.786 -1.434 4.256
 0.812 -1.434 4.251
 0.838 -1.435 4.252
 0.865 -1.437 4.253
 0.892 -1.439 4.252
 0.918 -1.441 4.253
 0.946 -1.443 4.255
 0.973 -1.445 4.256
 1 -1.448 4.258
 1.026 -1.448 4.254
 1.054 -1.45 4.253
 1.08 -1.451 4.251
 1.108 -1.454 4.251
 1.135 -1.455 4.25
 1.163 -1.458 4.252
 1.19 -1.46 4.25
 1.218 -1.462 4.249
 1.245 -1.463 4.247
 1.273 -1.465 4.245
 1.3 -1.466 4.24
 1.328 -1.468 4.239
 1.356 -1.47 4.238
 1.384 -1.472 4.237
 1.413 -1.475 4.236
 1.442 -1.478 4.236
 1.47 -1.481 4.235
 1.499 -1.483 4.234
 1.528 -1.485 4.231
 1.557 -1.488 4.23
 1.586 -1.49 4.227
 1.614 -1.492 4.224
 1.643 -1.494 4.221
 1.672 -1.497 4.218
 1.699 -1.497 4.21
 1.729 -1.499 4.206
 1.757 -1.501 4.201
 1.786 -1.503 4.196
 1.812 -1.503 4.184
 1.835 -1.5 4.164
 1.855 -1.494 4.139
 1.874 -1.488 4.111
 1.886 -1.477 4.069
 1.902 -1.469 4.036
 1.916 -1.46 3.999
 1.932 -1.453 3.968
 0 0 0
 0 0 0
 0 0 0
 0 0 0
 0 0 0
 0 0 0
 0 0 0
 0 0 0
 1.797 -1.207 3.202
 1.82 -1.209 3.195
 1.835 -1.205 3.173
 1.845 -1.197 3.142
 1.875 -1.203 3.146
 1.868 -1.185 3.088
 -2.5 -1.573 4.293
 -2.483 -1.581 4.329
 -2.436 -1.57 4.313
 -2.402 -1.566 4.317
 -2.369 -1.564 4.323
 -2.334 -1.56 4.326
 -2.301 -1.557 4.331
 -2.266 -1.553 4.331
 -2.23 -1.548 4.33
 -2.195 -1.544 4.331
 -2.161 -1.539 4.332
 -2.126 -1.535 4.33
 -2.089 -1.529 4.325
 -2.054 -1.524 4.322
 -2.021 -1.52 4.323
 -1.987 -1.516 4.322
 -1.954 -1.512 4.322
 -1.923 -1.509 4.325
 -1.891 -1.506 4.327
 -1.858 -1.502 4.325
 -1.827 -1.499 4.326
 -1.794 -1.495 4.325
 -1.763 -1.492 4.325
 -1.732 -1.489 4.325
 -1.701 -1.486 4.325
 -1.67 -1.483 4.327
 -1.639 -1.48 4.325
 -1.609 -1.478 4.327
 -1.579 -1.475 4.328
 -1.549 -1.472 4.327
 -1.518 -1.468 4.324
 -1.489 -1.466 4.326
 -1.458 -1.463 4.322
 -1.428 -1.459 4.32
 -1.398 -1.457 4.32
 -1.369 -1.454 4.319
 -1.339 -1.45 4.314
 -1.309 -1.447 4.312
 -1.281 -1.445 4.312
 -1.252 -1.443 4.312
 -1.223 -1.441 4.311
 -1.195 -1.439 4.311
 -1.167 -1.437 4.311
 -1.14 -1.436 4.313
 -1.111 -1.433 4.311
 -1.084 -1.432 4.313
 -1.056 -1.43 4.312
 -1.029 -1.429 4.313
 -1.001 -1.426 4.311
 -0.974 -1.426 4.313
 -0.947 -1.424 4.312
 -0.92 -1.423 4.313
 -0.893 -1.421 4.313
 -0.865 -1.419 4.309
 -0.838 -1.417 4.306
 -0.811 -1.414 4.304
 -0.784 -1.413 4.302
 -0.757 -1.411 4.301
 -0.731 -1.411 4.303
 -0.704 -1.409 4.3
 -0.678 -1.408 4.302
 -0.651 -1.407 4.3
 -0.625 -1.405 4.297
 -0.599 -1.405 4.299
 -0.573 -1.405 4.303
 -0.547 -1.405 4.303
 -0.521 -1.403 4.301
 -0.496 -1.404 4.307
 -0.469 -1.403 4.304
 -0.443 -1.401 4.3
 -0.417 -1.4 4.299
 -0.392 -1.4 4.302
 -0.365 -1.398 4.296
 -0.339 -1.397 4.293
 -0.314 -1.396 4.291
 -0.288 -1.394 4.287
 -0.262 -1.393 4.286
 -0.236 -1.392 4.284
 -0.211 -1.393 4.286
 -0.185 -1.392 4.284
 -0.16 -1.393 4.287
 -0.134 -1.391 4.282
 -0.109 -1.391 4.281
 -0.083 -1.39 4.28
 -0.058 -1.39 4.28
 -0.033 -1.391 4.282
 -0.007 -1.392 4.284
 0.017 -1.393 4.287
 0.043 -1.393 4.288
 0.068 -1.394 4.29
 0.093 -1.393 4.287
 0.119 -1.395 4.29
 0.145 -1.396 4.292
 0.17 -1.395 4.288
 0.195 -1.395 4.288
 0.221 -1.396 4.289
 0.247 -1.397 4.291
 0.272 -1.396 4.285
 0.298 -1.397 4.287
 0.323 -1.397 4.284
 0.348 -1.396 4.28
 0.373 -1.395 4.276
 0.399 -1.397 4.279
 0.425 -1.398 4.279
 0.451 -1.399 4.281
 0.476 -1.399 4.278
 0.502 -1.399 4.274
 0.527 -1.398 4.27
 0.552 -1.399 4.268
 0.578 -1.399 4.267
 0.604 -1.401 4.269
 0.63 -1.401 4.266
 0.656 -1.403 4.266
 0.682 -1.404 4.266
 0.707 -1.403 4.259
 0.733 -1.403 4.256
 0.76 -1.406 4.261
 0.786 -1.406 4.258
 0.811 -1.406 4.253
 0.838 -1.408 4.255
 0.865 -1.41 4.257
 0.891 -1.412 4.257
 0.918 -1.415 4.259
 0.946 -1.417 4.262
 0.973 -1.42 4.264
 1 -1.421 4.263
 1.026 -1.421 4.258
 1.053 -1.423 4.257
 1.079 -1.424 4.254
 1.107 -1.426 4.254
 1.134 -1.428 4.254
 1.162 -1.431 4.256
 1.189 -1.432 4.254
 1.217 -1.434 4.253
 1.244 -1.436 4.251
 1.272 -1.437 4.249
 1.299 -1.438 4.244
 1.326 -1.44 4.241
 1.354 -1.442 4.24
 1.382 -1.444 4.237
 1.41 -1.446 4.236
 1.438 -1.448 4.234
 1.468 -1.451 4.235
 1.497 -1.454 4.234
 1.525 -1.456 4.232
 1.555 -1.459 4.232
 1.584 -1.462 4.23
 1.613 -1.464 4.228
 1.642 -1.466 4.224
 1.671 -1.468 4.222
 1.698 -1.469 4.215
 1.728 -1.472 4.213
 1.757 -1.474 4.208
 1.787 -1.477 4.205
 1.813 -1.477 4.195
 1.837 -1.474 4.178
 1.859 -1.47 4.155
 1.879 -1.466 4.131
 1.892 -1.455 4.089
 1.907 -1.447 4.055
 1.921 -1.438 4.018
 0 0 0
 0 0 0
 0 0 0
 0 0 0
 0 0 0
 0 0 0
 0 0 0
 0 0 0
 0 0 0
 1.796 -1.185 3.208
 1.817 -1.185 3.197
 1.834 -1.182 3.178
 1.844 -1.175 3.148
 1.872 -1.179 3.147
 1.848 -1.151 3.061
 -2.55 -1.575 4.39
 -2.469 -1.543 4.315
 -2.451 -1.55 4.348
 -2.413 -1.545 4.347
 -2.379 -1.541 4.351
 -2.343 -1.537 4.352
 -2.308 -1.533 4.353
 -2.269 -1.526 4.347
 -2.232 -1.521 4.345
 -2.196 -1.516 4.342
 -2.161 -1.511 4.341
 -2.125 -1.506 4.337
 -2.09 -1.501 4.336
 -2.056 -1.497 4.335
 -2.021 -1.492 4.332
 -1.988 -1.488 4.332
 -1.955 -1.485 4.332
 -1.923 -1.481 4.333
 -1.89 -1.477 4.332
 -1.857 -1.474 4.331
 -1.825 -1.471 4.332
 -1.793 -1.467 4.33
 -1.762 -1.464 4.33
 -1.73 -1.461 4.33
 -1.7 -1.458 4.331
 -1.669 -1.455 4.331
 -1.638 -1.451 4.33
 -1.608 -1.45 4.332
 -1.578 -1.447 4.332
 -1.548 -1.444 4.332
 -1.517 -1.441 4.331
 -1.488 -1.438 4.331
 -1.457 -1.435 4.327
 -1.426 -1.431 4.324
 -1.396 -1.428 4.322
 -1.367 -1.426 4.322
 -1.338 -1.423 4.321
 -1.308 -1.42 4.317
 -1.28 -1.419 4.32
 -1.252 -1.417 4.32
 -1.223 -1.414 4.317
 -1.195 -1.412 4.318
 -1.167 -1.41 4.318
 -1.139 -1.409 4.319
 -1.111 -1.407 4.318
 -1.084 -1.405 4.319
 -1.056 -1.404 4.319
 -1.029 -1.402 4.319
 -1.001 -1.4 4.317
 -0.974 -1.399 4.318
 -0.947 -1.397 4.319
 -0.919 -1.396 4.318
 -0.893 -1.395 4.319
 -0.865 -1.392 4.314
 -0.837 -1.39 4.311
 -0.81 -1.387 4.306
 -0.783 -1.386 4.306
 -0.756 -1.384 4.304
 -0.73 -1.384 4.306
 -0.703 -1.382 4.304
 -0.677 -1.382 4.307
 -0.651 -1.38 4.305
 -0.624 -1.378 4.3
 -0.598 -1.378 4.302
 -0.573 -1.379 4.308
 -0.547 -1.378 4.309
 -0.521 -1.377 4.306
 -0.495 -1.378 4.313
 -0.469 -1.377 4.311
 -0.443 -1.374 4.305
 -0.416 -1.373 4.301
 -0.391 -1.373 4.304
 -0.364 -1.37 4.294
 -0.338 -1.367 4.289
 -0.313 -1.367 4.289
 -0.287 -1.366 4.286
 -0.262 -1.366 4.287
 -0.236 -1.365 4.286
 -0.211 -1.367 4.29
 -0.185 -1.366 4.288
 -0.16 -1.366 4.29
 -0.134 -1.365 4.286
 -0.109 -1.364 4.284
 -0.083 -1.363 4.282
 -0.058 -1.363 4.282
 -0.033 -1.363 4.282
 -0.007 -1.365 4.286
 0.017 -1.367 4.291
 0.043 -1.367 4.293
 0.068 -1.369 4.298
 0.094 -1.368 4.294
 0.119 -1.369 4.296
 0.145 -1.369 4.294
 0.17 -1.368 4.289
 0.195 -1.367 4.288
 0.221 -1.368 4.289
 0.246 -1.37 4.292
 0.272 -1.369 4.289
 0.298 -1.371 4.292
 0.323 -1.371 4.291
 0.348 -1.37 4.286
 0.373 -1.37 4.282
 0.399 -1.371 4.285
 0.425 -1.372 4.286
 0.451 -1.373 4.287
 0.476 -1.374 4.285
 0.502 -1.372 4.279
 0.527 -1.372 4.274
 0.552 -1.372 4.271
 0.578 -1.373 4.271
 0.604 -1.374 4.272
 0.63 -1.375 4.271
 0.656 -1.376 4.271
 0.682 -1.377 4.271
 0.707 -1.376 4.264
 0.732 -1.377 4.261
 0.759 -1.379 4.266
 0.785 -1.38 4.263
 0.811 -1.38 4.257
 0.837 -1.382 4.26
 0.865 -1.385 4.265
 0.892 -1.387 4.265
 0.919 -1.389 4.267
 0.946 -1.392 4.27
 0.973 -1.393 4.268
 1 -1.394 4.268
 1.025 -1.394 4.262
 1.052 -1.395 4.259
 1.078 -1.396 4.256
 1.106 -1.399 4.258
 1.133 -1.4 4.256
 1.161 -1.403 4.257
 1.188 -1.404 4.256
 1.216 -1.406 4.255
 1.243 -1.407 4.252
 1.27 -1.409 4.25
 1.297 -1.41 4.246
 1.324 -1.411 4.243
 1.352 -1.413 4.24
 1.38 -1.415 4.239
 1.409 -1.418 4.238
 1.437 -1.42 4.237
 1.466 -1.423 4.237
 1.495 -1.426 4.237
 1.524 -1.428 4.236
 1.553 -1.431 4.236
 1.582 -1.433 4.233
 1.612 -1.436 4.232
 1.64 -1.438 4.229
 1.67 -1.44 4.226
 1.697 -1.441 4.219
 1.727 -1.444 4.217
 1.755 -1.445 4.211
 1.784 -1.448 4.207
 1.811 -1.448 4.197
 1.837 -1.447 4.184
 1.859 -1.444 4.165
 1.884 -1.442 4.149
 1.9 -1.435 4.116
 1.919 -1.429 4.088
 0 0 0
 0 0 0
 0 0 0
 0 0 0
 0 0 0
 0 0 0
 0 0 0
 0 0 0
 0 0 0
 0 0 0
 0 0 0
 1.815 -1.162 3.199
 1.832 -1.159 3.181
 1.843 -1.153 3.152
 1.871 -1.157 3.153
 1.864 -1.14 3.094
 -2.542 -1.54 4.385
 -2.485 -1.524 4.351
 -2.453 -1.522 4.362
 -2.415 -1.516 4.358
 -2.38 -1.513 4.361
 -2.344 -1.508 4.362
 -2.308 -1.504 4.363
 -2.27 -1.498 4.358
 -2.233 -1.493 4.355
 -2.197 -1.488 4.353
 -2.161 -1.483 4.35
 -2.124 -1.477 4.345
 -2.089 -1.472 4.342
 -2.055 -1.468 4.343
 -2.021 -1.464 4.34
 -1.987 -1.46 4.339
 -1.955 -1.457 4.34
 -1.922 -1.453 4.341
 -1.889 -1.449 4.338
 -1.856 -1.445 4.337
 -1.824 -1.442 4.336
 -1.791 -1.438 4.334
 -1.76 -1.435 4.334
 -1.729 -1.432 4.335
 -1.698 -1.429 4.335
 -1.666 -1.426 4.334
 -1.636 -1.423 4.333
 -1.606 -1.421 4.335
 -1.575 -1.417 4.333
 -1.546 -1.415 4.335
 -1.515 -1.412 4.333
 -1.485 -1.409 4.333
 -1.455 -1.406 4.329
 -1.424 -1.402 4.326
 -1.394 -1.4 4.324
 -1.366 -1.398 4.325
 -1.337 -1.395 4.325
 -1.307 -1.392 4.322
 -1.279 -1.391 4.323
 -1.25 -1.388 4.322
 -1.221 -1.386 4.319
 -1.193 -1.384 4.32
 -1.166 -1.382 4.321
 -1.139 -1.382 4.325
 -1.11 -1.379 4.322
 -1.083 -1.379 4.325
 -1.055 -1.377 4.324
 -1.028 -1.375 4.324
 -1 -1.372 4.32
 -0.973 -1.371 4.321
 -0.946 -1.37 4.322
 -0.919 -1.369 4.322
 -0.892 -1.368 4.324
 -0.864 -1.365 4.319
 -0.837 -1.363 4.315
 -0.809 -1.36 4.311
 -0.782 -1.358 4.309
 -0.755 -1.356 4.304
 -0.729 -1.357 4.309
 -0.703 -1.355 4.308
 -0.677 -1.355 4.31
 -0.65 -1.354 4.31
 -0.623 -1.351 4.304
 -0.597 -1.35 4.304
 -0.572 -1.352 4.312
 -0.547 -1.352 4.315
 -0.52 -1.35 4.311
 -0.495 -1.353 4.322
 -0.469 -1.352 4.322
 -0.443 -1.351 4.317
 -0.416 -1.348 4.309
 -0.391 -1.35 4.317
 -0.365 -1.345 4.304
 -0.338 -1.341 4.294
 -0.312 -1.341 4.294
 -0.287 -1.34 4.291
 -0.261 -1.34 4.292
 -0.236 -1.338 4.288
 -0.21 -1.34 4.293
 -0.185 -1.339 4.29
 -0.159 -1.339 4.291
 -0.134 -1.338 4.287
 -0.108 -1.337 4.285
 -0.083 -1.336 4.282
 -0.058 -1.335 4.279
 -0.032 -1.335 4.278
 -0.007 -1.335 4.28
 0.017 -1.336 4.283
 0.043 -1.337 4.284
 0.068 -1.342 4.3
 0.094 -1.341 4.297
 0.119 -1.344 4.305
 0.145 -1.344 4.302
 0.17 -1.342 4.295
 0.195 -1.342 4.294
 0.221 -1.343 4.296
 0.247 -1.345 4.301
 0.272 -1.345 4.301
 0.298 -1.347 4.305
 0.323 -1.346 4.3
 0.348 -1.345 4.294
 0.373 -1.343 4.286
 0.399 -1.344 4.288
 0.425 -1.346 4.292
 0.451 -1.348 4.296
 0.477 -1.348 4.293
 0.502 -1.347 4.287
 0.527 -1.347 4.282
 0.552 -1.346 4.278
 0.578 -1.347 4.276
 0.604 -1.348 4.278
 0.63 -1.35 4.278
 0.656 -1.351 4.279
 0.682 -1.352 4.277
 0.707 -1.35 4.269
 0.732 -1.35 4.265
 0.759 -1.352 4.266
 0.785 -1.353 4.267
 0.81 -1.353 4.261
 0.837 -1.355 4.263
 0.864 -1.358 4.268
 0.891 -1.36 4.271
 0.918 -1.362 4.269
 0.945 -1.364 4.271
 0.972 -1.365 4.271
 0.998 -1.366 4.267
 1.024 -1.366 4.262
 1.05 -1.367 4.258
 1.076 -1.368 4.256
 1.104 -1.37 4.256
 1.131 -1.372 4.257
 1.159 -1.374 4.257
 1.187 -1.376 4.258
 1.214 -1.378 4.256
 1.241 -1.38 4.255
 1.268 -1.381 4.251
 1.296 -1.382 4.248
 1.322 -1.383 4.244
 1.35 -1.385 4.241
 1.378 -1.387 4.24
 1.407 -1.39 4.241
 1.435 -1.392 4.239
 1.464 -1.394 4.239
 1.494 -1.397 4.24
 1.522 -1.4 4.237
 1.551 -1.402 4.235
 1.58 -1.404 4.234
 1.61 -1.407 4.234
 1.638 -1.409 4.231
 1.667 -1.411 4.227
 1.695 -1.412 4.22
 1.725 -1.415 4.219
 1.752 -1.416 4.212
 1.781 -1.418 4.206
 1.809 -1.419 4.2
 1.835 -1.419 4.188
 1.86 -1.418 4.174
 1.886 -1.417 4.161
 1.906 -1.412 4.136
 0 0 0
 0 0 0
 0 0 0
 0 0 0
 0 0 0
 0 0 0
 0 0 0
 0 0 0
 0 0 0
 0 0 0
 0 0 0
 0 0 0
 1.807 -1.136 3.193
 1.827 -1.135 3.18
 1.839 -1.129 3.152
 1.845 -1.12 3.116
 1.861 -1.117 3.096
 -2.563 -1.524 4.432
 -2.494 -1.5 4.376
 -2.45 -1.491 4.365
 -2.412 -1.486 4.362
 -2.376 -1.482 4.365
 -2.341 -1.478 4.366
 -2.305 -1.474 4.366
 -2.267 -1.468 4.361
 -2.23 -1.462 4.358
 -2.194 -1.457 4.355
 -2.156 -1.451 4.35
 -2.12 -1.446 4.345
 -2.085 -1.442 4.344
 -2.051 -1.438 4.343
 -2.017 -1.433 4.34
 -1.984 -1.43 4.341
 -1.951 -1.426 4.341
 -1.918 -1.422 4.34
 -1.885 -1.418 4.338
 -1.853 -1.415 4.338
 -1.821 -1.412 4.338
 -1.789 -1.409 4.338
 -1.758 -1.406 4.339
 -1.728 -1.404 4.34
 -1.696 -1.4 4.338
 -1.664 -1.397 4.337
 -1.633 -1.394 4.335
 -1.604 -1.391 4.337
 -1.572 -1.387 4.332
 -1.543 -1.386 4.335
 -1.513 -1.383 4.334
 -1.482 -1.38 4.332
 -1.451 -1.376 4.327
 -1.421 -1.373 4.326
 -1.392 -1.371 4.325
 -1.364 -1.369 4.327
 -1.336 -1.368 4.329
 -1.307 -1.366 4.329
 -1.279 -1.364 4.331
 -1.25 -1.362 4.329
 -1.22 -1.358 4.324
 -1.192 -1.356 4.323
 -1.163 -1.354 4.321
 -1.136 -1.353 4.324
 -1.108 -1.35 4.32
 -1.081 -1.35 4.325
 -1.054 -1.349 4.327
 -1.027 -1.348 4.328
 -0.999 -1.346 4.326
 -0.972 -1.345 4.328
 -0.946 -1.344 4.329
 -0.919 -1.343 4.331
 -0.892 -1.342 4.333
 -0.864 -1.339 4.325
 -0.837 -1.337 4.322
 -0.808 -1.332 4.311
 -0.78 -1.329 4.303
 -0.752 -1.325 4.296
 -0.727 -1.328 4.306
 -0.701 -1.326 4.303
 -0.676 -1.329 4.316
 -0.651 -1.33 4.323
 -0.624 -1.327 4.315
 -0.597 -1.325 4.312
 -0.573 -1.329 4.326
 -0.547 -1.327 4.322
 -0.519 -1.322 4.309
 -0.495 -1.327 4.327
 -0.469 -1.327 4.329
 -0.443 -1.325 4.323
 0 0 0
 0 0 0
 -0.364 -1.317 4.303
 -0.337 -1.313 4.291
 -0.312 -1.314 4.295
 -0.286 -1.313 4.293
 -0.261 -1.313 4.295
 -0.235 -1.312 4.291
 -0.21 -1.313 4.295
 -0.184 -1.312 4.291
 -0.159 -1.312 4.291
 -0.134 -1.31 4.287
 -0.108 -1.309 4.285
 -0.083 -1.308 4.282
 -0.057 -1.308 4.279
 -0.032 -1.307 4.277
 -0.007 -1.307 4.277
 0.017 -1.308 4.279
 0.043 -1.305 4.268
 0 0 0
 0 0 0
 0 0 0
 0 0 0
 0 0 0
 0 0 0
 0 0 0
 0 0 0
 0.273 -1.323 4.319
 0.299 -1.327 4.328
 0.324 -1.324 4.316
 0.349 -1.322 4.309
 0.373 -1.316 4.288
 0.399 -1.319 4.294
 0.426 -1.322 4.301
 0.452 -1.323 4.304
 0.477 -1.323 4.299
 0.502 -1.322 4.294
 0.528 -1.322 4.292
 0.552 -1.319 4.279
 0.578 -1.321 4.282
 0.605 -1.324 4.288
 0.631 -1.325 4.288
 0.656 -1.326 4.286
 0.683 -1.328 4.292
 0.707 -1.326 4.279
 0.732 -1.324 4.27
 0.758 -1.325 4.269
 0.785 -1.328 4.274
 0.809 -1.326 4.263
 0.837 -1.328 4.267
 0.865 -1.332 4.275
