 0.213 -1.628 4.081
 0.235 -1.611 4.037
 0.263 -1.634 4.093
 0.286 -1.621 4.059
 0.307 -1.607 4.02
 0.335 -1.621 4.053
 0.356 -1.608 4.019
 0.39 -1.648 4.117
 0.405 -1.606 4.011
 0.437 -1.637 4.084
 0.453 -1.606 4.006
 0.485 -1.632 4.066
 0.506 -1.619 4.032
 0.53 -1.616 4.022
 0.557 -1.625 4.041
 0.583 -1.629 4.046
 0.603 -1.616 4.012
 0.633 -1.631 4.046
 0.653 -1.62 4.013
 0.679 -1.621 4.013
 0.704 -1.623 4.014
 0.732 -1.63 4.027
 0.755 -1.627 4.015
 0.786 -1.641 4.045
 0.809 -1.638 4.033
 0.83 -1.63 4.01
 0.861 -1.641 4.033
 0.884 -1.638 4.02
 0.907 -1.636 4.008
 0.932 -1.636 4.005
 0.962 -1.645 4.022
 0.979 -1.633 3.985
 0.996 -1.62 3.948
 1.037 -1.646 4.007
 1.061 -1.644 3.996
 1.07 -1.621 3.933
 1.104 -1.634 3.958
 1.146 -1.66 4.015
 1.159 -1.643 3.968
 1.175 -1.631 3.93
 1.206 -1.639 3.943
 1.226 -1.633 3.923
 1.263 -1.649 3.953
 1.286 -1.646 3.939
 1.3 -1.633 3.899
 1.343 -1.656 3.948
 1.358 -1.644 3.911
 1.382 -1.643 3.9
 1.406 -1.643 3.891
 1.434 -1.645 3.889
 1.459 -1.647 3.884
 1.474 -1.636 3.85
 1.505 -1.642 3.855
 1.537 -1.65 3.866
 1.546 -1.633 3.816
 1.578 -1.641 3.825
 1.592 -1.63 3.792
 1.632 -1.646 3.817
 1.644 -1.633 3.778
 1.668 -1.633 3.768
 1.691 -1.631 3.753
 1.719 -1.634 3.751
 1.739 -1.63 3.731
 1.77 -1.636 3.735
 1.811 -1.651 3.757
 1.82 -1.637 3.715
 1.824 -1.619 3.663
 1.836 -1.608 3.626
 1.805 -1.56 3.508
 1.808 -1.543 3.458
 1.831 -1.543 3.447
 1.757 -1.463 3.256
 1.815 -1.492 3.31
 1.771 -1.438 3.18
 1.76 -1.412 3.11
 1.77 -1.403 3.08
 1.816 -1.422 3.112
 1.77 -1.371 2.988
 1.777 -1.36 2.954
 1.756 -1.329 2.875
 1.769 -1.324 2.854
 -2.176 -1.622 3.643
 -2.185 -1.648 3.715
 -2.131 -1.626 3.678
 -2.105 -1.626 3.69
 -2.077 -1.623 3.697
 -2.055 -1.626 3.715
 -2.026 -1.624 3.721
 -2.003 -1.625 3.736
 -1.977 -1.625 3.747
 -1.955 -1.627 3.764
 -1.929 -1.627 3.775
 -1.904 -1.628 3.787
 -1.879 -1.627 3.797
 -1.854 -1.628 3.808
 -1.828 -1.628 3.819
 -1.803 -1.628 3.83
 -1.777 -1.627 3.838
 -1.749 -1.625 3.842
 -1.722 -1.624 3.849
 -1.696 -1.623 3.856
 -1.668 -1.62 3.86
 -1.642 -1.619 3.867
 -1.618 -1.621 3.879
 -1.593 -1.621 3.889
 -1.568 -1.621 3.897
 -1.544 -1.623 3.91
 -1.519 -1.623 3.919
 -1.491 -1.62 3.919
 -1.464 -1.618 3.924
 -1.438 -1.617 3.929
 -1.411 -1.616 3.933
 -1.386 -1.615 3.939
 -1.362 -1.617 3.951
 -1.337 -1.617 3.958
 -1.314 -1.62 3.971
 -1.29 -1.621 3.982
 -1.266 -1.623 3.993
 -1.241 -1.623 4
 -1.217 -1.625 4.011
 -1.188 -1.62 4.005
 -1.16 -1.616 4.002
 -1.136 -1.617 4.01
 -1.109 -1.614 4.009
 -1.083 -1.613 4.013
 -1.059 -1.615 4.022
 -1.034 -1.615 4.026
 -1.006 -1.611 4.022
 -0.983 -1.613 4.033
 -0.957 -1.612 4.036
 -0.931 -1.611 4.037
 -0.908 -1.613 4.048
 -0.884 -1.616 4.058
 -0.857 -1.613 4.055
 -0.832 -1.612 4.057
 -0.807 -1.612 4.061
 -0.782 -1.612 4.064
 -0.756 -1.61 4.064
 -0.732 -1.613 4.074
 -0.707 -1.614 4.08
 -0.683 -1.615 4.085
 -0.659 -1.617 4.095
 -0.634 -1.618 4.101
 -0.61 -1.62 4.107
 -0.585 -1.62 4.111
 -0.561 -1.623 4.121
 -0.535 -1.62 4.116
 -0.509 -1.619 4.115
 -0.484 -1.619 4.118
 -0.459 -1.619 4.121
 -0.433 -1.615 4.112
 -0.408 -1.616 4.117
 -0.384 -1.618 4.123
 -0.358 -1.616 4.12
 -0.333 -1.616 4.121
 -0.309 -1.619 4.13
 -0.283 -1.617 4.126
 -0.258 -1.616 4.124
 -0.233 -1.616 4.126
 -0.208 -1.615 4.125
 -0.183 -1.614 4.123
 -0.158 -1.614 4.124
 -0.134 -1.617 4.132
 -0.108 -1.616 4.129
 -0.084 -1.616 4.13
 -0.059 -1.618 4.135
 -0.034 -1.619 4.137
 -0.009 -1.617 4.132
 0.015 -1.621 4.141
 0.04 -1.62 4.138
 0.065 -1.619 4.135
 0.09 -1.617 4.13
 0.115 -1.617 4.129
 0.14 -1.613 4.117
 0.165 -1.614 4.118
 0.189 -1.613 4.116
 0.215 -1.616 4.12
 0.239 -1.616 4.12
 0.264 -1.616 4.119
 0.289 -1.617 4.118
 0.315 -1.618 4.121
 0.34 -1.619 4.12
 0.364 -1.618 4.114
 0.39 -1.62 4.117
 0.414 -1.617 4.108
 0.439 -1.617 4.106
 0.463 -1.616 4.101
 0.489 -1.618 4.103
 0.514 -1.619 4.102
 0.54 -1.622 4.107
 0.565 -1.621 4.103
 0.591 -1.624 4.107
 0.616 -1.624 4.103
 0.641 -1.625 4.101
 0.666 -1.625 4.097
 0.692 -1.627 4.098
 0.716 -1.625 4.09
 0.741 -1.627 4.089
 0.766 -1.627 4.085
 0.793 -1.629 4.087
 0.818 -1.629 4.084
 0.843 -1.631 4.082
 0.869 -1.632 4.081
 0.894 -1.632 4.076
 0.919 -1.632 4.069
 0.944 -1.631 4.064
 0.969 -1.631 4.057
 0.994 -1.632 4.053
 1.02 -1.633 4.052
 1.045 -1.633 4.045
 1.07 -1.634 4.04
 1.097 -1.635 4.038
 1.121 -1.635 4.03
 1.146 -1.635 4.024
 1.172 -1.636 4.021
 1.198 -1.636 4.014
 1.224 -1.638 4.011
 1.249 -1.638 4.004
 1.275 -1.639 4
 1.301 -1.64 3.994
 1.326 -1.64 3.988
 1.351 -1.64 3.979
 1.374 -1.638 3.967
 1.398 -1.636 3.954
 1.422 -1.635 3.943
 1.447 -1.636 3.935
 1.473 -1.636 3.928
 1.5 -1.638 3.925
 1.525 -1.639 3.917
 1.552 -1.64 3.912
 1.576 -1.639 3.9
 1.601 -1.639 3.89
 1.624 -1.637 3.875
 1.65 -1.638 3.869
 1.671 -1.635 3.851
 1.697 -1.636 3.843
 1.722 -1.636 3.832
 1.747 -1.636 3.822
 1.769 -1.633 3.805
 1.789 -1.629 3.784
 1.802 -1.618 3.748
 1.811 -1.604 3.705
 1.816 -1.587 3.655
 1.82 -1.57 3.604
 1.823 -1.552 3.552
 1.827 -1.535 3.502
 1.823 -1.513 3.44
 1.812 -1.485 3.366
 1.784 -1.444 3.262
 1.768 -1.414 3.182
 1.775 -1.402 3.146
 1.774 -1.385 3.095
 1.777 -1.371 3.053
 1.774 -1.353 3.002
 1.771 -1.335 2.952
 1.765 -1.316 2.898
 1.766 -1.301 2.855
 -2.217 -1.626 3.722
 -2.204 -1.636 3.757
 -2.165 -1.626 3.746
 -2.138 -1.625 3.758
 -2.111 -1.624 3.767
 -2.087 -1.626 3.783
 -2.058 -1.623 3.79
 -2.035 -1.626 3.807
 -2.009 -1.626 3.818
 -1.983 -1.625 3.829
 -1.957 -1.625 3.84
 -1.933 -1.626 3.853
 -1.904 -1.624 3.858
 -1.878 -1.624 3.87
 -1.855 -1.626 3.886
 -1.83 -1.627 3.898
 -1.803 -1.626 3.905
 -1.777 -1.625 3.914
 -1.749 -1.624 3.92
 -1.722 -1.622 3.926
 -1.693 -1.619 3.928
 -1.667 -1.619 3.936
 -1.641 -1.618 3.943
 -1.615 -1.618 3.953
 -1.589 -1.618 3.961
 -1.565 -1.62 3.974
 -1.54 -1.62 3.983
 -1.513 -1.618 3.987
 -1.486 -1.617 3.992
 -1.459 -1.616 3.997
 -1.433 -1.615 4.002
 -1.407 -1.614 4.008
 -1.382 -1.615 4.018
 -1.357 -1.615 4.026
 -1.332 -1.617 4.037
 -1.307 -1.617 4.045
 -1.283 -1.619 4.055
 -1.257 -1.619 4.063
 -1.232 -1.619 4.07
 -1.205 -1.617 4.071
 -1.178 -1.615 4.071
 -1.152 -1.615 4.078
 -1.125 -1.613 4.078
 -1.099 -1.613 4.083
 -1.074 -1.613 4.089
 -1.048 -1.612 4.091
 -1.02 -1.608 4.087
 -0.995 -1.609 4.094
 -0.97 -1.609 4.1
 -0.944 -1.608 4.101
 -0.92 -1.61 4.112
 -0.896 -1.612 4.122
 -0.869 -1.61 4.12
 -0.843 -1.609 4.123
 -0.818 -1.609 4.126
 -0.792 -1.609 4.13
 -0.766 -1.607 4.13
 -0.742 -1.61 4.139
 -0.717 -1.61 4.143
 -0.692 -1.61 4.147
 -0.667 -1.613 4.158
 -0.642 -1.614 4.163
 -0.617 -1.614 4.167
 -0.592 -1.615 4.172
 -0.567 -1.617 4.18
 -0.541 -1.613 4.173
 -0.515 -1.613 4.175
 -0.49 -1.613 4.178
 -0.465 -1.613 4.179
 -0.439 -1.612 4.177
 -0.414 -1.613 4.183
 -0.388 -1.613 4.184
 -0.363 -1.611 4.181
 -0.337 -1.611 4.181
 -0.312 -1.611 4.183
 -0.286 -1.608 4.178
 -0.261 -1.608 4.177
 -0.236 -1.608 4.179
 -0.21 -1.607 4.178
 -0.185 -1.607 4.178
 -0.16 -1.607 4.178
 -0.135 -1.61 4.185
 -0.11 -1.609 4.184
 -0.084 -1.61 4.186
 -0.059 -1.611 4.19
 -0.034 -1.613 4.194
 -0.009 -1.611 4.189
 0.016 -1.614 4.198
 0.041 -1.613 4.193
 0.066 -1.612 4.19
 0.091 -1.611 4.187
 0.117 -1.611 4.186
 0.141 -1.606 4.173
 0.167 -1.608 4.177
 0.192 -1.608 4.175
 0.217 -1.608 4.174
 0.242 -1.608 4.173
 0.267 -1.608 4.171
 0.292 -1.608 4.168
 0.318 -1.609 4.168
 0.343 -1.61 4.171
 0.368 -1.609 4.165
 0.394 -1.611 4.168
 0.418 -1.609 4.16
 0.444 -1.61 4.161
 0.469 -1.609 4.156
 0.495 -1.613 4.163
 0.52 -1.612 4.159
 0.547 -1.616 4.165
 0.572 -1.616 4.161
 0.597 -1.617 4.16
 0.622 -1.616 4.156
 0.649 -1.619 4.158
 0.673 -1.618 4.152
 0.699 -1.618 4.15
 0.724 -1.618 4.145
 0.75 -1.62 4.145
 0.775 -1.619 4.139
 0.801 -1.621 4.14
 0.827 -1.623 4.14
 0.853 -1.623 4.134
 0.879 -1.624 4.133
 0.904 -1.625 4.13
 0.93 -1.626 4.127
 0.955 -1.625 4.121
 0.982 -1.627 4.12
 1.007 -1.627 4.114
 1.033 -1.628 4.111
 1.058 -1.627 4.102
 1.083 -1.627 4.096
 1.109 -1.628 4.091
 1.134 -1.628 4.085
 1.16 -1.629 4.081
 1.187 -1.63 4.078
 1.213 -1.632 4.075
 1.24 -1.634 4.073
 1.267 -1.635 4.07
 1.293 -1.636 4.064
 1.319 -1.637 4.059
 1.343 -1.636 4.049
 1.369 -1.636 4.04
 1.393 -1.634 4.028
 1.418 -1.634 4.019
 1.443 -1.634 4.012
 1.469 -1.634 4.003
 1.495 -1.635 3.996
 1.522 -1.637 3.993
 1.548 -1.637 3.984
 1.573 -1.637 3.975
 1.598 -1.637 3.965
 1.622 -1.636 3.952
 1.646 -1.633 3.937
 1.671 -1.634 3.928
 1.693 -1.631 3.911
 1.721 -1.633 3.906
 1.746 -1.632 3.894
 1.768 -1.63 3.877
 1.788 -1.625 3.856
 1.805 -1.618 3.828
 1.815 -1.604 3.784
 1.821 -1.588 3.735
 1.824 -1.569 3.68
 1.828 -1.552 3.629
 1.832 -1.535 3.578
 1.837 -1.52 3.53
 1.831 -1.496 3.463
 1.815 -1.465 3.38
 1.774 -1.414 3.252
 1.755 -1.382 3.167
 1.767 -1.374 3.139
 1.769 -1.36 3.095
 1.775 -1.348 3.058
 1.773 -1.331 3.008
 1.772 -1.315 2.96
 1.762 -1.293 2.899
 1.759 -1.276 2.852
 -2.265 -1.635 3.814
 -2.234 -1.632 3.819
 -2.198 -1.625 3.814
 -2.172 -1.625 3.827
 -2.143 -1.623 3.836
 -2.117 -1.623 3.848
 -2.089 -1.622 3.856
 -2.064 -1.623 3.872
 -2.039 -1.623 3.884
 -2.011 -1.622 3.893
 -1.985 -1.623 3.905
 -1.959 -1.622 3.915
 -1.93 -1.62 3.92
 -1.905 -1.621 3.935
 -1.881 -1.623 3.95
 -1.856 -1.624 3.964
 -1.832 -1.626 3.978
 -1.805 -1.625 3.985
 -1.775 -1.622 3.987
 -1.748 -1.62 3.994
 -1.717 -1.617 3.994
 -1.689 -1.615 3.999
 -1.664 -1.615 4.01
 -1.639 -1.616 4.02
 -1.612 -1.616 4.029
 -1.588 -1.617 4.042
 -1.562 -1.617 4.05
 -1.535 -1.616 4.055
 -1.508 -1.615 4.06
 -1.48 -1.613 4.064
 -1.453 -1.612 4.07
 -1.426 -1.611 4.074
 -1.4 -1.61 4.079
 -1.374 -1.61 4.086
 -1.349 -1.611 4.097
 -1.323 -1.611 4.104
 -1.299 -1.613 4.116
 -1.274 -1.615 4.127
 -1.248 -1.615 4.134
 -1.222 -1.614 4.137
 -1.194 -1.612 4.139
 -1.169 -1.612 4.145
 -1.141 -1.611 4.147
 -1.115 -1.609 4.15
 -1.089 -1.61 4.156
 -1.062 -1.608 4.157
 -1.035 -1.606 4.157
 -1.009 -1.606 4.162
 -0.984 -1.606 4.168
 -0.958 -1.605 4.17
 -0.933 -1.607 4.178
 -0.907 -1.607 4.183
 -0.88 -1.605 4.182
 -0.854 -1.604 4.184
 -0.827 -1.602 4.183
 -0.801 -1.602 4.186
 -0.775 -1.601 4.187
 -0.75 -1.601 4.192
 -0.724 -1.601 4.195
 -0.699 -1.602 4.201
 -0.674 -1.604 4.209
 -0.648 -1.604 4.212
 -0.623 -1.605 4.218
 -0.598 -1.605 4.221
 -0.572 -1.605 4.224
 -0.546 -1.603 4.221
 -0.52 -1.603 4.224
 -0.494 -1.603 4.226
 -0.468 -1.602 4.225
 -0.443 -1.601 4.225
 -0.417 -1.602 4.228
 -0.392 -1.602 4.23
 -0.366 -1.6 4.228
 -0.34 -1.601 4.231
 -0.315 -1.6 4.23
 -0.289 -1.598 4.225
 -0.263 -1.596 4.221
 -0.237 -1.595 4.22
 -0.212 -1.594 4.219
 -0.186 -1.594 4.218
 -0.161 -1.593 4.217
 -0.136 -1.596 4.224
 -0.11 -1.596 4.226
 -0.085 -1.597 4.227
 -0.059 -1.598 4.232
 -0.034 -1.601 4.237
 -0.009 -1.6 4.235
 0.016 -1.603 4.243
 0.041 -1.602 4.241
 0.067 -1.601 4.236
 0.092 -1.6 4.234
 0.118 -1.6 4.233
 0.143 -1.596 4.221
 0.168 -1.597 4.223
 0.194 -1.597 4.222
 0.219 -1.597 4.219
 0.245 -1.597 4.218
 0.27 -1.596 4.215
 0.295 -1.596 4.212
 0.321 -1.598 4.215
 0.347 -1.599 4.217
 0.372 -1.598 4.212
 0.397 -1.6 4.213
 0.422 -1.598 4.207
 0.448 -1.598 4.205
 0.473 -1.599 4.203
 0.5 -1.602 4.21
 0.526 -1.603 4.209
 0.552 -1.606 4.214
 0.578 -1.606 4.211
 0.603 -1.607 4.209
 0.628 -1.605 4.202
 0.654 -1.607 4.203
 0.68 -1.606 4.197
 0.705 -1.606 4.193
 0.731 -1.607 4.19
 0.757 -1.608 4.19
 0.782 -1.607 4.183
 0.809 -1.61 4.185
 0.835 -1.611 4.185
 0.86 -1.611 4.179
 0.887 -1.612 4.178
 0.913 -1.613 4.175
 0.938 -1.613 4.17
 0.964 -1.614 4.167
 0.992 -1.617 4.169
 1.017 -1.617 4.163
 1.043 -1.618 4.16
 1.069 -1.619 4.155
 1.095 -1.62 4.151
 1.121 -1.619 4.143
 1.147 -1.62 4.141
 1.174 -1.622 4.138
 1.201 -1.623 4.135
 1.227 -1.625 4.131
 1.255 -1.627 4.13
 1.282 -1.629 4.127
 1.308 -1.629 4.12
 1.334 -1.629 4.113
 1.358 -1.628 4.103
 1.384 -1.628 4.095
 1.408 -1.626 4.082
 1.434 -1.626 4.074
 1.461 -1.627 4.068
 1.487 -1.628 4.061
 1.514 -1.629 4.055
 1.542 -1.632 4.053
 1.568 -1.632 4.045
 1.594 -1.633 4.037
 1.62 -1.633 4.028
 1.644 -1.631 4.014
 1.667 -1.629 3.998
 1.694 -1.63 3.99
 1.716 -1.627 3.973
 1.743 -1.627 3.964
 1.768 -1.627 3.952
 1.789 -1.623 3.933
 1.805 -1.614 3.9
 1.818 -1.603 3.863
 1.824 -1.587 3.813
 1.828 -1.569 3.758
 1.83 -1.55 3.701
 1.837 -1.535 3.655
 1.841 -1.519 3.605
 1.852 -1.508 3.569
 1.844 -1.483 3.497
 1.828 -1.452 3.412
 1.759 -1.38 3.232
 1.744 -1.351 3.155
 1.758 -1.346 3.132
 1.767 -1.337 3.099
 1.774 -1.326 3.064
 1.774 -1.311 3.017
 1.771 -1.294 2.967
 1.754 -1.267 2.894
 1.763 -1.259 2.866
 -2.295 -1.63 3.874
 -2.237 -1.608 3.834
 -2.233 -1.624 3.885
 -2.205 -1.624 3.897
 -2.178 -1.623 3.909
 -2.15 -1.622 3.918
 -2.122 -1.621 3.928
 -2.095 -1.621 3.94
 -2.069 -1.621 3.953
 -2.042 -1.621 3.963
 -2.015 -1.621 3.974
 -1.988 -1.62 3.984
 -1.958 -1.617 3.988
 -1.933 -1.618 4.002
 -1.908 -1.62 4.016
 -1.883 -1.621 4.03
 -1.858 -1.622 4.043
 -1.831 -1.622 4.052
 -1.8 -1.618 4.054
 -1.772 -1.617 4.06
 -1.742 -1.613 4.061
 -1.713 -1.611 4.065
 -1.687 -1.611 4.075
 -1.66 -1.611 4.083
 -1.633 -1.61 4.09
 -1.608 -1.611 4.102
 -1.582 -1.612 4.112
 -1.556 -1.612 4.12
 -1.529 -1.611 4.127
 -1.502 -1.611 4.134
 -1.476 -1.611 4.142
 -1.448 -1.609 4.145
 -1.421 -1.608 4.15
 -1.394 -1.608 4.156
 -1.368 -1.607 4.163
 -1.341 -1.607 4.168
 -1.316 -1.608 4.179
 -1.289 -1.608 4.185
 -1.263 -1.608 4.193
 -1.237 -1.609 4.201
 -1.21 -1.607 4.203
 -1.183 -1.606 4.206
 -1.156 -1.605 4.209
 -1.128 -1.603 4.209
 -1.101 -1.601 4.21
 -1.073 -1.599 4.21
 -1.046 -1.597 4.209
 -1.02 -1.596 4.213
 -0.994 -1.596 4.218
 -0.967 -1.596 4.222
 -0.942 -1.597 4.228
 -0.916 -1.596 4.232
 -0.889 -1.595 4.232
 -0.862 -1.594 4.234
 -0.835 -1.592 4.233
 -0.808 -1.59 4.232
 -0.782 -1.59 4.235
 -0.756 -1.589 4.236
 -0.73 -1.588 4.237
 -0.704 -1.588 4.241
 -0.679 -1.59 4.248
 -0.653 -1.589 4.25
 -0.628 -1.591 4.257
 -0.602 -1.592 4.263
 -0.576 -1.592 4.266
 -0.55 -1.59 4.265
 -0.524 -1.59 4.266
 -0.498 -1.589 4.265
 -0.472 -1.588 4.266
 -0.446 -1.587 4.265
 -0.42 -1.588 4.268
 -0.394 -1.588 4.269
 -0.368 -1.586 4.267
 -0.343 -1.586 4.268
 -0.316 -1.584 4.265
 -0.29 -1.581 4.257
 -0.264 -1.579 4.252
 -0.238 -1.578 4.251
 -0.213 -1.576 4.245
 -0.187 -1.576 4.246
 -0.162 -1.577 4.249
 -0.136 -1.579 4.257
 -0.111 -1.581 4.262
 -0.085 -1.582 4.264
 -0.06 -1.583 4.266
 -0.034 -1.583 4.266
 -0.008 -1.582 4.264
 0.016 -1.584 4.269
 0.042 -1.584 4.269
 0.067 -1.583 4.265
 0.093 -1.583 4.265
 0.119 -1.583 4.264
 0.144 -1.58 4.254
 0.169 -1.58 4.253
 0.195 -1.58 4.252
 0.221 -1.58 4.25
 0.246 -1.58 4.249
 0.272 -1.58 4.247
 0.297 -1.581 4.248
 0.323 -1.583 4.252
 0.349 -1.584 4.253
 0.374 -1.583 4.247
 0.4 -1.584 4.249
 0.426 -1.584 4.245
 0.451 -1.583 4.242
 0.477 -1.584 4.242
 0.503 -1.587 4.247
 0.529 -1.588 4.244
 0.556 -1.59 4.247
 0.581 -1.59 4.245
 0.607 -1.59 4.242
 0.632 -1.589 4.236
 0.658 -1.591 4.236
 0.684 -1.59 4.229
 0.709 -1.589 4.225
 0.735 -1.59 4.223
 0.761 -1.591 4.222
 0.787 -1.591 4.217
 0.814 -1.594 4.22
 0.84 -1.596 4.219
 0.866 -1.595 4.213
 0.893 -1.598 4.215
 0.919 -1.598 4.211
 0.944 -1.597 4.204
 0.97 -1.598 4.201
 0.997 -1.6 4.201
 1.023 -1.6 4.195
 1.05 -1.603 4.195
 1.077 -1.604 4.193
 1.104 -1.606 4.191
 1.13 -1.607 4.188
 1.157 -1.608 4.184
 1.184 -1.61 4.182
 1.211 -1.611 4.179
 1.238 -1.613 4.177
 1.266 -1.615 4.174
 1.293 -1.617 4.173
 1.32 -1.618 4.167
 1.346 -1.618 4.16
 1.372 -1.617 4.151
 1.398 -1.618 4.146
 1.423 -1.617 4.134
 1.45 -1.618 4.128
 1.478 -1.62 4.126
 1.504 -1.62 4.116
 1.531 -1.621 4.11
 1.56 -1.625 4.11
 1.586 -1.624 4.099
 1.612 -1.625 4.091
 1.64 -1.626 4.086
 1.664 -1.625 4.072
 1.688 -1.623 4.057
 1.715 -1.623 4.048
 1.739 -1.621 4.034
 1.763 -1.62 4.02
 1.786 -1.617 4.003
 1.805 -1.611 3.976
 1.817 -1.599 3.936
 1.827 -1.586 3.892
 1.83 -1.567 3.834
 1.834 -1.549 3.78
 1.836 -1.53 3.722
 1.844 -1.517 3.679
 1.847 -1.499 3.625
 1.857 -1.488 3.588
 1.86 -1.472 3.536
 0 0 0
 1.751 -1.352 3.226
 1.741 -1.327 3.156
 1.758 -1.325 3.14
 1.77 -1.317 3.112
 1.775 -1.306 3.074
 1.777 -1.292 3.03
 1.773 -1.275 2.978
 1.773 -1.26 2.934
 1.761 -1.237 2.869
 -2.264 -1.582 3.831
 -2.297 -1.624 3.946
 -2.265 -1.621 3.952
 -2.237 -1.62 3.963
 -2.211 -1.621 3.978
 -2.18 -1.618 3.984
 -2.155 -1.619 3.998
 -2.128 -1.619 4.011
 -2.101 -1.619 4.023
 -2.072 -1.618 4.032
 -2.045 -1.618 4.043
 -2.015 -1.616 4.049
 -1.985 -1.613 4.054
 -1.959 -1.613 4.066
 -1.934 -1.615 4.082
 -1.909 -1.617 4.095
 -1.884 -1.618 4.11
 -1.857 -1.618 4.121
 -1.828 -1.616 4.126
 -1.798 -1.614 4.129
 -1.767 -1.61 4.131
 -1.738 -1.608 4.134
 -1.711 -1.607 4.142
 -1.683 -1.606 4.149
 -1.655 -1.605 4.155
 -1.629 -1.606 4.165
 -1.602 -1.606 4.174
 -1.575 -1.606 4.182
 -1.548 -1.605 4.189
 -1.521 -1.605 4.197
 -1.495 -1.606 4.207
 -1.467 -1.603 4.208
 -1.438 -1.602 4.212
 -1.412 -1.602 4.219
 -1.385 -1.601 4.224
 -1.356 -1.599 4.226
 -1.331 -1.601 4.238
 -1.304 -1.6 4.243
 -1.277 -1.599 4.247
 -1.25 -1.599 4.254
 -1.222 -1.597 4.255
 -1.194 -1.594 4.253
 -1.167 -1.594 4.258
 -1.139 -1.592 4.258
 -1.111 -1.589 4.257
 -1.084 -1.588 4.26
 -1.057 -1.587 4.261
 -1.028 -1.584 4.258
 -1.002 -1.584 4.263
 -0.975 -1.582 4.264
 -0.948 -1.582 4.268
 -0.922 -1.581 4.269
 -0.896 -1.581 4.274
 -0.869 -1.58 4.275
 -0.842 -1.578 4.275
 -0.815 -1.577 4.274
 -0.788 -1.576 4.275
 -0.761 -1.574 4.273
 -0.735 -1.573 4.275
 -0.709 -1.572 4.277
 -0.682 -1.572 4.279
 -0.656 -1.572 4.281
 -0.63 -1.571 4.283
 -0.604 -1.571 4.286
 -0.578 -1.571 4.287
 -0.552 -1.57 4.287
 -0.526 -1.57 4.29
 -0.5 -1.569 4.29
 -0.474 -1.569 4.29
 -0.448 -1.568 4.292
 -0.422 -1.568 4.293
 -0.396 -1.567 4.291
 -0.369 -1.566 4.29
 -0.344 -1.566 4.291
 -0.317 -1.564 4.286
 -0.291 -1.56 4.279
 -0.265 -1.559 4.276
 -0.239 -1.557 4.272
 -0.213 -1.556 4.269
 -0.188 -1.556 4.269
 -0.162 -1.557 4.274
 -0.137 -1.558 4.277
 -0.111 -1.561 4.285
 -0.085 -1.561 4.284
 -0.06 -1.561 4.284
 -0.034 -1.56 4.283
 -0.008 -1.561 4.285
 0.016 -1.561 4.285
 0.042 -1.561 4.285
 0.068 -1.561 4.284
 0.093 -1.562 4.286
 0.119 -1.562 4.284
 0.145 -1.56 4.277
 0.17 -1.559 4.275
 0.196 -1.56 4.275
 0.221 -1.56 4.273
 0.247 -1.559 4.271
 0.273 -1.559 4.269
 0.298 -1.56 4.269
 0.324 -1.561 4.272
 0.35 -1.562 4.271
 0.376 -1.561 4.267
 0.402 -1.563 4.27
 0.427 -1.564 4.269
 0.453 -1.564 4.266
 0.479 -1.564 4.265
 0.506 -1.567 4.271
 0.531 -1.567 4.267
 0.557 -1.568 4.267
 0.583 -1.569 4.266
 0.609 -1.57 4.265
 0.634 -1.568 4.256
 0.66 -1.569 4.256
 0.686 -1.569 4.251
 0.712 -1.569 4.246
 0.737 -1.569 4.244
 0.764 -1.57 4.243
 0.79 -1.571 4.241
 0.817 -1.574 4.244
 0.843 -1.575 4.243
 0.869 -1.575 4.238
 0.896 -1.577 4.239
 0.922 -1.578 4.235
 0.948 -1.578 4.229
 0.974 -1.578 4.224
 1.001 -1.58 4.225
 1.027 -1.581 4.221
 1.054 -1.583 4.22
 1.081 -1.584 4.218
 1.109 -1.587 4.218
 1.136 -1.588 4.216
 1.163 -1.59 4.215
 1.191 -1.592 4.213
 1.218 -1.594 4.211
 1.246 -1.596 4.21
 1.273 -1.598 4.207
 1.3 -1.599 4.203
 1.327 -1.6 4.199
 1.354 -1.601 4.193
 1.381 -1.601 4.187
 1.408 -1.603 4.181
 1.434 -1.603 4.175
 1.462 -1.605 4.171
 1.49 -1.607 4.168
 1.517 -1.607 4.16
 1.544 -1.609 4.156
 1.574 -1.612 4.154
 1.6 -1.612 4.145
 1.627 -1.613 4.139
 1.656 -1.615 4.134
 1.681 -1.614 4.122
 1.706 -1.613 4.109
 1.733 -1.614 4.1
 1.758 -1.613 4.087
 1.78 -1.609 4.068
 1.801 -1.604 4.044
 1.817 -1.595 4.011
 1.828 -1.582 3.968
 1.834 -1.566 3.915
 1.838 -1.548 3.859
 1.844 -1.532 3.809
 1.847 -1.514 3.754
 1.855 -1.501 3.708
 1.862 -1.487 3.663
 1.875 -1.478 3.63
 0 0 0
 0 0 0
 0 0 0
 1.742 -1.307 3.167
 1.76 -1.305 3.151
 1.771 -1.297 3.121
 1.777 -1.286 3.085
 1.781 -1.274 3.044
 1.776 -1.256 2.99
 1.802 -1.26 2.988
 1.754 -1.213 2.865
 -2.385 -1.639 4.047
 -2.282 -1.587 3.93
 -2.206 -1.552 3.858
 -2.27 -1.617 4.032
 -2.243 -1.617 4.045
 -2.212 -1.614 4.052
 -2.185 -1.614 4.064
 -2.155 -1.613 4.072
 -2.126 -1.611 4.081
 -2.097 -1.61 4.091
 -2.069 -1.61 4.101
 -2.041 -1.609 4.11
 -2.013 -1.608 4.119
 -1.987 -1.609 4.134
 -1.961 -1.61 4.148
 -1.934 -1.611 4.16
 -1.908 -1.612 4.172
 -1.881 -1.612 4.184
 -1.851 -1.61 4.189
 -1.822 -1.608 4.195
 -1.792 -1.606 4.198
 -1.763 -1.604 4.203
 -1.734 -1.603 4.209
 -1.706 -1.601 4.215
 -1.677 -1.6 4.22
 -1.649 -1.599 4.227
 -1.621 -1.598 4.233
 -1.595 -1.598 4.243
 -1.566 -1.597 4.248
 -1.539 -1.597 4.255
 -1.513 -1.597 4.265
 -1.484 -1.595 4.267
 -1.454 -1.593 4.267
 -1.427 -1.593 4.275
 -1.399 -1.591 4.277
 -1.37 -1.589 4.278
 -1.343 -1.588 4.284
 -1.315 -1.586 4.287
 -1.286 -1.584 4.287
 -1.259 -1.584 4.293
 -1.231 -1.582 4.294
 -1.202 -1.579 4.291
 -1.175 -1.579 4.297
 -1.146 -1.576 4.294
 -1.118 -1.573 4.292
 -1.09 -1.571 4.293
 -1.064 -1.571 4.299
 -1.035 -1.567 4.294
 -1.008 -1.568 4.3
 -0.981 -1.566 4.299
 -0.954 -1.564 4.3
 -0.926 -1.562 4.297
 -0.899 -1.562 4.302
 -0.872 -1.56 4.302
 -0.845 -1.559 4.302
 -0.819 -1.558 4.304
 -0.792 -1.557 4.305
 -0.764 -1.554 4.3
 -0.738 -1.554 4.303
 -0.711 -1.553 4.304
 -0.685 -1.551 4.302
 -0.658 -1.55 4.302
 -0.632 -1.55 4.303
 -0.605 -1.548 4.301
 -0.579 -1.547 4.301
 -0.553 -1.547 4.303
 -0.527 -1.547 4.306
 -0.5 -1.546 4.305
 -0.474 -1.545 4.304
 -0.448 -1.545 4.308
 -0.422 -1.545 4.309
 -0.396 -1.543 4.304
 -0.37 -1.542 4.303
 -0.344 -1.542 4.306
 -0.318 -1.539 4.299
 -0.291 -1.537 4.292
 -0.265 -1.536 4.29
 -0.239 -1.535 4.289
 -0.213 -1.533 4.284
 -0.188 -1.532 4.284
 -0.162 -1.533 4.287
 -0.137 -1.534 4.29
 -0.111 -1.536 4.294
 -0.085 -1.536 4.295
 -0.06 -1.535 4.292
 -0.034 -1.535 4.291
 -0.008 -1.534 4.29
 0.017 -1.535 4.291
 0.042 -1.534 4.289
 0.068 -1.534 4.287
 0.094 -1.535 4.29
 0.119 -1.535 4.289
 0.145 -1.534 4.285
 0.17 -1.534 4.284
 0.196 -1.535 4.286
 0.222 -1.534 4.281
 0.247 -1.534 4.28
 0.273 -1.534 4.277
 0.298 -1.534 4.276
 0.324 -1.535 4.277
 0.35 -1.536 4.277
 0.375 -1.535 4.273
 0.402 -1.537 4.277
 0.428 -1.538 4.277
 0.454 -1.539 4.277
 0.48 -1.54 4.278
 0.506 -1.543 4.283
 0.532 -1.543 4.28
 0.558 -1.543 4.278
 0.583 -1.543 4.274
 0.609 -1.544 4.272
 0.635 -1.543 4.266
 0.661 -1.544 4.266
 0.687 -1.545 4.266
 0.713 -1.545 4.261
 0.739 -1.546 4.259
 0.765 -1.547 4.258
 0.791 -1.548 4.256
 0.818 -1.55 4.257
 0.845 -1.552 4.258
 0.871 -1.553 4.256
 0.898 -1.554 4.254
 0.924 -1.555 4.251
 0.95 -1.554 4.244
 0.976 -1.555 4.242
 1.003 -1.558 4.242
 1.03 -1.559 4.241
 1.057 -1.561 4.239
 1.085 -1.562 4.238
 1.112 -1.565 4.239
 1.139 -1.566 4.237
 1.167 -1.569 4.236
 1.195 -1.571 4.237
 1.222 -1.573 4.234
 1.25 -1.575 4.232
 1.278 -1.577 4.23
 1.305 -1.578 4.226
 1.332 -1.579 4.222
 1.36 -1.581 4.219
 1.388 -1.584 4.218
 1.415 -1.584 4.21
 1.442 -1.586 4.207
 1.471 -1.588 4.205
 1.5 -1.591 4.203
 1.526 -1.59 4.194
 1.555 -1.593 4.192
 1.584 -1.595 4.189
 1.61 -1.596 4.181
 1.638 -1.596 4.173
 1.668 -1.6 4.173
 1.694 -1.6 4.163
 1.72 -1.599 4.152
 1.747 -1.6 4.142
 1.772 -1.598 4.128
 1.792 -1.593 4.105
 1.81 -1.585 4.074
 1.824 -1.576 4.037
 1.834 -1.562 3.991
 1.841 -1.546 3.939
 1.844 -1.528 3.881
 1.853 -1.514 3.837
 1.858 -1.498 3.783
 1.864 -1.483 3.734
 1.871 -1.469 3.688
 0 0 0
 0 0 0
 0 0 0
 0 0 0
 1.747 -1.289 3.182
 1.765 -1.287 3.166
 1.775 -1.279 3.136
 1.781 -1.268 3.099
 1.786 -1.256 3.06
 1.78 -1.238 3.004
 1.753 -1.206 2.915
 1.748 -1.189 2.863
 -2.395 -1.618 4.075
 -2.366 -1.617 4.086
 -2.049 -1.417 3.591
 -2.115 -1.481 3.765
 -1.996 -1.415 3.607
 -1.878 -1.347 3.445
 -1.943 -1.412 3.622
 -1.829 -1.346 3.463
 -1.802 -1.343 3.466
 -1.78 -1.344 3.477
 -1.756 -1.343 3.485
 -1.73 -1.341 3.49
 -1.789 -1.405 3.669
 -1.767 -1.407 3.683
 -1.824 -1.473 3.866
 -1.879 -1.538 4.049
 -1.852 -1.538 4.059
 -1.825 -1.538 4.068
 -1.872 -1.6 4.245
 -1.842 -1.598 4.25
 -1.812 -1.596 4.255
 -1.782 -1.594 4.258
 -1.753 -1.593 4.264
 -1.723 -1.591 4.268
 -1.693 -1.588 4.27
 -1.664 -1.586 4.274
 -1.635 -1.585 4.279
 -1.607 -1.584 4.285
 -1.578 -1.582 4.29
 -1.55 -1.582 4.296
 -1.524 -1.582 4.306
 -1.495 -1.581 4.309
 -1.465 -1.578 4.308
 -1.437 -1.577 4.314
 -1.409 -1.576 4.318
 -1.379 -1.572 4.315
 -1.351 -1.571 4.321
 -1.322 -1.569 4.32
 -1.293 -1.566 4.319
 -1.265 -1.565 4.323
 -1.236 -1.562 4.322
 -1.207 -1.559 4.319
 -1.181 -1.56 4.327
 -1.152 -1.557 4.324
 -1.122 -1.553 4.32
 -1.095 -1.551 4.321
 -1.067 -1.55 4.321
 -1.037 -1.545 4.314
 -1.011 -1.545 4.319
 -0.983 -1.544 4.319
 -0.956 -1.542 4.319
 -0.928 -1.54 4.317
 -0.902 -1.54 4.321
 -0.874 -1.537 4.317
 -0.846 -1.535 4.317
 -0.82 -1.534 4.317
 -0.793 -1.533 4.318
 -0.765 -1.53 4.314
 -0.739 -1.53 4.317
 -0.712 -1.529 4.316
 -0.685 -1.527 4.314
 -0.658 -1.525 4.313
 -0.632 -1.524 4.312
 -0.605 -1.522 4.308
 -0.578 -1.521 4.309
 -0.552 -1.52 4.31
 -0.526 -1.52 4.31
 -0.5 -1.519 4.31
 -0.474 -1.518 4.309
 -0.448 -1.518 4.311
 -0.422 -1.517 4.311
 -0.396 -1.516 4.31
 -0.37 -1.516 4.311
 -0.344 -1.517 4.316
 -0.318 -1.516 4.314
 -0.292 -1.514 4.308
 -0.266 -1.512 4.305
 -0.239 -1.51 4.3
 -0.213 -1.508 4.296
 -0.188 -1.508 4.295
 -0.162 -1.508 4.297
 -0.136 -1.509 4.299
 -0.111 -1.51 4.301
 -0.085 -1.509 4.298
 -0.059 -1.507 4.293
 -0.034 -1.507 4.292
 -0.008 -1.506 4.291
 0.017 -1.507 4.293
 0.042 -1.507 4.294
 0.068 -1.507 4.293
 0.094 -1.508 4.295
 0.119 -1.508 4.293
 0.145 -1.508 4.291
 0.17 -1.507 4.288
 0.196 -1.508 4.289
 0.222 -1.507 4.287
 0.247 -1.508 4.286
 0.273 -1.507 4.283
 0.299 -1.508 4.284
 0.324 -1.509 4.284
 0.35 -1.51 4.285
 0.376 -1.509 4.281
 0.402 -1.511 4.285
 0.428 -1.512 4.284
 0.454 -1.513 4.285
 0.479 -1.514 4.283
 0.506 -1.515 4.284
 0.531 -1.515 4.283
 0.557 -1.515 4.277
 0.583 -1.515 4.274
 0.608 -1.515 4.273
 0.634 -1.516 4.27
 0.66 -1.516 4.267
 0.687 -1.518 4.27
 0.713 -1.519 4.267
 0.739 -1.519 4.264
 0.765 -1.52 4.263
 0.791 -1.522 4.263
 0.818 -1.523 4.264
 0.845 -1.525 4.264
 0.872 -1.527 4.265
 0.898 -1.529 4.264
 0.925 -1.529 4.26
 0.95 -1.529 4.254
 0.977 -1.53 4.251
 1.004 -1.532 4.251
 1.031 -1.533 4.249
 1.058 -1.535 4.249
 1.086 -1.538 4.25
 1.113 -1.54 4.25
 1.14 -1.542 4.249
 1.168 -1.544 4.249
 1.196 -1.547 4.25
 1.223 -1.548 4.246
 1.251 -1.549 4.242
 1.278 -1.551 4.24
 1.306 -1.553 4.237
 1.333 -1.554 4.234
 1.361 -1.556 4.23
 1.391 -1.56 4.234
 1.418 -1.561 4.23
 1.446 -1.563 4.227
 1.475 -1.565 4.225
 1.504 -1.569 4.225
 1.531 -1.569 4.216
 1.56 -1.571 4.214
 1.589 -1.574 4.212
 1.616 -1.574 4.204
 1.645 -1.576 4.2
 1.675 -1.58 4.199
 1.702 -1.581 4.191
 1.729 -1.581 4.182
 1.756 -1.581 4.172
 1.78 -1.579 4.155
 1.799 -1.572 4.129
 1.816 -1.565 4.097
 1.832 -1.555 4.062
 1.842 -1.542 4.016
 1.85 -1.528 3.968
 1.856 -1.512 3.915
 1.865 -1.498 3.869
 1.869 -1.481 3.814
 1.876 -1.467 3.766
 0 0 0
 0 0 0
 0 0 0
 0 0 0
 0 0 0
 1.751 -1.27 3.197
 1.767 -1.266 3.177
 1.778 -1.259 3.148
 1.784 -1.249 3.112
 1.789 -1.238 3.073
 1.782 -1.219 3.015
 1.771 -1.198 2.951
 1.766 -1.181 2.9
 -0.069 -0.047 0.105
 -2.405 -1.616 4.163
 -1.608 -1.094 2.822
 -1.678 -1.155 2.992
 -1.563 -1.089 2.829
 -1.54 -1.087 2.831
 -1.61 -1.15 3.007
 -1.501 -1.086 2.845
 -1.479 -1.084 2.849
 -1.461 -1.085 2.86
 -1.441 -1.084 2.866
 -1.42 -1.082 2.87
 -1.565 -1.209 3.216
 -1.626 -1.273 3.396
 -1.765 -1.401 3.749
 -1.819 -1.464 3.93
 -1.872 -1.528 4.112
 -1.845 -1.528 4.122
 -1.892 -1.59 4.3
 -1.861 -1.587 4.303
 -1.831 -1.585 4.308
 -1.8 -1.583 4.311
 -1.769 -1.579 4.312
 -1.738 -1.576 4.313
 -1.706 -1.573 4.313
 -1.677 -1.571 4.317
 -1.647 -1.569 4.319
 -1.617 -1.567 4.321
 -1.588 -1.565 4.325
 -1.559 -1.563 4.33
 -1.532 -1.564 4.339
 -1.503 -1.562 4.342
 -1.474 -1.56 4.343
 -1.445 -1.558 4.347
 -1.416 -1.557 4.349
 -1.384 -1.551 4.341
 -1.356 -1.55 4.346
 -1.326 -1.546 4.341
 -1.296 -1.543 4.338
 -1.267 -1.541 4.338
 -1.239 -1.539 4.339
 -1.209 -1.535 4.334
 -1.182 -1.535 4.34
 -1.153 -1.532 4.338
 -1.124 -1.529 4.335
 -1.096 -1.527 4.335
 -1.068 -1.525 4.335
 -1.038 -1.521 4.327
 -1.012 -1.52 4.331
 -0.983 -1.517 4.328
 -0.956 -1.515 4.326
 -0.928 -1.514 4.326
 -0.902 -1.514 4.33
 -0.873 -1.51 4.323
 -0.846 -1.509 4.325
 -0.819 -1.508 4.325
 -0.792 -1.506 4.325
 -0.765 -1.504 4.322
 -0.739 -1.505 4.327
 -0.712 -1.503 4.325
 -0.685 -1.501 4.323
 -0.658 -1.499 4.321
 -0.631 -1.498 4.319
 -0.604 -1.495 4.313
 -0.578 -1.494 4.314
 -0.552 -1.493 4.314
 -0.525 -1.492 4.313
 -0.499 -1.492 4.315
 -0.473 -1.492 4.316
 -0.447 -1.491 4.316
 -0.421 -1.491 4.317
 -0.395 -1.49 4.316
 -0.369 -1.489 4.315
 -0.343 -1.49 4.318
 -0.318 -1.49 4.32
 -0.291 -1.487 4.312
 -0.265 -1.486 4.311
 -0.239 -1.485 4.308
 -0.213 -1.483 4.305
 -0.187 -1.481 4.3
 -0.162 -1.483 4.304
 -0.136 -1.482 4.304
 -0.11 -1.482 4.304
 -0.085 -1.481 4.299
 -0.059 -1.479 4.296
 -0.033 -1.479 4.294
 -0.008 -1.478 4.291
 0.017 -1.478 4.291
 0.042 -1.479 4.292
 0.068 -1.479 4.293
 0.094 -1.48 4.294
 0.119 -1.48 4.294
 0.145 -1.48 4.292
 0.17 -1.479 4.29
 0.196 -1.48 4.291
 0.222 -1.48 4.288
 0.247 -1.48 4.286
 0.273 -1.48 4.287
 0.299 -1.482 4.289
 0.324 -1.482 4.287
 0.35 -1.483 4.289
 0.376 -1.482 4.285
 0.402 -1.484 4.288
 0.427 -1.484 4.285
 0.453 -1.485 4.286
 0.479 -1.485 4.284
 0.505 -1.487 4.284
 0.53 -1.486 4.281
 0.556 -1.485 4.275
 0.581 -1.486 4.273
 0.607 -1.486 4.271
 0.634 -1.488 4.273
 0.66 -1.489 4.272
 0.687 -1.492 4.277
 0.713 -1.494 4.278
 0.739 -1.494 4.276
 0.765 -1.494 4.271
 0.791 -1.495 4.27
 0.818 -1.497 4.269
 0.844 -1.498 4.267
 0.871 -1.5 4.268
 0.898 -1.502 4.27
 0.925 -1.503 4.268
 0.951 -1.503 4.263
 0.977 -1.504 4.26
 1.004 -1.505 4.258
 1.031 -1.507 4.256
 1.057 -1.508 4.255
 1.085 -1.511 4.256
 1.112 -1.512 4.252
 1.139 -1.513 4.251
 1.166 -1.515 4.249
 1.194 -1.517 4.249
 1.221 -1.519 4.246
 1.25 -1.521 4.246
 1.278 -1.523 4.245
 1.305 -1.525 4.242
 1.333 -1.527 4.24
 1.36 -1.528 4.237
 1.391 -1.533 4.241
 1.418 -1.535 4.238
 1.448 -1.538 4.238
 1.477 -1.541 4.238
 1.506 -1.544 4.239
 1.533 -1.544 4.231
 1.562 -1.547 4.228
 1.591 -1.549 4.226
 1.619 -1.55 4.22
 1.648 -1.552 4.216
 1.678 -1.556 4.216
 1.707 -1.558 4.211
 1.735 -1.559 4.205
 1.761 -1.558 4.193
 1.784 -1.555 4.174
 1.803 -1.549 4.147
 1.821 -1.541 4.115
 1.835 -1.531 4.077
 1.848 -1.521 4.038
 1.858 -1.508 3.992
 1.865 -1.492 3.941
 1.875 -1.48 3.897
 1.877 -1.462 3.839
 0 0 0
 0 0 0
 0 0 0
 0 0 0
 0 0 0
 0 0 0
 1.754 -1.251 3.21
 1.769 -1.246 3.188
 1.779 -1.239 3.158
 1.786 -1.229 3.122
 1.791 -1.218 3.083
 1.785 -1.2 3.027
 1.746 -1.16 2.916
 1.779 -1.169 2.927
 -0.06 -0.041 0.09
 -2.404 -1.587 4.172
 -1.168 -0.781 2.051
 -1.241 -0.84 2.214
 -1.128 -0.773 2.042
 -1.108 -0.768 2.037
 -1.183 -0.83 2.21
 -1.077 -0.766 2.043
 -1.062 -0.765 2.046
 -1.048 -0.765 2.051
 -1.033 -0.764 2.055
 -1.1 -0.824 2.225
 -1.249 -0.948 2.569
 -1.313 -1.01 2.746
 -1.538 -1.199 3.272
 -1.674 -1.324 3.624
 -1.728 -1.386 3.803
 -1.78 -1.448 3.985
 -1.904 -1.572 4.338
 -1.871 -1.568 4.336
 -1.84 -1.566 4.34
 -1.809 -1.563 4.341
 -1.777 -1.559 4.341
 -1.745 -1.556 4.34
 -1.715 -1.553 4.344
 -1.684 -1.551 4.345
 -1.653 -1.548 4.345
 -1.623 -1.545 4.348
 -1.594 -1.543 4.35
 -1.564 -1.541 4.351
 -1.536 -1.54 4.358
 -1.507 -1.539 4.362
 -1.477 -1.536 4.36
 -1.447 -1.534 4.362
 -1.418 -1.532 4.364
 -1.386 -1.526 4.356
 -1.357 -1.524 4.357
 -1.327 -1.521 4.354
 -1.297 -1.517 4.35
 -1.267 -1.514 4.347
 -1.239 -1.512 4.347
 -1.208 -1.508 4.342
 -1.18 -1.506 4.344
 -1.151 -1.503 4.34
 -1.123 -1.501 4.34
 -1.095 -1.499 4.339
 -1.067 -1.498 4.341
 -1.038 -1.494 4.336
 -1.012 -1.494 4.34
 -0.983 -1.491 4.336
 -0.955 -1.489 4.334
 -0.928 -1.487 4.333
 -0.901 -1.486 4.335
 -0.873 -1.483 4.33
 -0.846 -1.482 4.329
 -0.819 -1.48 4.33
 -0.792 -1.479 4.329
 -0.765 -1.477 4.328
 -0.739 -1.478 4.333
 -0.712 -1.476 4.331
 -0.685 -1.475 4.33
 -0.658 -1.473 4.327
 -0.631 -1.47 4.322
 -0.603 -1.466 4.314
 -0.577 -1.465 4.314
 -0.551 -1.464 4.313
 -0.524 -1.464 4.313
 -0.499 -1.464 4.315
 -0.473 -1.464 4.319
 -0.447 -1.463 4.319
 -0.421 -1.463 4.319
 -0.395 -1.462 4.318
 -0.369 -1.461 4.316
 -0.343 -1.461 4.319
 -0.317 -1.462 4.321
 -0.291 -1.459 4.315
 -0.265 -1.458 4.314
 -0.239 -1.458 4.313
 -0.213 -1.457 4.312
 -0.187 -1.456 4.308
 -0.162 -1.456 4.309
 -0.136 -1.456 4.309
 -0.11 -1.455 4.306
 -0.084 -1.453 4.3
 -0.059 -1.452 4.298
 -0.033 -1.453 4.3
 -0.008 -1.451 4.296
 0.017 -1.452 4.296
 0.042 -1.452 4.296
 0.068 -1.452 4.297
 0.094 -1.452 4.296
 0.119 -1.453 4.296
 0.145 -1.452 4.294
 0.17 -1.452 4.292
 0.196 -1.452 4.292
 0.221 -1.452 4.29
 0.247 -1.453 4.29
 0.273 -1.454 4.291
 0.298 -1.454 4.292
 0.324 -1.454 4.288
 0.35 -1.455 4.29
 0.375 -1.455 4.287
 0.401 -1.456 4.289
 0.427 -1.457 4.288
 0.453 -1.458 4.288
 0.478 -1.457 4.285
 0.504 -1.459 4.285
 0.53 -1.458 4.282
 0.555 -1.457 4.276
 0.581 -1.458 4.275
 0.607 -1.459 4.275
 0.633 -1.461 4.277
 0.66 -1.462 4.277
 0.686 -1.465 4.281
 0.712 -1.466 4.279
 0.738 -1.466 4.276
 0.764 -1.466 4.272
 0.79 -1.467 4.27
 0.816 -1.468 4.269
 0.843 -1.47 4.269
 0.87 -1.471 4.268
 0.896 -1.472 4.267
 0.923 -1.474 4.267
 0.95 -1.476 4.266
 0.976 -1.476 4.264
 1.003 -1.478 4.264
 1.031 -1.48 4.264
 1.057 -1.481 4.261
 1.084 -1.483 4.26
 1.111 -1.484 4.255
 1.138 -1.485 4.254
 1.165 -1.487 4.251
 1.192 -1.488 4.25
 1.22 -1.49 4.248
 1.248 -1.493 4.249
 1.276 -1.495 4.248
 1.304 -1.497 4.247
 1.332 -1.499 4.245
 1.36 -1.501 4.242
 1.39 -1.505 4.246
 1.418 -1.507 4.244
 1.448 -1.511 4.246
 1.477 -1.514 4.245
 1.507 -1.517 4.247
 1.534 -1.518 4.24
 1.563 -1.52 4.238
 1.591 -1.522 4.234
 1.619 -1.524 4.229
 1.649 -1.526 4.227
 1.679 -1.529 4.225
 1.707 -1.531 4.22
 1.735 -1.532 4.214
 1.762 -1.532 4.203
 1.785 -1.529 4.184
 1.806 -1.524 4.161
 1.824 -1.517 4.131
 1.841 -1.509 4.099
 1.856 -1.5 4.063
 1.869 -1.49 4.024
 1.88 -1.479 3.982
 1.896 -1.471 3.95
 0 0 0
 0 0 0
 0 0 0
 0 0 0
 0 0 0
 0 0 0
 0 0 0
 1.755 -1.23 3.219
 1.769 -1.224 3.194
 1.779 -1.217 3.163
 1.786 -1.208 3.129
 1.792 -1.197 3.092
 1.786 -1.18 3.035
 1.771 -1.157 2.965
 1.757 -1.135 2.898
 -0.035 -0.024 0.047
 -0.069 -0.046 0.107
 -0.722 -0.474 1.265
 -0.8 -0.532 1.426
 -0.692 -0.466 1.252
 -0.676 -0.461 1.241
 -0.756 -0.522 1.411
 -0.651 -0.455 1.233
 -0.639 -0.453 1.23
 -0.63 -0.452 1.23
 -0.618 -0.45 1.228
 -0.775 -0.57 1.566
 -1.012 -0.754 2.083
 -1.161 -0.878 2.432
 -1.468 -1.125 3.129
 -1.686 -1.31 3.657
 -1.738 -1.37 3.835
 -1.789 -1.43 4.014
 -1.912 -1.551 4.365
 -1.879 -1.547 4.365
 -1.848 -1.545 4.368
 -1.816 -1.541 4.368
 -1.784 -1.538 4.367
 -1.752 -1.534 4.367
 -1.721 -1.532 4.369
 -1.689 -1.528 4.366
 -1.657 -1.524 4.365
 -1.627 -1.521 4.365
 -1.596 -1.518 4.366
 -1.566 -1.515 4.365
 -1.536 -1.514 4.369
 -1.507 -1.512 4.371
 -1.476 -1.508 4.369
 -1.446 -1.506 4.368
 -1.416 -1.503 4.367
 -1.385 -1.498 4.361
 -1.355 -1.495 4.359
 -1.325 -1.492 4.356
 -1.295 -1.488 4.351
 -1.265 -1.485 4.348
 -1.237 -1.483 4.349
 -1.207 -1.48 4.346
 -1.179 -1.477 4.345
 -1.15 -1.475 4.343
 -1.122 -1.473 4.344
 -1.094 -1.471 4.342
 -1.066 -1.47 4.344
 -1.038 -1.468 4.343
 -1.011 -1.466 4.344
 -0.983 -1.464 4.342
 -0.955 -1.462 4.341
 -0.927 -1.46 4.339
 -0.9 -1.458 4.338
 -0.872 -1.455 4.333
 -0.845 -1.454 4.333
 -0.818 -1.453 4.333
 -0.791 -1.452 4.333
 -0.764 -1.451 4.336
 -0.738 -1.451 4.338
 -0.711 -1.449 4.334
 -0.684 -1.448 4.335
 -0.657 -1.446 4.332
 -0.63 -1.443 4.328
 -0.603 -1.441 4.322
 -0.577 -1.44 4.322
 -0.55 -1.438 4.318
 -0.524 -1.437 4.319
 -0.498 -1.437 4.32
 -0.472 -1.436 4.32
 -0.446 -1.436 4.32
 -0.42 -1.436 4.323
 -0.394 -1.434 4.32
 -0.368 -1.433 4.318
 -0.342 -1.434 4.322
 -0.317 -1.434 4.323
 -0.29 -1.431 4.316
 -0.264 -1.431 4.316
 -0.239 -1.431 4.315
 -0.213 -1.43 4.315
 -0.187 -1.428 4.31
 -0.161 -1.428 4.31
 -0.136 -1.429 4.311
 -0.11 -1.427 4.308
 -0.084 -1.424 4.299
 -0.059 -1.425 4.301
 -0.033 -1.426 4.304
 -0.007 -1.424 4.298
 0.017 -1.424 4.297
 0.043 -1.425 4.301
 0.068 -1.426 4.302
 0.094 -1.425 4.299
 0.119 -1.427 4.303
 0.145 -1.427 4.303
 0.17 -1.426 4.299
 0.196 -1.426 4.297
 0.222 -1.427 4.298
 0.247 -1.427 4.298
 0.273 -1.428 4.298
 0.299 -1.428 4.298
 0.324 -1.428 4.294
 0.349 -1.428 4.292
 0.375 -1.426 4.285
 0.401 -1.428 4.287
 0.426 -1.429 4.289
 0.452 -1.429 4.288
 0.478 -1.429 4.285
 0.504 -1.431 4.286
 0.529 -1.431 4.284
 0.555 -1.43 4.279
 0.58 -1.43 4.275
 0.606 -1.432 4.276
 0.633 -1.433 4.278
 0.658 -1.434 4.276
 0.685 -1.436 4.278
 0.712 -1.438 4.282
 0.738 -1.439 4.28
 0.764 -1.439 4.277
 0.79 -1.441 4.277
 0.816 -1.442 4.275
 0.843 -1.443 4.275
 0.87 -1.445 4.275
 0.896 -1.446 4.272
 0.923 -1.447 4.272
 0.949 -1.449 4.272
 0.976 -1.449 4.268
 1.003 -1.451 4.267
 1.03 -1.453 4.267
 1.056 -1.453 4.263
 1.083 -1.455 4.261
 1.109 -1.455 4.257
 1.136 -1.457 4.255
 1.164 -1.459 4.253
 1.191 -1.46 4.252
 1.219 -1.462 4.252
 1.247 -1.465 4.253
 1.275 -1.468 4.253
 1.304 -1.47 4.253
 1.332 -1.472 4.252
 1.359 -1.474 4.247
 1.389 -1.477 4.251
 1.417 -1.479 4.248
 1.445 -1.481 4.246
 1.475 -1.485 4.247
 1.504 -1.488 4.249
 1.532 -1.489 4.243
 1.56 -1.491 4.24
 1.589 -1.493 4.236
 1.616 -1.494 4.229
 1.646 -1.497 4.228
 1.675 -1.499 4.225
 1.705 -1.502 4.222
 1.734 -1.504 4.219
 1.762 -1.505 4.213
 1.786 -1.503 4.195
 1.809 -1.5 4.176
 1.829 -1.494 4.15
 1.847 -1.488 4.121
 1.863 -1.48 4.087
 1.879 -1.472 4.054
 1.892 -1.462 4.016
 0 0 0
 0 0 0
 0 0 0
 0 0 0
 0 0 0
 0 0 0
 0 0 0
 0 0 0
 1.75 -1.204 3.216
 1.767 -1.202 3.198
 1.779 -1.196 3.172
 1.786 -1.186 3.136
 1.793 -1.177 3.1
 1.787 -1.16 3.044
 1.797 -1.153 3.015
 1.781 -1.13 2.943
 -0.118 -0.076 0.19
 -0.12 -0.078 0.198
 -0.36 -0.233 0.626
 -0.351 -0.23 0.619
 -0.249 -0.165 0.442
 -0.237 -0.159 0.427
 -0.319 -0.217 0.589
 -0.219 -0.152 0.408
 -0.213 -0.149 0.403
 -0.206 -0.146 0.395
 -0.199 -0.143 0.387
 -0.361 -0.262 0.724
 -0.602 -0.442 1.237
 -0.754 -0.56 1.579
 -1.148 -0.864 2.45
 -1.451 -1.107 3.152
 -1.585 -1.226 3.502
 -1.715 -1.346 3.855
 -1.916 -1.526 4.383
 -1.882 -1.521 4.38
 -1.852 -1.52 4.385
 -1.819 -1.516 4.385
 -1.786 -1.512 4.383
 -1.754 -1.508 4.382
 -1.723 -1.506 4.383
 -1.69 -1.501 4.377
 -1.658 -1.497 4.376
 -1.627 -1.494 4.374
 -1.596 -1.491 4.374
 -1.564 -1.487 4.371
 -1.534 -1.484 4.37
 -1.504 -1.481 4.371
 -1.474 -1.479 4.369
 -1.443 -1.475 4.368
 -1.414 -1.473 4.368
 -1.383 -1.469 4.364
 -1.354 -1.467 4.364
 -1.324 -1.464 4.36
 -1.294 -1.46 4.356
 -1.264 -1.457 4.353
 -1.236 -1.455 4.355
 -1.206 -1.452 4.352
 -1.178 -1.45 4.35
 -1.149 -1.448 4.349
 -1.121 -1.446 4.35
 -1.093 -1.443 4.347
 -1.064 -1.441 4.345
 -1.037 -1.439 4.345
 -1.009 -1.438 4.346
 -0.981 -1.436 4.344
 -0.954 -1.435 4.345
 -0.927 -1.433 4.345
 -0.899 -1.432 4.344
 -0.872 -1.429 4.342
 -0.844 -1.427 4.338
 -0.817 -1.426 4.338
 -0.79 -1.424 4.338
 -0.764 -1.425 4.342
 -0.737 -1.423 4.341
 -0.71 -1.422 4.339
 -0.684 -1.421 4.341
 -0.657 -1.419 4.337
 -0.63 -1.416 4.332
 -0.603 -1.415 4.329
 -0.577 -1.414 4.33
 -0.55 -1.411 4.324
 -0.524 -1.411 4.324
 -0.498 -1.41 4.324
 -0.472 -1.409 4.324
 -0.445 -1.408 4.323
 -0.42 -1.409 4.326
 -0.394 -1.408 4.324
 -0.367 -1.406 4.322
 -0.342 -1.406 4.323
 -0.316 -1.406 4.324
 -0.29 -1.404 4.317
 -0.264 -1.403 4.316
 -0.238 -1.402 4.315
 -0.212 -1.402 4.315
 -0.187 -1.401 4.312
 -0.161 -1.401 4.313
 -0.135 -1.401 4.312
 -0.11 -1.4 4.31
 -0.084 -1.398 4.304
 -0.058 -1.399 4.307
 -0.033 -1.4 4.31
 -0.007 -1.399 4.307
 0.017 -1.399 4.305
 0.043 -1.4 4.308
 0.068 -1.401 4.31
 0.094 -1.4 4.306
 0.12 -1.401 4.31
 0.145 -1.402 4.311
 0.171 -1.4 4.305
 0.196 -1.4 4.303
 0.222 -1.401 4.306
 0.247 -1.402 4.305
 0.273 -1.402 4.304
 0.299 -1.403 4.304
 0.324 -1.402 4.301
 0.35 -1.402 4.298
 0.375 -1.4 4.29
 0.4 -1.401 4.291
 0.426 -1.402 4.293
 0.452 -1.402 4.289
 0.477 -1.401 4.285
 0.503 -1.403 4.287
 0.529 -1.403 4.285
 0.554 -1.403 4.281
 0.58 -1.403 4.278
 0.606 -1.405 4.28
 0.633 -1.407 4.284
 0.658 -1.408 4.282
 0.685 -1.409 4.283
 0.712 -1.412 4.289
 0.738 -1.413 4.287
 0.763 -1.412 4.281
 0.79 -1.414 4.281
 0.816 -1.415 4.28
 0.843 -1.417 4.28
 0.869 -1.418 4.278
 0.896 -1.419 4.278
 0.922 -1.42 4.277
 0.949 -1.422 4.277
 0.975 -1.422 4.272
 1.002 -1.424 4.272
 1.029 -1.426 4.272
 1.056 -1.427 4.268
 1.083 -1.428 4.267
 1.108 -1.428 4.26
 1.135 -1.429 4.258
 1.162 -1.431 4.256
 1.189 -1.432 4.253
 1.217 -1.434 4.254
 1.246 -1.438 4.257
 1.274 -1.44 4.255
 1.301 -1.441 4.253
 1.329 -1.443 4.251
 1.356 -1.444 4.246
 1.386 -1.448 4.249
 1.414 -1.45 4.249
 1.443 -1.453 4.249
 1.473 -1.456 4.25
 1.502 -1.459 4.25
 1.53 -1.46 4.245
 1.558 -1.462 4.24
 1.586 -1.464 4.237
 1.613 -1.464 4.229
 1.643 -1.468 4.229
 1.672 -1.47 4.226
 1.702 -1.472 4.223
 1.731 -1.474 4.22
 1.759 -1.476 4.213
 1.784 -1.475 4.2
 1.808 -1.472 4.182
 1.831 -1.469 4.163
 1.851 -1.464 4.138
 1.873 -1.461 4.117
 1.89 -1.453 4.085
 0 0 0
 0 0 0
 0 0 0
 0 0 0
 0 0 0
 0 0 0
 0 0 0
 0 0 0
 0 0 0
 1.746 -1.18 3.216
 1.762 -1.177 3.197
 1.777 -1.173 3.174
 1.784 -1.164 3.138
 1.792 -1.155 3.105
 1.788 -1.139 3.052
 1.771 -1.116 2.978
 1.752 -1.092 2.902
 -0.089 -0.056 0.141
 -0.077 -0.049 0.122
 -0.095 -0.062 0.156
 -0.087 -0.057 0.144
 -0.078 -0.052 0.129
 -0.157 -0.104 0.279
 -0.149 -0.1 0.269
 -0.137 -0.093 0.25
 -0.131 -0.09 0.242
 -0.124 -0.087 0.233
 -0.117 -0.083 0.222
 -0.363 -0.259 0.731
 -0.521 -0.375 1.071
 -0.756 -0.551 1.586
 -1.068 -0.789 2.282
 -1.37 -1.026 2.982
 -1.505 -1.143 3.331
 -1.713 -1.32 3.859
 -1.837 -1.436 4.21
 -1.879 -1.491 4.382
 -1.849 -1.489 4.387
 -1.817 -1.486 4.388
 -1.785 -1.483 4.387
 -1.753 -1.48 4.388
 -1.723 -1.478 4.391
 -1.69 -1.474 4.387
 -1.659 -1.47 4.386
 -1.627 -1.466 4.383
 -1.595 -1.463 4.381
 -1.563 -1.459 4.376
 -1.531 -1.454 4.371
 -1.501 -1.451 4.37
 -1.471 -1.449 4.37
 -1.441 -1.446 4.369
 -1.412 -1.444 4.369
 -1.383 -1.442 4.37
 -1.354 -1.44 4.372
 -1.324 -1.437 4.37
 -1.294 -1.433 4.364
 -1.263 -1.429 4.359
 -1.235 -1.427 4.359
 -1.205 -1.424 4.354
 -1.175 -1.421 4.35
 -1.148 -1.42 4.353
 -1.121 -1.419 4.356
 -1.092 -1.416 4.353
 -1.064 -1.414 4.352
 -1.037 -1.414 4.355
 -1.009 -1.411 4.353
 -0.981 -1.409 4.351
 -0.954 -1.408 4.351
 -0.927 -1.407 4.352
 -0.899 -1.405 4.35
 -0.872 -1.404 4.351
 -0.844 -1.401 4.346
 -0.817 -1.4 4.346
 -0.79 -1.398 4.344
 -0.764 -1.398 4.349
 -0.737 -1.396 4.346
 -0.71 -1.395 4.346
 -0.684 -1.395 4.347
 -0.656 -1.392 4.341
 -0.629 -1.389 4.335
 -0.602 -1.388 4.333
 -0.576 -1.387 4.334
 -0.549 -1.385 4.329
 -0.523 -1.385 4.331
 -0.497 -1.384 4.33
 -0.471 -1.383 4.331
 -0.445 -1.382 4.328
 -0.419 -1.382 4.33
 -0.393 -1.38 4.326
 -0.367 -1.379 4.323
 -0.341 -1.378 4.322
 -0.315 -1.377 4.32
 -0.289 -1.375 4.315
 -0.263 -1.375 4.315
 -0.238 -1.375 4.315
 -0.212 -1.374 4.315
 -0.186 -1.373 4.312
 -0.161 -1.373 4.312
 -0.135 -1.373 4.311
 -0.109 -1.372 4.309
 -0.084 -1.37 4.304
 -0.058 -1.372 4.308
 -0.033 -1.373 4.312
 -0.007 -1.372 4.31
 0.017 -1.372 4.307
 0.043 -1.374 4.314
 0.069 -1.375 4.318
 0.094 -1.374 4.314
 0.12 -1.377 4.321
 0.145 -1.378 4.322
 0.171 -1.375 4.314
 0.196 -1.374 4.308
 0.222 -1.375 4.311
 0.248 -1.376 4.311
 0.273 -1.376 4.311
 0.299 -1.376 4.309
 0.324 -1.376 4.308
 0.349 -1.375 4.301
 0.374 -1.372 4.291
 0.4 -1.374 4.294
 0.426 -1.376 4.299
 0.452 -1.375 4.293
 0.477 -1.375 4.29
 0.503 -1.377 4.294
 0.529 -1.377 4.289
 0.554 -1.377 4.288
 0.58 -1.377 4.283
 0.606 -1.379 4.287
 0.632 -1.381 4.289
 0.659 -1.382 4.289
 0.684 -1.382 4.287
 0.712 -1.386 4.295
 0.738 -1.387 4.294
 0.763 -1.386 4.287
 0.79 -1.387 4.286
 0.816 -1.389 4.285
 0.842 -1.39 4.284
 0.868 -1.391 4.282
 0.895 -1.392 4.282
 0.922 -1.394 4.282
 0.949 -1.395 4.281
 0.975 -1.396 4.277
 1.001 -1.397 4.276
 1.028 -1.398 4.275
 1.054 -1.399 4.27
 1.081 -1.4 4.269
 1.108 -1.401 4.264
 1.134 -1.402 4.261
 1.161 -1.403 4.258
 1.189 -1.405 4.258
 1.217 -1.407 4.259
 1.245 -1.41 4.26
 1.272 -1.411 4.257
 1.3 -1.413 4.256
 1.326 -1.413 4.249
 1.354 -1.415 4.246
 1.383 -1.418 4.248
 1.412 -1.421 4.248
 1.441 -1.424 4.248
 1.471 -1.427 4.251
 1.498 -1.428 4.246
 1.527 -1.43 4.243
 1.555 -1.433 4.24
 1.584 -1.435 4.238
 1.612 -1.436 4.233
 1.642 -1.439 4.233
 1.671 -1.442 4.231
 1.7 -1.443 4.226
 1.729 -1.445 4.222
 1.756 -1.446 4.214
 1.784 -1.447 4.206
 1.808 -1.445 4.189
 1.833 -1.444 4.175
 1.855 -1.44 4.154
 1.879 -1.439 4.138
 0 0 0
 0 0 0
 0 0 0
 0 0 0
 0 0 0
 0 0 0
 0 0 0
 0 0 0
 0 0 0
 0 0 0
 0 0 0
 1.759 -1.153 3.198
 1.773 -1.148 3.173
 1.779 -1.139 3.136
 1.786 -1.131 3.102
 1.784 -1.116 3.052
 1.79 -1.107 3.016
 1.759 -1.076 2.92
 -0.116 -0.072 0.188
 -0.108 -0.068 0.177
 -0.103 -0.065 0.171
 -0.092 -0.059 0.153
 -0.082 -0.053 0.138
 -0.071 -0.047 0.119
 -0.061 -0.041 0.103
 -0.05 -0.035 0.084
 -0.043 -0.03 0.072
 -0.035 -0.025 0.056
 -0.027 -0.02 0.042
 -0.275 -0.193 0.551
 -0.435 -0.307 0.893
 -0.672 -0.481 1.411
 -0.986 -0.715 2.111
 -1.369 -1.006 2.985
 -1.504 -1.121 3.336
 -1.711 -1.294 3.862
 -1.835 -1.408 4.214
 -1.876 -1.461 4.384
 -1.846 -1.459 4.389
 -1.814 -1.456 4.388
 -1.782 -1.453 4.389
 -1.751 -1.45 4.39
 -1.721 -1.448 4.393
 -1.688 -1.444 4.388
 -1.656 -1.441 4.388
 -1.624 -1.437 4.385
 -1.593 -1.434 4.383
 -1.56 -1.429 4.376
 -1.529 -1.425 4.371
 -1.498 -1.421 4.369
 -1.468 -1.419 4.369
 -1.438 -1.416 4.368
 -1.409 -1.414 4.37
 -1.381 -1.413 4.374
 -1.353 -1.412 4.376
 -1.323 -1.409 4.375
 -1.292 -1.405 4.368
 -1.262 -1.402 4.364
 -1.233 -1.399 4.361
 -1.204 -1.396 4.359
 -1.174 -1.393 4.354
 -1.147 -1.392 4.358
 -1.12 -1.391 4.36
 -1.091 -1.389 4.357
 -1.063 -1.386 4.354
 -1.036 -1.386 4.359
 -1.008 -1.384 4.357
 -0.981 -1.382 4.356
 -0.953 -1.381 4.358
 -0.926 -1.38 4.358
 -0.898 -1.378 4.355
 -0.872 -1.378 4.359
 -0.844 -1.375 4.353
 -0.817 -1.373 4.352
 -0.79 -1.372 4.352
 -0.764 -1.372 4.357
 -0.736 -1.369 4.35
 -0.71 -1.369 4.352
 -0.684 -1.369 4.355
 -0.656 -1.365 4.347
 -0.629 -1.363 4.34
 -0.602 -1.361 4.337
 -0.575 -1.36 4.336
 -0.548 -1.357 4.328
 -0.523 -1.358 4.335
 -0.497 -1.357 4.334
 -0.471 -1.357 4.335
 -0.445 -1.356 4.335
 -0.419 -1.356 4.337
 -0.392 -1.352 4.327
 -0.366 -1.351 4.324
 -0.34 -1.35 4.32
 -0.314 -1.348 4.315
 -0.288 -1.347 4.315
 -0.263 -1.347 4.314
 -0.237 -1.346 4.313
 -0.211 -1.346 4.314
 -0.186 -1.346 4.313
 -0.16 -1.345 4.31
 -0.134 -1.344 4.308
 -0.109 -1.343 4.305
 -0.083 -1.342 4.302
 -0.058 -1.343 4.306
 -0.033 -1.345 4.312
 -0.007 -1.345 4.31
 0.017 -1.346 4.313
 0.043 -1.349 4.324
 0.069 -1.351 4.327
 0.094 -1.35 4.326
 0.12 -1.353 4.333
 0.146 -1.355 4.339
 0.171 -1.352 4.328
 0.197 -1.35 4.32
 0.222 -1.352 4.324
 0.248 -1.352 4.325
 0.273 -1.351 4.319
 0.299 -1.351 4.316
 0.324 -1.351 4.314
 0.349 -1.347 4.299
 0.374 -1.344 4.288
 0.399 -1.345 4.291
 0.426 -1.35 4.304
 0.452 -1.349 4.299
 0.477 -1.349 4.296
 0.504 -1.352 4.301
 0.529 -1.351 4.296
 0.554 -1.351 4.294
 0.58 -1.351 4.288
 0.607 -1.354 4.296
 0.633 -1.355 4.296
 0.659 -1.356 4.296
 0.684 -1.356 4.29
 0.711 -1.358 4.295
 0.737 -1.359 4.292
 0.762 -1.358 4.287
 0.789 -1.36 4.288
 0.815 -1.361 4.287
 0.842 -1.364 4.291
 0.869 -1.365 4.289
 0.895 -1.366 4.287
 0.921 -1.366 4.283
 0.948 -1.367 4.282
 0.973 -1.366 4.274
 0.999 -1.368 4.273
 1.027 -1.37 4.274
 1.053 -1.371 4.271
 1.08 -1.372 4.271
 1.107 -1.374 4.27
 1.134 -1.375 4.267
 1.16 -1.376 4.262
 1.188 -1.378 4.262
 1.215 -1.38 4.261
 1.243 -1.381 4.259
 1.27 -1.383 4.257
 1.298 -1.385 4.257
 1.325 -1.385 4.251
 1.352 -1.387 4.248
 1.382 -1.39 4.25
 1.41 -1.393 4.25
 1.438 -1.395 4.249
 1.468 -1.398 4.25
 1.496 -1.399 4.246
 1.524 -1.401 4.242
 1.552 -1.403 4.24
 1.581 -1.406 4.238
 1.609 -1.407 4.233
 1.639 -1.41 4.233
 1.669 -1.413 4.231
 1.697 -1.414 4.226
 1.725 -1.415 4.22
 1.753 -1.417 4.213
 1.781 -1.418 4.207
 1.807 -1.417 4.195
 1.834 -1.418 4.187
 1.86 -1.417 4.173
 0 0 0
 0 0 0
 0 0 0
 0 0 0
 0 0 0
 0 0 0
 0 0 0
 0 0 0
 0 0 0
 0 0 0
 0 0 0
 0 0 0
 1.758 -1.131 3.202
 1.771 -1.126 3.177
 1.778 -1.117 3.14
 1.785 -1.109 3.106
 1.784 -1.096 3.058
 1.785 -1.083 3.013
 1.751 -1.051 2.913
 -0.166 -0.1 0.274
 -0.137 -0.084 0.229
 -0.105 -0.065 0.175
 -0.097 -0.061 0.163
 -0.088 -0.056 0.148
 -0.077 -0.05 0.13
 -0.066 -0.044 0.112
 -0.053 -0.036 0.09
 -0.043 -0.029 0.07
 -0.12 -0.081 0.226
 -0.112 -0.077 0.213
 -0.359 -0.246 0.725
 -0.602 -0.417 1.244
 -0.919 -0.645 1.939
 -1.148 -0.817 2.465
 -1.528 -1.102 3.34
 -1.661 -1.214 3.694
 -1.787 -1.326 4.043
 -1.833 -1.379 4.217
 -1.875 -1.432 4.39
 -1.843 -1.43 4.392
 -1.811 -1.426 4.39
 -1.779 -1.423 4.391
 -1.748 -1.42 4.391
 -1.718 -1.418 4.395
 -1.686 -1.415 4.394
 -1.655 -1.412 4.392
 -1.622 -1.408 4.388
 -1.591 -1.404 4.384
 -1.557 -1.399 4.375
 -1.525 -1.394 4.369
 -1.494 -1.39 4.365
 -1.465 -1.389 4.367
 -1.436 -1.387 4.369
 -1.408 -1.386 4.373
 -1.38 -1.386 4.379
 -1.353 -1.385 4.385
 -1.324 -1.383 4.384
 -1.292 -1.378 4.373
 -1.262 -1.374 4.369
 -1.232 -1.371 4.365
 -1.203 -1.369 4.364
 -1.174 -1.366 4.36
 -1.148 -1.367 4.368
 -1.121 -1.366 4.37
 -1.091 -1.363 4.365
 -1.062 -1.359 4.358
 -1.035 -1.358 4.362
 -1.007 -1.356 4.358
 -0.979 -1.354 4.359
 -0.953 -1.354 4.363
 -0.927 -1.355 4.368
 -0.899 -1.353 4.367
