 -0.441 -1.604 3.943
 -0.416 -1.599 3.933
 -0.398 -1.625 3.998
 -0.376 -1.634 4.022
 -0.348 -1.615 3.977
 -0.321 -1.602 3.946
 -0.299 -1.614 3.976
 -0.273 -1.603 3.95
 -0.253 -1.629 4.016
 -0.225 -1.603 3.954
 -0.201 -1.604 3.956
 -0.18 -1.633 4.028
 -0.153 -1.61 3.973
 -0.131 -1.627 4.016
 -0.105 -1.608 3.968
 -0.081 -1.614 3.983
 -0.057 -1.622 4.002
 -0.033 -1.609 3.972
 -0.009 -1.614 3.983
 0.014 -1.597 3.941
 0.039 -1.642 4.05
 0.064 -1.652 4.076
 0.088 -1.635 4.032
 0.11 -1.603 3.952
 0.133 -1.595 3.931
 0.159 -1.61 3.968
 0.185 -1.626 4.007
 0.211 -1.641 4.041
 0.231 -1.608 3.959
 0.258 -1.626 4.002
 0.28 -1.616 3.977
 0.304 -1.612 3.965
 0.328 -1.614 3.967
 0.353 -1.62 3.98
 0.377 -1.615 3.967
 0.398 -1.606 3.941
 0.431 -1.638 4.018
 0.453 -1.629 3.992
 0.476 -1.625 3.98
 0.503 -1.635 4.001
 0.53 -1.642 4.015
 0.546 -1.617 3.953
 0.573 -1.624 3.966
 0.597 -1.625 3.965
 0.621 -1.623 3.956
 0.652 -1.642 3.999
 0.661 -1.605 3.904
 0.709 -1.66 4.035
 0.723 -1.636 3.971
 0.753 -1.649 4.001
 0.764 -1.619 3.923
 0.78 -1.602 3.878
 0.826 -1.648 3.983
 0.842 -1.631 3.939
 0.863 -1.624 3.915
 0.903 -1.653 3.982
 0.904 -1.611 3.874
 0.947 -1.644 3.949
 0.963 -1.63 3.911
 1 -1.651 3.953
 1.009 -1.626 3.888
 1.038 -1.633 3.899
 1.068 -1.643 3.917
 1.073 -1.614 3.841
 1.117 -1.643 3.906
 1.142 -1.643 3.898
 1.155 -1.628 3.856
 1.189 -1.641 3.88
 1.22 -1.65 3.895
 1.228 -1.628 3.836
 1.276 -1.659 3.901
 1.304 -1.664 3.905
 1.317 -1.649 3.862
 1.331 -1.636 3.824
 1.375 -1.66 3.872
 1.383 -1.64 3.818
 1.387 -1.616 3.754
 1.44 -1.65 3.824
 1.448 -1.631 3.772
 1.474 -1.633 3.768
 1.514 -1.65 3.798
 1.505 -1.615 3.708
 1.556 -1.643 3.763
 1.572 -1.635 3.735
 1.597 -1.635 3.727
 1.652 -1.666 3.787
 1.637 -1.627 3.688
 1.668 -1.634 3.694
 1.73 -1.67 3.766
 1.729 -1.646 3.701
 1.738 -1.631 3.657
 1.772 -1.64 3.667
 1.824 -1.666 3.714
 1.804 -1.626 3.613
 1.788 -1.589 3.522
 1.837 -1.612 3.561
 1.835 -1.59 3.5
 1.828 -1.563 3.431
 1.794 -1.515 3.314
 1.814 -1.514 3.3
 1.754 -1.446 3.141
 1.785 -1.454 3.147
 1.811 -1.457 3.144
 1.756 -1.397 3.002
 1.775 -1.396 2.988
 1.739 -1.351 2.883
 1.746 -1.341 2.851
 1.761 -1.338 2.832
 -2.15 -1.627 3.589
 -2.111 -1.616 3.578
 -2.113 -1.638 3.638
 -2.077 -1.628 3.63
 -2.029 -1.611 3.601
 -2.011 -1.616 3.625
 -2.002 -1.629 3.666
 -1.974 -1.627 3.672
 -1.942 -1.621 3.67
 -1.911 -1.616 3.67
 -1.894 -1.622 3.696
 -1.881 -1.633 3.731
 -1.873 -1.648 3.776
 -1.835 -1.636 3.76
 -1.826 -1.651 3.803
 -1.782 -1.634 3.776
 -1.764 -1.641 3.801
 -1.729 -1.632 3.789
 -1.718 -1.645 3.829
 -1.678 -1.63 3.805
 -1.62 -1.598 3.739
 -1.63 -1.633 3.83
 -1.604 -1.632 3.837
 -1.57 -1.623 3.824
 -1.521 -1.598 3.772
 -1.483 -1.582 3.745
 -1.494 -1.621 3.844
 -1.474 -1.626 3.865
 -1.432 -1.607 3.827
 -1.429 -1.632 3.895
 -1.387 -1.612 3.854
 -1.374 -1.626 3.896
 -1.346 -1.622 3.894
 -1.31 -1.608 3.868
 -1.283 -1.606 3.869
 -1.27 -1.62 3.91
 -1.253 -1.631 3.943
 -1.209 -1.606 3.888
 -1.203 -1.63 3.954
 -1.188 -1.645 3.995
 -1.153 -1.631 3.968
 -1.095 -1.583 3.857
 -1.09 -1.611 3.931
 -1.065 -1.611 3.937
 -1.037 -1.605 3.927
 -1.02 -1.618 3.963
 -0.979 -1.591 3.904
 -0.964 -1.606 3.945
 -0.937 -1.602 3.941
 -0.916 -1.609 3.962
 -0.885 -1.598 3.938
 -0.863 -1.602 3.954
 -0.854 -1.631 4.028
 -0.818 -1.61 3.982
 -0.793 -1.609 3.982
 -0.767 -1.605 3.977
 -0.74 -1.601 3.971
 -0.722 -1.616 4.011
 -0.69 -1.598 3.969
 -0.67 -1.609 4.001
 -0.646 -1.61 4.007
 -0.625 -1.62 4.034
 -0.604 -1.63 4.061
 -0.576 -1.619 4.038
 -0.556 -1.633 4.075
 -0.529 -1.626 4.061
 -0.503 -1.623 4.055
 -0.477 -1.619 4.046
 -0.455 -1.628 4.072
 -0.425 -1.61 4.027
 -0.404 -1.624 4.065
 -0.377 -1.615 4.045
 -0.355 -1.625 4.071
 -0.326 -1.605 4.022
 -0.305 -1.623 4.07
 -0.281 -1.63 4.088
 -0.257 -1.632 4.094
 -0.231 -1.624 4.075
 -0.206 -1.622 4.07
 -0.182 -1.631 4.094
 -0.158 -1.637 4.109
 -0.131 -1.608 4.038
 -0.106 -1.6 4.018
 -0.081 -1.593 4
 -0.058 -1.615 4.054
 -0.033 -1.62 4.067
 -0.009 -1.607 4.036
 0.015 -1.617 4.059
 0.039 -1.615 4.053
 0.064 -1.624 4.077
 0.088 -1.612 4.045
 0.114 -1.627 4.082
 0.138 -1.616 4.054
 0.164 -1.632 4.092
 0.186 -1.607 4.029
 0.212 -1.621 4.064
 0.235 -1.613 4.042
 0.264 -1.64 4.108
 0.282 -1.6 4.004
 0.31 -1.619 4.051
 0.334 -1.619 4.048
 0.359 -1.621 4.053
 0.385 -1.627 4.064
 0.409 -1.625 4.057
 0.437 -1.636 4.082
 0.453 -1.605 4.002
 0.486 -1.635 4.073
 0.511 -1.635 4.071
 0.529 -1.614 4.016
 0.553 -1.612 4.008
 0.584 -1.633 4.056
 0.605 -1.621 4.024
 0.632 -1.627 4.034
 0.657 -1.628 4.035
 0.685 -1.637 4.052
 0.706 -1.627 4.024
 0.718 -1.601 3.954
 0.763 -1.644 4.057
 0.774 -1.616 3.984
 0.801 -1.621 3.993
 0.841 -1.652 4.063
 0.858 -1.637 4.021
 0.879 -1.629 3.996
 0.896 -1.616 3.959
 0.941 -1.651 4.041
 0.947 -1.619 3.956
 0.977 -1.629 3.976
 1.002 -1.63 3.972
 1.019 -1.618 3.938
 1.049 -1.626 3.952
 1.082 -1.639 3.976
 1.105 -1.637 3.965
 1.129 -1.635 3.955
 1.166 -1.653 3.992
 1.184 -1.643 3.96
 1.194 -1.623 3.906
 1.235 -1.645 3.951
 1.255 -1.638 3.928
 1.267 -1.623 3.884
 1.317 -1.654 3.95
 1.333 -1.644 3.918
 1.364 -1.651 3.929
 1.374 -1.634 3.879
 1.398 -1.633 3.869
 1.419 -1.629 3.85
 1.45 -1.636 3.859
 1.492 -1.655 3.896
 1.493 -1.629 3.824
 1.544 -1.657 3.883
 1.535 -1.622 3.79
 1.562 -1.624 3.787
 1.599 -1.637 3.807
 1.622 -1.636 3.794
 1.636 -1.625 3.761
 1.674 -1.639 3.782
 1.696 -1.636 3.765
 1.718 -1.633 3.749
 1.768 -1.657 3.793
 1.745 -1.613 3.681
 1.807 -1.648 3.75
 1.81 -1.628 3.694
 1.818 -1.614 3.65
 1.793 -1.57 3.541
 1.821 -1.574 3.538
 1.856 -1.584 3.551
 1.759 -1.483 3.311
 1.821 -1.515 3.373
 1.839 -1.512 3.355
 1.761 -1.43 3.161
 1.8 -1.444 3.181
 1.811 -1.436 3.152
 1.776 -1.392 3.045
 1.762 -1.364 2.974
 1.757 -1.345 2.921
 1.744 -1.32 2.855
 1.749 -1.309 2.821
 -2.173 -1.619 3.638
 -2.167 -1.634 3.684
 -2.131 -1.626 3.678
 -2.104 -1.625 3.688
 -2.074 -1.621 3.691
 -2.052 -1.624 3.71
 -2.026 -1.624 3.721
 -2.001 -1.624 3.733
 -1.973 -1.621 3.739
 -1.95 -1.623 3.754
 -1.922 -1.621 3.761
 -1.897 -1.621 3.771
 -1.875 -1.624 3.79
 -1.854 -1.628 3.809
 -1.83 -1.629 3.822
 -1.804 -1.629 3.831
 -1.779 -1.629 3.842
 -1.75 -1.626 3.845
 -1.721 -1.623 3.847
 -1.696 -1.623 3.856
 -1.671 -1.623 3.867
 -1.646 -1.623 3.876
 -1.62 -1.623 3.884
 -1.593 -1.621 3.89
 -1.569 -1.622 3.9
 -1.543 -1.622 3.908
 -1.518 -1.622 3.916
 -1.492 -1.622 3.924
 -1.469 -1.624 3.938
 -1.443 -1.623 3.942
 -1.416 -1.621 3.947
 -1.389 -1.619 3.949
 -1.363 -1.618 3.953
 -1.337 -1.617 3.959
 -1.311 -1.616 3.963
 -1.285 -1.615 3.968
 -1.262 -1.618 3.981
 -1.24 -1.622 3.997
 -1.214 -1.62 4
 -1.187 -1.618 4.001
 -1.161 -1.618 4.006
 -1.134 -1.615 4.005
 -1.107 -1.612 4.002
 -1.082 -1.612 4.009
 -1.058 -1.613 4.018
 -1.033 -1.613 4.023
 -1.006 -1.611 4.023
 -0.981 -1.611 4.027
 -0.956 -1.61 4.03
 -0.931 -1.61 4.036
 -0.907 -1.612 4.043
 -0.883 -1.614 4.053
 -0.857 -1.613 4.055
 -0.832 -1.613 4.058
 -0.807 -1.612 4.061
 -0.782 -1.612 4.065
 -0.757 -1.612 4.068
 -0.731 -1.61 4.067
 -0.705 -1.609 4.068
 -0.681 -1.609 4.072
 -0.655 -1.608 4.073
 -0.631 -1.611 4.083
 -0.608 -1.614 4.094
 -0.584 -1.618 4.106
 -0.559 -1.619 4.112
 -0.535 -1.621 4.118
 -0.509 -1.618 4.114
 -0.484 -1.617 4.114
 -0.458 -1.615 4.111
 -0.433 -1.613 4.108
 -0.408 -1.614 4.111
 -0.383 -1.615 4.115
 -0.358 -1.614 4.116
 -0.333 -1.614 4.117
 -0.308 -1.616 4.123
 -0.283 -1.614 4.12
 -0.258 -1.614 4.12
 -0.233 -1.616 4.125
 -0.208 -1.617 4.129
 -0.183 -1.614 4.123
 -0.158 -1.614 4.124
 -0.133 -1.613 4.121
 -0.108 -1.613 4.121
 -0.083 -1.612 4.118
 -0.058 -1.611 4.117
 -0.034 -1.61 4.113
 -0.009 -1.613 4.12
 0.015 -1.612 4.119
 0.04 -1.615 4.126
 0.065 -1.616 4.127
 0.09 -1.616 4.128
 0.115 -1.616 4.126
 0.14 -1.617 4.126
 0.165 -1.616 4.125
 0.19 -1.616 4.123
 0.215 -1.618 4.127
 0.24 -1.619 4.126
 0.265 -1.619 4.126
 0.289 -1.615 4.114
 0.314 -1.617 4.117
 0.339 -1.617 4.116
 0.364 -1.617 4.113
 0.389 -1.618 4.114
 0.415 -1.622 4.122
 0.441 -1.623 4.122
 0.466 -1.624 4.122
 0.491 -1.625 4.122
 0.515 -1.623 4.112
 0.54 -1.623 4.109
 0.564 -1.62 4.099
 0.589 -1.62 4.097
 0.615 -1.622 4.097
 0.64 -1.623 4.097
 0.666 -1.625 4.098
 0.691 -1.626 4.098
 0.717 -1.628 4.098
 0.741 -1.626 4.089
 0.765 -1.624 4.079
 0.791 -1.625 4.078
 0.816 -1.626 4.075
 0.84 -1.624 4.065
 0.866 -1.625 4.064
 0.892 -1.628 4.066
 0.916 -1.627 4.057
 0.941 -1.627 4.051
 0.966 -1.627 4.047
 0.991 -1.627 4.041
 1.017 -1.628 4.038
 1.043 -1.629 4.036
 1.069 -1.631 4.034
 1.094 -1.631 4.028
 1.121 -1.635 4.03
 1.147 -1.636 4.027
 1.171 -1.634 4.016
 1.197 -1.636 4.013
 1.223 -1.637 4.008
 1.248 -1.636 4
 1.274 -1.638 3.998
 1.302 -1.641 3.997
 1.326 -1.641 3.988
 1.351 -1.64 3.979
 1.376 -1.64 3.971
 1.398 -1.636 3.954
 1.422 -1.636 3.944
 1.446 -1.634 3.933
 1.472 -1.636 3.927
 1.498 -1.637 3.92
 1.523 -1.637 3.912
 1.548 -1.637 3.903
 1.574 -1.637 3.895
 1.599 -1.638 3.887
 1.624 -1.637 3.876
 1.649 -1.637 3.867
 1.672 -1.636 3.852
 1.698 -1.636 3.845
 1.722 -1.636 3.832
 1.743 -1.632 3.813
 1.767 -1.631 3.802
 1.789 -1.628 3.783
 1.802 -1.618 3.748
 1.81 -1.603 3.704
 1.817 -1.588 3.658
 1.825 -1.574 3.614
 1.827 -1.555 3.56
 1.829 -1.537 3.508
 1.836 -1.524 3.466
 1.825 -1.495 3.389
 1.79 -1.449 3.273
 1.779 -1.422 3.202
 1.772 -1.4 3.14
 1.771 -1.382 3.09
 1.774 -1.369 3.049
 1.77 -1.35 2.995
 1.764 -1.33 2.94
 1.763 -1.314 2.894
 1.785 -1.316 2.887
 -2.197 -1.612 3.689
 -2.182 -1.62 3.72
 -2.163 -1.625 3.744
 -2.139 -1.626 3.759
 -2.11 -1.624 3.766
 -2.088 -1.626 3.785
 -2.061 -1.626 3.796
 -2.036 -1.627 3.809
 -2.007 -1.624 3.815
 -1.982 -1.624 3.826
 -1.954 -1.622 3.833
 -1.927 -1.622 3.842
 -1.903 -1.623 3.857
 -1.88 -1.626 3.874
 -1.858 -1.629 3.891
 -1.831 -1.628 3.9
 -1.805 -1.627 3.908
 -1.776 -1.625 3.913
 -1.749 -1.623 3.918
 -1.722 -1.622 3.925
 -1.695 -1.621 3.932
 -1.67 -1.622 3.943
 -1.643 -1.621 3.95
 -1.616 -1.619 3.954
 -1.59 -1.618 3.962
 -1.565 -1.62 3.974
 -1.539 -1.619 3.981
 -1.514 -1.619 3.99
 -1.489 -1.62 4.001
 -1.462 -1.619 4.004
 -1.434 -1.616 4.006
 -1.407 -1.614 4.009
 -1.381 -1.614 4.015
 -1.357 -1.615 4.026
 -1.33 -1.614 4.029
 -1.304 -1.613 4.034
 -1.28 -1.615 4.047
 -1.257 -1.619 4.062
 -1.23 -1.616 4.062
 -1.203 -1.615 4.065
 -1.178 -1.615 4.072
 -1.151 -1.613 4.072
 -1.122 -1.609 4.068
 -1.097 -1.609 4.074
 -1.072 -1.61 4.081
 -1.046 -1.609 4.084
 -1.019 -1.606 4.083
 -0.994 -1.607 4.09
 -0.968 -1.605 4.089
 -0.943 -1.606 4.096
 -0.918 -1.607 4.104
 -0.894 -1.609 4.113
 -0.868 -1.608 4.115
 -0.843 -1.609 4.123
 -0.818 -1.609 4.127
 -0.792 -1.609 4.129
 -0.767 -1.608 4.132
 -0.741 -1.607 4.131
 -0.715 -1.606 4.134
 -0.69 -1.607 4.138
 -0.664 -1.605 4.138
 -0.64 -1.607 4.146
 -0.616 -1.611 4.159
 -0.592 -1.614 4.169
 -0.566 -1.614 4.173
 -0.541 -1.615 4.178
 -0.516 -1.614 4.177
 -0.49 -1.613 4.176
 -0.464 -1.61 4.17
 -0.438 -1.608 4.167
 -0.413 -1.609 4.172
 -0.387 -1.609 4.173
 -0.362 -1.608 4.173
 -0.337 -1.609 4.176
 -0.312 -1.611 4.183
 -0.286 -1.609 4.179
 -0.261 -1.608 4.179
 -0.236 -1.609 4.181
 -0.211 -1.61 4.185
 -0.185 -1.607 4.179
 -0.16 -1.607 4.179
 -0.135 -1.606 4.177
 -0.109 -1.607 4.178
 -0.084 -1.605 4.175
 -0.059 -1.605 4.174
 -0.034 -1.605 4.173
 -0.009 -1.607 4.178
 0.016 -1.605 4.174
 0.041 -1.607 4.179
 0.066 -1.609 4.182
 0.091 -1.609 4.183
 0.116 -1.61 4.183
 0.142 -1.611 4.185
 0.167 -1.611 4.183
 0.192 -1.61 4.181
 0.217 -1.611 4.182
 0.243 -1.611 4.181
 0.268 -1.613 4.184
 0.293 -1.61 4.174
 0.318 -1.611 4.175
 0.344 -1.611 4.174
 0.369 -1.612 4.173
 0.394 -1.612 4.17
 0.42 -1.615 4.176
 0.446 -1.616 4.177
 0.471 -1.617 4.176
 0.496 -1.617 4.172
 0.521 -1.614 4.164
 0.546 -1.614 4.161
 0.57 -1.612 4.151
 0.596 -1.613 4.15
 0.621 -1.614 4.15
 0.648 -1.617 4.153
 0.673 -1.617 4.151
 0.699 -1.618 4.149
 0.725 -1.619 4.148
 0.75 -1.619 4.143
 0.774 -1.617 4.133
 0.8 -1.619 4.135
 0.826 -1.621 4.135
 0.851 -1.62 4.128
 0.877 -1.621 4.125
 0.904 -1.623 4.126
 0.929 -1.623 4.119
 0.953 -1.622 4.112
 0.979 -1.622 4.107
 1.005 -1.623 4.104
 1.03 -1.624 4.1
 1.057 -1.625 4.097
 1.084 -1.629 4.1
 1.11 -1.629 4.094
 1.136 -1.631 4.092
 1.163 -1.633 4.091
 1.187 -1.631 4.08
 1.212 -1.631 4.072
 1.239 -1.633 4.07
 1.264 -1.632 4.062
 1.29 -1.633 4.057
 1.318 -1.636 4.056
 1.343 -1.635 4.047
 1.367 -1.634 4.036
 1.393 -1.634 4.028
 1.416 -1.632 4.014
 1.44 -1.631 4.003
 1.466 -1.631 3.995
 1.493 -1.633 3.992
 1.52 -1.634 3.986
 1.546 -1.635 3.979
 1.572 -1.636 3.971
 1.598 -1.636 3.963
 1.624 -1.637 3.955
 1.648 -1.636 3.944
 1.673 -1.636 3.933
 1.696 -1.634 3.918
 1.72 -1.632 3.903
 1.743 -1.63 3.889
 1.765 -1.626 3.87
 1.786 -1.623 3.85
 1.802 -1.615 3.821
 1.816 -1.605 3.786
 1.822 -1.589 3.737
 1.826 -1.571 3.684
 1.833 -1.556 3.639
 1.837 -1.54 3.589
 1.84 -1.522 3.537
 1.846 -1.508 3.493
 1.833 -1.479 3.413
 1.781 -1.419 3.265
 1.769 -1.393 3.192
 1.766 -1.374 3.138
 1.768 -1.359 3.093
 1.774 -1.347 3.056
 1.772 -1.33 3.006
 1.765 -1.31 2.95
 1.753 -1.287 2.886
 1.769 -1.283 2.868
 -2.299 -1.66 3.871
 -2.261 -1.652 3.865
 -2.193 -1.621 3.805
 -2.169 -1.623 3.823
 -2.139 -1.62 3.827
 -2.119 -1.624 3.851
 -2.093 -1.625 3.865
 -2.068 -1.626 3.878
 -2.039 -1.623 3.884
 -2.012 -1.623 3.895
 -1.982 -1.62 3.898
 -1.953 -1.618 3.905
 -1.928 -1.619 3.918
 -1.904 -1.62 3.931
 -1.881 -1.623 3.95
 -1.856 -1.624 3.962
 -1.829 -1.623 3.97
 -1.801 -1.621 3.976
 -1.774 -1.621 3.986
 -1.747 -1.619 3.992
 -1.719 -1.618 3.998
 -1.694 -1.619 4.009
 -1.667 -1.618 4.018
 -1.64 -1.617 4.022
 -1.613 -1.617 4.031
 -1.589 -1.618 4.044
 -1.563 -1.619 4.054
 -1.536 -1.618 4.059
 -1.51 -1.617 4.067
 -1.482 -1.615 4.07
 -1.455 -1.614 4.073
 -1.426 -1.611 4.074
 -1.401 -1.612 4.083
 -1.376 -1.613 4.094
 -1.349 -1.611 4.097
 -1.322 -1.61 4.102
 -1.297 -1.611 4.111
 -1.272 -1.612 4.12
 -1.244 -1.609 4.119
 -1.219 -1.61 4.127
 -1.193 -1.611 4.136
 -1.167 -1.61 4.14
 -1.139 -1.608 4.139
 -1.113 -1.607 4.144
 -1.087 -1.607 4.148
 -1.061 -1.606 4.152
 -1.034 -1.604 4.151
 -1.008 -1.604 4.156
 -0.982 -1.603 4.159
 -0.957 -1.604 4.167
 -0.931 -1.603 4.17
 -0.905 -1.604 4.176
 -0.88 -1.604 4.18
 -0.854 -1.604 4.185
 -0.828 -1.604 4.188
 -0.802 -1.604 4.192
 -0.777 -1.604 4.195
 -0.75 -1.601 4.191
 -0.724 -1.6 4.192
 -0.698 -1.599 4.194
 -0.672 -1.598 4.193
 -0.646 -1.598 4.198
 -0.622 -1.602 4.209
 -0.597 -1.604 4.217
 -0.571 -1.604 4.22
 -0.546 -1.605 4.226
 -0.52 -1.603 4.224
 -0.494 -1.603 4.225
 -0.468 -1.6 4.22
 -0.442 -1.598 4.217
 -0.416 -1.599 4.22
 -0.391 -1.598 4.221
 -0.365 -1.597 4.22
 -0.34 -1.597 4.221
 -0.314 -1.598 4.225
 -0.288 -1.596 4.221
 -0.263 -1.595 4.219
 -0.237 -1.595 4.219
 -0.212 -1.596 4.223
 -0.186 -1.595 4.221
 -0.161 -1.596 4.225
 -0.136 -1.596 4.225
 -0.11 -1.597 4.228
 -0.085 -1.596 4.225
 -0.059 -1.596 4.225
 -0.034 -1.595 4.222
 -0.009 -1.596 4.224
 0.016 -1.593 4.218
 0.041 -1.596 4.224
 0.067 -1.596 4.224
 0.092 -1.596 4.223
 0.117 -1.596 4.221
 0.143 -1.598 4.225
 0.168 -1.597 4.223
 0.194 -1.597 4.222
 0.219 -1.598 4.222
 0.245 -1.6 4.225
 0.271 -1.601 4.229
 0.295 -1.598 4.217
 0.321 -1.599 4.219
 0.347 -1.601 4.222
 0.372 -1.6 4.218
 0.397 -1.599 4.213
 0.424 -1.604 4.223
 0.45 -1.605 4.223
 0.475 -1.605 4.22
 0.501 -1.605 4.216
 0.526 -1.604 4.212
 0.551 -1.603 4.206
 0.576 -1.601 4.197
 0.601 -1.602 4.195
 0.627 -1.603 4.195
 0.653 -1.604 4.195
 0.679 -1.605 4.194
 0.705 -1.607 4.195
 0.731 -1.608 4.194
 0.757 -1.608 4.191
 0.782 -1.607 4.183
 0.808 -1.609 4.184
 0.834 -1.61 4.181
 0.86 -1.61 4.176
 0.885 -1.61 4.172
 0.912 -1.612 4.171
 0.938 -1.613 4.168
 0.963 -1.612 4.16
 0.988 -1.612 4.156
 1.015 -1.614 4.155
 1.042 -1.616 4.154
 1.068 -1.617 4.15
 1.096 -1.621 4.154
 1.122 -1.621 4.149
 1.148 -1.622 4.145
 1.176 -1.624 4.144
 1.201 -1.623 4.135
 1.226 -1.623 4.128
 1.254 -1.625 4.126
 1.28 -1.626 4.121
 1.306 -1.627 4.115
 1.334 -1.63 4.114
 1.359 -1.629 4.104
 1.384 -1.628 4.095
 1.41 -1.628 4.087
 1.434 -1.627 4.075
 1.46 -1.627 4.066
 1.486 -1.627 4.06
 1.514 -1.63 4.057
 1.54 -1.63 4.048
 1.567 -1.631 4.042
 1.594 -1.632 4.035
 1.62 -1.633 4.029
 1.647 -1.634 4.02
 1.673 -1.635 4.013
 1.698 -1.634 4
 1.72 -1.63 3.982
 1.743 -1.627 3.964
 1.764 -1.623 3.943
 1.783 -1.618 3.919
 1.802 -1.611 3.894
 1.816 -1.601 3.859
 1.827 -1.59 3.819
 1.836 -1.576 3.776
 1.839 -1.557 3.72
 1.846 -1.542 3.672
 1.854 -1.53 3.631
 1.858 -1.513 3.58
 1.859 -1.495 3.526
 1.85 -1.469 3.454
 1.766 -1.385 3.245
 1.749 -1.355 3.164
 1.754 -1.343 3.125
 1.765 -1.335 3.095
 1.773 -1.325 3.062
 1.773 -1.31 3.015
 1.767 -1.291 2.96
 1.748 -1.263 2.885
 1.763 -1.259 2.866
 -2.26 -1.605 3.814
 -2.246 -1.614 3.848
 -2.224 -1.618 3.87
 -2.201 -1.62 3.889
 -2.17 -1.617 3.894
 -2.149 -1.621 3.917
 -2.124 -1.622 3.931
 -2.097 -1.622 3.942
 -2.067 -1.62 3.949
 -2.041 -1.62 3.962
 -2.012 -1.618 3.968
 -1.984 -1.617 3.975
 -1.957 -1.616 3.985
 -1.93 -1.616 3.997
 -1.908 -1.62 4.016
 -1.882 -1.62 4.027
 -1.853 -1.618 4.034
 -1.827 -1.619 4.045
 -1.801 -1.619 4.055
 -1.772 -1.617 4.06
 -1.744 -1.616 4.067
 -1.718 -1.616 4.077
 -1.691 -1.615 4.084
 -1.663 -1.613 4.089
 -1.636 -1.613 4.096
 -1.609 -1.612 4.104
 -1.583 -1.613 4.114
 -1.556 -1.612 4.121
 -1.529 -1.611 4.127
 -1.5 -1.609 4.128
 -1.474 -1.609 4.136
 -1.446 -1.607 4.14
 -1.42 -1.607 4.148
 -1.394 -1.608 4.157
 -1.367 -1.607 4.162
 -1.34 -1.605 4.165
 -1.313 -1.605 4.172
 -1.287 -1.605 4.179
 -1.26 -1.604 4.182
 -1.235 -1.605 4.192
 -1.21 -1.607 4.202
 -1.183 -1.606 4.205
 -1.154 -1.603 4.203
 -1.127 -1.601 4.203
 -1.1 -1.599 4.205
 -1.072 -1.597 4.206
 -1.045 -1.595 4.204
 -1.019 -1.595 4.21
 -0.992 -1.594 4.212
 -0.966 -1.594 4.218
 -0.94 -1.593 4.22
 -0.915 -1.595 4.229
 -0.889 -1.595 4.233
 -0.862 -1.594 4.235
 -0.836 -1.593 4.237
 -0.81 -1.593 4.241
 -0.783 -1.591 4.238
 -0.756 -1.588 4.235
 -0.729 -1.587 4.235
 -0.704 -1.587 4.238
 -0.677 -1.585 4.237
 -0.652 -1.587 4.243
 -0.627 -1.588 4.25
 -0.602 -1.59 4.258
 -0.576 -1.59 4.26
 -0.55 -1.591 4.265
 -0.524 -1.589 4.263
 -0.498 -1.589 4.266
 -0.471 -1.587 4.261
 -0.445 -1.585 4.258
 -0.419 -1.584 4.258
 -0.393 -1.584 4.259
 -0.368 -1.583 4.258
 -0.342 -1.583 4.259
 -0.316 -1.583 4.262
 -0.29 -1.582 4.258
 -0.265 -1.581 4.257
 -0.239 -1.58 4.256
 -0.213 -1.581 4.261
 -0.188 -1.581 4.26
 -0.162 -1.581 4.262
 -0.136 -1.581 4.26
 -0.111 -1.581 4.262
 -0.085 -1.579 4.256
 -0.06 -1.579 4.255
 -0.034 -1.578 4.252
 -0.008 -1.579 4.255
 0.016 -1.577 4.251
 0.042 -1.58 4.258
 0.067 -1.581 4.259
 0.093 -1.581 4.259
 0.118 -1.58 4.257
 0.144 -1.581 4.258
 0.17 -1.581 4.256
 0.195 -1.58 4.253
 0.221 -1.581 4.254
 0.246 -1.582 4.256
 0.272 -1.584 4.258
 0.297 -1.58 4.246
 0.323 -1.581 4.247
 0.349 -1.582 4.248
 0.374 -1.582 4.247
 0.4 -1.582 4.242
 0.426 -1.586 4.252
 0.452 -1.587 4.25
 0.478 -1.587 4.248
 0.503 -1.587 4.246
 0.529 -1.587 4.244
 0.554 -1.586 4.236
 0.579 -1.585 4.231
 0.605 -1.586 4.23
 0.631 -1.586 4.227
 0.657 -1.588 4.228
 0.683 -1.589 4.227
 0.71 -1.59 4.228
 0.735 -1.591 4.224
 0.761 -1.591 4.222
 0.786 -1.59 4.214
 0.813 -1.593 4.217
 0.84 -1.595 4.217
 0.866 -1.596 4.216
 0.892 -1.597 4.213
 0.919 -1.599 4.213
 0.945 -1.599 4.209
 0.97 -1.598 4.2
 0.996 -1.598 4.195
 1.023 -1.6 4.193
 1.05 -1.602 4.193
 1.076 -1.603 4.19
 1.105 -1.607 4.196
 1.131 -1.608 4.191
 1.158 -1.61 4.189
 1.186 -1.612 4.188
 1.211 -1.612 4.18
 1.237 -1.611 4.172
 1.265 -1.613 4.171
 1.291 -1.614 4.166
 1.318 -1.615 4.16
 1.346 -1.617 4.159
 1.372 -1.617 4.151
 1.398 -1.618 4.146
 1.424 -1.618 4.137
 1.45 -1.618 4.127
 1.476 -1.618 4.119
 1.504 -1.62 4.116
 1.531 -1.621 4.11
 1.557 -1.622 4.103
 1.585 -1.623 4.097
 1.612 -1.625 4.092
 1.639 -1.625 4.084
 1.666 -1.627 4.077
 1.694 -1.628 4.072
 1.72 -1.628 4.06
 1.742 -1.625 4.042
 1.762 -1.619 4.018
 1.783 -1.614 3.995
 1.799 -1.606 3.963
 1.815 -1.598 3.932
 1.827 -1.586 3.892
 1.837 -1.573 3.848
 1.845 -1.558 3.802
 1.849 -1.541 3.748
 1.856 -1.526 3.701
 1.866 -1.515 3.663
 1.877 -1.504 3.625
 1.881 -1.488 3.576
 0 0 0
 1.754 -1.354 3.231
 1.742 -1.328 3.158
 1.756 -1.323 3.135
 1.768 -1.316 3.108
 1.775 -1.306 3.074
 1.778 -1.293 3.032
 1.77 -1.273 2.973
 1.762 -1.252 2.914
 1.744 -1.226 2.842
 -2.291 -1.601 3.877
 -2.294 -1.622 3.942
 -2.261 -1.618 3.945
 -2.235 -1.619 3.96
 -2.203 -1.615 3.963
 -2.18 -1.618 3.982
 -2.152 -1.617 3.993
 -2.124 -1.616 4.004
 -2.096 -1.616 4.014
 -2.072 -1.618 4.032
 -2.043 -1.616 4.039
 -2.015 -1.615 4.048
 -1.987 -1.614 4.057
 -1.96 -1.614 4.067
 -1.934 -1.615 4.082
 -1.909 -1.616 4.095
 -1.88 -1.615 4.102
 -1.852 -1.614 4.111
 -1.826 -1.614 4.121
 -1.796 -1.612 4.124
 -1.767 -1.61 4.129
 -1.739 -1.609 4.137
 -1.712 -1.609 4.145
 -1.684 -1.608 4.152
 -1.659 -1.609 4.164
 -1.632 -1.609 4.173
 -1.605 -1.609 4.182
 -1.579 -1.609 4.191
 -1.549 -1.607 4.192
 -1.519 -1.603 4.19
 -1.491 -1.601 4.194
 -1.465 -1.601 4.203
 -1.438 -1.601 4.21
 -1.412 -1.602 4.221
 -1.385 -1.602 4.227
 -1.358 -1.601 4.231
 -1.33 -1.599 4.234
 -1.302 -1.598 4.237
 -1.274 -1.596 4.238
 -1.247 -1.595 4.243
 -1.221 -1.596 4.25
 -1.194 -1.594 4.253
 -1.165 -1.591 4.25
 -1.137 -1.589 4.25
 -1.109 -1.587 4.251
 -1.082 -1.586 4.252
 -1.054 -1.583 4.252
 -1.028 -1.584 4.259
 -1.001 -1.583 4.261
 -0.975 -1.583 4.265
 -0.948 -1.582 4.267
 -0.922 -1.582 4.273
 -0.896 -1.581 4.274
 -0.869 -1.58 4.276
 -0.842 -1.579 4.277
 -0.815 -1.578 4.277
 -0.788 -1.575 4.274
 -0.761 -1.573 4.27
 -0.734 -1.572 4.273
 -0.708 -1.571 4.274
 -0.682 -1.57 4.275
 -0.656 -1.571 4.281
 -0.63 -1.572 4.284
 -0.604 -1.572 4.288
 -0.579 -1.572 4.292
 -0.553 -1.572 4.294
 -0.526 -1.571 4.293
 -0.5 -1.571 4.295
 -0.474 -1.568 4.29
 -0.447 -1.566 4.286
 -0.421 -1.565 4.285
 -0.395 -1.564 4.284
 -0.369 -1.563 4.283
 -0.343 -1.563 4.284
 -0.317 -1.564 4.287
 -0.291 -1.563 4.285
 -0.265 -1.562 4.284
 -0.239 -1.56 4.28
 -0.214 -1.561 4.284
 -0.188 -1.56 4.282
 -0.162 -1.561 4.283
 -0.137 -1.56 4.281
 -0.111 -1.561 4.284
 -0.085 -1.558 4.278
 -0.06 -1.558 4.277
 -0.034 -1.557 4.275
 -0.008 -1.558 4.276
 0.016 -1.557 4.273
 0.042 -1.559 4.279
 0.068 -1.559 4.278
 0.093 -1.559 4.277
 0.119 -1.559 4.277
 0.145 -1.559 4.276
 0.17 -1.558 4.273
 0.196 -1.558 4.27
 0.221 -1.559 4.273
 0.247 -1.561 4.275
 0.273 -1.562 4.277
 0.298 -1.56 4.269
 0.324 -1.561 4.271
 0.35 -1.561 4.269
 0.375 -1.561 4.266
 0.401 -1.56 4.26
 0.428 -1.564 4.27
 0.453 -1.564 4.267
 0.479 -1.564 4.264
 0.505 -1.565 4.263
 0.531 -1.566 4.265
 0.556 -1.564 4.256
 0.581 -1.564 4.253
 0.607 -1.565 4.252
 0.633 -1.566 4.25
 0.659 -1.567 4.25
 0.686 -1.569 4.25
 0.712 -1.57 4.25
 0.738 -1.571 4.248
 0.765 -1.572 4.247
 0.79 -1.571 4.24
 0.816 -1.573 4.241
 0.844 -1.576 4.244
 0.87 -1.577 4.243
 0.897 -1.578 4.24
 0.924 -1.58 4.241
 0.95 -1.581 4.238
 0.975 -1.58 4.23
 1.001 -1.58 4.225
 1.028 -1.582 4.224
 1.056 -1.584 4.224
 1.083 -1.586 4.223
 1.111 -1.589 4.225
 1.138 -1.591 4.223
 1.165 -1.592 4.221
 1.192 -1.594 4.218
 1.218 -1.594 4.212
 1.244 -1.594 4.205
 1.273 -1.597 4.205
 1.299 -1.598 4.2
 1.327 -1.6 4.197
 1.356 -1.603 4.198
 1.382 -1.603 4.191
 1.409 -1.604 4.185
 1.436 -1.605 4.178
 1.461 -1.604 4.167
 1.487 -1.604 4.16
 1.517 -1.608 4.161
 1.545 -1.609 4.157
 1.572 -1.61 4.15
 1.6 -1.612 4.146
 1.628 -1.614 4.142
 1.655 -1.614 4.132
 1.683 -1.616 4.127
 1.712 -1.619 4.123
 1.739 -1.619 4.115
 1.762 -1.616 4.097
 1.783 -1.612 4.075
 1.801 -1.605 4.046
 1.815 -1.594 4.008
 1.826 -1.581 3.964
 1.836 -1.568 3.92
 1.844 -1.553 3.873
 1.852 -1.538 3.825
 1.859 -1.524 3.777
 1.869 -1.512 3.737
 1.877 -1.499 3.692
 1.887 -1.487 3.653
 0 0 0
 0 0 0
 0 0 0
 1.737 -1.303 3.157
 1.754 -1.3 3.14
 1.765 -1.293 3.111
 1.772 -1.283 3.076
 1.777 -1.271 3.038
 1.771 -1.252 2.981
 1.751 -1.224 2.903
 1.747 -1.208 2.853
 -2.329 -1.601 3.953
 -2.323 -1.615 4.002
 -2.291 -1.612 4.006
 -2.268 -1.615 4.027
 -2.237 -1.612 4.034
 -2.121 -1.548 3.884
 -2.094 -1.547 3.895
 -2.066 -1.546 3.904
 -2.039 -1.546 3.914
 -2.014 -1.547 3.928
 -2.072 -1.612 4.106
 -2.043 -1.611 4.115
 -2.016 -1.611 4.126
 -1.988 -1.61 4.136
 -1.962 -1.612 4.151
 -1.936 -1.612 4.163
 -1.907 -1.611 4.171
 -1.88 -1.611 4.181
 -1.851 -1.61 4.188
 -1.822 -1.608 4.193
 -1.792 -1.606 4.198
 -1.764 -1.605 4.205
 -1.735 -1.603 4.21
 -1.706 -1.602 4.216
 -1.678 -1.601 4.223
 -1.651 -1.6 4.231
 -1.623 -1.599 4.237
 -1.595 -1.599 4.245
 -1.565 -1.596 4.245
 -1.536 -1.594 4.246
 -1.507 -1.592 4.25
 -1.481 -1.592 4.258
 -1.453 -1.591 4.263
 -1.426 -1.591 4.27
 -1.398 -1.59 4.276
 -1.37 -1.589 4.279
 -1.341 -1.586 4.28
 -1.313 -1.585 4.281
 -1.286 -1.584 4.286
 -1.257 -1.582 4.286
 -1.23 -1.581 4.291
 -1.203 -1.58 4.295
 -1.173 -1.576 4.291
 -1.145 -1.574 4.289
 -1.117 -1.572 4.29
 -1.089 -1.57 4.291
 -1.061 -1.568 4.291
 -1.035 -1.568 4.296
 -1.008 -1.567 4.298
 -0.982 -1.567 4.302
 -0.954 -1.565 4.302
 -0.927 -1.564 4.304
 -0.9 -1.563 4.305
 -0.873 -1.562 4.306
 -0.846 -1.56 4.305
 -0.819 -1.558 4.303
 -0.791 -1.556 4.3
 -0.764 -1.553 4.297
 -0.737 -1.552 4.297
 -0.71 -1.551 4.298
 -0.684 -1.55 4.298
 -0.658 -1.551 4.305
 -0.632 -1.551 4.306
 -0.606 -1.549 4.305
 -0.579 -1.549 4.306
 -0.553 -1.549 4.309
 -0.527 -1.547 4.307
 -0.501 -1.548 4.31
 -0.475 -1.547 4.31
 -0.448 -1.545 4.305
 -0.422 -1.542 4.301
 -0.395 -1.54 4.296
 -0.369 -1.539 4.295
 -0.343 -1.538 4.295
 -0.317 -1.539 4.297
 -0.291 -1.538 4.296
 -0.266 -1.537 4.295
 -0.24 -1.536 4.293
 -0.214 -1.536 4.294
 -0.188 -1.536 4.294
 -0.162 -1.536 4.296
 -0.137 -1.537 4.297
 -0.111 -1.536 4.296
 -0.085 -1.535 4.293
 -0.06 -1.535 4.292
 -0.034 -1.534 4.29
 -0.008 -1.534 4.288
 0.017 -1.533 4.286
 0.042 -1.534 4.29
 0.068 -1.534 4.289
 0.093 -1.534 4.287
 0.119 -1.534 4.286
 0.145 -1.533 4.282
 0.17 -1.532 4.279
 0.196 -1.532 4.277
 0.222 -1.533 4.279
 0.247 -1.534 4.279
 0.273 -1.535 4.282
 0.299 -1.534 4.277
 0.324 -1.534 4.276
 0.35 -1.534 4.273
 0.376 -1.535 4.274
 0.401 -1.535 4.271
 0.427 -1.537 4.275
 0.453 -1.538 4.275
 0.479 -1.539 4.275
 0.505 -1.539 4.271
 0.531 -1.54 4.271
 0.556 -1.54 4.267
 0.582 -1.54 4.266
 0.608 -1.541 4.264
 0.634 -1.542 4.263
 0.661 -1.543 4.264
 0.687 -1.545 4.264
 0.713 -1.545 4.261
 0.739 -1.546 4.26
 0.766 -1.548 4.26
 0.791 -1.548 4.256
 0.818 -1.55 4.256
 0.846 -1.553 4.261
 0.872 -1.554 4.259
 0.898 -1.555 4.256
 0.925 -1.557 4.257
 0.952 -1.558 4.255
 0.977 -1.557 4.247
 1.004 -1.558 4.243
 1.031 -1.56 4.244
 1.059 -1.562 4.244
 1.086 -1.565 4.244
 1.114 -1.567 4.246
 1.141 -1.569 4.244
 1.168 -1.57 4.239
 1.195 -1.571 4.236
 1.221 -1.572 4.231
 1.248 -1.573 4.226
 1.276 -1.574 4.224
 1.304 -1.577 4.223
 1.331 -1.578 4.22
 1.36 -1.581 4.218
 1.387 -1.582 4.214
 1.415 -1.584 4.212
 1.442 -1.585 4.206
 1.469 -1.586 4.199
 1.496 -1.587 4.193
 1.527 -1.591 4.196
 1.555 -1.593 4.192
 1.583 -1.595 4.187
 1.611 -1.597 4.184
 1.64 -1.599 4.18
 1.666 -1.599 4.169
 1.694 -1.6 4.163
 1.723 -1.602 4.158
 1.749 -1.602 4.148
 1.773 -1.599 4.131
 1.794 -1.595 4.108
 1.812 -1.587 4.078
 1.824 -1.575 4.037
 1.834 -1.561 3.99
 1.844 -1.548 3.945
 1.853 -1.535 3.899
 1.864 -1.523 3.858
 1.875 -1.511 3.818
 1.889 -1.503 3.786
 1.903 -1.495 3.753
 0 0 0
 0 0 0
 0 0 0
 0 0 0
 1.738 -1.282 3.167
 1.756 -1.28 3.151
 1.766 -1.272 3.12
 1.774 -1.263 3.086
 1.779 -1.252 3.048
 1.774 -1.234 2.994
 1.771 -1.218 2.944
 1.762 -1.198 2.885
 -2.382 -1.61 4.053
 -2.356 -1.61 4.069
 -1.853 -1.282 3.246
 -1.926 -1.349 3.427
 -1.988 -1.409 3.593
 -1.874 -1.345 3.439
 -1.851 -1.345 3.45
 -1.914 -1.408 3.624
 -1.802 -1.343 3.466
 -1.78 -1.344 3.478
 -1.842 -1.409 3.658
 -1.902 -1.474 3.838
 -1.875 -1.473 3.847
 -1.932 -1.539 4.03
 -1.907 -1.54 4.042
 -1.959 -1.604 4.223
 -1.93 -1.603 4.23
 -1.903 -1.603 4.242
 -1.872 -1.601 4.246
 -1.843 -1.599 4.252
 -1.813 -1.597 4.257
 -1.783 -1.595 4.261
 -1.753 -1.592 4.263
 -1.724 -1.592 4.27
 -1.695 -1.589 4.274
 -1.667 -1.589 4.281
 -1.638 -1.588 4.286
 -1.61 -1.587 4.293
 -1.58 -1.584 4.294
 -1.551 -1.582 4.296
 -1.521 -1.579 4.297
 -1.494 -1.579 4.306
 -1.465 -1.578 4.308
 -1.437 -1.576 4.313
 -1.408 -1.575 4.316
 -1.38 -1.573 4.318
 -1.349 -1.569 4.315
 -1.32 -1.566 4.314
 -1.292 -1.565 4.317
 -1.263 -1.562 4.315
 -1.235 -1.561 4.318
 -1.208 -1.56 4.322
 -1.179 -1.558 4.322
 -1.15 -1.555 4.319
 -1.123 -1.554 4.322
 -1.095 -1.552 4.321
 -1.067 -1.55 4.321
 -1.039 -1.548 4.321
 -1.012 -1.546 4.322
 -0.984 -1.545 4.323
 -0.957 -1.544 4.325
 -0.929 -1.542 4.324
 -0.903 -1.541 4.326
 -0.875 -1.54 4.325
 -0.847 -1.537 4.322
 -0.82 -1.535 4.319
 -0.792 -1.532 4.316
 -0.765 -1.529 4.311
 -0.738 -1.528 4.31
 -0.711 -1.527 4.311
 -0.685 -1.526 4.312
 -0.659 -1.527 4.318
 -0.633 -1.526 4.319
 -0.606 -1.525 4.317
 -0.58 -1.524 4.318
 -0.554 -1.524 4.319
 -0.527 -1.521 4.315
 -0.501 -1.521 4.317
 -0.475 -1.521 4.317
 -0.448 -1.518 4.311
 -0.421 -1.516 4.307
 -0.395 -1.514 4.303
 -0.369 -1.513 4.303
 -0.343 -1.513 4.305
 -0.317 -1.514 4.307
 -0.291 -1.513 4.306
 -0.266 -1.512 4.306
 -0.24 -1.511 4.304
 -0.214 -1.511 4.303
 -0.188 -1.51 4.302
 -0.162 -1.511 4.304
 -0.137 -1.511 4.305
 -0.111 -1.51 4.303
 -0.085 -1.509 4.301
 -0.059 -1.51 4.301
 -0.034 -1.508 4.297
 -0.008 -1.507 4.294
 0.017 -1.507 4.292
 0.042 -1.508 4.296
 0.068 -1.508 4.293
 0.094 -1.508 4.293
 0.119 -1.508 4.293
 0.145 -1.508 4.292
 0.17 -1.506 4.286
 0.196 -1.506 4.284
 0.222 -1.509 4.29
 0.247 -1.509 4.289
 0.273 -1.51 4.29
 0.299 -1.509 4.285
 0.324 -1.509 4.285
 0.35 -1.508 4.281
 0.376 -1.509 4.281
 0.401 -1.509 4.278
 0.428 -1.512 4.283
 0.453 -1.512 4.283
 0.479 -1.513 4.281
 0.505 -1.512 4.277
 0.531 -1.513 4.276
 0.556 -1.513 4.272
 0.582 -1.513 4.27
 0.608 -1.514 4.268
 0.634 -1.515 4.27
 0.66 -1.516 4.269
 0.687 -1.518 4.269
 0.713 -1.519 4.268
 0.739 -1.52 4.267
 0.765 -1.521 4.267
 0.791 -1.521 4.263
 0.818 -1.523 4.264
 0.845 -1.526 4.266
 0.872 -1.527 4.266
 0.898 -1.528 4.261
 0.925 -1.53 4.264
 0.951 -1.531 4.259
 0.977 -1.53 4.253
 1.003 -1.531 4.249
 1.031 -1.533 4.25
 1.058 -1.535 4.248
 1.086 -1.538 4.25
 1.114 -1.54 4.251
 1.141 -1.543 4.252
 1.169 -1.545 4.253
 1.197 -1.547 4.25
 1.223 -1.548 4.245
 1.251 -1.549 4.242
 1.278 -1.551 4.24
 1.306 -1.552 4.236
 1.334 -1.554 4.235
 1.362 -1.557 4.234
 1.39 -1.559 4.231
 1.419 -1.562 4.231
 1.446 -1.563 4.226
 1.474 -1.564 4.222
 1.502 -1.566 4.219
 1.533 -1.571 4.221
 1.56 -1.572 4.215
 1.588 -1.573 4.209
 1.617 -1.575 4.206
 1.646 -1.577 4.203
 1.672 -1.577 4.192
 1.701 -1.579 4.188
 1.73 -1.582 4.185
 1.757 -1.582 4.175
 1.781 -1.579 4.158
 1.803 -1.575 4.137
 1.819 -1.567 4.103
 1.831 -1.555 4.061
 1.842 -1.542 4.016
 1.853 -1.53 3.973
 1.862 -1.516 3.926
 1.875 -1.506 3.89
 1.889 -1.497 3.854
 1.906 -1.491 3.827
 0 0 0
 0 0 0
 0 0 0
 0 0 0
 0 0 0
 1.741 -1.263 3.179
 1.759 -1.261 3.163
 1.77 -1.254 3.134
 1.777 -1.244 3.099
 1.783 -1.233 3.062
 1.78 -1.217 3.011
 1.768 -1.196 2.947
 1.765 -1.18 2.897
 -2.402 -1.595 4.096
 -2.404 -1.615 4.161
 -1.415 -0.962 2.482
 -1.492 -1.027 2.659
 -1.56 -1.087 2.822
 -1.45 -1.023 2.663
 -1.43 -1.022 2.669
 -1.497 -1.083 2.839
 -1.39 -1.018 2.676
 -1.373 -1.019 2.686
 -1.44 -1.083 2.864
 -1.505 -1.147 3.041
 -1.482 -1.145 3.045
 -1.545 -1.209 3.226
 -1.603 -1.272 3.404
 -1.739 -1.4 3.755
 -1.791 -1.462 3.934
 -1.843 -1.527 4.118
 -1.889 -1.587 4.293
 -1.859 -1.586 4.3
 -1.829 -1.584 4.305
 -1.798 -1.581 4.306
 -1.767 -1.578 4.308
 -1.738 -1.577 4.313
 -1.708 -1.574 4.317
 -1.679 -1.573 4.322
 -1.65 -1.572 4.327
 -1.621 -1.57 4.332
 -1.59 -1.567 4.332
 -1.56 -1.565 4.333
 -1.529 -1.561 4.33
 -1.502 -1.561 4.338
 -1.472 -1.558 4.338
 -1.443 -1.556 4.34
 -1.414 -1.554 4.342
 -1.385 -1.552 4.344
 -1.354 -1.548 4.339
 -1.326 -1.546 4.341
 -1.297 -1.545 4.343
 -1.268 -1.541 4.34
 -1.239 -1.539 4.341
 -1.211 -1.538 4.343
 -1.182 -1.535 4.339
 -1.153 -1.532 4.338
 -1.125 -1.53 4.339
 -1.097 -1.528 4.337
 -1.069 -1.526 4.337
 -1.04 -1.524 4.336
 -1.012 -1.521 4.334
 -0.984 -1.519 4.333
 -0.958 -1.519 4.336
 -0.93 -1.516 4.333
 -0.902 -1.514 4.332
 -0.875 -1.513 4.332
 -0.847 -1.51 4.329
 -0.82 -1.508 4.326
 -0.792 -1.505 4.322
 -0.765 -1.504 4.323
 -0.738 -1.503 4.321
 -0.711 -1.501 4.321
 -0.685 -1.5 4.32
 -0.659 -1.501 4.325
 -0.632 -1.5 4.325
 -0.605 -1.497 4.321
 -0.579 -1.497 4.324
 -0.553 -1.497 4.324
 -0.526 -1.494 4.32
 -0.5 -1.493 4.319
 -0.474 -1.493 4.32
 -0.447 -1.49 4.312
 -0.421 -1.488 4.31
 -0.395 -1.487 4.309
 -0.369 -1.487 4.31
 -0.343 -1.487 4.311
 -0.317 -1.488 4.316
 -0.291 -1.488 4.315
 -0.265 -1.486 4.313
 -0.24 -1.486 4.312
 -0.214 -1.485 4.311
 -0.188 -1.483 4.306
 -0.162 -1.484 4.307
 -0.136 -1.483 4.306
 -0.111 -1.482 4.304
 -0.085 -1.482 4.302
 -0.059 -1.482 4.303
 -0.033 -1.481 4.3
 -0.008 -1.48 4.298
 0.017 -1.481 4.298
 0.042 -1.481 4.3
 0.068 -1.482 4.302
 0.094 -1.482 4.302
 0.119 -1.483 4.303
 0.145 -1.483 4.302
 0.171 -1.482 4.297
 0.196 -1.481 4.294
 0.222 -1.483 4.299
 0.248 -1.483 4.295
 0.273 -1.482 4.292
 0.299 -1.482 4.289
 0.324 -1.481 4.286
 0.35 -1.481 4.282
 0.375 -1.481 4.282
 0.401 -1.482 4.282
 0.427 -1.484 4.285
 0.453 -1.484 4.284
 0.479 -1.485 4.281
 0.504 -1.485 4.28
 0.53 -1.485 4.276
 0.555 -1.485 4.273
 0.581 -1.486 4.273
 0.607 -1.486 4.271
 0.634 -1.488 4.272
 0.66 -1.49 4.274
 0.686 -1.49 4.272
 0.712 -1.492 4.272
 0.738 -1.493 4.27
 0.765 -1.494 4.27
 0.791 -1.494 4.266
 0.817 -1.496 4.267
 0.844 -1.498 4.268
 0.871 -1.499 4.267
 0.897 -1.5 4.264
 0.925 -1.503 4.268
 0.951 -1.504 4.265
 0.977 -1.505 4.262
 1.004 -1.505 4.258
 1.031 -1.507 4.258
 1.058 -1.508 4.256
 1.086 -1.511 4.258
 1.113 -1.513 4.257
 1.141 -1.515 4.257
 1.169 -1.518 4.259
 1.196 -1.519 4.255
 1.223 -1.52 4.251
 1.25 -1.522 4.249
 1.278 -1.524 4.247
 1.306 -1.526 4.244
 1.334 -1.528 4.243
 1.362 -1.53 4.242
 1.39 -1.533 4.241
 1.419 -1.535 4.239
 1.446 -1.536 4.233
 1.475 -1.538 4.232
 1.503 -1.54 4.229
 1.533 -1.544 4.23
 1.562 -1.547 4.228
 1.59 -1.548 4.224
 1.619 -1.55 4.219
 1.648 -1.553 4.217
 1.675 -1.553 4.208
 1.704 -1.555 4.204
 1.734 -1.558 4.202
 1.761 -1.559 4.193
 1.785 -1.557 4.177
 1.808 -1.554 4.159
 1.826 -1.546 4.127
 1.839 -1.535 4.087
 1.85 -1.522 4.043
 1.862 -1.511 4.002
 1.87 -1.496 3.951
 1.879 -1.484 3.906
 1.889 -1.472 3.864
 0 0 0
 0 0 0
 0 0 0
 0 0 0
 0 0 0
 0 0 0
 1.741 -1.242 3.187
 1.761 -1.241 3.173
 1.77 -1.232 3.141
 1.777 -1.223 3.106
 1.785 -1.214 3.073
 1.783 -1.198 3.023
 1.772 -1.178 2.96
 1.773 -1.165 2.917
 -0.032 -0.022 0.042
 -0.079 -0.054 0.125
 -0.974 -0.652 1.709
 -1.054 -0.713 1.879
 -1.126 -0.771 2.038
 -1.021 -0.708 1.877
 -1.005 -0.706 1.875
 -1.078 -0.767 2.046
 -0.975 -0.702 1.878
 -0.962 -0.702 1.883
 -1.032 -0.763 2.054
 -1.102 -0.825 2.228
 -1.168 -0.887 2.402
 -1.233 -0.949 2.578
 -1.375 -1.073 2.925
 -1.594 -1.261 3.448
 -1.727 -1.385 3.801
 -1.778 -1.447 3.981
 -1.9 -1.569 4.329
 -1.872 -1.569 4.338
 -1.841 -1.566 4.341
 -1.808 -1.562 4.34
 -1.777 -1.559 4.341
 -1.747 -1.557 4.345
 -1.717 -1.555 4.348
 -1.688 -1.554 4.355
 -1.658 -1.552 4.358
 -1.627 -1.549 4.358
 -1.597 -1.546 4.358
 -1.566 -1.543 4.359
 -1.534 -1.538 4.351
 -1.505 -1.537 4.356
 -1.475 -1.535 4.357
 -1.446 -1.532 4.357
 -1.415 -1.529 4.355
 -1.387 -1.527 4.358
 -1.356 -1.523 4.353
 -1.327 -1.521 4.353
 -1.298 -1.518 4.353
 -1.267 -1.514 4.348
 -1.238 -1.511 4.346
 -1.21 -1.51 4.347
 -1.181 -1.507 4.346
 -1.153 -1.506 4.348
 -1.125 -1.504 4.349
 -1.097 -1.502 4.347
 -1.069 -1.5 4.348
 -1.04 -1.497 4.343
 -1.012 -1.494 4.341
 -0.984 -1.492 4.339
 -0.957 -1.492 4.343
 -0.929 -1.489 4.338
 -0.901 -1.487 4.336
 -0.874 -1.485 4.335
 -0.846 -1.482 4.331
 -0.818 -1.479 4.325
 -0.79 -1.477 4.323
 -0.764 -1.476 4.324
 -0.737 -1.475 4.323
 -0.71 -1.473 4.323
 -0.684 -1.473 4.325
 -0.658 -1.473 4.327
 -0.631 -1.472 4.327
 -0.604 -1.469 4.323
 -0.579 -1.47 4.326
 -0.552 -1.468 4.323
 -0.525 -1.466 4.32
 -0.499 -1.465 4.32
 -0.473 -1.465 4.32
 -0.446 -1.461 4.311
 -0.42 -1.46 4.312
 -0.394 -1.46 4.311
 -0.368 -1.459 4.312
 -0.342 -1.459 4.313
 -0.317 -1.46 4.317
 -0.291 -1.46 4.316
 -0.265 -1.458 4.313
 -0.239 -1.457 4.31
 -0.213 -1.456 4.308
 -0.187 -1.454 4.304
 -0.162 -1.455 4.306
 -0.136 -1.455 4.308
 -0.11 -1.456 4.308
 -0.085 -1.456 4.309
 -0.059 -1.457 4.312
 -0.033 -1.456 4.308
 -0.008 -1.455 4.306
 0.017 -1.454 4.303
 0.043 -1.454 4.301
 0.068 -1.454 4.301
 0.094 -1.454 4.3
 0.119 -1.454 4.301
 0.145 -1.455 4.301
 0.171 -1.454 4.299
 0.196 -1.454 4.296
 0.222 -1.456 4.3
 0.247 -1.455 4.298
 0.273 -1.455 4.294
 0.299 -1.455 4.294
 0.324 -1.456 4.293
 0.35 -1.455 4.289
 0.375 -1.455 4.288
 0.401 -1.456 4.288
 0.427 -1.456 4.287
 0.452 -1.457 4.285
 0.478 -1.457 4.283
 0.504 -1.457 4.281
 0.529 -1.457 4.278
 0.555 -1.457 4.274
 0.581 -1.457 4.272
 0.606 -1.458 4.27
 0.633 -1.459 4.271
 0.659 -1.461 4.272
 0.685 -1.462 4.272
 0.711 -1.464 4.273
 0.738 -1.465 4.272
 0.764 -1.466 4.271
 0.79 -1.467 4.269
 0.817 -1.468 4.27
 0.843 -1.469 4.267
 0.869 -1.471 4.267
 0.896 -1.472 4.265
 0.923 -1.474 4.268
 0.95 -1.476 4.267
 0.977 -1.477 4.265
 1.003 -1.478 4.264
 1.03 -1.48 4.263
 1.057 -1.481 4.261
 1.085 -1.484 4.263
 1.112 -1.486 4.262
 1.139 -1.487 4.26
 1.167 -1.49 4.26
 1.194 -1.491 4.257
 1.222 -1.492 4.254
 1.25 -1.495 4.255
 1.277 -1.497 4.253
 1.306 -1.499 4.252
 1.333 -1.501 4.25
 1.361 -1.503 4.247
 1.389 -1.505 4.245
 1.417 -1.506 4.242
 1.444 -1.507 4.236
 1.473 -1.51 4.236
 1.502 -1.512 4.233
 1.532 -1.516 4.235
 1.561 -1.519 4.234
 1.589 -1.52 4.23
 1.618 -1.522 4.226
 1.647 -1.525 4.224
 1.675 -1.526 4.216
 1.704 -1.528 4.212
 1.734 -1.531 4.212
 1.763 -1.533 4.206
 1.788 -1.532 4.193
 1.813 -1.53 4.177
 1.832 -1.524 4.149
 1.847 -1.515 4.113
 1.858 -1.502 4.068
 1.872 -1.493 4.031
 1.879 -1.478 3.979
 1.89 -1.466 3.937
 0 0 0
 0 0 0
 0 0 0
 0 0 0
 0 0 0
 0 0 0
 0 0 0
 1.414 -0.992 2.592
 1.592 -1.103 2.875
 1.765 -1.208 3.14
 1.774 -1.199 3.107
 1.782 -1.191 3.074
 1.783 -1.178 3.03
 1.782 -1.164 2.983
 1.793 -1.158 2.956
 -0.053 -0.035 0.078
 -0.069 -0.046 0.108
 -0.528 -0.348 0.923
 -0.61 -0.406 1.085
 -0.687 -0.463 1.242
 -0.587 -0.401 1.076
 -0.575 -0.397 1.07
 -0.654 -0.457 1.238
 -0.553 -0.392 1.063
 -0.544 -0.391 1.061
 -0.62 -0.451 1.231
 -0.694 -0.511 1.402
 -0.765 -0.571 1.571
 -0.834 -0.631 1.743
 -0.981 -0.752 2.087
 -1.284 -0.998 2.782
 -1.499 -1.182 3.306
 -1.632 -1.305 3.661
 -1.831 -1.485 4.18
 -1.878 -1.546 4.362
 -1.846 -1.543 4.363
 -1.814 -1.539 4.362
 -1.781 -1.535 4.361
 -1.752 -1.534 4.367
 -1.72 -1.531 4.366
 -1.69 -1.528 4.369
 -1.659 -1.526 4.37
 -1.628 -1.522 4.368
 -1.597 -1.519 4.368
 -1.567 -1.517 4.369
 -1.535 -1.512 4.365
 -1.506 -1.511 4.368
 -1.476 -1.508 4.367
 -1.445 -1.504 4.364
 -1.415 -1.501 4.363
 -1.385 -1.499 4.363
 -1.355 -1.495 4.357
 -1.326 -1.493 4.359
 -1.297 -1.491 4.359
 -1.267 -1.487 4.355
 -1.238 -1.485 4.354
 -1.21 -1.483 4.356
 -1.181 -1.481 4.355
 -1.153 -1.479 4.355
 -1.124 -1.476 4.353
 -1.096 -1.474 4.351
 -1.067 -1.472 4.349
 -1.038 -1.467 4.341
 -1.01 -1.466 4.342
 -0.982 -1.463 4.34
 -0.955 -1.463 4.342
 -0.927 -1.46 4.339
 -0.9 -1.459 4.34
 -0.872 -1.456 4.336
 -0.845 -1.454 4.332
 -0.816 -1.45 4.326
 -0.789 -1.449 4.325
 -0.763 -1.448 4.326
 -0.736 -1.447 4.327
 -0.71 -1.446 4.328
 -0.683 -1.446 4.329
 -0.657 -1.444 4.327
 -0.63 -1.444 4.329
 -0.603 -1.441 4.323
 -0.577 -1.441 4.326
 -0.551 -1.44 4.325
 -0.525 -1.439 4.323
 -0.498 -1.437 4.322
 -0.473 -1.438 4.326
 -0.446 -1.434 4.316
 -0.419 -1.432 4.313
 -0.393 -1.432 4.314
 -0.368 -1.432 4.314
 -0.341 -1.43 4.31
 -0.316 -1.431 4.315
 -0.29 -1.432 4.318
 -0.264 -1.43 4.313
 -0.238 -1.429 4.311
 -0.213 -1.429 4.311
 -0.187 -1.427 4.306
 -0.161 -1.427 4.305
 -0.136 -1.428 4.308
 -0.11 -1.427 4.308
 -0.084 -1.427 4.307
 -0.059 -1.428 4.311
 -0.033 -1.427 4.307
 -0.008 -1.427 4.307
 0.017 -1.426 4.304
 0.043 -1.426 4.304
 0.068 -1.427 4.305
 0.094 -1.428 4.306
 0.119 -1.427 4.305
 0.145 -1.428 4.305
 0.171 -1.428 4.306
 0.196 -1.428 4.304
 0.222 -1.428 4.301
 0.247 -1.428 4.3
 0.273 -1.427 4.296
 0.298 -1.427 4.293
 0.324 -1.426 4.288
 0.349 -1.427 4.29
 0.375 -1.426 4.286
 0.401 -1.429 4.291
 0.427 -1.429 4.289
 0.452 -1.43 4.29
 0.478 -1.43 4.288
 0.504 -1.431 4.286
 0.528 -1.429 4.277
 0.554 -1.428 4.272
 0.579 -1.428 4.269
 0.605 -1.428 4.265
 0.631 -1.429 4.266
 0.657 -1.431 4.268
 0.683 -1.432 4.268
 0.71 -1.434 4.269
 0.736 -1.436 4.27
 0.763 -1.438 4.272
 0.789 -1.439 4.271
 0.816 -1.442 4.274
 0.842 -1.442 4.272
 0.869 -1.444 4.274
 0.896 -1.445 4.271
 0.923 -1.448 4.275
 0.95 -1.449 4.272
 0.976 -1.451 4.272
 1.003 -1.452 4.269
 1.03 -1.453 4.268
 1.056 -1.453 4.262
 1.083 -1.456 4.263
 1.11 -1.457 4.261
 1.138 -1.458 4.26
 1.165 -1.461 4.26
 1.193 -1.463 4.259
 1.22 -1.464 4.257
 1.249 -1.467 4.259
 1.277 -1.469 4.258
 1.305 -1.472 4.258
 1.333 -1.474 4.257
 1.361 -1.476 4.254
 1.389 -1.478 4.251
 1.416 -1.479 4.247
 1.443 -1.479 4.24
 1.472 -1.482 4.238
 1.5 -1.484 4.236
 1.529 -1.487 4.236
 1.559 -1.489 4.235
 1.587 -1.492 4.232
 1.616 -1.494 4.229
 1.645 -1.496 4.226
 1.673 -1.497 4.22
 1.702 -1.499 4.216
 1.732 -1.503 4.215
 1.761 -1.505 4.21
 1.788 -1.504 4.199
 1.813 -1.503 4.186
 1.834 -1.499 4.162
 1.852 -1.492 4.133
 1.867 -1.483 4.097
 1.884 -1.475 4.064
 1.891 -1.461 4.014
 0 0 0
 0 0 0
 0 0 0
 0 0 0
 0 0 0
 0 0 0
 0 0 0
 0 0 0
 1.19 -0.82 2.184
 1.591 -1.082 2.879
 1.766 -1.187 3.148
 1.776 -1.179 3.117
 1.784 -1.171 3.084
 1.784 -1.158 3.039
 1.784 -1.145 2.994
 1.759 -1.116 2.908
 -0.142 -0.09 0.231
 -0.107 -0.069 0.174
 -0.078 -0.052 0.126
 -0.162 -0.107 0.28
 -0.244 -0.163 0.434
 -0.238 -0.16 0.43
 -0.228 -0.155 0.417
 -0.31 -0.214 0.582
 -0.213 -0.149 0.403
 -0.207 -0.147 0.397
 -0.202 -0.145 0.393
 -0.281 -0.204 0.56
 -0.354 -0.261 0.723
 -0.51 -0.379 1.063
 -0.742 -0.559 1.579
 -1.128 -0.861 2.447
 -1.423 -1.101 3.143
 -1.634 -1.283 3.673
 -1.834 -1.461 4.196
 -1.88 -1.52 4.376
 -1.847 -1.516 4.374
 -1.815 -1.513 4.375
 -1.783 -1.509 4.374
 -1.753 -1.508 4.379
 -1.721 -1.504 4.378
 -1.692 -1.502 4.382
 -1.66 -1.499 4.381
 -1.628 -1.495 4.378
 -1.597 -1.492 4.377
 -1.566 -1.489 4.376
 -1.534 -1.484 4.371
 -1.505 -1.482 4.373
 -1.474 -1.479 4.372
 -1.444 -1.476 4.37
 -1.414 -1.473 4.369
 -1.384 -1.47 4.367
 -1.354 -1.468 4.366
 -1.325 -1.465 4.365
 -1.296 -1.463 4.364
 -1.266 -1.459 4.361
 -1.238 -1.457 4.361
 -1.208 -1.454 4.357
 -1.18 -1.453 4.358
 -1.151 -1.45 4.356
 -1.122 -1.447 4.353
 -1.094 -1.445 4.352
 -1.066 -1.443 4.351
 -1.036 -1.439 4.344
 -1.009 -1.437 4.343
 -0.98 -1.434 4.339
 -0.953 -1.433 4.34
 -0.926 -1.432 4.341
 -0.899 -1.431 4.342
 -0.871 -1.429 4.34
 -0.844 -1.428 4.34
 -0.817 -1.426 4.339
 -0.79 -1.424 4.337
 -0.764 -1.424 4.339
 -0.737 -1.423 4.341
 -0.711 -1.423 4.343
 -0.684 -1.421 4.34
 -0.656 -1.418 4.334
 -0.63 -1.417 4.334
 -0.603 -1.414 4.328
 -0.577 -1.415 4.333
 -0.551 -1.413 4.33
 -0.524 -1.412 4.33
 -0.498 -1.411 4.327
 -0.472 -1.411 4.33
 -0.445 -1.408 4.321
 -0.419 -1.406 4.319
 -0.393 -1.407 4.321
 -0.367 -1.406 4.322
 -0.341 -1.404 4.317
 -0.316 -1.405 4.319
 -0.29 -1.405 4.321
 -0.264 -1.403 4.316
 -0.238 -1.402 4.312
 -0.212 -1.402 4.314
 -0.186 -1.4 4.309
 -0.161 -1.399 4.307
 -0.135 -1.4 4.31
 -0.11 -1.4 4.311
 -0.084 -1.399 4.308
 -0.059 -1.401 4.312
 -0.033 -1.4 4.311
 -0.007 -1.4 4.31
 0.017 -1.4 4.308
 0.043 -1.4 4.308
 0.068 -1.4 4.309
 0.094 -1.401 4.31
 0.12 -1.401 4.309
 0.145 -1.402 4.311
 0.171 -1.403 4.313
 0.196 -1.403 4.312
 0.222 -1.403 4.311
 0.248 -1.403 4.309
 0.273 -1.402 4.303
 0.298 -1.401 4.301
 0.324 -1.4 4.296
 0.35 -1.402 4.298
 0.375 -1.4 4.292
 0.401 -1.403 4.298
 0.427 -1.404 4.297
 0.453 -1.405 4.297
 0.478 -1.404 4.294
 0.504 -1.405 4.292
 0.528 -1.402 4.282
 0.553 -1.401 4.275
 0.579 -1.401 4.271
 0.604 -1.4 4.266
 0.63 -1.402 4.268
 0.657 -1.404 4.27
 0.683 -1.405 4.269
 0.709 -1.407 4.272
 0.736 -1.408 4.273
 0.762 -1.41 4.274
 0.788 -1.412 4.274
 0.816 -1.415 4.278
 0.842 -1.415 4.276
 0.869 -1.418 4.28
 0.895 -1.419 4.277
 0.924 -1.422 4.283
 0.949 -1.422 4.278
 0.976 -1.424 4.276
 1.003 -1.425 4.274
 1.029 -1.426 4.271
 1.055 -1.425 4.265
 1.082 -1.428 4.266
 1.11 -1.43 4.265
 1.136 -1.43 4.261
 1.164 -1.433 4.264
 1.192 -1.435 4.262
 1.219 -1.437 4.26
 1.247 -1.439 4.261
 1.275 -1.441 4.261
 1.303 -1.443 4.259
 1.332 -1.446 4.259
 1.359 -1.447 4.255
 1.387 -1.449 4.253
 1.415 -1.45 4.249
 1.441 -1.451 4.243
 1.47 -1.453 4.241
 1.499 -1.456 4.241
 1.528 -1.459 4.24
 1.557 -1.461 4.238
 1.585 -1.463 4.234
 1.613 -1.464 4.229
 1.642 -1.466 4.226
 1.671 -1.468 4.222
 1.7 -1.471 4.22
 1.731 -1.475 4.22
 1.761 -1.477 4.217
 1.788 -1.478 4.209
 1.814 -1.477 4.196
 1.836 -1.474 4.176
 1.858 -1.47 4.153
 1.878 -1.465 4.129
 1.897 -1.459 4.101
 0 0 0
 0 0 0
 0 0 0
 0 0 0
 0 0 0
 0 0 0
 0 0 0
 0 0 0
 0 0 0
 1.177 -0.796 2.165
 1.593 -1.064 2.888
 1.769 -1.167 3.16
 1.778 -1.16 3.128
 1.786 -1.152 3.095
 1.79 -1.141 3.056
 1.765 -1.112 2.967
 1.791 -1.116 2.967
 -0.174 -0.109 0.288
 -0.091 -0.059 0.147
 -0.095 -0.061 0.156
 -0.085 -0.056 0.14
 -0.075 -0.05 0.125
 -0.07 -0.048 0.118
 -0.058 -0.04 0.096
 -0.052 -0.036 0.087
 -0.045 -0.032 0.075
 -0.039 -0.028 0.064
 -0.033 -0.025 0.054
 -0.03 -0.023 0.048
 -0.106 -0.078 0.208
 -0.264 -0.193 0.545
 -0.581 -0.43 1.236
 -0.969 -0.726 2.105
 -1.345 -1.022 2.976
 -1.634 -1.259 3.68
 -1.836 -1.435 4.207
 -1.88 -1.492 4.386
 -1.847 -1.488 4.384
 -1.816 -1.485 4.385
 -1.784 -1.482 4.385
 -1.753 -1.48 4.387
 -1.722 -1.477 4.387
 -1.69 -1.474 4.388
 -1.658 -1.47 4.385
 -1.626 -1.466 4.381
 -1.595 -1.463 4.38
 -1.564 -1.459 4.377
 -1.532 -1.455 4.374
 -1.502 -1.453 4.374
 -1.471 -1.449 4.37
 -1.441 -1.446 4.368
 -1.412 -1.444 4.37
 -1.382 -1.441 4.369
 -1.353 -1.44 4.371
 -1.325 -1.438 4.373
 -1.295 -1.435 4.369
 -1.265 -1.431 4.365
 -1.236 -1.429 4.362
 -1.206 -1.425 4.357
 -1.178 -1.423 4.358
 -1.15 -1.422 4.36
 -1.121 -1.419 4.356
 -1.093 -1.418 4.358
 -1.065 -1.416 4.356
 -1.036 -1.412 4.349
 -1.009 -1.411 4.351
 -0.98 -1.408 4.346
 -0.952 -1.406 4.344
 -0.925 -1.405 4.346
 -0.898 -1.403 4.345
 -0.87 -1.401 4.343
 -0.844 -1.401 4.345
 -0.817 -1.4 4.346
 -0.79 -1.398 4.345
 -0.764 -1.399 4.349
 -0.738 -1.398 4.351
 -0.711 -1.397 4.351
 -0.684 -1.395 4.346
 -0.655 -1.39 4.335
 -0.629 -1.388 4.333
 -0.601 -1.385 4.325
 -0.576 -1.386 4.332
 -0.55 -1.385 4.33
 -0.524 -1.385 4.332
 -0.497 -1.384 4.331
 -0.472 -1.386 4.339
 -0.445 -1.382 4.33
 -0.419 -1.381 4.326
 -0.393 -1.38 4.326
 -0.367 -1.379 4.324
 -0.34 -1.376 4.316
 -0.315 -1.376 4.316
 -0.289 -1.377 4.321
 -0.263 -1.375 4.316
 -0.237 -1.374 4.313
 -0.212 -1.374 4.315
 -0.186 -1.373 4.312
 -0.16 -1.371 4.306
 -0.135 -1.372 4.307
 -0.109 -1.372 4.309
 -0.084 -1.372 4.308
 -0.058 -1.373 4.311
 -0.033 -1.373 4.313
 -0.007 -1.374 4.314
 0.017 -1.373 4.312
 0.043 -1.373 4.31
 0.068 -1.373 4.311
 0.094 -1.374 4.313
 0.12 -1.374 4.311
 0.145 -1.374 4.311
 0.171 -1.376 4.316
 0.197 -1.377 4.316
 0.222 -1.374 4.308
 0.247 -1.375 4.308
 0.273 -1.373 4.301
 0.298 -1.373 4.3
 0.323 -1.372 4.293
 0.349 -1.375 4.301
 0.374 -1.373 4.293
 0.401 -1.377 4.303
 0.427 -1.377 4.3
 0.452 -1.378 4.301
 0.478 -1.378 4.298
 0.504 -1.379 4.298
 0.528 -1.376 4.288
 0.553 -1.375 4.28
 0.579 -1.375 4.277
 0.604 -1.374 4.271
 0.63 -1.376 4.273
 0.656 -1.377 4.274
 0.682 -1.378 4.274
 0.709 -1.38 4.277
 0.735 -1.382 4.278
 0.762 -1.384 4.28
 0.788 -1.385 4.28
 0.815 -1.388 4.283
 0.841 -1.388 4.28
 0.869 -1.391 4.283
 0.895 -1.392 4.282
 0.923 -1.396 4.289
 0.949 -1.396 4.285
 0.976 -1.397 4.281
 1.002 -1.398 4.279
 1.029 -1.399 4.276
 1.054 -1.399 4.27
 1.081 -1.4 4.268
 1.109 -1.402 4.268
 1.135 -1.403 4.264
 1.162 -1.404 4.263
 1.189 -1.406 4.261
 1.217 -1.408 4.261
 1.245 -1.41 4.261
 1.273 -1.412 4.26
 1.301 -1.415 4.259
 1.329 -1.416 4.258
 1.357 -1.418 4.255
 1.385 -1.42 4.253
 1.412 -1.421 4.249
 1.44 -1.423 4.245
 1.469 -1.425 4.245
 1.497 -1.427 4.243
 1.526 -1.43 4.241
 1.555 -1.433 4.241
 1.583 -1.434 4.237
 1.611 -1.436 4.231
 1.64 -1.438 4.228
 1.669 -1.44 4.226
 1.698 -1.442 4.222
 1.729 -1.446 4.222
 1.758 -1.448 4.219
 1.786 -1.449 4.212
 1.813 -1.45 4.203
 1.838 -1.448 4.188
 1.863 -1.447 4.173
 1.888 -1.445 4.157
 0 0 0
 0 0 0
 0 0 0
 0 0 0
 0 0 0
 0 0 0
 0 0 0
 0 0 0
 0 0 0
 0 0 0
 1.06 -0.705 1.954
 1.57 -1.03 2.853
 1.764 -1.143 3.158
 1.776 -1.137 3.13
 1.784 -1.129 3.097
 1.79 -1.12 3.061
 1.779 -1.1 2.997
 1.768 -1.082 2.935
 -0.123 -0.076 0.2
 -0.106 -0.067 0.174
 -0.107 -0.068 0.177
 -0.093 -0.06 0.156
 -0.082 -0.053 0.137
 -0.074 -0.049 0.125
 -0.06 -0.041 0.101
 -0.053 -0.036 0.088
 -0.046 -0.032 0.076
 -0.039 -0.028 0.065
 -0.119 -0.083 0.228
 -0.115 -0.082 0.224
 -0.274 -0.195 0.559
 -0.511 -0.366 1.071
 -0.825 -0.599 1.765
 -1.13 -0.831 2.461
 -1.502 -1.12 3.332
 -1.711 -1.293 3.861
