 -1.995 -1.622 4.055
 -1.982 -1.623 4.062
 -1.97 -1.623 4.069
 -1.953 -1.621 4.068
 -1.94 -1.621 4.073
 -1.926 -1.621 4.079
 -1.91 -1.619 4.078
 -1.895 -1.617 4.08
 -1.885 -1.62 4.093
 -1.872 -1.62 4.099
 -1.857 -1.619 4.101
 -1.846 -1.622 4.112
 -1.835 -1.624 4.123
 -1.822 -1.624 4.129
 -1.805 -1.621 4.126
 -1.791 -1.62 4.129
 -1.775 -1.617 4.127
 -1.757 -1.614 4.123
 -1.743 -1.613 4.125
 -1.73 -1.613 4.131
 -1.718 -1.614 4.138
 -1.705 -1.615 4.144
 -1.694 -1.617 4.154
 -1.68 -1.616 4.157
 -1.666 -1.616 4.16
 -1.65 -1.613 4.159
 -1.635 -1.612 4.158
 -1.618 -1.609 4.155
 -1.603 -1.606 4.153
 -1.588 -1.605 4.154
 -1.574 -1.604 4.157
 -1.561 -1.604 4.161
 -1.544 -1.601 4.156
 -1.534 -1.604 4.167
 -1.523 -1.606 4.177
 -1.509 -1.605 4.18
 -1.494 -1.604 4.18
 -1.483 -1.606 4.19
 -1.467 -1.603 4.186
 -1.451 -1.6 4.182
 -1.437 -1.6 4.185
 -1.424 -1.6 4.19
 -1.412 -1.601 4.195
 -1.4 -1.602 4.202
 -1.389 -1.605 4.213
 -1.377 -1.607 4.221
 -1.366 -1.609 4.232
 -1.352 -1.608 4.232
 -1.336 -1.605 4.228
 -1.32 -1.602 4.222
 -1.304 -1.599 4.218
 -1.29 -1.597 4.217
 -1.276 -1.596 4.218
 -1.263 -1.596 4.221
 -1.249 -1.595 4.222
 -1.236 -1.596 4.227
 -1.222 -1.595 4.228
 -1.211 -1.597 4.236
 -1.198 -1.598 4.24
 -1.185 -1.598 4.245
 -1.171 -1.598 4.246
 -1.157 -1.595 4.244
 -1.141 -1.592 4.237
 -1.127 -1.592 4.239
 -1.114 -1.59 4.239
 -1.1 -1.59 4.241
 -1.087 -1.59 4.243
 -1.074 -1.59 4.247
 -1.06 -1.59 4.247
 -1.046 -1.587 4.244
 -1.032 -1.587 4.244
 -1.02 -1.588 4.251
 -1.006 -1.587 4.249
 -0.993 -1.586 4.251
 -0.98 -1.586 4.253
 -0.966 -1.586 4.255
 -0.951 -1.582 4.248
 -0.939 -1.584 4.254
 -0.925 -1.582 4.253
 -0.912 -1.582 4.254
 -0.899 -1.582 4.255
 -0.886 -1.583 4.259
 -0.873 -1.582 4.26
 -0.86 -1.582 4.262
 -0.847 -1.582 4.264
 -0.833 -1.58 4.261
 -0.82 -1.58 4.262
 -0.805 -1.577 4.257
 -0.792 -1.577 4.259
 -0.78 -1.578 4.262
 -0.767 -1.58 4.269
 -0.754 -1.579 4.268
 -0.742 -1.58 4.274
 -0.728 -1.579 4.271
 -0.713 -1.575 4.263
 -0.699 -1.573 4.259
 -0.685 -1.571 4.255
 -0.672 -1.569 4.251
 -0.658 -1.566 4.246
 -0.644 -1.565 4.244
 -0.631 -1.565 4.245
 -0.619 -1.565 4.247
 -0.606 -1.565 4.249
 -0.593 -1.566 4.252
 -0.581 -1.568 4.26
 -0.568 -1.567 4.257
 -0.555 -1.569 4.263
 -0.542 -1.568 4.262
 -0.53 -1.568 4.265
 -0.516 -1.566 4.26
 -0.503 -1.565 4.259
 -0.489 -1.564 4.255
 -0.476 -1.563 4.254
 -0.464 -1.563 4.256
 -0.451 -1.564 4.26
 -0.439 -1.565 4.264
 -0.426 -1.565 4.266
 -0.413 -1.565 4.265
 -0.399 -1.563 4.259
 -0.386 -1.562 4.258
 -0.373 -1.561 4.256
 -0.36 -1.559 4.251
 -0.347 -1.557 4.246
 -0.334 -1.557 4.248
 -0.321 -1.556 4.246
 -0.308 -1.556 4.247
 -0.296 -1.558 4.252
 -0.283 -1.56 4.259
 -0.27 -1.559 4.257
 -0.258 -1.559 4.256
 -0.245 -1.558 4.254
 -0.231 -1.555 4.246
 -0.219 -1.555 4.246
 -0.206 -1.556 4.249
 -0.193 -1.555 4.248
 -0.18 -1.555 4.248
 -0.168 -1.557 4.253
 -0.155 -1.555 4.248
 -0.142 -1.555 4.247
 -0.129 -1.556 4.251
 -0.117 -1.556 4.253
 -0.104 -1.557 4.253
 -0.091 -1.557 4.253
 -0.078 -1.555 4.25
 -0.066 -1.555 4.249
 -0.053 -1.555 4.249
 -0.04 -1.554 4.246
 -0.027 -1.554 4.247
 -0.015 -1.557 4.255
 -0.002 -1.557 4.253
 0.01 -1.557 4.255
 0.023 -1.557 4.254
 0.035 -1.558 4.256
 0.048 -1.555 4.249
 0.061 -1.555 4.247
 0.073 -1.554 4.245
 0.086 -1.556 4.248
 0.099 -1.554 4.244
 0.112 -1.553 4.24
 0.124 -1.552 4.237
 0.137 -1.551 4.234
 0.15 -1.553 4.238
 0.162 -1.553 4.238
 0.175 -1.554 4.24
 0.188 -1.556 4.244
 0.201 -1.555 4.241
 0.213 -1.553 4.235
 0.226 -1.554 4.237
 0.239 -1.555 4.24
 0.252 -1.555 4.24
 0.265 -1.556 4.242
 0.277 -1.555 4.237
 0.29 -1.555 4.236
 0.303 -1.555 4.236
 0.315 -1.556 4.238
 0.328 -1.557 4.239
 0.341 -1.558 4.242
 0.354 -1.557 4.238
 0.366 -1.556 4.234
 0.379 -1.557 4.234
 0.392 -1.555 4.229
 0.405 -1.556 4.231
 0.418 -1.558 4.234
 0.431 -1.56 4.239
 0.444 -1.56 4.237
 0.457 -1.561 4.24
 0.47 -1.563 4.243
 0.483 -1.563 4.242
 0.496 -1.563 4.24
 0.508 -1.563 4.239
 0.521 -1.563 4.237
 0.533 -1.56 4.228
 0.546 -1.561 4.227
 0.559 -1.562 4.229
 0.572 -1.563 4.232
 0.586 -1.566 4.236
 0.599 -1.567 4.239
 0.612 -1.568 4.24
 0.624 -1.565 4.23
 0.636 -1.563 4.222
 0.648 -1.562 4.219
 0.661 -1.562 4.215
 0.673 -1.561 4.21
 0.686 -1.562 4.212
 0.7 -1.565 4.218
 0.714 -1.566 4.22
 0.728 -1.568 4.224
 0.741 -1.57 4.226
 0.754 -1.57 4.225
 0.767 -1.571 4.224
 0.78 -1.571 4.221
 0.793 -1.571 4.22
 0.806 -1.572 4.219
 0.82 -1.573 4.221
 0.833 -1.574 4.22
 0.846 -1.575 4.22
 0.859 -1.574 4.217
 0.872 -1.576 4.219
 0.886 -1.578 4.221
 0.9 -1.578 4.221
 0.913 -1.58 4.223
 0.927 -1.582 4.224
 0.939 -1.58 4.218
 0.953 -1.581 4.218
 0.965 -1.58 4.213
 0.978 -1.581 4.211
 0.99 -1.579 4.204
 1.004 -1.582 4.208
 1.016 -1.58 4.202
 1.03 -1.582 4.202
 1.043 -1.581 4.198
 1.056 -1.582 4.197
 1.069 -1.582 4.194
 1.081 -1.581 4.187
 1.095 -1.582 4.188
 1.108 -1.583 4.186
 1.122 -1.585 4.189
 1.137 -1.587 4.191
 1.151 -1.589 4.194
 1.163 -1.588 4.188
 1.178 -1.59 4.19
 1.191 -1.59 4.187
 1.204 -1.591 4.185
 1.218 -1.592 4.186
 1.233 -1.594 4.187
 1.245 -1.594 4.183
 1.261 -1.597 4.187
 1.275 -1.598 4.187
 1.287 -1.598 4.182
 1.299 -1.597 4.176
 1.313 -1.597 4.174
 1.327 -1.599 4.174
 1.341 -1.6 4.174
 1.355 -1.602 4.173
 1.373 -1.607 4.183
 1.386 -1.607 4.181
 1.398 -1.605 4.171
 1.41 -1.604 4.164
 1.424 -1.606 4.165
 1.435 -1.603 4.154
 1.447 -1.603 4.148
 1.462 -1.605 4.149
 1.476 -1.605 4.147
 1.491 -1.607 4.147
 1.506 -1.61 4.15
 1.522 -1.613 4.154
 1.537 -1.615 4.154
 1.55 -1.615 4.149
 1.559 -1.61 4.132
 1.57 -1.608 4.122
 1.584 -1.61 4.122
 1.595 -1.608 4.112
 1.61 -1.609 4.111
 1.627 -1.613 4.116
 1.641 -1.614 4.115
 1.653 -1.613 4.106
 1.666 -1.613 4.102
 1.678 -1.612 4.093
 1.691 -1.612 4.089
 1.706 -1.613 4.088
 1.718 -1.613 4.081
 1.729 -1.611 4.072
 1.743 -1.611 4.068
 1.755 -1.61 4.059
 1.765 -1.608 4.048
 1.78 -1.61 4.048
 1.796 -1.613 4.05
 1.811 -1.614 4.047
 1.825 -1.615 4.045
 1.836 -1.613 4.034
 1.845 -1.609 4.02
 1.85 -1.603 3.997
 1.857 -1.598 3.979
 1.862 -1.59 3.956
 1.869 -1.586 3.939
 1.874 -1.579 3.916
 1.886 -1.578 3.909
 1.891 -1.572 3.888
 1.897 -1.566 3.867
 1.9 -1.559 3.843
 1.9 -1.549 3.812
 1.892 -1.532 3.765
 1.89 -1.52 3.731
 1.893 -1.513 3.707
 1.894 -1.504 3.679
 1.896 -1.496 3.654
 1.912 -1.499 3.655
 1.922 -1.498 3.646
 0 0 0
 0 0 0
 0 0 0
 0 0 0
 0 0 0
 0 0 0
 0 0 0
 0 0 0
 0 0 0
 0 0 0
 1.817 -1.324 3.164
 1.828 -1.324 3.158
 1.833 -1.321 3.144
 1.843 -1.32 3.136
 1.847 -1.316 3.121
 1.844 -1.306 3.092
 1.841 -1.296 3.063
 1.838 -1.287 3.035
 1.843 -1.283 3.02
 1.793 -1.241 2.917
 -2.343 -1.626 3.953
 -2.319 -1.618 3.942
 -2.298 -1.614 3.937
 -2.29 -1.617 3.952
 -2.274 -1.616 3.955
 -2.265 -1.619 3.97
 -2.252 -1.619 3.977
 -2.238 -1.619 3.983
 -2.223 -1.618 3.987
 -2.213 -1.62 3.999
 -2.2 -1.621 4.007
 -2.19 -1.623 4.019
 -2.176 -1.623 4.024
 -2.162 -1.623 4.031
 -2.144 -1.62 4.028
 -2.131 -1.62 4.036
 -2.118 -1.62 4.041
 -2.101 -1.618 4.042
 -2.09 -1.62 4.053
 -2.082 -1.624 4.069
 -2.064 -1.621 4.066
 -2.052 -1.622 4.075
 -2.039 -1.622 4.083
 -2.024 -1.621 4.084
 -2.005 -1.617 4.079
 -1.993 -1.618 4.088
 -1.98 -1.618 4.095
 -1.963 -1.616 4.094
 -1.949 -1.615 4.098
 -1.938 -1.618 4.11
 -1.921 -1.614 4.107
 -1.906 -1.613 4.109
 -1.895 -1.616 4.121
 -1.882 -1.615 4.125
 -1.866 -1.614 4.126
 -1.854 -1.615 4.135
 -1.84 -1.615 4.139
 -1.828 -1.616 4.147
 -1.813 -1.614 4.148
 -1.801 -1.616 4.156
 -1.787 -1.616 4.161
 -1.771 -1.613 4.159
 -1.756 -1.612 4.161
 -1.742 -1.611 4.164
 -1.729 -1.611 4.169
 -1.715 -1.611 4.174
 -1.705 -1.615 4.187
 -1.691 -1.614 4.19
 -1.676 -1.613 4.191
 -1.66 -1.61 4.188
 -1.644 -1.607 4.187
 -1.628 -1.605 4.183
 -1.612 -1.603 4.183
 -1.599 -1.603 4.188
 -1.585 -1.602 4.19
 -1.571 -1.602 4.193
 -1.556 -1.599 4.191
 -1.544 -1.601 4.2
 -1.533 -1.603 4.21
 -1.519 -1.603 4.212
 -1.504 -1.601 4.213
 -1.492 -1.603 4.22
 -1.476 -1.6 4.217
 -1.459 -1.596 4.211
 -1.445 -1.595 4.213
 -1.432 -1.596 4.217
 -1.419 -1.595 4.22
 -1.407 -1.597 4.229
 -1.395 -1.599 4.238
 -1.385 -1.602 4.25
 -1.373 -1.605 4.26
 -1.359 -1.604 4.26
 -1.344 -1.602 4.258
 -1.328 -1.598 4.252
 -1.312 -1.595 4.247
 -1.297 -1.593 4.245
 -1.282 -1.591 4.244
 -1.267 -1.588 4.24
 -1.253 -1.588 4.242
 -1.24 -1.588 4.245
 -1.225 -1.586 4.242
 -1.213 -1.587 4.249
 -1.2 -1.588 4.255
 -1.187 -1.588 4.258
 -1.173 -1.587 4.258
 -1.16 -1.587 4.261
 -1.145 -1.585 4.257
 -1.132 -1.584 4.259
 -1.117 -1.582 4.257
 -1.103 -1.581 4.256
 -1.089 -1.579 4.254
 -1.075 -1.579 4.256
 -1.062 -1.578 4.256
 -1.047 -1.577 4.255
 -1.035 -1.578 4.26
 -1.023 -1.58 4.269
 -1.01 -1.579 4.27
 -0.996 -1.578 4.269
 -0.983 -1.579 4.274
 -0.968 -1.576 4.268
 -0.953 -1.572 4.26
 -0.94 -1.573 4.264
 -0.926 -1.571 4.262
 -0.913 -1.57 4.262
 -0.9 -1.571 4.265
 -0.887 -1.572 4.27
 -0.874 -1.571 4.269
 -0.861 -1.571 4.271
 -0.847 -1.57 4.272
 -0.833 -1.569 4.269
 -0.821 -1.569 4.273
 -0.807 -1.567 4.27
 -0.794 -1.567 4.272
 -0.781 -1.568 4.275
 -0.768 -1.568 4.278
 -0.754 -1.567 4.275
 -0.743 -1.569 4.284
 -0.729 -1.567 4.28
 -0.714 -1.565 4.275
 -0.7 -1.562 4.27
 -0.687 -1.561 4.268
 -0.673 -1.559 4.265
 -0.66 -1.558 4.262
 -0.646 -1.556 4.26
 -0.634 -1.557 4.264
 -0.62 -1.556 4.261
 -0.607 -1.555 4.259
 -0.594 -1.555 4.262
 -0.581 -1.556 4.265
 -0.568 -1.555 4.264
 -0.556 -1.556 4.268
 -0.542 -1.555 4.267
 -0.529 -1.554 4.266
 -0.516 -1.553 4.264
 -0.502 -1.551 4.259
 -0.489 -1.549 4.256
 -0.476 -1.549 4.256
 -0.464 -1.55 4.261
 -0.451 -1.551 4.263
 -0.438 -1.552 4.268
 -0.426 -1.553 4.27
 -0.412 -1.551 4.265
 -0.399 -1.548 4.26
 -0.386 -1.547 4.258
 -0.373 -1.546 4.254
 -0.36 -1.545 4.252
 -0.346 -1.543 4.247
 -0.334 -1.543 4.25
 -0.321 -1.543 4.25
 -0.308 -1.542 4.248
 -0.295 -1.543 4.252
 -0.283 -1.547 4.261
 -0.27 -1.546 4.258
 -0.257 -1.545 4.256
 -0.245 -1.545 4.259
 -0.231 -1.543 4.252
 -0.218 -1.541 4.249
 -0.206 -1.542 4.25
 -0.193 -1.542 4.252
 -0.18 -1.54 4.247
 -0.167 -1.541 4.25
 -0.155 -1.541 4.25
 -0.142 -1.542 4.252
 -0.129 -1.543 4.255
 -0.117 -1.545 4.26
 -0.104 -1.546 4.264
 -0.091 -1.547 4.267
 -0.078 -1.545 4.261
 -0.066 -1.544 4.257
 -0.053 -1.543 4.255
 -0.04 -1.541 4.251
 -0.027 -1.54 4.248
 -0.015 -1.542 4.253
 -0.002 -1.542 4.252
 0.01 -1.543 4.254
 0.023 -1.543 4.255
 0.035 -1.544 4.256
 0.048 -1.543 4.254
 0.061 -1.543 4.255
 0.074 -1.542 4.252
 0.086 -1.544 4.255
 0.099 -1.543 4.253
 0.112 -1.541 4.246
 0.124 -1.539 4.241
 0.137 -1.539 4.239
 0.15 -1.54 4.242
 0.162 -1.54 4.241
 0.175 -1.54 4.242
 0.188 -1.542 4.246
 0.201 -1.541 4.243
 0.213 -1.54 4.238
 0.226 -1.541 4.243
 0.239 -1.543 4.247
 0.252 -1.543 4.245
 0.265 -1.544 4.246
 0.277 -1.543 4.244
 0.29 -1.543 4.242
 0.303 -1.543 4.242
 0.316 -1.545 4.245
 0.329 -1.545 4.244
 0.341 -1.545 4.245
 0.354 -1.545 4.242
 0.366 -1.544 4.239
 0.379 -1.544 4.238
 0.392 -1.545 4.239
 0.405 -1.546 4.241
 0.418 -1.546 4.241
 0.431 -1.548 4.245
 0.444 -1.548 4.243
 0.457 -1.548 4.243
 0.47 -1.549 4.243
 0.482 -1.548 4.239
 0.495 -1.548 4.237
 0.508 -1.549 4.24
 0.521 -1.549 4.237
 0.533 -1.548 4.233
 0.546 -1.55 4.236
 0.559 -1.55 4.236
 0.572 -1.55 4.234
 0.586 -1.552 4.239
 0.599 -1.552 4.238
 0.612 -1.554 4.24
 0.624 -1.552 4.233
 0.636 -1.551 4.229
 0.649 -1.551 4.226
 0.662 -1.552 4.227
 0.675 -1.551 4.223
 0.688 -1.553 4.226
 0.702 -1.555 4.23
 0.715 -1.556 4.23
 0.729 -1.558 4.233
 0.741 -1.557 4.231
 0.754 -1.557 4.228
 0.767 -1.558 4.227
 0.78 -1.558 4.226
 0.792 -1.557 4.221
 0.806 -1.558 4.222
 0.819 -1.56 4.223
 0.832 -1.56 4.222
 0.846 -1.562 4.225
 0.859 -1.562 4.222
 0.872 -1.563 4.223
 0.886 -1.564 4.223
 0.899 -1.564 4.221
 0.912 -1.564 4.219
 0.925 -1.566 4.221
 0.939 -1.566 4.22
 0.952 -1.567 4.218
 0.965 -1.567 4.215
 0.977 -1.567 4.212
 0.99 -1.566 4.209
 1.003 -1.567 4.207
 1.016 -1.567 4.205
 1.03 -1.568 4.206
 1.044 -1.57 4.206
 1.057 -1.57 4.205
 1.07 -1.57 4.202
 1.082 -1.569 4.196
 1.096 -1.57 4.196
 1.109 -1.571 4.194
 1.124 -1.574 4.199
 1.139 -1.577 4.205
 1.153 -1.579 4.206
 1.166 -1.579 4.202
 1.18 -1.58 4.203
 1.193 -1.581 4.2
 1.206 -1.58 4.196
 1.22 -1.581 4.195
 1.234 -1.583 4.195
 1.246 -1.582 4.189
 1.261 -1.584 4.193
 1.277 -1.587 4.198
 1.29 -1.588 4.195
 1.303 -1.588 4.191
 1.317 -1.589 4.192
 1.331 -1.59 4.191
 1.343 -1.589 4.184
 1.359 -1.592 4.188
 1.376 -1.597 4.195
 1.389 -1.597 4.192
 1.401 -1.596 4.186
 1.414 -1.595 4.18
 1.428 -1.597 4.18
 1.439 -1.595 4.17
 1.452 -1.594 4.165
 1.466 -1.595 4.164
 1.48 -1.597 4.163
 1.495 -1.598 4.163
 1.511 -1.602 4.167
 1.526 -1.604 4.168
 1.541 -1.605 4.168
 1.554 -1.606 4.164
 1.563 -1.601 4.148
 1.573 -1.599 4.136
 1.589 -1.601 4.139
 1.601 -1.6 4.132
 1.615 -1.601 4.129
 1.633 -1.606 4.136
 1.649 -1.608 4.137
 1.661 -1.607 4.13
 1.674 -1.607 4.126
 1.687 -1.607 4.12
 1.7 -1.607 4.114
 1.714 -1.607 4.111
 1.726 -1.607 4.105
 1.738 -1.606 4.098
 1.752 -1.606 4.093
 1.764 -1.605 4.085
 1.774 -1.603 4.073
 1.791 -1.606 4.076
 1.805 -1.607 4.073
 1.817 -1.606 4.065
 1.829 -1.605 4.057
 1.838 -1.602 4.044
 1.844 -1.595 4.022
 1.851 -1.59 4.004
 1.86 -1.586 3.989
 1.865 -1.58 3.967
 1.872 -1.575 3.949
 1.878 -1.569 3.929
 1.886 -1.565 3.913
 1.891 -1.559 3.892
 1.894 -1.551 3.867
 1.898 -1.544 3.844
 1.899 -1.535 3.814
 1.896 -1.522 3.777
 1.893 -1.51 3.741
 1.899 -1.505 3.722
 1.9 -1.496 3.695
 1.903 -1.489 3.671
 1.924 -1.496 3.683
 0 0 0
 0 0 0
 0 0 0
 0 0 0
 0 0 0
 0 0 0
 0 0 0
 0 0 0
 0 0 0
 0 0 0
 0 0 0
 1.812 -1.31 3.158
 1.827 -1.313 3.161
 1.833 -1.31 3.147
 1.841 -1.308 3.137
 1.847 -1.305 3.124
 1.845 -1.296 3.097
 1.84 -1.285 3.066
 1.836 -1.275 3.035
 1.833 -1.266 3.009
 1.833 -1.259 2.986
 -2.348 -1.615 3.966
 -2.356 -1.631 4.01
 -2.318 -1.614 3.975
 -2.307 -1.615 3.986
 -2.289 -1.612 3.986
 -2.279 -1.615 3.999
 -2.266 -1.616 4.007
 -2.252 -1.615 4.012
 -2.241 -1.617 4.024
 -2.234 -1.622 4.043
 -2.22 -1.622 4.049
 -2.208 -1.623 4.057
 -2.193 -1.622 4.062
 -2.176 -1.62 4.061
 -2.153 -1.613 4.05
 -2.142 -1.615 4.061
 -2.126 -1.613 4.063
 -2.113 -1.614 4.07
 -2.101 -1.615 4.079
 -2.094 -1.62 4.098
 -2.074 -1.615 4.092
 -2.063 -1.617 4.102
 -2.049 -1.616 4.107
 -2.034 -1.615 4.11
 -2.016 -1.612 4.108
 -2.006 -1.615 4.12
 -1.993 -1.616 4.128
 -1.974 -1.611 4.122
 -1.96 -1.611 4.126
 -1.949 -1.613 4.137
 -1.931 -1.609 4.133
 -1.916 -1.608 4.135
 -1.907 -1.612 4.15
 -1.893 -1.612 4.156
 -1.877 -1.61 4.155
 -1.866 -1.612 4.166
 -1.851 -1.611 4.169
 -1.84 -1.613 4.18
 -1.824 -1.611 4.178
 -1.812 -1.612 4.187
 -1.799 -1.612 4.192
 -1.782 -1.61 4.19
 -1.766 -1.608 4.19
 -1.752 -1.607 4.194
 -1.738 -1.606 4.196
 -1.724 -1.606 4.201
 -1.715 -1.611 4.217
 -1.7 -1.609 4.217
 -1.684 -1.607 4.216
 -1.669 -1.605 4.215
 -1.653 -1.603 4.214
 -1.635 -1.598 4.206
 -1.619 -1.596 4.204
 -1.607 -1.597 4.213
 -1.593 -1.597 4.216
 -1.577 -1.595 4.214
 -1.562 -1.593 4.213
 -1.552 -1.596 4.226
 -1.541 -1.599 4.237
 -1.525 -1.596 4.236
 -1.513 -1.597 4.242
 -1.501 -1.599 4.25
 -1.484 -1.595 4.245
 -1.466 -1.591 4.236
 -1.454 -1.591 4.241
 -1.44 -1.591 4.245
 -1.427 -1.592 4.25
 -1.416 -1.594 4.259
 -1.402 -1.594 4.264
 -1.39 -1.596 4.272
 -1.378 -1.597 4.278
 -1.363 -1.594 4.276
 -1.347 -1.592 4.273
 -1.332 -1.59 4.27
 -1.317 -1.588 4.268
 -1.302 -1.585 4.265
 -1.287 -1.584 4.265
 -1.271 -1.581 4.26
 -1.257 -1.58 4.26
 -1.243 -1.578 4.259
 -1.228 -1.577 4.257
 -1.215 -1.577 4.262
 -1.204 -1.579 4.271
 -1.19 -1.579 4.273
 -1.177 -1.579 4.276
 -1.163 -1.578 4.278
 -1.148 -1.576 4.273
 -1.134 -1.574 4.272
 -1.119 -1.572 4.27
 -1.105 -1.57 4.267
 -1.091 -1.57 4.268
 -1.078 -1.57 4.271
 -1.064 -1.569 4.27
 -1.051 -1.569 4.273
 -1.038 -1.57 4.279
 -1.025 -1.57 4.281
 -1.011 -1.569 4.281
 -0.998 -1.568 4.282
 -0.984 -1.568 4.283
 -0.97 -1.565 4.279
 -0.955 -1.562 4.273
 -0.942 -1.563 4.276
 -0.928 -1.561 4.274
 -0.915 -1.561 4.276
 -0.901 -1.56 4.276
 -0.889 -1.561 4.28
 -0.874 -1.559 4.275
 -0.861 -1.559 4.278
 -0.848 -1.558 4.278
 -0.834 -1.556 4.276
 -0.821 -1.556 4.278
 -0.807 -1.556 4.277
 -0.794 -1.555 4.278
 -0.78 -1.554 4.276
 -0.767 -1.554 4.279
 -0.754 -1.553 4.279
 -0.742 -1.555 4.286
 -0.729 -1.554 4.284
 -0.715 -1.553 4.282
 -0.701 -1.551 4.279
 -0.687 -1.549 4.275
 -0.674 -1.548 4.272
 -0.66 -1.546 4.269
 -0.646 -1.544 4.267
 -0.634 -1.545 4.27
 -0.62 -1.544 4.268
 -0.607 -1.542 4.263
 -0.594 -1.542 4.265
 -0.581 -1.543 4.27
 -0.568 -1.543 4.27
 -0.556 -1.543 4.273
 -0.543 -1.543 4.273
 -0.529 -1.542 4.272
 -0.516 -1.54 4.267
 -0.502 -1.539 4.265
 -0.489 -1.538 4.263
 -0.477 -1.538 4.265
 -0.464 -1.538 4.267
 -0.451 -1.539 4.268
 -0.438 -1.539 4.272
 -0.426 -1.54 4.275
 -0.413 -1.539 4.273
 -0.399 -1.538 4.269
 -0.386 -1.537 4.268
 -0.373 -1.534 4.262
 -0.36 -1.532 4.257
 -0.346 -1.53 4.251
 -0.333 -1.529 4.25
 -0.321 -1.529 4.25
 -0.308 -1.529 4.25
 -0.295 -1.53 4.253
 -0.283 -1.532 4.26
 -0.27 -1.532 4.259
 -0.257 -1.532 4.261
 -0.245 -1.533 4.265
 -0.231 -1.531 4.258
 -0.218 -1.529 4.254
 -0.206 -1.53 4.256
 -0.193 -1.529 4.255
 -0.18 -1.527 4.25
 -0.167 -1.529 4.254
 -0.155 -1.528 4.253
 -0.142 -1.529 4.257
 -0.129 -1.531 4.26
 -0.117 -1.532 4.264
 -0.104 -1.534 4.269
 -0.091 -1.535 4.272
 -0.078 -1.533 4.266
 -0.066 -1.531 4.262
 -0.053 -1.53 4.26
 -0.04 -1.528 4.252
 -0.027 -1.527 4.25
 -0.014 -1.529 4.255
 -0.002 -1.529 4.256
 0.01 -1.53 4.258
 0.023 -1.531 4.261
 0.036 -1.532 4.263
 0.048 -1.531 4.259
 0.061 -1.531 4.258
 0.074 -1.53 4.256
 0.086 -1.53 4.257
 0.099 -1.527 4.249
 0.112 -1.527 4.246
 0.124 -1.524 4.238
 0.137 -1.524 4.238
 0.15 -1.525 4.24
 0.162 -1.526 4.242
 0.175 -1.528 4.246
 0.188 -1.53 4.252
 0.201 -1.53 4.251
 0.214 -1.529 4.248
 0.227 -1.531 4.252
 0.239 -1.531 4.252
 0.252 -1.531 4.25
 0.265 -1.53 4.247
 0.277 -1.529 4.244
 0.29 -1.53 4.245
 0.303 -1.529 4.243
 0.316 -1.531 4.246
 0.328 -1.53 4.244
 0.341 -1.532 4.248
 0.354 -1.53 4.242
 0.367 -1.531 4.242
 0.379 -1.532 4.243
 0.393 -1.533 4.247
 0.405 -1.534 4.247
 0.419 -1.535 4.25
 0.432 -1.538 4.255
 0.445 -1.537 4.251
 0.457 -1.537 4.25
 0.47 -1.537 4.249
 0.482 -1.535 4.244
 0.495 -1.535 4.241
 0.509 -1.537 4.246
 0.521 -1.538 4.246
 0.534 -1.537 4.243
 0.547 -1.539 4.246
 0.56 -1.539 4.245
 0.573 -1.538 4.241
 0.586 -1.539 4.243
 0.599 -1.539 4.24
 0.612 -1.54 4.241
 0.624 -1.539 4.236
 0.636 -1.538 4.232
 0.649 -1.538 4.23
 0.662 -1.539 4.231
 0.674 -1.537 4.225
 0.687 -1.538 4.224
 0.701 -1.54 4.228
 0.714 -1.541 4.229
 0.728 -1.543 4.231
 0.741 -1.544 4.233
 0.755 -1.545 4.234
 0.767 -1.545 4.233
 0.781 -1.546 4.232
 0.793 -1.546 4.229
 0.806 -1.546 4.228
 0.819 -1.547 4.227
 0.832 -1.547 4.225
 0.846 -1.549 4.228
 0.859 -1.549 4.227
 0.873 -1.551 4.229
 0.886 -1.552 4.23
 0.899 -1.552 4.228
 0.912 -1.552 4.224
 0.925 -1.552 4.222
 0.938 -1.552 4.221
 0.951 -1.552 4.218
 0.964 -1.553 4.216
 0.977 -1.553 4.215
 0.989 -1.552 4.21
 1.003 -1.554 4.211
 1.017 -1.555 4.211
 1.031 -1.557 4.213
 1.045 -1.559 4.217
 1.059 -1.56 4.218
 1.072 -1.56 4.214
 1.084 -1.559 4.208
 1.098 -1.561 4.209
 1.11 -1.56 4.204
 1.126 -1.563 4.209
 1.14 -1.566 4.213
 1.155 -1.568 4.217
 1.167 -1.567 4.21
 1.182 -1.569 4.211
 1.194 -1.569 4.208
 1.208 -1.57 4.207
 1.222 -1.57 4.205
 1.235 -1.571 4.204
 1.248 -1.571 4.2
 1.262 -1.572 4.201
 1.276 -1.573 4.2
 1.289 -1.574 4.197
 1.303 -1.575 4.196
 1.317 -1.576 4.195
 1.332 -1.578 4.197
 1.345 -1.578 4.194
 1.361 -1.582 4.199
 1.377 -1.585 4.205
 1.392 -1.587 4.205
 1.405 -1.586 4.2
 1.417 -1.586 4.195
 1.431 -1.587 4.193
 1.443 -1.586 4.186
 1.457 -1.586 4.182
 1.471 -1.587 4.181
 1.486 -1.589 4.182
 1.501 -1.591 4.183
 1.515 -1.593 4.183
 1.529 -1.593 4.179
 1.543 -1.594 4.177
 1.555 -1.594 4.172
 1.565 -1.59 4.159
 1.577 -1.589 4.151
 1.594 -1.593 4.156
 1.607 -1.593 4.152
 1.622 -1.595 4.152
 1.639 -1.598 4.155
 1.654 -1.6 4.156
 1.667 -1.6 4.15
 1.679 -1.599 4.144
 1.691 -1.598 4.135
 1.704 -1.597 4.128
 1.719 -1.599 4.128
 1.731 -1.598 4.122
 1.744 -1.598 4.116
 1.761 -1.601 4.118
 1.774 -1.601 4.112
 1.784 -1.598 4.1
 1.8 -1.601 4.103
 1.814 -1.602 4.099
 1.824 -1.599 4.086
 1.834 -1.596 4.074
 1.844 -1.593 4.061
 1.848 -1.586 4.036
 1.855 -1.581 4.017
 1.862 -1.576 3.999
 1.867 -1.569 3.976
 1.873 -1.563 3.955
 1.88 -1.558 3.938
 1.886 -1.553 3.918
 1.892 -1.547 3.898
 1.893 -1.538 3.869
 1.896 -1.53 3.843
 1.897 -1.52 3.814
 1.895 -1.509 3.78
 1.891 -1.496 3.742
 1.898 -1.492 3.726
 1.902 -1.486 3.704
 1.897 -1.472 3.664
 0 0 0
 0 0 0
 0 0 0
 0 0 0
 0 0 0
 0 0 0
 0 0 0
 0 0 0
 0 0 0
 0 0 0
 0 0 0
 0 0 0
 1.81 -1.298 3.16
 1.827 -1.302 3.164
 1.836 -1.301 3.156
 1.843 -1.298 3.144
 1.846 -1.293 3.126
 1.846 -1.286 3.103
 1.843 -1.276 3.074
 1.836 -1.265 3.04
 1.819 -1.246 2.989
 1.848 -1.258 3.014
 0 0 0
 -2.321 -1.593 3.955
 -2.335 -1.612 4.01
 -2.328 -1.617 4.029
 -2.309 -1.613 4.025
 -2.298 -1.615 4.038
 -2.286 -1.616 4.047
 -2.274 -1.617 4.056
 -2.258 -1.616 4.06
 -2.253 -1.622 4.082
 -2.236 -1.62 4.083
 -2.221 -1.619 4.087
 -2.203 -1.616 4.084
 -2.188 -1.615 4.088
 -2.164 -1.608 4.076
 -2.153 -1.61 4.088
 -2.141 -1.611 4.096
 -2.128 -1.612 4.104
 -2.116 -1.613 4.114
 -2.107 -1.616 4.129
 -2.089 -1.613 4.125
 -2.076 -1.614 4.133
 -2.064 -1.615 4.142
 -2.047 -1.613 4.143
 -2.032 -1.611 4.144
 -2.021 -1.614 4.157
 -2.009 -1.615 4.165
 -1.988 -1.609 4.157
 -1.974 -1.609 4.161
 -1.964 -1.612 4.173
 -1.946 -1.609 4.171
 -1.93 -1.606 4.17
 -1.92 -1.609 4.183
 -1.905 -1.608 4.187
 -1.889 -1.606 4.186
 -1.877 -1.608 4.195
 -1.862 -1.607 4.198
 -1.851 -1.609 4.209
 -1.835 -1.607 4.21
 -1.822 -1.607 4.215
 -1.81 -1.609 4.224
 -1.793 -1.606 4.222
 -1.778 -1.604 4.222
 -1.764 -1.604 4.226
 -1.749 -1.603 4.228
 -1.734 -1.602 4.229
 -1.724 -1.605 4.244
 -1.709 -1.604 4.246
 -1.693 -1.601 4.242
 -1.677 -1.599 4.241
 -1.661 -1.597 4.24
 -1.644 -1.593 4.234
 -1.626 -1.59 4.229
 -1.614 -1.591 4.237
 -1.6 -1.59 4.238
 -1.584 -1.587 4.236
 -1.568 -1.586 4.235
 -1.558 -1.588 4.246
 -1.546 -1.591 4.257
 -1.531 -1.589 4.257
 -1.519 -1.591 4.265
 -1.506 -1.591 4.27
 -1.491 -1.589 4.268
 -1.473 -1.585 4.261
 -1.459 -1.584 4.262
 -1.444 -1.582 4.262
 -1.431 -1.582 4.265
 -1.418 -1.583 4.271
 -1.404 -1.582 4.273
 -1.393 -1.585 4.283
 -1.38 -1.585 4.288
 -1.364 -1.583 4.286
 -1.35 -1.582 4.285
 -1.335 -1.58 4.285
 -1.32 -1.578 4.282
 -1.305 -1.576 4.28
 -1.29 -1.574 4.279
 -1.275 -1.572 4.276
 -1.26 -1.57 4.273
 -1.245 -1.569 4.273
 -1.23 -1.566 4.268
 -1.218 -1.567 4.274
 -1.205 -1.567 4.279
 -1.191 -1.567 4.282
 -1.178 -1.567 4.283
 -1.166 -1.569 4.291
 -1.15 -1.566 4.286
 -1.135 -1.563 4.282
 -1.121 -1.561 4.28
 -1.106 -1.559 4.275
 -1.091 -1.557 4.272
 -1.078 -1.557 4.276
 -1.064 -1.556 4.276
 -1.051 -1.557 4.28
 -1.039 -1.558 4.286
 -1.027 -1.559 4.291
 -1.012 -1.557 4.29
 -0.999 -1.558 4.293
 -0.986 -1.557 4.294
 -0.972 -1.556 4.292
 -0.956 -1.552 4.283
 -0.943 -1.551 4.284
 -0.928 -1.549 4.28
 -0.915 -1.548 4.279
 -0.901 -1.546 4.278
 -0.888 -1.547 4.282
 -0.874 -1.545 4.279
 -0.861 -1.545 4.281
 -0.848 -1.545 4.283
 -0.834 -1.545 4.283
 -0.821 -1.544 4.284
 -0.808 -1.543 4.284
 -0.794 -1.543 4.284
 -0.78 -1.541 4.281
 -0.767 -1.54 4.281
 -0.754 -1.541 4.284
 -0.742 -1.542 4.29
 -0.729 -1.542 4.289
 -0.715 -1.541 4.289
 -0.702 -1.54 4.288
 -0.688 -1.538 4.283
 -0.674 -1.536 4.28
 -0.661 -1.535 4.28
 -0.647 -1.534 4.277
 -0.635 -1.534 4.28
 -0.621 -1.534 4.279
 -0.608 -1.533 4.278
 -0.594 -1.531 4.275
 -0.582 -1.532 4.278
 -0.568 -1.529 4.272
 -0.555 -1.53 4.276
 -0.542 -1.529 4.274
 -0.529 -1.528 4.273
 -0.515 -1.527 4.27
 -0.503 -1.526 4.27
 -0.489 -1.525 4.268
 -0.476 -1.525 4.269
 -0.464 -1.526 4.271
 -0.451 -1.526 4.273
 -0.439 -1.528 4.28
 -0.426 -1.528 4.28
 -0.413 -1.528 4.28
 -0.4 -1.526 4.277
 -0.386 -1.525 4.274
 -0.373 -1.522 4.266
 -0.36 -1.52 4.262
 -0.346 -1.517 4.254
 -0.333 -1.516 4.254
 -0.321 -1.517 4.255
 -0.308 -1.516 4.252
 -0.295 -1.517 4.257
 -0.283 -1.519 4.263
 -0.27 -1.519 4.265
 -0.257 -1.52 4.268
 -0.245 -1.522 4.274
 -0.232 -1.52 4.267
 -0.219 -1.518 4.262
 -0.206 -1.517 4.261
 -0.193 -1.517 4.26
 -0.18 -1.516 4.257
 -0.167 -1.516 4.259
 -0.155 -1.516 4.259
 -0.142 -1.519 4.268
 -0.129 -1.52 4.27
 -0.117 -1.521 4.272
 -0.104 -1.522 4.276
 -0.091 -1.523 4.278
 -0.078 -1.519 4.267
 -0.065 -1.518 4.263
 -0.053 -1.517 4.261
 -0.04 -1.515 4.255
 -0.027 -1.514 4.252
 -0.014 -1.515 4.256
 -0.002 -1.516 4.258
 0.01 -1.516 4.257
 0.023 -1.516 4.258
 0.036 -1.517 4.26
 0.048 -1.516 4.257
 0.061 -1.516 4.258
 0.074 -1.515 4.255
 0.086 -1.516 4.257
 0.099 -1.515 4.252
 0.112 -1.514 4.25
 0.124 -1.511 4.241
 0.137 -1.512 4.242
 0.15 -1.512 4.242
 0.162 -1.513 4.244
 0.175 -1.514 4.248
 0.188 -1.516 4.253
 0.201 -1.515 4.25
 0.214 -1.515 4.25
 0.226 -1.517 4.253
 0.239 -1.517 4.251
 0.252 -1.516 4.248
 0.265 -1.516 4.249
 0.277 -1.515 4.243
 0.29 -1.515 4.245
 0.303 -1.516 4.246
 0.316 -1.517 4.248
 0.328 -1.516 4.244
 0.341 -1.518 4.249
 0.353 -1.516 4.241
 0.366 -1.517 4.244
 0.379 -1.518 4.245
 0.393 -1.521 4.252
 0.406 -1.521 4.251
 0.419 -1.523 4.257
 0.432 -1.525 4.261
 0.445 -1.524 4.257
 0.457 -1.524 4.254
 0.47 -1.525 4.255
 0.482 -1.522 4.247
 0.495 -1.521 4.241
 0.508 -1.523 4.247
 0.521 -1.524 4.247
 0.534 -1.524 4.245
 0.548 -1.526 4.251
 0.56 -1.526 4.248
 0.573 -1.525 4.245
 0.586 -1.526 4.246
 0.598 -1.525 4.241
 0.611 -1.526 4.241
 0.623 -1.525 4.236
 0.636 -1.524 4.233
 0.649 -1.524 4.23
 0.662 -1.525 4.23
 0.674 -1.523 4.224
 0.687 -1.524 4.224
 0.7 -1.526 4.228
 0.714 -1.528 4.233
 0.728 -1.53 4.236
 0.741 -1.531 4.236
 0.754 -1.532 4.237
 0.768 -1.533 4.237
 0.781 -1.533 4.236
 0.793 -1.533 4.233
 0.807 -1.534 4.235
 0.82 -1.535 4.234
 0.833 -1.534 4.231
 0.846 -1.535 4.231
 0.859 -1.536 4.231
 0.872 -1.536 4.229
 0.886 -1.538 4.231
 0.899 -1.538 4.228
 0.91 -1.536 4.22
 0.923 -1.535 4.216
 0.937 -1.537 4.218
 0.95 -1.538 4.219
 0.964 -1.539 4.218
 0.977 -1.54 4.218
 0.991 -1.541 4.219
 1.003 -1.541 4.215
 1.017 -1.542 4.214
 1.031 -1.544 4.218
 1.046 -1.547 4.222
 1.06 -1.549 4.225
 1.074 -1.55 4.225
 1.086 -1.549 4.221
 1.099 -1.55 4.218
 1.113 -1.551 4.218
 1.128 -1.553 4.222
 1.142 -1.555 4.223
 1.156 -1.556 4.224
 1.17 -1.557 4.222
 1.183 -1.557 4.219
 1.196 -1.558 4.218
 1.21 -1.559 4.218
 1.223 -1.558 4.213
 1.236 -1.559 4.211
 1.25 -1.56 4.21
 1.262 -1.559 4.204
 1.276 -1.56 4.203
 1.289 -1.56 4.2
 1.303 -1.561 4.2
 1.316 -1.562 4.196
 1.331 -1.564 4.199
 1.344 -1.564 4.196
 1.36 -1.568 4.201
 1.376 -1.57 4.203
 1.39 -1.571 4.203
 1.403 -1.572 4.2
 1.416 -1.571 4.194
 1.431 -1.573 4.196
 1.444 -1.574 4.193
 1.457 -1.574 4.189
 1.471 -1.574 4.186
 1.487 -1.577 4.19
 1.499 -1.577 4.184
 1.514 -1.578 4.184
 1.528 -1.579 4.183
 1.544 -1.582 4.184
 1.558 -1.582 4.181
 1.569 -1.581 4.172
 1.582 -1.58 4.166
 1.597 -1.583 4.169
 1.61 -1.582 4.162
 1.624 -1.583 4.159
 1.64 -1.586 4.162
 1.656 -1.589 4.165
 1.67 -1.589 4.162
 1.684 -1.59 4.158
 1.697 -1.59 4.153
 1.71 -1.589 4.147
 1.724 -1.59 4.145
 1.737 -1.59 4.139
 1.751 -1.591 4.135
 1.767 -1.593 4.136
 1.782 -1.595 4.136
 1.792 -1.592 4.124
 1.808 -1.595 4.125
 1.82 -1.594 4.117
 1.829 -1.59 4.101
 1.838 -1.586 4.087
 1.848 -1.584 4.075
 1.852 -1.576 4.049
 1.86 -1.571 4.032
 1.867 -1.566 4.013
 1.871 -1.559 3.989
 1.875 -1.551 3.964
 1.882 -1.547 3.947
 1.886 -1.54 3.923
 1.893 -1.535 3.906
 1.895 -1.527 3.878
 1.899 -1.52 3.854
 1.903 -1.512 3.83
 1.904 -1.504 3.802
 1.898 -1.489 3.76
 1.91 -1.489 3.754
 1.918 -1.485 3.739
 0 0 0
 0 0 0
 0 0 0
 0 0 0
 0 0 0
 0 0 0
 0 0 0
 0 0 0
 0 0 0
 0 0 0
 0 0 0
 0 0 0
 0 0 0
 0 0 0
 1.827 -1.291 3.169
 1.836 -1.29 3.161
 1.842 -1.287 3.147
 1.844 -1.281 3.126
 1.847 -1.275 3.107
 1.846 -1.268 3.082
 1.842 -1.257 3.052
 1.862 -1.264 3.063
 1.806 -1.22 2.949
 -2.368 -1.602 4.011
 -2.402 -1.635 4.099
 -2.36 -1.616 4.058
 -2.35 -1.618 4.071
 -2.328 -1.613 4.064
 -2.314 -1.612 4.07
 -2.302 -1.614 4.081
 -2.285 -1.612 4.082
 -2.273 -1.613 4.091
 -2.266 -1.618 4.11
 -2.25 -1.616 4.113
 -2.235 -1.615 4.117
 -2.219 -1.614 4.119
 -2.204 -1.613 4.123
 -2.181 -1.607 4.113
 -2.171 -1.609 4.126
 -2.159 -1.61 4.135
 -2.147 -1.612 4.145
 -2.134 -1.612 4.152
 -2.124 -1.616 4.168
 -2.106 -1.612 4.164
 -2.092 -1.612 4.171
 -2.078 -1.612 4.176
 -2.063 -1.611 4.178
 -2.048 -1.61 4.183
 -2.037 -1.613 4.195
 -2.024 -1.613 4.202
 -2.005 -1.609 4.197
 -1.991 -1.609 4.202
 -1.976 -1.608 4.205
 -1.958 -1.605 4.202
 -1.942 -1.603 4.202
 -1.931 -1.605 4.213
 -1.916 -1.604 4.215
 -1.902 -1.604 4.221
 -1.89 -1.605 4.229
 -1.874 -1.603 4.23
 -1.861 -1.604 4.236
 -1.848 -1.604 4.243
 -1.833 -1.604 4.246
 -1.821 -1.605 4.254
 -1.805 -1.603 4.254
 -1.789 -1.601 4.253
 -1.773 -1.599 4.253
 -1.759 -1.599 4.257
 -1.744 -1.597 4.258
 -1.732 -1.599 4.268
 -1.717 -1.598 4.269
 -1.7 -1.595 4.265
 -1.683 -1.591 4.26
 -1.667 -1.589 4.259
 -1.65 -1.586 4.254
 -1.634 -1.583 4.253
 -1.62 -1.583 4.256
 -1.606 -1.583 4.259
 -1.59 -1.58 4.256
 -1.575 -1.58 4.259
 -1.563 -1.581 4.267
 -1.553 -1.585 4.281
 -1.538 -1.582 4.279
 -1.525 -1.583 4.285
 -1.511 -1.583 4.288
 -1.495 -1.58 4.285
 -1.477 -1.575 4.276
 -1.463 -1.574 4.277
 -1.447 -1.572 4.274
 -1.434 -1.572 4.279
 -1.421 -1.573 4.284
 -1.407 -1.572 4.286
 -1.396 -1.575 4.297
 -1.382 -1.575 4.302
 -1.368 -1.574 4.301
 -1.354 -1.573 4.302
 -1.34 -1.573 4.305
 -1.324 -1.569 4.299
 -1.308 -1.567 4.297
 -1.293 -1.564 4.292
 -1.277 -1.561 4.288
 -1.261 -1.558 4.283
 -1.246 -1.557 4.281
 -1.231 -1.554 4.277
 -1.218 -1.555 4.282
 -1.207 -1.557 4.29
 -1.193 -1.556 4.291
 -1.179 -1.555 4.291
 -1.166 -1.556 4.297
 -1.151 -1.554 4.294
 -1.136 -1.551 4.288
 -1.121 -1.549 4.285
 -1.106 -1.546 4.282
 -1.093 -1.546 4.283
 -1.079 -1.545 4.285
 -1.065 -1.544 4.285
 -1.052 -1.545 4.289
 -1.041 -1.547 4.297
 -1.028 -1.548 4.301
 -1.014 -1.546 4.3
 -1 -1.546 4.301
 -0.987 -1.546 4.305
 -0.973 -1.544 4.302
 -0.957 -1.54 4.291
 -0.943 -1.539 4.291
 -0.929 -1.537 4.288
 -0.915 -1.535 4.284
 -0.901 -1.533 4.282
 -0.888 -1.535 4.288
 -0.875 -1.533 4.286
 -0.861 -1.533 4.288
 -0.849 -1.534 4.292
 -0.835 -1.532 4.289
 -0.821 -1.531 4.288
 -0.808 -1.53 4.288
 -0.794 -1.529 4.285
 -0.78 -1.527 4.282
 -0.767 -1.527 4.283
 -0.754 -1.527 4.286
 -0.741 -1.528 4.289
 -0.728 -1.527 4.289
 -0.715 -1.527 4.289
 -0.701 -1.526 4.289
 -0.687 -1.523 4.282
 -0.673 -1.521 4.28
 -0.661 -1.522 4.283
 -0.647 -1.52 4.279
 -0.634 -1.52 4.281
 -0.622 -1.522 4.286
 -0.609 -1.521 4.287
 -0.595 -1.519 4.282
 -0.582 -1.52 4.287
 -0.568 -1.518 4.28
 -0.555 -1.516 4.276
 -0.542 -1.515 4.274
 -0.528 -1.514 4.273
 -0.515 -1.513 4.271
 -0.502 -1.513 4.272
 -0.489 -1.512 4.271
 -0.476 -1.51 4.267
 -0.463 -1.511 4.269
 -0.45 -1.51 4.27
 -0.438 -1.512 4.274
 -0.425 -1.512 4.277
 -0.413 -1.514 4.281
 -0.4 -1.513 4.282
 -0.386 -1.512 4.279
 -0.373 -1.51 4.274
 -0.36 -1.509 4.27
 -0.347 -1.506 4.264
 -0.333 -1.504 4.259
 -0.321 -1.504 4.26
 -0.308 -1.503 4.258
 -0.295 -1.505 4.262
 -0.283 -1.506 4.266
 -0.27 -1.507 4.271
 -0.257 -1.508 4.274
 -0.245 -1.511 4.281
 -0.232 -1.509 4.276
 -0.219 -1.507 4.271
 -0.206 -1.505 4.267
 -0.193 -1.505 4.267
 -0.18 -1.503 4.261
 -0.167 -1.502 4.259
 -0.154 -1.503 4.26
 -0.142 -1.505 4.267
 -0.129 -1.505 4.268
 -0.116 -1.506 4.27
 -0.104 -1.508 4.277
 -0.091 -1.509 4.278
 -0.078 -1.505 4.269
 -0.065 -1.503 4.262
 -0.053 -1.502 4.261
 -0.04 -1.499 4.25
 -0.027 -1.498 4.247
 -0.014 -1.499 4.252
 -0.002 -1.501 4.256
 0.01 -1.5 4.253
 0.023 -1.501 4.257
 0.036 -1.502 4.259
 0.048 -1.502 4.259
 0.061 -1.503 4.261
 0.074 -1.503 4.261
 0.087 -1.504 4.263
 0.099 -1.501 4.255
 0.112 -1.5 4.252
 0.124 -1.497 4.242
 0.137 -1.498 4.242
 0.149 -1.497 4.241
 0.162 -1.5 4.247
 0.175 -1.501 4.249
 0.188 -1.503 4.255
 0.201 -1.502 4.252
 0.214 -1.502 4.252
 0.226 -1.503 4.253
 0.239 -1.503 4.253
 0.252 -1.501 4.247
 0.264 -1.501 4.245
 0.277 -1.501 4.246
 0.29 -1.503 4.25
 0.303 -1.503 4.25
 0.316 -1.505 4.254
 0.328 -1.504 4.251
 0.341 -1.506 4.254
 0.354 -1.504 4.247
 0.366 -1.503 4.245
 0.379 -1.504 4.244
 0.393 -1.507 4.252
 0.405 -1.507 4.251
 0.419 -1.509 4.257
 0.432 -1.513 4.265
 0.445 -1.513 4.265
 0.458 -1.512 4.262
 0.471 -1.513 4.261
 0.482 -1.509 4.25
 0.494 -1.507 4.242
 0.508 -1.51 4.25
 0.521 -1.51 4.248
 0.534 -1.511 4.249
 0.548 -1.514 4.257
 0.561 -1.515 4.256
 0.573 -1.513 4.251
 0.586 -1.515 4.254
 0.599 -1.514 4.249
 0.611 -1.513 4.247
 0.624 -1.512 4.241
 0.636 -1.511 4.235
 0.649 -1.511 4.233
 0.661 -1.51 4.23
 0.673 -1.509 4.226
 0.687 -1.512 4.23
 0.701 -1.514 4.236
 0.715 -1.516 4.24
 0.729 -1.518 4.243
 0.741 -1.518 4.239
 0.754 -1.518 4.239
 0.767 -1.518 4.236
 0.779 -1.517 4.232
 0.792 -1.517 4.23
 0.807 -1.521 4.237
 0.819 -1.521 4.235
 0.833 -1.521 4.234
 0.847 -1.524 4.239
 0.861 -1.525 4.241
 0.873 -1.524 4.235
 0.886 -1.526 4.236
 0.899 -1.525 4.233
 0.91 -1.522 4.223
 0.922 -1.521 4.217
 0.936 -1.523 4.219
 0.95 -1.525 4.222
 0.964 -1.526 4.223
 0.978 -1.528 4.226
 0.992 -1.53 4.229
 1.006 -1.531 4.229
 1.019 -1.531 4.226
 1.033 -1.534 4.229
 1.047 -1.535 4.232
 1.061 -1.537 4.232
 1.074 -1.537 4.23
 1.088 -1.539 4.231
 1.1 -1.538 4.226
 1.114 -1.538 4.225
 1.129 -1.541 4.23
 1.143 -1.543 4.23
 1.156 -1.542 4.226
 1.169 -1.543 4.225
 1.183 -1.544 4.223
 1.195 -1.544 4.219
 1.209 -1.544 4.218
 1.222 -1.544 4.214
 1.236 -1.545 4.214
 1.249 -1.546 4.211
 1.261 -1.545 4.205
 1.276 -1.547 4.206
 1.289 -1.547 4.203
 1.303 -1.548 4.203
 1.316 -1.548 4.2
 1.331 -1.55 4.201
 1.344 -1.55 4.198
 1.36 -1.553 4.202
 1.373 -1.554 4.2
 1.388 -1.556 4.202
 1.404 -1.559 4.205
 1.417 -1.56 4.203
 1.433 -1.563 4.207
 1.447 -1.564 4.206
 1.461 -1.564 4.203
 1.473 -1.563 4.196
 1.488 -1.565 4.196
 1.501 -1.564 4.191
 1.515 -1.566 4.191
 1.529 -1.567 4.188
 1.544 -1.569 4.19
 1.559 -1.57 4.189
 1.571 -1.569 4.182
 1.585 -1.57 4.179
 1.6 -1.572 4.179
 1.612 -1.571 4.173
 1.627 -1.573 4.172
 1.642 -1.574 4.172
 1.658 -1.577 4.173
 1.672 -1.577 4.17
 1.686 -1.578 4.167
 1.699 -1.578 4.162
 1.711 -1.577 4.155
 1.726 -1.579 4.154
 1.739 -1.579 4.149
 1.753 -1.579 4.145
 1.769 -1.582 4.146
 1.786 -1.585 4.149
 1.797 -1.583 4.139
 1.813 -1.586 4.141
 1.826 -1.586 4.135
 1.834 -1.58 4.116
 1.84 -1.575 4.096
 1.85 -1.572 4.084
 1.853 -1.564 4.056
 1.861 -1.559 4.039
 1.868 -1.554 4.019
 1.872 -1.547 3.995
 1.876 -1.539 3.97
 1.882 -1.534 3.951
 1.884 -1.525 3.923
 1.893 -1.522 3.909
 1.897 -1.515 3.886
 1.902 -1.509 3.864
 1.906 -1.503 3.842
 1.905 -1.492 3.809
 1.895 -1.474 3.757
 1.907 -1.474 3.751
 0 0 0
 0 0 0
 0 0 0
 0 0 0
 0 0 0
 0 0 0
 0 0 0
 0 0 0
 0 0 0
 0 0 0
 0 0 0
 0 0 0
 0 0 0
 0 0 0
 0 0 0
 1.815 -1.272 3.151
 1.832 -1.277 3.158
 1.836 -1.272 3.14
 1.839 -1.267 3.121
 1.843 -1.262 3.105
 1.845 -1.256 3.085
 1.839 -1.245 3.051
 1.82 -1.225 2.997
 1.822 -1.22 2.978
 0 0 0
 -2.391 -1.613 4.086
 -2.382 -1.617 4.101
 -2.37 -1.618 4.111
 -2.349 -1.613 4.105
 -2.333 -1.612 4.108
 -2.318 -1.611 4.114
 -2.307 -1.613 4.125
 -2.293 -1.613 4.131
 -2.284 -1.616 4.147
 -2.267 -1.615 4.15
 -2.251 -1.613 4.152
 -2.233 -1.61 4.15
 -2.218 -1.609 4.155
 -2.196 -1.603 4.145
 -2.184 -1.605 4.155
 -2.173 -1.607 4.167
 -2.159 -1.607 4.174
 -2.143 -1.606 4.176
 -2.135 -1.61 4.193
 -2.118 -1.607 4.192
 -2.104 -1.607 4.198
 -2.088 -1.606 4.201
 -2.075 -1.607 4.208
 -2.059 -1.605 4.21
 -2.045 -1.605 4.216
 -2.03 -1.605 4.22
 -2.013 -1.602 4.218
 -1.999 -1.601 4.222
 -1.983 -1.6 4.225
 -1.969 -1.6 4.23
 -1.954 -1.599 4.232
 -1.944 -1.602 4.246
 -1.927 -1.599 4.244
 -1.914 -1.6 4.253
 -1.899 -1.599 4.254
 -1.884 -1.598 4.256
 -1.868 -1.596 4.258
 -1.857 -1.599 4.27
 -1.843 -1.599 4.274
 -1.83 -1.599 4.28
 -1.813 -1.597 4.278
 -1.797 -1.594 4.277
 -1.78 -1.592 4.275
 -1.764 -1.589 4.274
 -1.748 -1.588 4.274
 -1.735 -1.588 4.28
 -1.722 -1.589 4.285
 -1.703 -1.584 4.279
 -1.686 -1.581 4.275
 -1.672 -1.581 4.278
 -1.656 -1.578 4.274
 -1.639 -1.575 4.271
 -1.625 -1.575 4.275
 -1.612 -1.575 4.28
 -1.595 -1.572 4.274
 -1.582 -1.573 4.282
 -1.569 -1.573 4.288
 -1.559 -1.576 4.3
 -1.543 -1.574 4.298
 -1.53 -1.575 4.305
 -1.515 -1.573 4.304
 -1.5 -1.572 4.303
 -1.481 -1.566 4.293
 -1.467 -1.565 4.294
 -1.452 -1.565 4.295
 -1.438 -1.564 4.297
 -1.424 -1.563 4.299
 -1.409 -1.562 4.299
 -1.396 -1.562 4.302
 -1.381 -1.56 4.302
 -1.366 -1.559 4.301
 -1.352 -1.557 4.3
 -1.338 -1.557 4.303
 -1.323 -1.555 4.301
 -1.307 -1.552 4.295
 -1.29 -1.548 4.289
 -1.276 -1.547 4.289
 -1.261 -1.545 4.287
 -1.246 -1.543 4.284
 -1.232 -1.542 4.284
 -1.219 -1.543 4.29
 -1.206 -1.543 4.293
 -1.191 -1.54 4.288
 -1.177 -1.54 4.29
 -1.164 -1.54 4.293
 -1.149 -1.538 4.291
 -1.134 -1.535 4.286
 -1.12 -1.535 4.287
 -1.106 -1.533 4.284
 -1.093 -1.533 4.288
 -1.079 -1.532 4.289
 -1.066 -1.532 4.29
 -1.053 -1.533 4.296
 -1.041 -1.534 4.302
 -1.027 -1.534 4.304
 -1.014 -1.534 4.305
 -1.001 -1.534 4.309
 -0.987 -1.533 4.308
 -0.973 -1.531 4.305
 -0.957 -1.527 4.296
 -0.943 -1.526 4.295
 -0.929 -1.524 4.293
 -0.915 -1.523 4.29
 -0.901 -1.521 4.288
 -0.888 -1.522 4.292
 -0.874 -1.52 4.29
 -0.86 -1.518 4.286
 -0.847 -1.518 4.289
 -0.833 -1.516 4.285
 -0.82 -1.516 4.286
 -0.807 -1.517 4.289
 -0.794 -1.516 4.29
 -0.78 -1.515 4.289
 -0.767 -1.515 4.291
 -0.755 -1.516 4.295
 -0.741 -1.515 4.295
 -0.728 -1.515 4.295
 -0.715 -1.515 4.296
 -0.702 -1.514 4.297
 -0.688 -1.512 4.291
 -0.674 -1.51 4.287
 -0.661 -1.51 4.29
 -0.647 -1.507 4.282
 -0.634 -1.507 4.285
 -0.621 -1.508 4.289
 -0.608 -1.508 4.288
 -0.594 -1.506 4.284
 -0.582 -1.507 4.289
 -0.568 -1.504 4.282
 -0.555 -1.502 4.278
 -0.542 -1.502 4.278
 -0.528 -1.501 4.277
 -0.515 -1.5 4.276
 -0.502 -1.5 4.276
 -0.489 -1.499 4.276
 -0.476 -1.499 4.274
 -0.464 -1.5 4.279
 -0.45 -1.499 4.276
 -0.438 -1.5 4.28
 -0.425 -1.499 4.28
 -0.412 -1.5 4.282
 -0.399 -1.498 4.279
 -0.386 -1.498 4.28
 -0.373 -1.496 4.274
 -0.36 -1.495 4.271
 -0.346 -1.492 4.265
 -0.333 -1.491 4.261
 -0.32 -1.491 4.261
 -0.307 -1.49 4.261
 -0.295 -1.491 4.263
 -0.282 -1.492 4.267
 -0.27 -1.494 4.273
 -0.257 -1.495 4.276
 -0.245 -1.497 4.282
 -0.232 -1.496 4.281
 -0.219 -1.494 4.274
 -0.206 -1.491 4.268
 -0.193 -1.492 4.268
 -0.18 -1.49 4.264
 -0.167 -1.488 4.259
 -0.154 -1.489 4.263
 -0.142 -1.492 4.27
 -0.129 -1.491 4.269
 -0.116 -1.492 4.27
 -0.104 -1.493 4.275
 -0.091 -1.494 4.278
 -0.078 -1.492 4.271
 -0.065 -1.49 4.266
 -0.052 -1.49 4.266
 -0.04 -1.487 4.256
 -0.027 -1.486 4.253
 -0.014 -1.486 4.255
 -0.002 -1.488 4.258
 0.01 -1.487 4.255
 0.023 -1.489 4.263
 0.036 -1.49 4.263
 0.048 -1.49 4.264
 0.061 -1.491 4.266
 0.074 -1.491 4.265
 0.087 -1.491 4.265
 0.099 -1.488 4.256
 0.112 -1.487 4.253
 0.124 -1.485 4.248
 0.137 -1.486 4.248
 0.15 -1.485 4.246
 0.163 -1.488 4.254
 0.175 -1.488 4.255
 0.188 -1.49 4.259
 0.201 -1.49 4.258
 0.214 -1.489 4.255
 0.226 -1.489 4.254
 0.239 -1.489 4.254
 0.251 -1.487 4.247
 0.264 -1.487 4.245
 0.277 -1.488 4.248
 0.29 -1.49 4.253
 0.303 -1.491 4.254
 0.316 -1.493 4.258
 0.329 -1.492 4.256
 0.342 -1.494 4.26
 0.354 -1.492 4.255
 0.367 -1.492 4.252
 0.379 -1.492 4.251
 0.393 -1.494 4.256
 0.405 -1.493 4.252
 0.418 -1.495 4.256
 0.432 -1.497 4.262
 0.445 -1.498 4.263
 0.458 -1.499 4.264
 0.471 -1.499 4.263
 0.483 -1.497 4.255
 0.495 -1.496 4.25
 0.508 -1.497 4.252
 0.52 -1.495 4.247
 0.533 -1.495 4.245
 0.547 -1.498 4.25
 0.559 -1.497 4.247
 0.572 -1.498 4.248
 0.586 -1.5 4.252
 0.599 -1.5 4.251
 0.611 -1.5 4.25
 0.624 -1.5 4.246
 0.636 -1.498 4.24
 0.648 -1.497 4.235
 0.661 -1.497 4.233
 0.674 -1.497 4.23
 0.687 -1.499 4.234
 0.701 -1.5 4.236
 0.715 -1.503 4.243
 0.728 -1.504 4.243
 0.741 -1.504 4.242
 0.754 -1.505 4.241
 0.767 -1.505 4.24
 0.779 -1.504 4.234
 0.792 -1.504 4.231
 0.805 -1.505 4.233
 0.818 -1.505 4.23
 0.831 -1.505 4.23
 0.845 -1.507 4.232
 0.858 -1.509 4.234
 0.872 -1.51 4.234
 0.886 -1.511 4.237
 0.899 -1.512 4.236
 0.91 -1.51 4.227
 0.923 -1.51 4.224
 0.936 -1.51 4.223
 0.95 -1.511 4.224
 0.963 -1.512 4.224
 0.978 -1.515 4.23
 0.992 -1.517 4.232
 1.006 -1.519 4.235
 1.019 -1.519 4.232
 1.034 -1.522 4.236
 1.047 -1.523 4.236
 1.061 -1.524 4.237
 1.074 -1.523 4.232
 1.088 -1.525 4.235
 1.1 -1.524 4.228
 1.114 -1.526 4.23
 1.129 -1.529 4.234
 1.144 -1.531 4.238
 1.157 -1.531 4.235
 1.171 -1.533 4.236
 1.185 -1.533 4.234
 1.197 -1.533 4.229
 1.21 -1.533 4.227
 1.222 -1.532 4.22
 1.236 -1.532 4.218
 1.249 -1.532 4.215
 1.262 -1.532 4.21
 1.276 -1.533 4.21
 1.289 -1.534 4.209
 1.304 -1.536 4.209
 1.317 -1.536 4.208
 1.331 -1.538 4.207
 1.344 -1.537 4.202
 1.359 -1.539 4.203
 1.372 -1.539 4.2
 1.386 -1.541 4.2
 1.402 -1.543 4.204
 1.417 -1.545 4.205
 1.434 -1.55 4.213
 1.449 -1.552 4.214
 1.463 -1.553 4.212
 1.475 -1.552 4.206
 1.491 -1.555 4.209
 1.503 -1.554 4.203
 1.518 -1.556 4.203
 1.532 -1.556 4.2
 1.547 -1.558 4.201
 1.56 -1.558 4.196
 1.573 -1.558 4.192
 1.586 -1.558 4.187
 1.6 -1.559 4.185
 1.613 -1.558 4.178
 1.628 -1.56 4.179
 1.642 -1.561 4.177
 1.657 -1.563 4.177
 1.672 -1.564 4.176
 1.687 -1.566 4.175
 1.701 -1.567 4.173
 1.713 -1.566 4.164
 1.728 -1.568 4.164
 1.743 -1.568 4.161
 1.758 -1.57 4.16
 1.772 -1.571 4.159
 1.789 -1.574 4.161
 1.799 -1.572 4.149
 1.815 -1.574 4.15
 1.826 -1.572 4.139
 1.834 -1.567 4.121
 1.84 -1.561 4.1
 1.85 -1.559 4.088
 1.852 -1.549 4.058
 1.862 -1.547 4.046
 1.866 -1.539 4.021
 1.872 -1.534 4
 1.875 -1.526 3.973
 1.88 -1.519 3.951
 1.88 -1.509 3.919
 1.891 -1.507 3.909
 1.894 -1.5 3.884
 1.901 -1.495 3.867
 1.909 -1.491 3.85
 1.918 -1.489 3.837
 0 0 0
 0 0 0
 0 0 0
 0 0 0
 0 0 0
 0 0 0
 0 0 0
 0 0 0
 0 0 0
 0 0 0
 0 0 0
 0 0 0
 0 0 0
 0 0 0
 0 0 0
 0 0 0
 0 0 0
 1.813 -1.26 3.152
 1.83 -1.264 3.156
 1.829 -1.256 3.132
 1.835 -1.253 3.119
 1.84 -1.25 3.104
 1.842 -1.244 3.084
 1.836 -1.233 3.051
 1.894 -1.265 3.124
 1.86 -1.235 3.044
 0 0 0
 -2.451 -1.639 4.193
 -2.396 -1.612 4.13
 -2.385 -1.614 4.142
 -2.364 -1.61 4.137
 -2.353 -1.612 4.149
 -2.338 -1.611 4.154
 -2.324 -1.611 4.161
 -2.311 -1.611 4.169
 -2.3 -1.614 4.181
 -2.28 -1.61 4.178
 -2.266 -1.61 4.184
 -2.247 -1.606 4.181
 -2.231 -1.605 4.184
 -2.209 -1.599 4.175
 -2.198 -1.601 4.187
 -2.185 -1.602 4.195
 -2.171 -1.602 4.202
 -2.154 -1.6 4.202
 -2.146 -1.604 4.22
 -2.129 -1.602 4.22
 -2.113 -1.601 4.223
 -2.1 -1.601 4.229
 -2.087 -1.602 4.237
 -2.071 -1.601 4.24
 -2.058 -1.601 4.247
 -2.042 -1.6 4.249
 -2.026 -1.598 4.25
 -2.011 -1.597 4.253
 -1.994 -1.595 4.253
 -1.979 -1.594 4.256
 -1.964 -1.593 4.259
 -1.954 -1.596 4.273
 -1.938 -1.595 4.274
 -1.925 -1.596 4.282
 -1.909 -1.594 4.283
 -1.897 -1.595 4.291
 -1.879 -1.592 4.287
 -1.867 -1.593 4.296
 -1.851 -1.592 4.298
 -1.836 -1.59 4.298
 -1.817 -1.586 4.291
 -1.801 -1.584 4.291
 -1.785 -1.582 4.291
 -1.768 -1.58 4.289
 -1.753 -1.579 4.291
 -1.739 -1.578 4.294
 -1.725 -1.578 4.299
 -1.707 -1.574 4.293
 -1.692 -1.573 4.293
 -1.677 -1.572 4.296
 -1.66 -1.568 4.29
 -1.643 -1.566 4.287
 -1.629 -1.565 4.29
 -1.616 -1.566 4.296
 -1.6 -1.563 4.292
 -1.587 -1.564 4.299
 -1.574 -1.565 4.306
 -1.561 -1.565 4.312
 -1.545 -1.563 4.308
 -1.531 -1.562 4.311
 -1.515 -1.56 4.308
 -1.5 -1.558 4.308
 -1.483 -1.555 4.302
 -1.469 -1.554 4.304
 -1.455 -1.554 4.308
 -1.442 -1.554 4.312
 -1.426 -1.552 4.309
 -1.412 -1.551 4.31
 -1.397 -1.55 4.31
 -1.382 -1.548 4.309
 -1.368 -1.547 4.31
 -1.353 -1.545 4.309
 -1.339 -1.545 4.311
 -1.323 -1.542 4.306
 -1.308 -1.54 4.303
 -1.291 -1.536 4.296
 -1.277 -1.535 4.298
 -1.263 -1.534 4.297
 -1.248 -1.532 4.294
 -1.233 -1.53 4.293
 -1.22 -1.531 4.297
 -1.207 -1.531 4.301
 -1.191 -1.528 4.295
 -1.178 -1.528 4.297
 -1.163 -1.526 4.296
 -1.148 -1.523 4.291
 -1.133 -1.521 4.287
 -1.12 -1.521 4.29
 -1.106 -1.52 4.29
 -1.095 -1.523 4.3
 -1.081 -1.522 4.302
 -1.067 -1.52 4.299
 -1.053 -1.52 4.3
 -1.04 -1.52 4.302
 -1.026 -1.519 4.302
 -1.013 -1.519 4.305
 -1.001 -1.52 4.311
 -0.986 -1.519 4.309
 -0.973 -1.518 4.31
 -0.957 -1.513 4.298
 -0.943 -1.512 4.296
 -0.929 -1.51 4.295
 -0.915 -1.509 4.294
 -0.901 -1.508 4.291
 -0.888 -1.508 4.294
 -0.875 -1.508 4.295
 -0.86 -1.505 4.289
 -0.847 -1.504 4.29
 -0.833 -1.502 4.287
 -0.82 -1.502 4.288
 -0.806 -1.502 4.29
 -0.793 -1.502 4.29
 -0.78 -1.501 4.291
 -0.767 -1.502 4.295
 -0.754 -1.502 4.298
 -0.74 -1.5 4.292
 -0.727 -1.5 4.293
 -0.714 -1.499 4.291
 -0.7 -1.497 4.29
 -0.686 -1.495 4.285
 -0.672 -1.493 4.281
 -0.66 -1.494 4.285
 -0.646 -1.491 4.279
 -0.633 -1.492 4.281
 -0.62 -1.493 4.285
 -0.608 -1.494 4.29
 -0.594 -1.492 4.284
 -0.582 -1.493 4.29
 -0.568 -1.49 4.283
 -0.554 -1.488 4.278
 -0.541 -1.488 4.278
 -0.528 -1.487 4.278
 -0.514 -1.485 4.274
 -0.502 -1.485 4.274
 -0.489 -1.486 4.278
 -0.475 -1.484 4.272
 -0.463 -1.484 4.275
 -0.45 -1.485 4.277
 -0.437 -1.486 4.281
 -0.424 -1.485 4.279
 -0.412 -1.486 4.284
 -0.399 -1.486 4.283
 -0.386 -1.486 4.284
 -0.373 -1.485 4.282
 -0.36 -1.483 4.279
 -0.347 -1.481 4.273
 -0.333 -1.48 4.27
 -0.32 -1.479 4.268
 -0.308 -1.479 4.269
 -0.295 -1.48 4.271
 -0.282 -1.481 4.275
 -0.27 -1.482 4.28
 -0.257 -1.482 4.281
 -0.245 -1.483 4.283
 -0.232 -1.483 4.283
 -0.219 -1.482 4.28
 -0.206 -1.48 4.274
 -0.193 -1.479 4.274
 -0.18 -1.477 4.267
 -0.167 -1.476 4.265
 -0.154 -1.475 4.263
 -0.142 -1.477 4.268
 -0.129 -1.477 4.267
 -0.116 -1.477 4.269
 -0.103 -1.478 4.272
 -0.091 -1.48 4.276
 -0.078 -1.477 4.269
 -0.065 -1.476 4.265
 -0.052 -1.476 4.265
 -0.04 -1.473 4.255
 -0.027 -1.471 4.252
 -0.014 -1.474 4.258
 -0.001 -1.475 4.261
 0.01 -1.474 4.259
 0.023 -1.477 4.267
 0.036 -1.477 4.268
 0.048 -1.477 4.267
 0.061 -1.478 4.27
 0.074 -1.478 4.269
 0.087 -1.478 4.27
 0.099 -1.476 4.262
 0.112 -1.475 4.26
 0.124 -1.473 4.253
 0.137 -1.472 4.25
 0.15 -1.471 4.246
 0.162 -1.473 4.252
 0.175 -1.474 4.253
 0.188 -1.475 4.256
 0.201 -1.476 4.258
 0.213 -1.475 4.255
 0.226 -1.475 4.254
 0.239 -1.475 4.254
 0.251 -1.474 4.25
 0.264 -1.474 4.249
 0.277 -1.475 4.251
 0.29 -1.477 4.255
 0.303 -1.478 4.257
 0.316 -1.479 4.259
 0.328 -1.478 4.256
 0.341 -1.48 4.259
 0.354 -1.478 4.254
 0.366 -1.476 4.248
 0.379 -1.476 4.247
 0.392 -1.478 4.251
 0.404 -1.478 4.248
 0.417 -1.479 4.25
 0.431 -1.482 4.258
 0.444 -1.483 4.26
 0.457 -1.484 4.261
 0.47 -1.484 4.261
 0.482 -1.483 4.257
 0.495 -1.482 4.252
 0.508 -1.483 4.253
 0.52 -1.483 4.25
 0.533 -1.482 4.248
 0.546 -1.484 4.251
 0.559 -1.485 4.252
 0.572 -1.486 4.253
 0.586 -1.487 4.255
 0.599 -1.488 4.256
 0.612 -1.489 4.258
 0.624 -1.487 4.251
 0.636 -1.486 4.246
 0.649 -1.485 4.241
 0.661 -1.485 4.239
 0.674 -1.484 4.234
 0.687 -1.486 4.238
 0.7 -1.486 4.237
 0.714 -1.489 4.244
 0.727 -1.488 4.239
 0.74 -1.49 4.241
 0.753 -1.491 4.241
 0.767 -1.492 4.242
 0.779 -1.491 4.237
 0.793 -1.492 4.239
 0.806 -1.493 4.24
 0.819 -1.493 4.237
 0.832 -1.495 4.241
 0.846 -1.496 4.242
 0.86 -1.498 4.244
 0.873 -1.498 4.242
 0.887 -1.5 4.245
 0.899 -1.499 4.24
 0.911 -1.498 4.235
 0.924 -1.498 4.232
 0.937 -1.498 4.228
 0.95 -1.499 4.228
 0.963 -1.499 4.227
 0.978 -1.502 4.233
 0.992 -1.504 4.235
 1.007 -1.507 4.24
 1.019 -1.506 4.237
 1.034 -1.509 4.242
 1.048 -1.51 4.241
 1.062 -1.511 4.242
 1.074 -1.511 4.238
 1.09 -1.514 4.244
 1.102 -1.513 4.238
 1.116 -1.515 4.239
 1.129 -1.515 4.238
 1.144 -1.517 4.24
 1.156 -1.516 4.234
 1.17 -1.518 4.235
 1.183 -1.518 4.233
 1.196 -1.519 4.23
 1.21 -1.519 4.229
 1.224 -1.52 4.227
 1.237 -1.521 4.226
 1.25 -1.52 4.221
 1.263 -1.52 4.217
 1.275 -1.52 4.213
 1.289 -1.52 4.211
 1.303 -1.522 4.212
 1.317 -1.523 4.21
 1.331 -1.524 4.21
 1.345 -1.526 4.211
 1.359 -1.526 4.208
 1.372 -1.526 4.204
 1.386 -1.527 4.204
 1.401 -1.53 4.206
 1.415 -1.531 4.205
 1.433 -1.535 4.214
 1.447 -1.537 4.214
 1.462 -1.539 4.214
 1.474 -1.538 4.208
 1.49 -1.541 4.212
 1.503 -1.54 4.205
 1.518 -1.542 4.206
 1.531 -1.542 4.202
 1.547 -1.545 4.206
 1.56 -1.545 4.201
 1.575 -1.546 4.2
 1.587 -1.546 4.194
 1.6 -1.546 4.189
 1.613 -1.545 4.184
 1.628 -1.547 4.184
 1.642 -1.548 4.18
 1.656 -1.549 4.178
 1.673 -1.552 4.182
 1.687 -1.553 4.179
 1.701 -1.553 4.177
 1.713 -1.552 4.167
 1.729 -1.554 4.169
 1.743 -1.555 4.166
 1.758 -1.556 4.164
 1.772 -1.558 4.163
 1.788 -1.56 4.164
 1.8 -1.559 4.154
 1.815 -1.56 4.153
 1.827 -1.559 4.145
 1.836 -1.556 4.131
 1.844 -1.551 4.114
 1.855 -1.549 4.103
 1.858 -1.541 4.075
 1.868 -1.538 4.062
 1.87 -1.529 4.032
 1.875 -1.523 4.01
 1.879 -1.516 3.985
 1.885 -1.51 3.966
 1.886 -1.501 3.936
 1.899 -1.501 3.93
 1.904 -1.495 3.908
 1.909 -1.489 3.887
 1.917 -1.485 3.872
 0 0 0
 0 0 0
 0 0 0
 0 0 0
 0 0 0
 0 0 0
 0 0 0
 0 0 0
 0 0 0
 0 0 0
 0 0 0
 0 0 0
 0 0 0
 0 0 0
 0 0 0
 0 0 0
 0 0 0
 0 0 0
 1.801 -1.241 3.134
 1.821 -1.248 3.146
 1.823 -1.242 3.125
 1.832 -1.241 3.117
 1.842 -1.24 3.11
 1.845 -1.235 3.092
 1.842 -1.226 3.063
 1.822 -1.206 3.008
 1.821 -1.199 2.984
 0 0 0
 -2.453 -1.627 4.202
 -2.41 -1.607 4.159
 -2.395 -1.607 4.164
 -2.371 -1.6 4.155
 -2.359 -1.601 4.164
 -2.343 -1.601 4.169
 -2.333 -1.603 4.183
