 -0.494 -0.315 1.502
 -0.485 -0.315 1.505
 -0.476 -0.315 1.508
 -0.467 -0.315 1.511
 -0.459 -0.315 1.514
 -0.45 -0.316 1.518
 -0.441 -0.316 1.522
 -0.432 -0.316 1.525
 -0.424 -0.317 1.528
 -0.415 -0.317 1.531
 -0.406 -0.317 1.534
 -0.397 -0.317 1.537
 -0.388 -0.318 1.54
 -0.379 -0.318 1.543
 -0.37 -0.318 1.546
 -0.361 -0.319 1.549
 -0.352 -0.319 1.553
 -0.344 -0.319 1.556
 -0.335 -0.32 1.56
 -0.326 -0.32 1.563
 -0.317 -0.321 1.567
 -0.308 -0.321 1.571
 -0.299 -0.322 1.574
 -0.291 -0.322 1.578
 -0.282 -0.323 1.581
 -0.273 -0.323 1.585
 -0.264 -0.324 1.589
 -0.255 -0.324 1.592
 -0.246 -0.325 1.596
 -0.237 -0.325 1.599
 -0.228 -0.326 1.602
 -0.219 -0.326 1.606
 -0.21 -0.327 1.609
 -0.2 -0.327 1.613
 -0.191 -0.328 1.616
 -0.182 -0.329 1.62
 -0.173 -0.329 1.623
 -0.164 -0.33 1.627
 -0.155 -0.331 1.631
 -0.145 -0.331 1.635
 -0.136 -0.332 1.639
 -0.127 -0.333 1.643
 -0.117 -0.333 1.647
 -0.108 -0.334 1.65
 -0.099 -0.335 1.654
 -0.089 -0.335 1.657
 -0.08 -0.336 1.661
 -0.07 -0.337 1.665
 -0.061 -0.338 1.669
 -0.051 -0.338 1.673
 -0.041 -0.339 1.676
 -0.032 -0.34 1.679
 -0.022 -0.341 1.683
 -0.012 -0.341 1.686
 -0.002 -0.342 1.689
 0.007 -0.342 1.691
 0.016 -0.343 1.695
 0.026 -0.344 1.697
 0.036 -0.344 1.7
 0.046 -0.345 1.703
 0.056 -0.346 1.706
 0.066 -0.346 1.707
 0.076 -0.346 1.708
 0.086 -0.347 1.71
 0.096 -0.347 1.71
 0.106 -0.347 1.71
 0.116 -0.347 1.71
 0.126 -0.347 1.707
 0.135 -0.346 1.701
 0.145 -0.345 1.695
 0.154 -0.343 1.685
 0.163 -0.34 1.673
 0.171 -0.338 1.659
 0.179 -0.335 1.645
 0.187 -0.332 1.629
 0.195 -0.33 1.614
 0.202 -0.326 1.597
 0.21 -0.323 1.581
 0.217 -0.321 1.569
 0.225 -0.32 1.56
 0.232 -0.316 1.539
 0.24 -0.315 1.537
 0.25 -0.317 1.541
 0.26 -0.317 1.542
 0.269 -0.318 1.543
 0.281 -0.321 1.558
 0.29 -0.32 1.555
 0.298 -0.32 1.548
 0.306 -0.319 1.542
 0.313 -0.317 1.531
 0.32 -0.314 1.518
 0.325 -0.311 1.5
 0.329 -0.307 1.477
 0.33 -0.3 1.44
 0.331 -0.292 1.404
 0.33 -0.285 1.364
 0.33 -0.278 1.332
 0.328 -0.27 1.291
 0.329 -0.265 1.263
 0.326 -0.257 1.221
 0.322 -0.248 1.177
 0.322 -0.243 1.151
 0.319 -0.236 1.116
 0.319 -0.231 1.092
 0.318 -0.225 1.062
 0.316 -0.22 1.033
 0.32 -0.218 1.025
 0.318 -0.213 0.998
 0.319 -0.21 0.979
 0.32 -0.207 0.963
 0.321 -0.204 0.949
 0.322 -0.201 0.932
 0.325 -0.199 0.922
 0.324 -0.195 0.901
 0.325 -0.192 0.887
 0.324 -0.189 0.87
 0.323 -0.186 0.851
 0.326 -0.185 0.844
 0.328 -0.183 0.833
 0.329 -0.18 0.82
 0.33 -0.178 0.809
 0.333 -0.177 0.801
 0.335 -0.176 0.793
 0.34 -0.176 0.792
 0.342 -0.174 0.782
 0.346 -0.174 0.779
 0.347 -0.172 0.769
 0.348 -0.17 0.757
 0.346 -0.167 0.741
 0.35 -0.166 0.737
 0.349 -0.164 0.724
 0.352 -0.163 0.718
 0.355 -0.163 0.714
 0.359 -0.162 0.711
 0.36 -0.161 0.702
 0.364 -0.16 0.697
 0.367 -0.16 0.693
 0.368 -0.159 0.685
 0.371 -0.158 0.679
 0.375 -0.158 0.676
 0.377 -0.157 0.67
 0.38 -0.156 0.665
 0.387 -0.157 0.667
 0.395 -0.159 0.671
 -0.326 -0.127 0.57
 -0.316 -0.125 0.561
 -0.318 -0.127 0.573
 -0.316 -0.128 0.577
 -0.315 -0.129 0.585
 -0.316 -0.131 0.596
 -0.319 -0.134 0.611
 -0.311 -0.132 0.605
 -0.299 -0.129 0.591
 -0.286 -0.125 0.572
 -0.272 -0.12 0.554
 -0.252 -0.113 0.519
 -0.241 -0.11 0.505
 -0.233 -0.107 0.495
 -0.23 -0.107 0.497
 0 0 0
 0 0 0
 0 0 0
 0 0 0
 0 0 0
 -0.54 -0.273 1.314
 -0.548 -0.281 1.357
 -0.546 -0.284 1.375
 -0.54 -0.286 1.384
 -0.534 -0.287 1.394
 -0.536 -0.293 1.426
 -0.533 -0.296 1.443
 -0.529 -0.299 1.459
 -0.525 -0.302 1.477
 -0.52 -0.304 1.491
 -0.511 -0.305 1.496
 -0.503 -0.305 1.499
 -0.494 -0.305 1.502
 -0.485 -0.305 1.505
 -0.476 -0.305 1.508
 -0.467 -0.306 1.511
 -0.458 -0.306 1.514
 -0.449 -0.306 1.518
 -0.441 -0.307 1.522
 -0.432 -0.307 1.525
 -0.423 -0.307 1.528
 -0.414 -0.307 1.531
 -0.405 -0.308 1.535
 -0.396 -0.308 1.537
 -0.388 -0.308 1.54
 -0.379 -0.308 1.543
 -0.37 -0.309 1.547
 -0.361 -0.309 1.55
 -0.352 -0.31 1.554
 -0.343 -0.31 1.557
 -0.334 -0.31 1.56
 -0.326 -0.311 1.564
 -0.317 -0.311 1.567
 -0.308 -0.312 1.57
 -0.299 -0.312 1.574
 -0.29 -0.313 1.578
 -0.281 -0.313 1.581
 -0.272 -0.314 1.585
 -0.263 -0.314 1.588
 -0.254 -0.315 1.592
 -0.245 -0.315 1.595
 -0.236 -0.315 1.598
 -0.227 -0.316 1.601
 -0.218 -0.316 1.605
 -0.209 -0.317 1.609
 -0.2 -0.318 1.613
 -0.191 -0.318 1.616
 -0.182 -0.319 1.62
 -0.173 -0.319 1.623
 -0.164 -0.32 1.627
 -0.154 -0.321 1.631
 -0.145 -0.321 1.635
 -0.136 -0.322 1.639
 -0.127 -0.323 1.643
 -0.117 -0.323 1.647
 -0.108 -0.324 1.65
 -0.099 -0.325 1.654
 -0.089 -0.325 1.658
 -0.08 -0.326 1.661
 -0.07 -0.327 1.665
 -0.06 -0.327 1.668
 -0.051 -0.328 1.672
 -0.041 -0.329 1.675
 -0.032 -0.329 1.678
 -0.022 -0.33 1.682
 -0.012 -0.331 1.685
 -0.002 -0.331 1.688
 0.007 -0.332 1.691
 0.016 -0.333 1.694
 0.026 -0.333 1.697
 0.036 -0.334 1.7
 0.046 -0.335 1.703
 0.056 -0.335 1.706
 0.066 -0.336 1.707
 0.076 -0.336 1.709
 0.086 -0.336 1.71
 0.096 -0.337 1.71
 0.106 -0.337 1.71
 0.116 -0.337 1.71
 0.126 -0.336 1.707
 0.135 -0.336 1.702
 0.145 -0.334 1.695
 0.154 -0.333 1.685
 0.163 -0.33 1.673
 0.171 -0.328 1.659
 0.179 -0.325 1.645
 0.187 -0.323 1.629
 0.195 -0.32 1.613
 0.202 -0.316 1.596
 0.209 -0.313 1.58
 0.217 -0.311 1.568
 0.225 -0.31 1.558
 0.231 -0.305 1.535
 0.24 -0.305 1.533
 0.249 -0.306 1.537
 0.259 -0.306 1.536
 0.268 -0.307 1.54
 0.281 -0.311 1.557
 0.289 -0.311 1.553
 0.297 -0.31 1.546
 0.306 -0.309 1.54
 0.313 -0.307 1.528
 0.319 -0.304 1.515
 0.325 -0.302 1.499
 0.329 -0.298 1.478
 0.331 -0.291 1.443
 0.331 -0.284 1.406
 0.329 -0.276 1.362
 0.33 -0.27 1.333
 0.328 -0.262 1.291
 0.329 -0.257 1.263
 0.327 -0.25 1.227
 0.324 -0.243 1.188
 0.321 -0.235 1.148
 0.319 -0.229 1.117
 0.318 -0.224 1.09
 0.318 -0.219 1.064
 0.317 -0.214 1.038
 0.319 -0.212 1.023
 0.317 -0.207 0.997
 0.317 -0.203 0.976
 0.319 -0.2 0.961
 0.322 -0.198 0.951
 0.323 -0.196 0.936
 0.326 -0.194 0.925
 0.324 -0.19 0.903
 0.325 -0.187 0.889
 0.324 -0.184 0.87
 0.323 -0.18 0.853
 0.328 -0.18 0.849
 0.33 -0.178 0.838
 0.33 -0.176 0.825
 0.333 -0.174 0.816
 0.335 -0.173 0.807
 0.336 -0.171 0.796
 0.34 -0.171 0.793
 0.342 -0.169 0.783
 0.345 -0.168 0.776
 0.346 -0.167 0.767
 0.347 -0.165 0.756
 0.345 -0.162 0.74
 0.35 -0.162 0.738
 0.35 -0.16 0.727
 0.352 -0.159 0.72
 0.355 -0.158 0.715
 0.359 -0.158 0.71
 0.359 -0.156 0.7
 0.363 -0.155 0.696
 0.366 -0.155 0.692
 0.368 -0.154 0.686
 0.371 -0.153 0.68
 0.374 -0.153 0.676
 0.377 -0.152 0.67
 0.38 -0.152 0.666
 0.382 -0.151 0.659
 0.397 -0.155 0.675
 -0.332 -0.126 0.582
 -0.318 -0.122 0.565
 -0.319 -0.124 0.576
 -0.316 -0.124 0.58
 -0.316 -0.125 0.587
 -0.316 -0.127 0.598
 -0.32 -0.13 0.614
 -0.313 -0.129 0.61
 -0.302 -0.126 0.598
 -0.288 -0.122 0.579
 -0.275 -0.118 0.559
 -0.255 -0.111 0.526
 -0.244 -0.108 0.513
 -0.235 -0.105 0.501
 -0.233 -0.106 0.506
 0 0 0
 0 0 0
 0 0 0
 0 0 0
 0 0 0
 -0.545 -0.267 1.328
 -0.551 -0.274 1.364
 -0.547 -0.277 1.379
 -0.541 -0.278 1.388
 -0.535 -0.279 1.398
 -0.536 -0.285 1.428
 -0.533 -0.287 1.445
 -0.529 -0.29 1.461
 -0.525 -0.293 1.478
 -0.519 -0.295 1.492
 -0.511 -0.295 1.496
 -0.502 -0.296 1.499
 -0.493 -0.296 1.502
 -0.484 -0.296 1.505
 -0.475 -0.296 1.508
 -0.466 -0.296 1.511
 -0.457 -0.296 1.514
 -0.449 -0.297 1.517
 -0.44 -0.297 1.521
 -0.431 -0.297 1.525
 -0.423 -0.298 1.528
 -0.414 -0.298 1.531
 -0.405 -0.298 1.535
 -0.396 -0.298 1.537
 -0.387 -0.299 1.54
 -0.378 -0.299 1.543
 -0.369 -0.299 1.547
 -0.361 -0.3 1.55
 -0.352 -0.3 1.554
 -0.343 -0.3 1.557
 -0.334 -0.301 1.56
 -0.325 -0.301 1.564
 -0.316 -0.302 1.567
 -0.308 -0.302 1.57
 -0.299 -0.302 1.574
 -0.29 -0.303 1.577
 -0.281 -0.303 1.581
 -0.272 -0.304 1.585
 -0.263 -0.304 1.588
 -0.254 -0.305 1.591
 -0.245 -0.305 1.595
 -0.236 -0.306 1.598
 -0.227 -0.306 1.601
 -0.218 -0.307 1.605
 -0.209 -0.307 1.608
 -0.2 -0.308 1.613
 -0.191 -0.309 1.616
 -0.182 -0.309 1.62
 -0.173 -0.31 1.623
 -0.163 -0.31 1.627
 -0.154 -0.311 1.63
 -0.145 -0.311 1.634
 -0.136 -0.312 1.639
 -0.126 -0.313 1.643
 -0.117 -0.314 1.646
 -0.108 -0.314 1.65
 -0.098 -0.315 1.654
 -0.089 -0.315 1.657
 -0.079 -0.316 1.66
 -0.07 -0.317 1.664
 -0.06 -0.317 1.668
 -0.051 -0.318 1.671
 -0.041 -0.319 1.674
 -0.031 -0.319 1.678
 -0.022 -0.32 1.681
 -0.012 -0.321 1.685
 -0.002 -0.321 1.688
 0.007 -0.322 1.691
 0.016 -0.323 1.694
 0.026 -0.323 1.696
 0.036 -0.324 1.699
 0.046 -0.324 1.702
 0.056 -0.325 1.704
 0.066 -0.325 1.706
 0.076 -0.326 1.708
 0.086 -0.326 1.709
 0.096 -0.326 1.71
 0.106 -0.326 1.71
 0.116 -0.327 1.71
 0.126 -0.326 1.707
 0.135 -0.326 1.703
 0.145 -0.324 1.696
 0.154 -0.323 1.686
 0.163 -0.321 1.674
 0.171 -0.318 1.66
 0.179 -0.315 1.645
 0.187 -0.313 1.629
 0.195 -0.31 1.613
 0.202 -0.307 1.596
 0.209 -0.304 1.579
 0.217 -0.302 1.568
 0.225 -0.3 1.558
 0.23 -0.296 1.534
 0.239 -0.296 1.531
 0.249 -0.296 1.534
 0.258 -0.297 1.534
 0.268 -0.297 1.536
 0.28 -0.301 1.554
 0.289 -0.301 1.55
 0.297 -0.3 1.545
 0.305 -0.299 1.539
 0.312 -0.297 1.527
 0.319 -0.295 1.514
 0.324 -0.292 1.497
 0.329 -0.288 1.476
 0.33 -0.282 1.442
 0.331 -0.276 1.407
 0.33 -0.268 1.365
 0.33 -0.262 1.333
 0.327 -0.254 1.29
 0.327 -0.248 1.257
 0.324 -0.24 1.216
 0.321 -0.233 1.177
 0.316 -0.225 1.133
 0.316 -0.22 1.106
 0.314 -0.214 1.074
 0.317 -0.212 1.063
 0.319 -0.209 1.044
 0.319 -0.206 1.025
 0.32 -0.202 1.005
 0.32 -0.198 0.984
 0.319 -0.195 0.964
 0.322 -0.193 0.954
 0.324 -0.19 0.938
 0.325 -0.188 0.924
 0.324 -0.184 0.904
 0.327 -0.183 0.897
 0.327 -0.18 0.878
 0.326 -0.177 0.861
 0.33 -0.176 0.856
 0.332 -0.174 0.845
 0.331 -0.171 0.827
 0.332 -0.169 0.815
 0.333 -0.167 0.804
 0.333 -0.165 0.791
 0.337 -0.164 0.786
 0.339 -0.163 0.778
 0.342 -0.162 0.772
 0.345 -0.161 0.764
 0.346 -0.159 0.755
 0.344 -0.157 0.739
 0.348 -0.156 0.735
 0.349 -0.155 0.726
 0.351 -0.154 0.719
 0.355 -0.153 0.714
 0.359 -0.153 0.711
 0.359 -0.151 0.701
 0.363 -0.151 0.697
 0.366 -0.15 0.692
 0.367 -0.149 0.685
 0.369 -0.148 0.678
 0.373 -0.148 0.674
 0.375 -0.147 0.668
 0.379 -0.147 0.665
 0.383 -0.147 0.662
 0.39 -0.148 0.665
 -0.336 -0.123 0.589
 -0.322 -0.119 0.573
 -0.321 -0.12 0.58
 -0.318 -0.121 0.583
 -0.317 -0.122 0.59
 -0.318 -0.124 0.602
 -0.324 -0.128 0.622
 -0.32 -0.128 0.624
 -0.308 -0.125 0.611
 -0.293 -0.12 0.589
 -0.277 -0.115 0.566
 -0.259 -0.109 0.537
 -0.247 -0.105 0.518
 -0.239 -0.104 0.51
 -0.238 -0.105 0.516
 0 0 0
 0 0 0
 0 0 0
 0 0 0
 0 0 0
 -0.549 -0.261 1.339
 -0.553 -0.267 1.372
 -0.548 -0.269 1.385
 -0.542 -0.27 1.393
 -0.536 -0.271 1.403
 -0.537 -0.276 1.431
 -0.533 -0.279 1.446
 -0.529 -0.281 1.463
 -0.525 -0.284 1.479
 -0.519 -0.286 1.491
 -0.51 -0.286 1.495
 -0.501 -0.286 1.499
 -0.492 -0.286 1.501
 -0.484 -0.286 1.504
 -0.475 -0.287 1.507
 -0.466 -0.287 1.511
 -0.457 -0.287 1.514
 -0.448 -0.287 1.517
 -0.44 -0.288 1.521
 -0.431 -0.288 1.525
 -0.422 -0.288 1.528
 -0.413 -0.288 1.531
 -0.405 -0.289 1.535
 -0.396 -0.289 1.538
 -0.387 -0.289 1.541
 -0.378 -0.29 1.543
 -0.369 -0.29 1.547
 -0.36 -0.29 1.55
 -0.352 -0.291 1.554
 -0.343 -0.291 1.557
 -0.334 -0.291 1.56
 -0.325 -0.292 1.564
 -0.316 -0.292 1.567
 -0.307 -0.292 1.57
 -0.298 -0.293 1.574
 -0.29 -0.293 1.577
 -0.281 -0.294 1.581
 -0.272 -0.294 1.584
 -0.263 -0.295 1.588
 -0.254 -0.295 1.591
 -0.245 -0.296 1.594
 -0.236 -0.296 1.597
 -0.227 -0.297 1.601
 -0.218 -0.297 1.605
 -0.209 -0.298 1.609
 -0.2 -0.298 1.612
 -0.191 -0.299 1.616
 -0.182 -0.299 1.62
 -0.172 -0.3 1.624
 -0.163 -0.301 1.628
 -0.154 -0.301 1.631
 -0.145 -0.302 1.635
 -0.136 -0.302 1.639
 -0.126 -0.303 1.643
 -0.117 -0.304 1.646
 -0.108 -0.304 1.649
 -0.098 -0.305 1.653
 -0.089 -0.305 1.656
 -0.079 -0.306 1.66
 -0.07 -0.307 1.664
 -0.06 -0.307 1.667
 -0.051 -0.308 1.671
 -0.041 -0.309 1.674
 -0.031 -0.309 1.677
 -0.022 -0.31 1.681
 -0.012 -0.311 1.684
 -0.002 -0.311 1.688
 0.007 -0.312 1.691
 0.016 -0.312 1.694
 0.026 -0.313 1.696
 0.036 -0.313 1.699
 0.046 -0.314 1.701
 0.056 -0.315 1.704
 0.066 -0.315 1.706
 0.076 -0.315 1.708
 0.086 -0.316 1.71
 0.096 -0.316 1.71
 0.106 -0.316 1.71
 0.116 -0.316 1.709
 0.126 -0.316 1.706
 0.135 -0.315 1.702
 0.145 -0.314 1.695
 0.154 -0.312 1.686
 0.163 -0.311 1.674
 0.171 -0.308 1.661
 0.179 -0.306 1.645
 0.187 -0.303 1.629
 0.194 -0.3 1.612
 0.202 -0.297 1.595
 0.209 -0.294 1.579
 0.217 -0.292 1.567
 0.225 -0.291 1.557
 0.23 -0.286 1.531
 0.239 -0.286 1.529
 0.248 -0.287 1.531
 0.258 -0.287 1.532
 0.267 -0.288 1.535
 0.28 -0.292 1.556
 0.289 -0.292 1.553
 0.298 -0.291 1.549
 0.305 -0.29 1.54
 0.312 -0.288 1.528
 0.318 -0.286 1.514
 0.324 -0.283 1.496
 0.328 -0.279 1.473
 0.331 -0.274 1.446
 0.332 -0.268 1.411
 0.331 -0.261 1.373
 0.331 -0.255 1.338
 0.327 -0.246 1.289
 0.326 -0.24 1.253
 0.321 -0.231 1.207
 0.318 -0.224 1.166
 0.315 -0.217 1.128
 0.314 -0.212 1.1
 0.314 -0.208 1.076
 0.317 -0.206 1.063
 0.317 -0.202 1.042
 0.317 -0.198 1.018
 0.316 -0.193 0.993
 0.317 -0.191 0.976
 0.318 -0.188 0.962
 0.32 -0.186 0.947
 0.323 -0.184 0.937
 0.325 -0.182 0.925
 0.323 -0.178 0.903
 0.327 -0.177 0.896
 0.326 -0.174 0.878
 0.325 -0.171 0.858
 0.328 -0.17 0.851
 0.33 -0.168 0.842
 0.33 -0.165 0.825
 0.332 -0.164 0.817
 0.333 -0.162 0.806
 0.334 -0.16 0.793
 0.337 -0.159 0.787
 0.338 -0.158 0.777
 0.34 -0.156 0.768
 0.343 -0.155 0.761
 0.344 -0.154 0.751
 0.343 -0.151 0.736
 0.346 -0.151 0.732
 0.348 -0.149 0.724
 0.35 -0.149 0.717
 0.354 -0.148 0.713
 0.358 -0.148 0.71
 0.358 -0.146 0.7
 0.362 -0.146 0.697
 0.365 -0.146 0.692
 0.368 -0.145 0.686
 0.37 -0.144 0.68
 0.374 -0.144 0.677
 0.376 -0.143 0.671
 0.378 -0.142 0.665
 0.376 -0.14 0.65
 0.386 -0.142 0.657
 -0.335 -0.119 0.589
 -0.329 -0.118 0.586
 -0.323 -0.117 0.583
 -0.319 -0.118 0.586
 -0.318 -0.118 0.593
 -0.321 -0.121 0.608
 -0.329 -0.126 0.634
 -0.329 -0.127 0.643
 -0.318 -0.124 0.631
 -0.302 -0.12 0.609
 -0.285 -0.115 0.583
 -0.266 -0.108 0.551
 -0.249 -0.103 0.524
 -0.241 -0.101 0.514
 -0.238 -0.101 0.517
 0 0 0
 0 0 0
 0 0 0
 0 0 0
 0 0 0
 -0.543 -0.25 1.325
 -0.548 -0.256 1.362
 -0.545 -0.259 1.378
 -0.539 -0.26 1.388
 -0.537 -0.263 1.408
 -0.537 -0.267 1.433
 -0.533 -0.27 1.448
 -0.529 -0.272 1.464
 -0.524 -0.275 1.48
 -0.518 -0.276 1.491
 -0.51 -0.276 1.495
 -0.501 -0.277 1.498
 -0.492 -0.277 1.501
 -0.483 -0.277 1.504
 -0.474 -0.277 1.507
 -0.465 -0.277 1.51
 -0.456 -0.278 1.513
 -0.448 -0.278 1.517
 -0.439 -0.278 1.521
 -0.43 -0.278 1.524
 -0.422 -0.279 1.528
 -0.413 -0.279 1.531
 -0.404 -0.279 1.535
 -0.395 -0.28 1.538
 -0.386 -0.28 1.541
 -0.378 -0.28 1.544
 -0.369 -0.28 1.547
 -0.36 -0.281 1.55
 -0.351 -0.281 1.554
 -0.342 -0.281 1.557
 -0.333 -0.282 1.56
 -0.325 -0.282 1.563
 -0.316 -0.282 1.566
 -0.307 -0.283 1.57
 -0.298 -0.283 1.573
 -0.289 -0.284 1.577
 -0.28 -0.284 1.58
 -0.271 -0.285 1.584
 -0.262 -0.285 1.587
 -0.253 -0.285 1.59
 -0.244 -0.286 1.593
 -0.236 -0.286 1.597
 -0.227 -0.287 1.601
 -0.218 -0.287 1.605
 -0.209 -0.288 1.609
 -0.2 -0.289 1.614
 -0.191 -0.289 1.618
 -0.182 -0.29 1.623
 -0.173 -0.291 1.629
 -0.164 -0.292 1.634
 -0.154 -0.292 1.637
 -0.145 -0.293 1.64
 -0.136 -0.293 1.642
 -0.126 -0.293 1.644
 -0.117 -0.294 1.645
 -0.107 -0.294 1.649
 -0.098 -0.295 1.653
 -0.089 -0.295 1.656
 -0.079 -0.296 1.66
 -0.07 -0.297 1.664
 -0.06 -0.297 1.667
 -0.051 -0.298 1.67
 -0.041 -0.299 1.674
 -0.031 -0.299 1.677
 -0.022 -0.3 1.68
 -0.012 -0.3 1.684
 -0.002 -0.301 1.687
 0.007 -0.302 1.69
 0.017 -0.302 1.693
 0.026 -0.303 1.696
 0.036 -0.303 1.698
 0.046 -0.304 1.701
 0.056 -0.304 1.703
 0.066 -0.305 1.706
 0.076 -0.305 1.708
 0.086 -0.306 1.709
 0.096 -0.306 1.71
 0.106 -0.306 1.71
 0.116 -0.306 1.709
 0.126 -0.306 1.706
 0.135 -0.305 1.701
 0.145 -0.304 1.694
 0.154 -0.302 1.685
 0.162 -0.3 1.674
 0.171 -0.298 1.661
 0.179 -0.296 1.646
 0.187 -0.293 1.63
 0.194 -0.29 1.613
 0.202 -0.287 1.595
 0.209 -0.285 1.578
 0.216 -0.283 1.566
 0.224 -0.281 1.554
 0.229 -0.276 1.528
 0.238 -0.276 1.525
 0.247 -0.277 1.527
 0.257 -0.277 1.53
 0.267 -0.279 1.535
 0.28 -0.283 1.557
 0.289 -0.282 1.554
 0.298 -0.282 1.55
 0.305 -0.281 1.54
 0.312 -0.279 1.529
 0.318 -0.276 1.512
 0.323 -0.273 1.494
 0.327 -0.27 1.472
 0.331 -0.265 1.446
 0.331 -0.259 1.412
 0.331 -0.253 1.375
 0.331 -0.247 1.339
 0.327 -0.238 1.291
 0.325 -0.232 1.253
 0.322 -0.224 1.21
 0.319 -0.218 1.172
 0.315 -0.211 1.131
 0.314 -0.205 1.101
 0.314 -0.201 1.077
 0.316 -0.199 1.061
 0.314 -0.193 1.03
 0.315 -0.191 1.014
 0.314 -0.186 0.989
 0.316 -0.184 0.975
 0.317 -0.181 0.958
 0.318 -0.179 0.943
 0.32 -0.177 0.93
 0.322 -0.175 0.918
 0.321 -0.171 0.898
 0.325 -0.171 0.892
 0.325 -0.168 0.877
 0.324 -0.165 0.856
 0.327 -0.164 0.85
 0.33 -0.163 0.841
 0.33 -0.16 0.825
 0.332 -0.159 0.817
 0.333 -0.157 0.807
 0.334 -0.155 0.795
 0.336 -0.154 0.786
 0.338 -0.153 0.777
 0.34 -0.151 0.768
 0.344 -0.151 0.764
 0.344 -0.149 0.753
 0.345 -0.147 0.742
 0.348 -0.147 0.736
 0.35 -0.146 0.729
 0.352 -0.145 0.721
 0.355 -0.144 0.716
 0.357 -0.143 0.71
 0.358 -0.142 0.7
 0.362 -0.141 0.696
 0.364 -0.141 0.69
 0.366 -0.14 0.684
 0.369 -0.139 0.679
 0.374 -0.139 0.677
 0.375 -0.138 0.669
 0.378 -0.138 0.664
 0.383 -0.138 0.663
 0.376 -0.134 0.642
 -0.337 -0.116 0.592
 -0.337 -0.117 0.602
 -0.324 -0.114 0.587
 -0.321 -0.114 0.591
 -0.32 -0.115 0.598
 -0.325 -0.119 0.617
 -0.336 -0.124 0.647
 -0.338 -0.126 0.663
 -0.327 -0.124 0.65
 -0.312 -0.12 0.629
 -0.293 -0.114 0.601
 -0.273 -0.108 0.567
 -0.252 -0.101 0.532
 -0.246 -0.1 0.526
 -0.242 -0.1 0.527
 0 0 0
 0 0 0
 0 0 0
 0 0 0
 0 0 0
 -0.533 -0.237 1.303
 -0.542 -0.245 1.348
 -0.54 -0.248 1.367
 -0.536 -0.25 1.381
 -0.538 -0.255 1.412
 -0.537 -0.259 1.435
 -0.533 -0.261 1.45
 -0.529 -0.263 1.466
 -0.524 -0.265 1.48
 -0.518 -0.267 1.492
 -0.509 -0.267 1.495
 -0.5 -0.267 1.498
 -0.491 -0.267 1.501
 -0.482 -0.268 1.504
 -0.473 -0.268 1.507
 -0.465 -0.268 1.509
 -0.456 -0.268 1.513
 -0.447 -0.268 1.516
 -0.438 -0.269 1.52
 -0.43 -0.269 1.523
 -0.421 -0.269 1.527
 -0.412 -0.27 1.53
 -0.404 -0.27 1.534
 -0.395 -0.27 1.537
 -0.386 -0.27 1.54
 -0.377 -0.271 1.544
 -0.369 -0.271 1.548
 -0.36 -0.271 1.55
 -0.351 -0.272 1.554
 -0.342 -0.272 1.557
 -0.333 -0.272 1.56
 -0.324 -0.273 1.563
 -0.315 -0.273 1.566
 -0.306 -0.273 1.569
 -0.298 -0.274 1.573
 -0.289 -0.274 1.576
 -0.28 -0.274 1.58
 -0.271 -0.275 1.583
 -0.262 -0.275 1.587
 -0.253 -0.276 1.59
 -0.244 -0.276 1.593
 -0.235 -0.277 1.598
 -0.227 -0.277 1.602
 -0.218 -0.278 1.607
 -0.209 -0.279 1.613
 -0.2 -0.28 1.619
 -0.191 -0.281 1.624
 -0.182 -0.281 1.627
 -0.173 -0.281 1.629
 -0.163 -0.281 1.629
 -0.154 -0.281 1.63
 -0.144 -0.282 1.632
 -0.135 -0.282 1.636
 -0.126 -0.283 1.639
 -0.117 -0.284 1.645
 -0.107 -0.284 1.649
 -0.098 -0.285 1.653
 -0.088 -0.286 1.656
 -0.079 -0.286 1.66
 -0.07 -0.287 1.664
 -0.06 -0.287 1.667
 -0.05 -0.288 1.67
 -0.041 -0.288 1.673
 -0.031 -0.289 1.676
 -0.021 -0.29 1.679
 -0.012 -0.29 1.683
 -0.002 -0.291 1.687
 0.007 -0.292 1.69
 0.017 -0.292 1.693
 0.026 -0.293 1.696
 0.036 -0.293 1.698
 0.046 -0.294 1.701
 0.056 -0.294 1.703
 0.066 -0.295 1.705
 0.076 -0.295 1.708
 0.086 -0.295 1.709
 0.096 -0.296 1.709
 0.106 -0.296 1.71
 0.116 -0.296 1.709
 0.126 -0.295 1.706
 0.135 -0.295 1.702
 0.145 -0.294 1.694
 0.154 -0.292 1.685
 0.162 -0.29 1.674
 0.171 -0.288 1.66
 0.179 -0.286 1.645
 0.187 -0.283 1.63
 0.194 -0.281 1.613
 0.201 -0.278 1.595
 0.209 -0.275 1.578
 0.216 -0.273 1.566
 0.224 -0.271 1.552
 0.229 -0.267 1.526
 0.238 -0.267 1.524
 0.247 -0.267 1.527
 0.257 -0.268 1.529
 0.267 -0.269 1.536
 0.28 -0.273 1.557
 0.289 -0.273 1.553
 0.297 -0.272 1.548
 0.304 -0.271 1.538
 0.311 -0.269 1.527
 0.318 -0.267 1.512
 0.323 -0.264 1.495
 0.327 -0.26 1.471
 0.331 -0.257 1.448
 0.332 -0.251 1.416
 0.332 -0.245 1.378
 0.331 -0.239 1.339
 0.328 -0.232 1.297
 0.326 -0.225 1.257
 0.324 -0.218 1.217
 0.321 -0.212 1.179
 0.314 -0.203 1.127
 0.312 -0.198 1.096
 0.314 -0.195 1.077
 0.314 -0.191 1.054
 0.312 -0.186 1.026
 0.314 -0.184 1.011
 0.313 -0.18 0.987
 0.315 -0.177 0.971
 0.316 -0.175 0.955
 0.317 -0.172 0.94
 0.319 -0.171 0.928
 0.321 -0.169 0.916
 0.32 -0.165 0.896
 0.324 -0.165 0.89
 0.325 -0.162 0.876
 0.323 -0.159 0.855
 0.326 -0.158 0.847
 0.329 -0.157 0.839
 0.329 -0.155 0.825
 0.332 -0.154 0.819
 0.334 -0.152 0.808
 0.334 -0.15 0.794
 0.335 -0.148 0.783
 0.336 -0.147 0.774
 0.337 -0.145 0.763
 0.341 -0.145 0.759
 0.343 -0.144 0.75
 0.345 -0.143 0.742
 0.346 -0.141 0.733
 0.349 -0.14 0.727
 0.351 -0.14 0.72
 0.354 -0.139 0.715
 0.356 -0.138 0.707
 0.358 -0.137 0.702
 0.362 -0.137 0.697
 0.364 -0.136 0.69
 0.367 -0.135 0.685
 0.37 -0.135 0.682
 0.374 -0.135 0.679
 0.376 -0.134 0.672
 0.378 -0.133 0.666
 0.371 -0.13 0.644
 0.375 -0.13 0.641
 -0.337 -0.112 0.593
 -0.339 -0.114 0.606
 -0.326 -0.111 0.59
 -0.323 -0.111 0.595
 -0.323 -0.112 0.604
 -0.33 -0.116 0.627
 -0.342 -0.122 0.661
 -0.348 -0.126 0.683
 -0.338 -0.123 0.672
 -0.324 -0.12 0.654
 -0.304 -0.114 0.623
 -0.281 -0.107 0.586
 -0.258 -0.1 0.546
 -0.251 -0.099 0.539
 -0.241 -0.096 0.524
 0 0 0
 0 0 0
 0 0 0
 0 0 0
 0 0 0
 -0.533 -0.229 1.303
 -0.541 -0.236 1.346
 -0.539 -0.239 1.365
 -0.535 -0.241 1.379
 -0.54 -0.247 1.417
 -0.537 -0.25 1.437
 -0.533 -0.252 1.451
 -0.529 -0.254 1.467
 -0.524 -0.256 1.481
 -0.517 -0.258 1.491
 -0.508 -0.258 1.494
 -0.5 -0.258 1.498
 -0.491 -0.258 1.5
 -0.482 -0.258 1.503
 -0.473 -0.258 1.506
 -0.464 -0.258 1.509
 -0.455 -0.259 1.512
 -0.446 -0.259 1.516
 -0.438 -0.259 1.519
 -0.429 -0.259 1.523
 -0.421 -0.26 1.527
 -0.412 -0.26 1.53
 -0.403 -0.26 1.534
 -0.394 -0.261 1.537
 -0.385 -0.261 1.54
 -0.377 -0.261 1.543
 -0.368 -0.262 1.547
 -0.359 -0.262 1.55
 -0.35 -0.262 1.553
 -0.342 -0.262 1.557
 -0.333 -0.263 1.559
 -0.324 -0.263 1.562
 -0.315 -0.263 1.566
 -0.306 -0.264 1.569
 -0.297 -0.264 1.572
 -0.288 -0.264 1.575
 -0.28 -0.265 1.58
 -0.271 -0.265 1.584
 -0.262 -0.266 1.588
 -0.253 -0.267 1.593
 -0.245 -0.267 1.597
 -0.236 -0.268 1.603
 -0.227 -0.269 1.608
 -0.218 -0.269 1.611
 -0.209 -0.27 1.616
 -0.2 -0.271 1.621
 -0.191 -0.271 1.625
 -0.182 -0.271 1.627
 -0.173 -0.272 1.631
 -0.162 -0.271 1.623
 -0.153 -0.271 1.624
 -0.144 -0.271 1.625
 -0.134 -0.271 1.629
 -0.125 -0.272 1.632
 -0.116 -0.274 1.643
 -0.107 -0.274 1.647
 -0.098 -0.275 1.651
 -0.088 -0.275 1.654
 -0.079 -0.276 1.658
 -0.069 -0.277 1.662
 -0.06 -0.277 1.666
 -0.05 -0.278 1.669
 -0.041 -0.278 1.673
 -0.031 -0.279 1.676
 -0.021 -0.28 1.679
 -0.012 -0.28 1.683
 -0.002 -0.281 1.687
 0.007 -0.281 1.69
 0.017 -0.282 1.692
 0.026 -0.282 1.695
 0.036 -0.283 1.697
 0.046 -0.283 1.699
 0.056 -0.284 1.702
 0.066 -0.284 1.705
 0.076 -0.285 1.707
 0.086 -0.285 1.708
 0.096 -0.285 1.709
 0.106 -0.286 1.709
 0.116 -0.286 1.709
 0.126 -0.285 1.706
 0.135 -0.285 1.701
 0.144 -0.284 1.694
 0.153 -0.282 1.683
 0.162 -0.28 1.672
 0.17 -0.278 1.658
 0.179 -0.276 1.644
 0.186 -0.273 1.628
 0.194 -0.271 1.612
 0.201 -0.268 1.595
 0.209 -0.266 1.579
 0.216 -0.264 1.566
 0.224 -0.262 1.554
 0.229 -0.258 1.526
 0.237 -0.257 1.522
 0.247 -0.258 1.525
 0.256 -0.259 1.529
 0.266 -0.26 1.533
 0.279 -0.263 1.552
 0.288 -0.263 1.552
 0.297 -0.263 1.547
 0.304 -0.261 1.535
 0.311 -0.26 1.526
 0.318 -0.258 1.513
 0.323 -0.255 1.493
 0.326 -0.251 1.468
 0.33 -0.248 1.446
 0.332 -0.243 1.414
 0.331 -0.236 1.376
 0.329 -0.229 1.333
 0.326 -0.222 1.286
 0.322 -0.214 1.241
 0.32 -0.208 1.203
 0.317 -0.202 1.166
 0.314 -0.196 1.128
 0.312 -0.191 1.097
 0.314 -0.188 1.078
 0.313 -0.184 1.052
 0.311 -0.179 1.024
 0.314 -0.178 1.012
 0.313 -0.174 0.988
 0.315 -0.172 0.973
 0.315 -0.168 0.952
 0.315 -0.166 0.935
 0.316 -0.163 0.919
 0.319 -0.162 0.91
 0.319 -0.16 0.895
 0.323 -0.159 0.889
 0.325 -0.157 0.876
 0.323 -0.154 0.855
 0.325 -0.152 0.845
 0.327 -0.151 0.834
 0.326 -0.148 0.819
 0.33 -0.147 0.813
 0.332 -0.146 0.804
 0.332 -0.144 0.791
 0.333 -0.143 0.78
 0.335 -0.142 0.772
 0.336 -0.14 0.76
 0.339 -0.139 0.756
 0.34 -0.138 0.746
 0.344 -0.137 0.741
 0.345 -0.136 0.731
 0.347 -0.135 0.724
 0.35 -0.135 0.719
 0.353 -0.134 0.715
 0.355 -0.133 0.707
 0.358 -0.133 0.702
 0.361 -0.132 0.697
 0.363 -0.131 0.69
 0.366 -0.131 0.685
 0.37 -0.131 0.682
 0.374 -0.131 0.679
 0.377 -0.13 0.674
 0.379 -0.129 0.668
 0.38 -0.128 0.66
 0.39 -0.13 0.668
 -0.333 -0.107 0.588
 -0.333 -0.108 0.596
 -0.327 -0.107 0.593
 -0.326 -0.108 0.6
 -0.328 -0.11 0.614
 -0.337 -0.114 0.641
 -0.35 -0.12 0.677
 -0.36 -0.125 0.707
 -0.349 -0.123 0.696
 -0.334 -0.119 0.677
 -0.314 -0.114 0.646
 -0.291 -0.107 0.607
 -0.262 -0.098 0.554
 -0.254 -0.096 0.546
 -0.239 -0.092 0.521
 0 0 0
 0 0 0
 0 0 0
 0 0 0
 -0.495 -0.203 1.19
 -0.531 -0.22 1.299
 -0.539 -0.227 1.342
 -0.538 -0.23 1.363
 -0.534 -0.232 1.377
 -0.541 -0.239 1.421
 -0.538 -0.241 1.44
 -0.533 -0.243 1.453
 -0.528 -0.245 1.468
 -0.523 -0.247 1.482
 -0.517 -0.248 1.491
 -0.508 -0.248 1.494
 -0.499 -0.249 1.497
 -0.49 -0.249 1.5
 -0.481 -0.249 1.502
 -0.472 -0.249 1.506
 -0.463 -0.249 1.508
 -0.455 -0.249 1.512
 -0.446 -0.249 1.515
 -0.437 -0.25 1.518
 -0.429 -0.25 1.522
 -0.42 -0.25 1.526
 -0.411 -0.251 1.529
 -0.403 -0.251 1.533
 -0.394 -0.251 1.537
 -0.385 -0.251 1.539
 -0.376 -0.252 1.543
 -0.368 -0.252 1.547
 -0.359 -0.252 1.55
 -0.35 -0.253 1.553
 -0.341 -0.253 1.556
 -0.332 -0.253 1.559
 -0.323 -0.254 1.562
 -0.315 -0.254 1.566
 -0.306 -0.254 1.569
 -0.297 -0.255 1.573
 -0.288 -0.255 1.577
 -0.28 -0.256 1.582
 -0.271 -0.257 1.588
 -0.263 -0.258 1.594
 -0.253 -0.257 1.594
 -0.244 -0.258 1.598
 -0.236 -0.259 1.603
 -0.227 -0.259 1.607
 -0.217 -0.259 1.608
 -0.209 -0.261 1.619
 -0.2 -0.261 1.624
 -0.191 -0.262 1.627
 -0.182 -0.262 1.629
 -0.171 -0.26 1.618
 -0.16 -0.258 1.604
 -0.151 -0.258 1.606
 -0.142 -0.259 1.609
 -0.133 -0.259 1.614
 -0.125 -0.262 1.628
 -0.116 -0.264 1.642
 -0.107 -0.265 1.647
 -0.098 -0.265 1.651
 -0.088 -0.266 1.654
 -0.079 -0.266 1.658
 -0.069 -0.267 1.662
 -0.06 -0.267 1.666
 -0.05 -0.268 1.668
 -0.041 -0.269 1.673
 -0.031 -0.269 1.676
 -0.021 -0.27 1.679
 -0.012 -0.27 1.682
 -0.002 -0.271 1.686
 0.007 -0.271 1.689
 0.017 -0.272 1.691
 0.026 -0.272 1.695
 0.036 -0.273 1.697
 0.046 -0.273 1.699
 0.056 -0.274 1.702
 0.066 -0.274 1.704
 0.076 -0.275 1.706
 0.086 -0.275 1.708
 0.096 -0.275 1.709
 0.106 -0.275 1.709
 0.116 -0.275 1.708
 0.126 -0.275 1.706
 0.135 -0.274 1.7
 0.144 -0.273 1.693
 0.153 -0.272 1.683
 0.162 -0.27 1.672
 0.17 -0.268 1.658
 0.179 -0.266 1.644
 0.186 -0.264 1.628
 0.194 -0.261 1.612
 0.201 -0.259 1.594
 0.208 -0.256 1.577
 0.216 -0.254 1.565
 0.223 -0.253 1.552
 0.229 -0.248 1.525
 0.237 -0.248 1.521
 0.246 -0.249 1.524
 0.256 -0.249 1.527
 0.266 -0.251 1.533
 0.279 -0.254 1.551
 0.288 -0.254 1.552
 0.296 -0.253 1.545
 0.303 -0.252 1.533
 0.31 -0.25 1.52
 0.317 -0.248 1.509
 0.321 -0.245 1.488
 0.325 -0.242 1.464
 0.329 -0.238 1.442
 0.331 -0.233 1.411
 0.33 -0.227 1.371
 0.328 -0.221 1.331
 0.325 -0.213 1.283
 0.32 -0.206 1.235
 0.318 -0.2 1.199
 0.316 -0.194 1.161
 0.311 -0.188 1.119
 0.31 -0.183 1.091
 0.313 -0.181 1.075
 0.312 -0.177 1.049
 0.31 -0.173 1.022
 0.314 -0.171 1.011
 0.312 -0.167 0.985
 0.313 -0.165 0.968
 0.313 -0.162 0.949
 0.314 -0.159 0.932
 0.315 -0.157 0.918
 0.318 -0.156 0.908
 0.319 -0.154 0.893
 0.32 -0.152 0.881
 0.322 -0.151 0.871
 0.321 -0.147 0.85
 0.323 -0.146 0.841
 0.325 -0.145 0.832
 0.327 -0.143 0.821
 0.33 -0.143 0.815
 0.334 -0.142 0.809
 0.335 -0.141 0.8
 0.337 -0.139 0.789
 0.338 -0.138 0.78
 0.338 -0.136 0.766
 0.34 -0.135 0.759
 0.341 -0.134 0.749
 0.344 -0.133 0.743
 0.345 -0.132 0.733
 0.349 -0.131 0.729
 0.352 -0.131 0.723
 0.355 -0.13 0.718
 0.356 -0.129 0.709
 0.36 -0.129 0.706
 0.362 -0.128 0.698
 0.363 -0.127 0.69
 0.366 -0.126 0.685
 0.37 -0.126 0.682
 0.373 -0.126 0.678
 0.376 -0.125 0.673
 0.379 -0.125 0.668
 0.387 -0.126 0.672
 0.381 -0.123 0.652
 -0.33 -0.102 0.583
 -0.332 -0.104 0.595
 -0.327 -0.103 0.594
 -0.329 -0.105 0.607
 -0.333 -0.108 0.625
 -0.344 -0.113 0.655
 -0.357 -0.118 0.691
 -0.369 -0.124 0.726
 -0.361 -0.123 0.722
 -0.345 -0.119 0.7
 -0.326 -0.114 0.671
 -0.303 -0.107 0.634
 -0.275 -0.099 0.583
 -0.262 -0.096 0.564
 -0.251 -0.093 0.549
 0 0 0
 0 0 0
 0 0 0
 0 0 0
 -0.493 -0.194 1.187
 -0.526 -0.21 1.289
 -0.535 -0.217 1.333
 -0.534 -0.22 1.356
 -0.531 -0.222 1.372
 -0.541 -0.23 1.424
 -0.538 -0.233 1.442
 -0.533 -0.234 1.455
 -0.528 -0.236 1.469
 -0.523 -0.238 1.482
 -0.516 -0.239 1.49
 -0.507 -0.239 1.493
 -0.498 -0.239 1.497
 -0.489 -0.239 1.499
 -0.48 -0.239 1.502
 -0.472 -0.239 1.505
 -0.463 -0.24 1.508
 -0.454 -0.24 1.511
 -0.445 -0.24 1.514
 -0.437 -0.24 1.518
 -0.428 -0.241 1.521
 -0.419 -0.241 1.525
 -0.411 -0.241 1.529
 -0.402 -0.242 1.533
 -0.393 -0.242 1.536
 -0.385 -0.242 1.539
 -0.376 -0.242 1.543
 -0.367 -0.243 1.546
 -0.358 -0.243 1.549
 -0.35 -0.243 1.552
 -0.341 -0.243 1.555
 -0.332 -0.244 1.559
 -0.323 -0.244 1.563
 -0.315 -0.245 1.568
 -0.306 -0.245 1.572
 -0.298 -0.246 1.577
 -0.289 -0.246 1.581
 -0.28 -0.247 1.586
 -0.272 -0.248 1.591
 -0.263 -0.248 1.594
 -0.253 -0.248 1.594
 -0.244 -0.248 1.597
 -0.235 -0.249 1.602
 -0.226 -0.249 1.605
 -0.217 -0.25 1.61
 -0.21 -0.252 1.623
 -0.201 -0.253 1.629
 -0.192 -0.253 1.632
 -0.182 -0.253 1.633
 -0.169 -0.247 1.595
 -0.158 -0.244 1.578
 -0.149 -0.245 1.585
 -0.14 -0.247 1.593
 -0.132 -0.248 1.601
 -0.124 -0.251 1.625
 -0.116 -0.254 1.642
 -0.107 -0.255 1.647
 -0.097 -0.255 1.65
 -0.088 -0.256 1.653
 -0.079 -0.256 1.657
 -0.069 -0.257 1.661
 -0.06 -0.257 1.665
 -0.05 -0.258 1.668
 -0.041 -0.259 1.672
 -0.031 -0.259 1.675
 -0.021 -0.26 1.678
 -0.012 -0.26 1.682
 -0.002 -0.261 1.686
 0.007 -0.261 1.688
 0.017 -0.262 1.691
 0.027 -0.262 1.694
 0.036 -0.263 1.697
 0.046 -0.263 1.699
 0.056 -0.264 1.701
 0.066 -0.264 1.703
 0.076 -0.264 1.705
 0.086 -0.265 1.707
 0.096 -0.265 1.707
 0.106 -0.265 1.708
 0.116 -0.265 1.707
 0.125 -0.265 1.704
 0.135 -0.264 1.699
 0.144 -0.263 1.692
 0.153 -0.262 1.682
 0.162 -0.26 1.67
 0.17 -0.258 1.656
 0.178 -0.256 1.642
 0.186 -0.254 1.627
 0.194 -0.252 1.611
 0.201 -0.249 1.593
 0.208 -0.247 1.577
 0.216 -0.245 1.563
 0.223 -0.243 1.551
 0.228 -0.239 1.521
 0.236 -0.238 1.517
 0.246 -0.239 1.519
 0.255 -0.24 1.523
 0.265 -0.24 1.526
 0.278 -0.244 1.546
 0.287 -0.244 1.544
 0.294 -0.243 1.536
 0.301 -0.241 1.525
 0.308 -0.24 1.513
 0.315 -0.238 1.503
 0.32 -0.235 1.482
 0.324 -0.232 1.461
 0.328 -0.229 1.438
 0.329 -0.224 1.407
 0.329 -0.218 1.367
 0.328 -0.213 1.33
 0.325 -0.206 1.285
 0.319 -0.198 1.233
 0.318 -0.193 1.198
 0.315 -0.187 1.16
 0.31 -0.18 1.116
 0.308 -0.176 1.084
 0.312 -0.174 1.073
 0.311 -0.17 1.048
 0.31 -0.166 1.021
 0.313 -0.165 1.009
 0.313 -0.162 0.989
 0.312 -0.158 0.965
 0.311 -0.155 0.944
 0.312 -0.153 0.928
 0.314 -0.151 0.914
 0.316 -0.149 0.903
 0.318 -0.148 0.891
 0.32 -0.146 0.88
 0.322 -0.145 0.869
 0.322 -0.142 0.853
 0.323 -0.141 0.842
 0.325 -0.14 0.831
 0.325 -0.138 0.818
 0.328 -0.137 0.81
 0.331 -0.136 0.804
 0.333 -0.135 0.794
 0.334 -0.133 0.784
 0.337 -0.132 0.776
 0.337 -0.131 0.765
 0.339 -0.13 0.756
 0.341 -0.129 0.748
 0.344 -0.128 0.743
 0.346 -0.127 0.735
 0.349 -0.127 0.73
 0.352 -0.126 0.725
 0.356 -0.126 0.72
 0.357 -0.125 0.712
 0.361 -0.124 0.708
 0.362 -0.124 0.7
 0.364 -0.123 0.692
 0.366 -0.122 0.687
 0.37 -0.122 0.683
 0.373 -0.121 0.678
 0.376 -0.121 0.673
 0.379 -0.121 0.67
 0.386 -0.121 0.671
 0.381 -0.118 0.653
 -0.325 -0.097 0.574
 -0.329 -0.099 0.589
 -0.327 -0.1 0.596
 -0.332 -0.102 0.613
 -0.339 -0.106 0.637
 -0.35 -0.11 0.667
 -0.362 -0.115 0.702
 -0.375 -0.121 0.739
 -0.371 -0.121 0.742
 -0.357 -0.118 0.726
 -0.336 -0.113 0.692
 -0.315 -0.107 0.66
 -0.29 -0.1 0.617
 -0.275 -0.096 0.592
 -0.258 -0.092 0.565
 0 0 0
 0 0 0
 0 0 0
 0 0 0
 -0.503 -0.191 1.212
 -0.532 -0.205 1.304
 -0.538 -0.21 1.343
 -0.537 -0.213 1.364
 -0.533 -0.215 1.378
 -0.542 -0.222 1.427
 -0.538 -0.224 1.443
 -0.533 -0.226 1.456
 -0.528 -0.227 1.47
 -0.523 -0.229 1.482
 -0.515 -0.23 1.49
 -0.506 -0.23 1.493
 -0.498 -0.23 1.496
 -0.489 -0.23 1.498
 -0.48 -0.23 1.501
 -0.471 -0.23 1.504
 -0.462 -0.23 1.507
 -0.453 -0.23 1.51
 -0.445 -0.231 1.513
 -0.436 -0.231 1.517
 -0.427 -0.231 1.521
 -0.419 -0.232 1.525
 -0.41 -0.232 1.528
 -0.402 -0.232 1.532
 -0.393 -0.232 1.536
 -0.384 -0.233 1.539
 -0.376 -0.233 1.543
 -0.367 -0.233 1.546
 -0.358 -0.234 1.549
 -0.349 -0.234 1.552
 -0.341 -0.234 1.556
 -0.332 -0.235 1.561
 -0.323 -0.235 1.565
 -0.315 -0.236 1.57
 -0.306 -0.236 1.574
 -0.298 -0.237 1.579
 -0.289 -0.237 1.583
 -0.281 -0.238 1.589
 -0.272 -0.238 1.593
 -0.262 -0.238 1.591
 -0.252 -0.238 1.589
 -0.243 -0.238 1.591
 -0.234 -0.238 1.594
 -0.225 -0.238 1.597
 -0.217 -0.241 1.612
 -0.21 -0.243 1.629
 -0.201 -0.244 1.633
 -0.192 -0.244 1.634
 -0.182 -0.243 1.63
 -0.163 -0.23 1.54
 -0.153 -0.229 1.535
 -0.146 -0.232 1.557
 -0.139 -0.234 1.573
 -0.131 -0.236 1.588
 -0.124 -0.241 1.622
 -0.116 -0.244 1.642
 -0.107 -0.245 1.647
 -0.097 -0.245 1.65
 -0.088 -0.246 1.653
 -0.078 -0.246 1.657
 -0.069 -0.247 1.661
 -0.06 -0.248 1.664
 -0.05 -0.248 1.668
 -0.04 -0.249 1.671
 -0.031 -0.249 1.675
 -0.021 -0.25 1.678
 -0.012 -0.25 1.681
 -0.002 -0.251 1.685
 0.007 -0.251 1.688
 0.017 -0.252 1.691
 0.027 -0.252 1.693
 0.036 -0.253 1.696
 0.046 -0.253 1.698
 0.056 -0.253 1.7
 0.066 -0.254 1.703
 0.076 -0.254 1.705
 0.086 -0.254 1.706
 0.096 -0.255 1.707
 0.106 -0.255 1.707
 0.116 -0.255 1.707
 0.125 -0.255 1.704
 0.135 -0.254 1.699
 0.144 -0.253 1.692
 0.153 -0.252 1.682
 0.162 -0.25 1.669
 0.17 -0.248 1.656
 0.178 -0.246 1.642
 0.186 -0.244 1.626
 0.194 -0.242 1.61
 0.201 -0.239 1.592
 0.208 -0.237 1.576
 0.215 -0.235 1.562
 0.223 -0.234 1.549
 0.227 -0.229 1.517
 0.235 -0.229 1.512
 0.245 -0.229 1.515
 0.254 -0.23 1.518
 0.264 -0.23 1.52
 0.277 -0.234 1.542
 0.285 -0.233 1.538
 0.292 -0.232 1.527
 0.299 -0.231 1.516
 0.306 -0.229 1.504
 0.313 -0.228 1.495
 0.319 -0.226 1.48
 0.324 -0.223 1.459
 0.327 -0.22 1.436
 0.328 -0.215 1.402
 0.327 -0.209 1.362
 0.326 -0.204 1.322
 0.323 -0.197 1.278
 0.317 -0.189 1.223
 0.316 -0.185 1.192
 0.314 -0.179 1.156
 0.311 -0.174 1.121
 0.311 -0.17 1.093
 0.314 -0.169 1.08
 0.313 -0.165 1.052
 0.312 -0.161 1.029
 0.313 -0.159 1.011
 0.313 -0.156 0.99
 0.311 -0.152 0.964
 0.312 -0.15 0.946
 0.313 -0.148 0.931
 0.314 -0.146 0.917
 0.316 -0.144 0.905
 0.317 -0.142 0.891
 0.319 -0.14 0.878
 0.319 -0.138 0.862
 0.319 -0.136 0.845
 0.321 -0.135 0.837
 0.324 -0.134 0.83
 0.325 -0.132 0.817
 0.328 -0.132 0.81
 0.331 -0.131 0.804
 0.333 -0.13 0.794
 0.334 -0.128 0.783
 0.335 -0.127 0.773
 0.336 -0.126 0.762
 0.337 -0.124 0.753
 0.339 -0.123 0.745
 0.343 -0.123 0.741
 0.344 -0.122 0.732
 0.348 -0.121 0.727
 0.352 -0.121 0.724
 0.355 -0.121 0.719
 0.356 -0.12 0.71
 0.36 -0.12 0.708
 0.363 -0.119 0.702
 0.364 -0.118 0.693
 0.367 -0.118 0.688
 0.371 -0.118 0.686
 0.374 -0.117 0.68
 0.376 -0.116 0.674
 0.379 -0.116 0.669
 0.376 -0.114 0.654
 0.393 -0.118 0.675
 -0.322 -0.092 0.568
 -0.324 -0.094 0.581
 -0.328 -0.096 0.598
 -0.335 -0.099 0.62
 -0.345 -0.103 0.649
 -0.355 -0.107 0.678
 -0.367 -0.112 0.712
 -0.38 -0.118 0.749
 -0.379 -0.119 0.76
 -0.37 -0.118 0.753
 -0.351 -0.113 0.725
 -0.329 -0.108 0.689
 -0.307 -0.102 0.654
 -0.288 -0.097 0.622
 -0.264 -0.09 0.58
 -0.258 -0.09 0.575
 0 0 0
 0 0 0
 0 0 0
 -0.515 -0.188 1.243
 -0.539 -0.199 1.323
 -0.543 -0.204 1.356
 -0.541 -0.206 1.375
 -0.536 -0.207 1.386
 -0.542 -0.213 1.429
 -0.538 -0.215 1.444
 -0.533 -0.217 1.457
 -0.528 -0.218 1.469
 -0.522 -0.22 1.482
 -0.515 -0.22 1.489
 -0.506 -0.22 1.492
 -0.497 -0.221 1.495
 -0.488 -0.221 1.498
 -0.479 -0.221 1.501
 -0.47 -0.221 1.504
 -0.462 -0.221 1.507
 -0.453 -0.221 1.51
 -0.444 -0.221 1.513
 -0.435 -0.222 1.516
 -0.427 -0.222 1.521
 -0.418 -0.222 1.524
 -0.41 -0.223 1.528
 -0.401 -0.223 1.532
 -0.393 -0.223 1.536
 -0.384 -0.223 1.539
 -0.375 -0.224 1.543
 -0.367 -0.224 1.546
 -0.358 -0.224 1.548
 -0.349 -0.224 1.551
 -0.34 -0.225 1.556
 -0.332 -0.225 1.56
 -0.323 -0.226 1.563
 -0.314 -0.226 1.569
 -0.306 -0.227 1.575
 -0.298 -0.228 1.581
 -0.289 -0.228 1.585
 -0.281 -0.229 1.592
 -0.271 -0.229 1.593
 -0.261 -0.228 1.59
 -0.251 -0.228 1.586
 -0.242 -0.228 1.586
 -0.232 -0.227 1.584
 -0.224 -0.228 1.589
 -0.216 -0.23 1.605
 -0.21 -0.233 1.627
 0 0 0
 0 0 0
 0 0 0
 -0.15 -0.203 1.419
 -0.15 -0.215 1.499
 -0.145 -0.221 1.546
 -0.138 -0.225 1.571
 -0.13 -0.227 1.586
 -0.124 -0.232 1.624
 -0.116 -0.235 1.642
 -0.106 -0.235 1.646
 -0.097 -0.236 1.649
 -0.088 -0.236 1.653
 -0.078 -0.237 1.657
 -0.069 -0.237 1.66
 -0.059 -0.238 1.664
 -0.05 -0.238 1.668
 -0.04 -0.239 1.671
 -0.031 -0.239 1.674
 -0.021 -0.24 1.678
 -0.011 -0.24 1.681
 -0.002 -0.241 1.685
 0.007 -0.241 1.688
 0.017 -0.242 1.69
 0.027 -0.242 1.693
 0.036 -0.243 1.696
 0.046 -0.243 1.698
 0.056 -0.243 1.7
 0.066 -0.244 1.702
 0.076 -0.244 1.704
 0.086 -0.244 1.705
 0.096 -0.244 1.706
 0.106 -0.245 1.707
 0.116 -0.245 1.706
 0.125 -0.245 1.704
 0.135 -0.244 1.698
 0.144 -0.243 1.692
 0.153 -0.242 1.682
 0.162 -0.24 1.669
 0.17 -0.238 1.655
 0.178 -0.236 1.641
 0.186 -0.234 1.625
 0.193 -0.232 1.609
 0.201 -0.23 1.592
 0.208 -0.228 1.575
 0.215 -0.226 1.562
 0.222 -0.224 1.547
 0.226 -0.22 1.514
 0.235 -0.219 1.508
 0.244 -0.219 1.509
 0.253 -0.22 1.511
 0.262 -0.22 1.511
 0.275 -0.223 1.53
 0.283 -0.222 1.526
 0.29 -0.221 1.514
 0.296 -0.219 1.501
 0.303 -0.218 1.489
 0.31 -0.217 1.482
 0.316 -0.215 1.467
 0.321 -0.213 1.448
 0.325 -0.21 1.426
 0.326 -0.205 1.393
 0.325 -0.2 1.355
 0.324 -0.194 1.314
 0.321 -0.188 1.27
 0.314 -0.181 1.215
 0.313 -0.176 1.181
 0.31 -0.171 1.143
 0.309 -0.166 1.112
 0.308 -0.163 1.086
 0.311 -0.161 1.07
 0.311 -0.158 1.049
 0.311 -0.154 1.025
 0.312 -0.152 1.007
 0.311 -0.149 0.984
 0.311 -0.146 0.962
 0.311 -0.143 0.943
 0.313 -0.142 0.931
 0.314 -0.14 0.916
 0.316 -0.138 0.903
 0.318 -0.137 0.892
 0.319 -0.135 0.879
 0.319 -0.133 0.864
 0.319 -0.131 0.847
 0.321 -0.13 0.838
 0.324 -0.129 0.829
 0.324 -0.127 0.816
 0.327 -0.126 0.808
 0.329 -0.125 0.8
 0.332 -0.125 0.793
 0.333 -0.123 0.783
 0.334 -0.122 0.771
 0.335 -0.121 0.762
 0.337 -0.12 0.753
 0.338 -0.118 0.744
 0.342 -0.118 0.739
 0.344 -0.117 0.732
 0.348 -0.117 0.729
 0.352 -0.117 0.726
 0.355 -0.116 0.72
 0.357 -0.115 0.712
 0.36 -0.115 0.707
 0.362 -0.114 0.701
 0.363 -0.113 0.693
 0.366 -0.113 0.687
 0.369 -0.113 0.684
 0.373 -0.112 0.679
 0.374 -0.112 0.672
 0.377 -0.111 0.668
 0.385 -0.112 0.671
 0.381 -0.11 0.655
 -0.323 -0.089 0.572
 -0.319 -0.088 0.572
 -0.33 -0.092 0.601
 -0.339 -0.096 0.629
 -0.351 -0.101 0.66
 -0.36 -0.104 0.688
 -0.371 -0.109 0.722
 -0.384 -0.114 0.758
 -0.385 -0.116 0.773
 -0.38 -0.116 0.774
 -0.366 -0.113 0.757
 -0.346 -0.109 0.727
 -0.328 -0.104 0.7
 -0.308 -0.1 0.668
 -0.284 -0.093 0.625
 -0.27 -0.09 0.603
 0 0 0
 0 0 0
 0 0 0
 -0.518 -0.181 1.251
 -0.541 -0.192 1.329
 -0.544 -0.196 1.36
 -0.542 -0.198 1.378
 -0.537 -0.199 1.39
 -0.542 -0.205 1.431
 -0.538 -0.206 1.445
 -0.533 -0.208 1.458
 -0.527 -0.209 1.47
 -0.522 -0.21 1.482
 -0.514 -0.211 1.489
 -0.505 -0.211 1.492
 -0.497 -0.211 1.495
 -0.488 -0.211 1.498
 -0.479 -0.212 1.501
 -0.47 -0.212 1.504
 -0.461 -0.212 1.506
 -0.452 -0.212 1.509
 -0.444 -0.212 1.513
 -0.435 -0.212 1.516
 -0.427 -0.213 1.52
 -0.418 -0.213 1.524
 -0.41 -0.213 1.528
 -0.401 -0.214 1.532
 -0.392 -0.214 1.536
 -0.384 -0.214 1.539
 -0.375 -0.214 1.543
 -0.366 -0.215 1.546
 -0.357 -0.215 1.548
 -0.348 -0.215 1.551
 -0.34 -0.215 1.555
 -0.331 -0.216 1.56
 -0.323 -0.216 1.563
 -0.314 -0.217 1.569
 -0.306 -0.218 1.575
 -0.298 -0.218 1.582
 -0.289 -0.219 1.587
 -0.28 -0.219 1.591
 -0.271 -0.219 1.592
 -0.261 -0.219 1.587
 -0.25 -0.217 1.579
 -0.24 -0.216 1.572
 -0.229 -0.215 1.56
 -0.216 -0.212 1.538
 0 0 0
 0 0 0
 0 0 0
 0 0 0
 0 0 0
 -0.151 -0.196 1.427
 -0.15 -0.206 1.501
 -0.145 -0.212 1.542
 -0.138 -0.215 1.566
 -0.131 -0.218 1.59
 -0.124 -0.223 1.63
 -0.116 -0.225 1.642
 -0.106 -0.225 1.646
 -0.097 -0.226 1.649
 -0.088 -0.226 1.652
 -0.078 -0.227 1.656
 -0.069 -0.227 1.66
 -0.059 -0.228 1.664
 -0.05 -0.228 1.667
 -0.04 -0.229 1.67
 -0.031 -0.229 1.673
 -0.021 -0.23 1.677
 -0.011 -0.23 1.681
 -0.002 -0.231 1.684
 0.007 -0.231 1.687
 0.017 -0.232 1.69
 0.027 -0.232 1.693
 0.036 -0.233 1.696
 0.046 -0.233 1.698
 0.056 -0.233 1.7
 0.066 -0.234 1.702
 0.076 -0.234 1.704
 0.086 -0.234 1.705
 0.096 -0.234 1.706
 0.106 -0.235 1.707
 0.116 -0.235 1.706
 0.125 -0.234 1.703
 0.135 -0.234 1.698
 0.144 -0.233 1.692
 0.153 -0.232 1.681
 0.161 -0.23 1.668
 0.17 -0.229 1.655
 0.178 -0.227 1.641
 0.186 -0.225 1.624
 0.193 -0.223 1.608
 0.201 -0.22 1.591
 0.208 -0.218 1.574
 0.215 -0.217 1.56
 0.222 -0.214 1.543
 0.225 -0.21 1.507
 0.233 -0.209 1.5
 0.242 -0.209 1.5
 0.251 -0.209 1.498
 0.26 -0.209 1.499
 0.272 -0.212 1.518
 0.28 -0.211 1.509
 0.286 -0.209 1.494
 0.292 -0.208 1.481
 0.299 -0.206 1.468
 0.306 -0.206 1.462
 0.313 -0.204 1.451
 0.318 -0.202 1.436
 0.323 -0.2 1.417
 0.324 -0.196 1.386
 0.324 -0.191 1.35
 0.323 -0.186 1.311
 0.32 -0.18 1.268
 0.314 -0.173 1.215
 0.312 -0.168 1.178
 0.309 -0.163 1.139
 0.307 -0.159 1.107
 0.307 -0.155 1.08
 0.308 -0.153 1.063
 0.31 -0.151 1.045
 0.31 -0.148 1.021
 0.31 -0.145 1.003
 0.31 -0.143 0.982
 0.31 -0.14 0.961
 0.31 -0.138 0.943
 0.313 -0.136 0.931
 0.314 -0.135 0.918
 0.315 -0.133 0.903
 0.316 -0.131 0.889
 0.318 -0.13 0.878
 0.319 -0.128 0.864
 0.319 -0.126 0.848
 0.322 -0.125 0.839
 0.325 -0.124 0.832
 0.325 -0.122 0.818
 0.326 -0.121 0.808
 0.329 -0.12 0.8
 0.331 -0.119 0.792
 0.333 -0.118 0.783
 0.334 -0.117 0.773
 0.336 -0.116 0.764
 0.338 -0.115 0.756
 0.341 -0.114 0.749
 0.343 -0.114 0.743
 0.345 -0.113 0.735
 0.349 -0.113 0.732
 0.353 -0.113 0.728
 0.355 -0.112 0.721
 0.357 -0.111 0.714
 0.36 -0.111 0.708
 0.362 -0.11 0.701
 0.363 -0.109 0.693
 0.365 -0.108 0.687
 0.369 -0.108 0.683
 0.372 -0.108 0.678
 0.374 -0.107 0.671
 0.377 -0.107 0.667
 0.37 -0.104 0.646
 0.382 -0.106 0.656
 -0.321 -0.084 0.568
 -0.318 -0.085 0.572
 -0.332 -0.089 0.606
 -0.343 -0.093 0.637
 -0.355 -0.097 0.669
 -0.364 -0.101 0.697
 -0.375 -0.105 0.729
 -0.386 -0.11 0.762
 -0.39 -0.112 0.783
 -0.389 -0.114 0.794
 -0.378 -0.112 0.783
 -0.357 -0.107 0.75
 -0.339 -0.103 0.724
 -0.319 -0.099 0.692
 -0.294 -0.092 0.648
 -0.273 -0.087 0.61
 0 0 0
 0 0 0
 0 0 0
 -0.525 -0.176 1.269
 -0.545 -0.185 1.339
 -0.546 -0.188 1.367
 -0.543 -0.19 1.383
 -0.538 -0.191 1.394
 -0.542 -0.196 1.431
 -0.538 -0.197 1.446
 -0.532 -0.199 1.458
 -0.527 -0.2 1.47
 -0.521 -0.201 1.482
 -0.514 -0.202 1.489
 -0.505 -0.202 1.491
 -0.496 -0.202 1.495
 -0.487 -0.202 1.497
 -0.478 -0.202 1.5
 -0.469 -0.202 1.503
 -0.461 -0.202 1.506
 -0.452 -0.203 1.509
 -0.443 -0.203 1.513
 -0.435 -0.203 1.516
 -0.426 -0.203 1.52
 -0.418 -0.204 1.524
 -0.409 -0.204 1.528
 -0.401 -0.204 1.532
 -0.392 -0.205 1.535
 -0.383 -0.205 1.539
 -0.375 -0.205 1.542
 -0.366 -0.205 1.545
 -0.357 -0.205 1.547
 -0.348 -0.206 1.55
 -0.339 -0.206 1.554
 -0.331 -0.207 1.559
 -0.322 -0.207 1.563
 -0.314 -0.208 1.569
 -0.306 -0.208 1.577
 -0.298 -0.209 1.583
 -0.289 -0.209 1.586
 -0.279 -0.209 1.582
 -0.269 -0.208 1.579
 -0.258 -0.207 1.569
 -0.247 -0.206 1.561
 -0.236 -0.204 1.546
 -0.226 -0.203 1.54
 0 0 0
 0 0 0
 0 0 0
 0 0 0
 0 0 0
 0 0 0
 -0.153 -0.191 1.454
 -0.151 -0.199 1.518
 -0.145 -0.204 1.552
 -0.138 -0.206 1.572
 -0.131 -0.21 1.602
 -0.124 -0.214 1.633
 -0.115 -0.215 1.641
 -0.106 -0.216 1.645
 -0.097 -0.216 1.648
 -0.087 -0.216 1.652
 -0.078 -0.217 1.656
 -0.069 -0.217 1.659
 -0.059 -0.218 1.663
 -0.05 -0.219 1.667
 -0.04 -0.219 1.67
 -0.031 -0.219 1.673
 -0.021 -0.22 1.676
 -0.011 -0.22 1.68
 -0.002 -0.221 1.683
 0.007 -0.221 1.686
 0.017 -0.222 1.689
 0.027 -0.222 1.692
 0.036 -0.223 1.695
 0.046 -0.223 1.698
 0.056 -0.223 1.7
 0.066 -0.224 1.702
 0.076 -0.224 1.704
 0.086 -0.224 1.705
 0.096 -0.224 1.705
 0.106 -0.225 1.706
 0.116 -0.225 1.706
 0.125 -0.224 1.703
 0.135 -0.224 1.697
 0.144 -0.223 1.691
 0.153 -0.222 1.68
 0.161 -0.22 1.667
 0.17 -0.219 1.654
 0.178 -0.217 1.639
 0.185 -0.215 1.623
 0.193 -0.213 1.607
 0.2 -0.211 1.59
 0.207 -0.209 1.573
 0.215 -0.207 1.56
 0.221 -0.205 1.541
 0.225 -0.2 1.504
 0.232 -0.199 1.495
 0.241 -0.199 1.491
 0.249 -0.199 1.488
 0.257 -0.199 1.486
 0.269 -0.201 1.502
 0.276 -0.2 1.492
 0.282 -0.198 1.476
 0.288 -0.196 1.46
 0.295 -0.195 1.451
 0.303 -0.195 1.447
 0.31 -0.194 1.439
 0.316 -0.193 1.429
 0.321 -0.191 1.413
 0.323 -0.187 1.383
 0.323 -0.183 1.346
 0.321 -0.177 1.303
 0.318 -0.171 1.259
 0.312 -0.165 1.207
 0.309 -0.16 1.168
 0.307 -0.155 1.132
 0.307 -0.152 1.106
 0.306 -0.148 1.079
 0.308 -0.146 1.06
 0.309 -0.144 1.042
 0.309 -0.141 1.02
 0.309 -0.138 0.998
 0.309 -0.136 0.979
 0.31 -0.134 0.96
 0.31 -0.132 0.943
 0.312 -0.13 0.931
 0.313 -0.128 0.915
 0.314 -0.126 0.899
 0.315 -0.125 0.886
 0.317 -0.124 0.875
 0.317 -0.122 0.86
 0.318 -0.12 0.846
 0.321 -0.119 0.839
 0.323 -0.118 0.829
 0.323 -0.117 0.815
 0.325 -0.116 0.806
 0.327 -0.115 0.797
 0.329 -0.114 0.787
 0.331 -0.113 0.779
 0.333 -0.112 0.77
 0.335 -0.111 0.761
 0.338 -0.11 0.756
 0.34 -0.11 0.749
 0.343 -0.109 0.743
 0.345 -0.108 0.735
 0.349 -0.108 0.733
 0.352 -0.108 0.726
 0.353 -0.107 0.718
 0.356 -0.106 0.712
 0.359 -0.106 0.707
 0.361 -0.105 0.701
 0.364 -0.105 0.695
 0.366 -0.104 0.689
 0.37 -0.104 0.686
 0.373 -0.103 0.68
 0.374 -0.103 0.673
 0.376 -0.102 0.667
 0.384 -0.103 0.67
 0.374 -0.099 0.643
 -0.316 -0.079 0.56
 -0.316 -0.08 0.567
 -0.336 -0.086 0.613
 -0.347 -0.09 0.645
 -0.359 -0.094 0.677
 -0.367 -0.097 0.704
 -0.377 -0.101 0.734
 -0.385 -0.105 0.762
 -0.389 -0.107 0.783
 -0.393 -0.11 0.803
 -0.389 -0.11 0.806
 -0.372 -0.107 0.783
 -0.355 -0.103 0.76
 -0.338 -0.1 0.734
 -0.315 -0.094 0.695
 -0.291 -0.088 0.651
 0 0 0
 0 0 0
 0 0 0
 -0.536 -0.171 1.296
 -0.55 -0.178 1.354
 -0.55 -0.181 1.376
 -0.546 -0.182 1.391
 -0.54 -0.183 1.4
 -0.542 -0.187 1.432
 -0.537 -0.188 1.446
 -0.532 -0.19 1.458
 -0.526 -0.191 1.47
 -0.521 -0.192 1.482
 -0.513 -0.193 1.488
 -0.504 -0.193 1.49
 -0.495 -0.193 1.494
 -0.486 -0.193 1.496
 -0.478 -0.193 1.5
 -0.469 -0.193 1.502
 -0.46 -0.193 1.505
 -0.451 -0.193 1.509
 -0.443 -0.194 1.512
 -0.434 -0.194 1.516
 -0.426 -0.194 1.52
 -0.417 -0.194 1.524
 -0.409 -0.195 1.527
 -0.4 -0.195 1.531
 -0.392 -0.195 1.535
 -0.383 -0.196 1.538
 -0.374 -0.196 1.542
 -0.365 -0.196 1.545
 -0.356 -0.196 1.546
 -0.347 -0.196 1.549
 -0.339 -0.197 1.553
 -0.33 -0.197 1.558
 -0.322 -0.197 1.561
 -0.313 -0.198 1.566
 -0.305 -0.199 1.573
 -0.297 -0.199 1.58
 -0.287 -0.199 1.578
 -0.277 -0.198 1.573
 -0.267 -0.198 1.571
 -0.256 -0.196 1.56
 -0.244 -0.194 1.545
 -0.233 -0.193 1.532
 0 0 0
 0 0 0
 0 0 0
 0 0 0
 0 0 0
 0 0 0
 0 0 0
 -0.156 -0.186 1.48
 -0.152 -0.192 1.533
 -0.146 -0.196 1.561
 -0.138 -0.198 1.578
 -0.132 -0.202 1.612
 -0.124 -0.205 1.635
 -0.115 -0.205 1.641
 -0.106 -0.206 1.644
 -0.097 -0.206 1.648
 -0.087 -0.207 1.652
 -0.078 -0.207 1.656
 -0.069 -0.208 1.659
 -0.059 -0.208 1.663
 -0.05 -0.209 1.666
 -0.04 -0.209 1.669
 -0.031 -0.209 1.672
 -0.021 -0.21 1.675
 -0.011 -0.21 1.678
 -0.002 -0.211 1.681
 0.007 -0.211 1.685
 0.017 -0.212 1.688
 0.027 -0.212 1.692
 0.036 -0.213 1.695
 0.046 -0.213 1.697
 0.056 -0.213 1.699
 0.066 -0.214 1.701
 0.076 -0.214 1.703
 0.086 -0.214 1.704
 0.096 -0.214 1.705
 0.106 -0.215 1.706
 0.116 -0.215 1.706
 0.125 -0.214 1.703
 0.135 -0.214 1.698
 0.144 -0.213 1.691
 0.153 -0.212 1.68
 0.161 -0.21 1.667
 0.17 -0.209 1.654
 0.178 -0.207 1.639
 0.185 -0.205 1.623
 0.193 -0.203 1.607
 0.2 -0.202 1.59
 0.207 -0.2 1.574
 0.215 -0.198 1.56
 0.221 -0.196 1.538
 0.224 -0.191 1.499
 0.231 -0.189 1.487
 0.238 -0.189 1.478
 0.246 -0.188 1.471
 0.254 -0.188 1.468
 0.265 -0.189 1.481
 0.272 -0.188 1.471
 0.279 -0.187 1.458
 0.284 -0.185 1.441
 0.291 -0.184 1.432
 0.299 -0.184 1.43
 0.306 -0.183 1.423
 0.313 -0.182 1.413
 0.319 -0.181 1.4
 0.321 -0.178 1.374
 0.321 -0.173 1.337
 0.319 -0.168 1.296
 0.316 -0.163 1.252
 0.311 -0.157 1.203
 0.308 -0.152 1.164
 0.305 -0.148 1.126
 0.305 -0.145 1.101
 0.305 -0.141 1.075
 0.305 -0.139 1.052
 0.306 -0.137 1.033
 0.307 -0.134 1.014
 0.307 -0.132 0.993
 0.307 -0.129 0.972
 0.308 -0.128 0.957
 0.31 -0.126 0.942
 0.312 -0.124 0.929
 0.313 -0.123 0.915
 0.315 -0.121 0.903
 0.316 -0.12 0.888
 0.317 -0.118 0.876
 0.318 -0.117 0.863
 0.318 -0.115 0.847
 0.32 -0.114 0.837
 0.323 -0.113 0.829
 0.324 -0.112 0.816
 0.325 -0.111 0.806
 0.327 -0.11 0.796
 0.329 -0.109 0.788
 0.33 -0.108 0.778
 0.332 -0.107 0.769
 0.333 -0.106 0.759
 0.338 -0.106 0.757
 0.34 -0.105 0.749
 0.343 -0.104 0.743
 0.345 -0.104 0.735
 0.349 -0.103 0.733
 0.35 -0.102 0.724
 0.352 -0.102 0.716
 0.354 -0.101 0.709
 0.357 -0.101 0.703
 0.36 -0.1 0.698
 0.363 -0.1 0.693
 0.366 -0.099 0.688
 0.369 -0.099 0.685
 0.372 -0.099 0.68
 0.373 -0.098 0.672
 0.376 -0.098 0.666
 0.381 -0.098 0.665
