 1.54 -1.63 4.049
 1.565 -1.629 4.037
 1.59 -1.629 4.027
 1.617 -1.63 4.02
 1.642 -1.629 4.008
 1.667 -1.629 3.998
 1.693 -1.629 3.989
 1.719 -1.629 3.978
 1.741 -1.626 3.961
 1.766 -1.625 3.949
 1.791 -1.625 3.937
 1.814 -1.622 3.92
 1.834 -1.618 3.898
 1.852 -1.611 3.871
 1.863 -1.599 3.83
 1.871 -1.584 3.784
 1.876 -1.568 3.733
 1.881 -1.551 3.682
 1.886 -1.536 3.634
 1.892 -1.521 3.587
 1.889 -1.5 3.527
 1.892 -1.484 3.478
 1.884 -1.46 3.408
 1.842 -1.41 3.281
 1.834 -1.388 3.217
 1.833 -1.37 3.166
 1.833 -1.354 3.118
 1.839 -1.344 3.082
 1.831 -1.323 3.023
 1.832 -1.308 2.978
 -2.259 -1.605 3.813
 -2.247 -1.615 3.851
 -2.226 -1.619 3.874
 -2.201 -1.62 3.889
 -2.174 -1.62 3.902
 -2.148 -1.621 3.915
 -2.12 -1.62 3.925
 -2.093 -1.619 3.936
 -2.067 -1.619 3.947
 -2.04 -1.619 3.96
 -2.014 -1.62 3.972
 -1.986 -1.619 3.981
 -1.961 -1.62 3.995
 -1.934 -1.619 4.005
 -1.906 -1.618 4.011
 -1.879 -1.618 4.022
 -1.853 -1.618 4.033
 -1.826 -1.618 4.042
 -1.801 -1.619 4.055
 -1.775 -1.619 4.067
 -1.748 -1.619 4.074
 -1.72 -1.618 4.082
 -1.692 -1.617 4.088
 -1.665 -1.615 4.094
 -1.636 -1.613 4.097
 -1.609 -1.612 4.104
 -1.584 -1.614 4.116
 -1.557 -1.613 4.122
 -1.53 -1.612 4.129
 -1.504 -1.613 4.14
 -1.476 -1.611 4.143
 -1.448 -1.609 4.146
 -1.422 -1.609 4.153
 -1.395 -1.609 4.16
 -1.368 -1.608 4.165
 -1.342 -1.608 4.171
 -1.315 -1.607 4.177
 -1.288 -1.607 4.181
 -1.261 -1.606 4.186
 -1.234 -1.605 4.19
 -1.207 -1.604 4.193
 -1.18 -1.603 4.197
 -1.153 -1.602 4.2
 -1.126 -1.599 4.199
 -1.099 -1.599 4.204
 -1.073 -1.599 4.209
 -1.047 -1.598 4.213
 -1.02 -1.597 4.216
 -0.994 -1.597 4.219
 -0.967 -1.596 4.221
 -0.94 -1.594 4.22
 -0.912 -1.591 4.217
 -0.886 -1.59 4.22
 -0.86 -1.59 4.223
 -0.833 -1.588 4.223
 -0.807 -1.587 4.225
 -0.781 -1.588 4.23
 -0.755 -1.587 4.23
 -0.729 -1.585 4.231
 -0.702 -1.584 4.23
 -0.677 -1.584 4.234
 -0.65 -1.583 4.234
 -0.625 -1.583 4.236
 -0.599 -1.582 4.237
 -0.573 -1.583 4.241
 -0.547 -1.583 4.244
 -0.522 -1.583 4.246
 -0.496 -1.581 4.245
 -0.47 -1.581 4.246
 -0.444 -1.58 4.245
 -0.418 -1.578 4.241
 -0.392 -1.577 4.242
 -0.366 -1.577 4.241
 -0.341 -1.577 4.243
 -0.315 -1.577 4.245
 -0.29 -1.578 4.248
 -0.264 -1.576 4.245
 -0.238 -1.577 4.248
 -0.213 -1.576 4.246
 -0.187 -1.575 4.245
 -0.161 -1.575 4.243
 -0.136 -1.575 4.246
 -0.11 -1.574 4.244
 -0.085 -1.574 4.243
 -0.059 -1.573 4.241
 -0.034 -1.574 4.243
 -0.008 -1.574 4.242
 0.016 -1.573 4.238
 0.041 -1.572 4.237
 0.067 -1.573 4.239
 0.092 -1.573 4.238
 0.118 -1.573 4.236
 0.143 -1.575 4.241
 0.169 -1.576 4.242
 0.195 -1.576 4.242
 0.22 -1.576 4.239
 0.245 -1.576 4.238
 0.271 -1.575 4.234
 0.296 -1.576 4.234
 0.322 -1.576 4.232
 0.348 -1.577 4.235
 0.373 -1.578 4.236
 0.399 -1.579 4.236
 0.425 -1.58 4.234
 0.45 -1.58 4.233
 0.476 -1.581 4.232
 0.502 -1.581 4.231
 0.527 -1.582 4.228
 0.553 -1.582 4.227
 0.579 -1.583 4.227
 0.604 -1.583 4.222
 0.63 -1.583 4.219
 0.656 -1.584 4.219
 0.682 -1.586 4.219
 0.707 -1.585 4.214
 0.734 -1.588 4.217
 0.76 -1.59 4.217
 0.787 -1.591 4.216
 0.812 -1.591 4.212
 0.839 -1.593 4.212
 0.865 -1.593 4.208
 0.89 -1.593 4.204
 0.916 -1.594 4.2
 0.943 -1.595 4.198
 0.969 -1.596 4.194
 0.995 -1.597 4.192
 1.022 -1.6 4.193
 1.049 -1.601 4.191
 1.076 -1.603 4.189
 1.104 -1.605 4.19
 1.129 -1.605 4.183
 1.155 -1.606 4.178
 1.182 -1.607 4.175
 1.208 -1.607 4.169
 1.234 -1.607 4.161
 1.261 -1.608 4.158
 1.288 -1.61 4.155
 1.315 -1.612 4.151
 1.343 -1.614 4.151
 1.37 -1.616 4.147
 1.398 -1.618 4.144
 1.424 -1.618 4.137
 1.45 -1.619 4.129
 1.477 -1.619 4.122
 1.503 -1.619 4.114
 1.53 -1.62 4.107
 1.556 -1.62 4.099
 1.582 -1.62 4.09
 1.608 -1.621 4.081
 1.635 -1.622 4.074
 1.661 -1.622 4.064
 1.687 -1.622 4.055
 1.713 -1.622 4.046
 1.739 -1.622 4.034
 1.763 -1.62 4.019
 1.788 -1.619 4.006
 1.812 -1.617 3.991
 1.832 -1.612 3.969
 1.849 -1.605 3.939
 1.865 -1.596 3.907
 1.872 -1.581 3.858
 1.88 -1.566 3.811
 1.884 -1.549 3.758
 1.889 -1.533 3.708
 1.894 -1.518 3.659
 1.901 -1.504 3.615
 1.892 -1.479 3.541
 1.896 -1.463 3.493
 1.898 -1.447 3.442
 1.817 -1.369 3.245
 1.817 -1.352 3.195
 1.822 -1.341 3.155
 1.829 -1.33 3.119
 1.837 -1.321 3.086
 1.821 -1.295 3.014
 1.827 -1.284 2.978
 -2.294 -1.603 3.882
 -2.265 -1.601 3.892
 -2.257 -1.615 3.938
 -2.231 -1.616 3.952
 -2.206 -1.617 3.969
 -2.18 -1.618 3.983
 -2.152 -1.617 3.994
 -2.124 -1.616 4.003
 -2.097 -1.616 4.015
 -2.069 -1.616 4.026
 -2.044 -1.617 4.041
 -2.015 -1.615 4.048
 -1.988 -1.616 4.06
 -1.961 -1.615 4.07
 -1.931 -1.613 4.075
 -1.904 -1.613 4.085
 -1.878 -1.613 4.098
 -1.85 -1.613 4.106
 -1.826 -1.614 4.121
 -1.8 -1.616 4.135
 -1.774 -1.616 4.145
 -1.746 -1.615 4.152
 -1.717 -1.614 4.158
 -1.687 -1.611 4.159
 -1.657 -1.607 4.16
 -1.628 -1.605 4.162
 -1.601 -1.605 4.172
 -1.574 -1.604 4.178
 -1.547 -1.604 4.185
 -1.521 -1.604 4.195
 -1.492 -1.603 4.198
 -1.464 -1.601 4.202
 -1.436 -1.599 4.205
 -1.409 -1.599 4.211
 -1.382 -1.598 4.215
 -1.354 -1.597 4.22
 -1.327 -1.595 4.223
 -1.299 -1.594 4.227
 -1.271 -1.592 4.229
 -1.243 -1.59 4.228
 -1.215 -1.588 4.231
 -1.188 -1.586 4.232
 -1.161 -1.586 4.236
 -1.133 -1.584 4.236
 -1.107 -1.584 4.243
 -1.08 -1.583 4.245
 -1.054 -1.583 4.25
 -1.026 -1.581 4.251
 -0.999 -1.579 4.251
 -0.972 -1.578 4.251
 -0.945 -1.576 4.252
 -0.917 -1.573 4.249
 -0.891 -1.573 4.252
 -0.865 -1.573 4.255
 -0.838 -1.571 4.255
 -0.811 -1.569 4.255
 -0.785 -1.569 4.257
 -0.758 -1.567 4.255
 -0.731 -1.566 4.255
 -0.705 -1.564 4.255
 -0.679 -1.564 4.258
 -0.653 -1.563 4.259
 -0.627 -1.564 4.262
 -0.601 -1.562 4.261
 -0.575 -1.562 4.264
 -0.549 -1.561 4.264
 -0.523 -1.561 4.264
 -0.497 -1.559 4.263
 -0.471 -1.559 4.263
 -0.445 -1.558 4.263
 -0.418 -1.556 4.26
 -0.393 -1.556 4.261
 -0.367 -1.554 4.258
 -0.341 -1.555 4.261
 -0.316 -1.555 4.262
 -0.29 -1.555 4.264
 -0.264 -1.554 4.263
 -0.239 -1.555 4.266
 -0.213 -1.553 4.262
 -0.187 -1.553 4.261
 -0.162 -1.552 4.26
 -0.136 -1.552 4.26
 -0.11 -1.552 4.26
 -0.085 -1.552 4.261
 -0.059 -1.552 4.261
 -0.034 -1.552 4.261
 -0.008 -1.553 4.262
 0.016 -1.551 4.257
 0.042 -1.551 4.255
 0.067 -1.55 4.254
 0.093 -1.55 4.253
 0.118 -1.55 4.25
 0.144 -1.551 4.253
 0.169 -1.552 4.254
 0.195 -1.552 4.255
 0.22 -1.552 4.253
 0.246 -1.552 4.252
 0.271 -1.552 4.251
 0.297 -1.553 4.251
 0.323 -1.554 4.25
 0.348 -1.555 4.251
 0.374 -1.556 4.252
 0.4 -1.557 4.254
 0.426 -1.557 4.251
 0.451 -1.557 4.249
 0.477 -1.558 4.247
 0.503 -1.558 4.246
 0.528 -1.559 4.244
 0.554 -1.56 4.244
 0.58 -1.561 4.244
 0.606 -1.561 4.242
 0.632 -1.561 4.238
 0.657 -1.562 4.237
 0.683 -1.563 4.236
 0.709 -1.563 4.232
 0.735 -1.565 4.233
 0.762 -1.567 4.233
 0.788 -1.568 4.232
 0.815 -1.569 4.231
 0.841 -1.571 4.231
 0.867 -1.572 4.229
 0.894 -1.573 4.227
 0.92 -1.574 4.224
 0.946 -1.575 4.221
 0.972 -1.576 4.218
 0.999 -1.577 4.217
 1.026 -1.579 4.215
 1.053 -1.581 4.214
 1.08 -1.582 4.212
 1.108 -1.586 4.215
 1.134 -1.586 4.21
 1.161 -1.587 4.207
 1.188 -1.589 4.205
 1.215 -1.59 4.2
 1.24 -1.589 4.191
 1.267 -1.591 4.188
 1.295 -1.593 4.187
 1.322 -1.593 4.181
 1.35 -1.596 4.18
 1.378 -1.598 4.177
 1.406 -1.601 4.177
 1.433 -1.602 4.171
 1.46 -1.603 4.166
 1.488 -1.605 4.161
 1.515 -1.606 4.155
 1.542 -1.606 4.148
 1.569 -1.607 4.141
 1.596 -1.608 4.135
 1.623 -1.609 4.128
 1.65 -1.61 4.121
 1.677 -1.611 4.112
 1.704 -1.611 4.104
 1.731 -1.612 4.095
 1.757 -1.612 4.086
 1.78 -1.609 4.068
 1.804 -1.607 4.053
 1.827 -1.604 4.035
 1.847 -1.599 4.009
 1.861 -1.589 3.972
 1.874 -1.578 3.936
 1.881 -1.563 3.885
 1.889 -1.548 3.837
 1.893 -1.531 3.784
 1.899 -1.516 3.736
 1.905 -1.501 3.688
 1.915 -1.491 3.649
 1.915 -1.472 3.592
 0 0 0
 0 0 0
 0 0 0
 1.811 -1.327 3.193
 1.825 -1.321 3.169
 1.831 -1.31 3.13
 1.84 -1.301 3.098
 1.821 -1.273 3.02
 1.83 -1.265 2.99
 -2.348 -1.613 3.984
 -2.32 -1.613 3.996
 -2.289 -1.611 4.004
 -2.263 -1.612 4.019
 -2.237 -1.613 4.035
 -2.212 -1.614 4.051
 -2.183 -1.613 4.062
 -2.154 -1.612 4.07
 -2.126 -1.611 4.081
 -2.098 -1.611 4.091
 -2.069 -1.61 4.101
 -2.039 -1.608 4.107
 -2.013 -1.609 4.121
 -1.984 -1.607 4.129
 -1.955 -1.606 4.135
 -1.929 -1.606 4.148
 -1.902 -1.607 4.161
 -1.874 -1.606 4.168
 -1.848 -1.608 4.183
 -1.822 -1.608 4.195
 -1.794 -1.608 4.203
 -1.765 -1.606 4.209
 -1.736 -1.604 4.213
 -1.705 -1.601 4.213
 -1.674 -1.597 4.212
 -1.643 -1.593 4.211
 -1.616 -1.593 4.219
 -1.588 -1.592 4.225
 -1.561 -1.591 4.232
 -1.534 -1.592 4.241
 -1.506 -1.59 4.246
 -1.477 -1.588 4.246
 -1.447 -1.585 4.246
 -1.418 -1.582 4.247
 -1.389 -1.58 4.248
 -1.361 -1.578 4.251
 -1.334 -1.578 4.256
 -1.307 -1.577 4.26
 -1.279 -1.576 4.265
 -1.251 -1.573 4.264
 -1.223 -1.572 4.266
 -1.194 -1.569 4.265
 -1.167 -1.568 4.267
 -1.138 -1.565 4.264
 -1.112 -1.564 4.269
 -1.084 -1.563 4.27
 -1.057 -1.562 4.274
 -1.03 -1.56 4.273
 -1.002 -1.558 4.273
 -0.974 -1.556 4.271
 -0.947 -1.554 4.272
 -0.92 -1.552 4.269
 -0.893 -1.551 4.272
 -0.867 -1.551 4.277
 -0.84 -1.55 4.277
 -0.814 -1.549 4.277
 -0.787 -1.548 4.278
 -0.76 -1.545 4.275
 -0.732 -1.542 4.27
 -0.706 -1.541 4.271
 -0.68 -1.541 4.272
 -0.653 -1.539 4.271
 -0.627 -1.539 4.274
 -0.601 -1.539 4.275
 -0.575 -1.538 4.277
 -0.549 -1.537 4.277
 -0.523 -1.537 4.277
 -0.497 -1.536 4.277
 -0.471 -1.535 4.276
 -0.445 -1.533 4.274
 -0.419 -1.532 4.271
 -0.393 -1.531 4.271
 -0.367 -1.53 4.269
 -0.341 -1.53 4.271
 -0.316 -1.53 4.272
 -0.29 -1.53 4.275
 -0.264 -1.53 4.276
 -0.239 -1.531 4.278
 -0.213 -1.53 4.276
 -0.187 -1.529 4.274
 -0.162 -1.529 4.274
 -0.136 -1.527 4.271
 -0.11 -1.527 4.271
 -0.085 -1.527 4.271
 -0.059 -1.526 4.268
 -0.034 -1.527 4.268
 -0.008 -1.527 4.268
 0.016 -1.525 4.264
 0.042 -1.525 4.263
 0.067 -1.526 4.264
 0.093 -1.525 4.263
 0.118 -1.525 4.262
 0.144 -1.526 4.264
 0.17 -1.527 4.265
 0.195 -1.527 4.263
 0.221 -1.527 4.262
 0.246 -1.526 4.259
 0.271 -1.526 4.256
 0.297 -1.527 4.257
 0.323 -1.528 4.258
 0.348 -1.529 4.257
 0.374 -1.53 4.259
 0.4 -1.532 4.261
 0.426 -1.531 4.258
 0.451 -1.532 4.257
 0.477 -1.533 4.259
 0.503 -1.534 4.257
 0.529 -1.534 4.255
 0.555 -1.535 4.255
 0.581 -1.536 4.254
 0.606 -1.536 4.25
 0.632 -1.537 4.249
 0.658 -1.537 4.247
 0.684 -1.537 4.244
 0.71 -1.538 4.242
 0.736 -1.54 4.242
 0.762 -1.541 4.242
 0.789 -1.543 4.241
 0.815 -1.545 4.242
 0.842 -1.546 4.242
 0.868 -1.547 4.239
 0.894 -1.548 4.238
 0.921 -1.55 4.237
 0.947 -1.551 4.234
 0.974 -1.552 4.234
 1.001 -1.554 4.234
 1.028 -1.556 4.233
 1.056 -1.559 4.234
 1.083 -1.561 4.233
 1.111 -1.563 4.234
 1.138 -1.564 4.23
 1.165 -1.565 4.227
 1.192 -1.567 4.225
 1.219 -1.568 4.221
 1.245 -1.568 4.214
 1.272 -1.57 4.213
 1.3 -1.572 4.211
 1.327 -1.573 4.206
 1.355 -1.576 4.205
 1.383 -1.578 4.203
 1.412 -1.581 4.204
 1.439 -1.582 4.197
 1.467 -1.584 4.193
 1.495 -1.586 4.19
 1.523 -1.587 4.186
 1.55 -1.588 4.179
 1.578 -1.59 4.175
 1.606 -1.592 4.171
 1.633 -1.593 4.163
 1.661 -1.594 4.157
 1.688 -1.595 4.149
 1.716 -1.596 4.142
 1.743 -1.596 4.134
 1.77 -1.597 4.124
 1.793 -1.594 4.106
 1.817 -1.592 4.09
 1.839 -1.588 4.07
 1.856 -1.58 4.039
 1.869 -1.57 4
 1.88 -1.557 3.957
 1.887 -1.542 3.906
 1.894 -1.527 3.857
 1.901 -1.512 3.808
 1.905 -1.496 3.757
 1.914 -1.484 3.715
 1.926 -1.474 3.678
 0 0 0
 0 0 0
 0 0 0
 0 0 0
 1.806 -1.301 3.191
 1.825 -1.299 3.175
 1.83 -1.287 3.136
 1.84 -1.28 3.106
 1.84 -1.265 3.06
 1.851 -1.258 3.031
 -2.379 -1.608 4.048
 -2.356 -1.61 4.068
 -2.321 -1.606 4.07
 -2.295 -1.607 4.086
 -2.268 -1.608 4.101
 -2.244 -1.61 4.119
 -2.214 -1.609 4.129
 -2.184 -1.606 4.136
 -2.154 -1.605 4.145
 -2.124 -1.603 4.152
 -2.094 -1.602 4.16
 -2.064 -1.6 4.166
 -2.037 -1.6 4.179
 -2.007 -1.598 4.186
 -1.978 -1.597 4.194
 -1.951 -1.598 4.206
 -1.924 -1.598 4.217
 -1.894 -1.596 4.224
 -1.868 -1.597 4.237
 -1.84 -1.596 4.244
 -1.811 -1.595 4.251
 -1.781 -1.593 4.255
 -1.751 -1.59 4.258
 -1.718 -1.586 4.256
 -1.687 -1.583 4.255
 -1.656 -1.578 4.253
 -1.627 -1.577 4.258
 -1.598 -1.575 4.261
 -1.571 -1.575 4.268
 -1.543 -1.574 4.275
 -1.514 -1.572 4.278
 -1.484 -1.569 4.278
 -1.454 -1.566 4.277
 -1.425 -1.564 4.278
 -1.395 -1.56 4.276
 -1.367 -1.558 4.277
 -1.34 -1.558 4.283
 -1.312 -1.557 4.288
 -1.283 -1.554 4.287
 -1.254 -1.552 4.286
 -1.226 -1.549 4.286
 -1.197 -1.546 4.283
 -1.169 -1.544 4.283
 -1.14 -1.541 4.281
 -1.114 -1.541 4.287
 -1.086 -1.539 4.287
 -1.059 -1.538 4.288
 -1.031 -1.536 4.286
 -1.003 -1.533 4.285
 -0.975 -1.531 4.283
 -0.948 -1.529 4.283
 -0.921 -1.527 4.282
 -0.894 -1.526 4.284
 -0.868 -1.527 4.288
 -0.841 -1.525 4.287
 -0.814 -1.523 4.287
 -0.787 -1.522 4.288
 -0.76 -1.52 4.284
 -0.733 -1.517 4.281
 -0.706 -1.516 4.281
 -0.68 -1.515 4.28
 -0.653 -1.513 4.279
 -0.627 -1.513 4.282
 -0.601 -1.513 4.283
 -0.575 -1.512 4.283
 -0.549 -1.511 4.283
 -0.523 -1.51 4.283
 -0.497 -1.509 4.282
 -0.471 -1.508 4.282
 -0.445 -1.507 4.281
 -0.419 -1.506 4.28
 -0.393 -1.506 4.28
 -0.367 -1.504 4.277
 -0.341 -1.504 4.279
 -0.315 -1.504 4.279
 -0.29 -1.503 4.279
 -0.264 -1.503 4.279
 -0.238 -1.504 4.282
 -0.213 -1.503 4.279
 -0.187 -1.501 4.277
 -0.161 -1.502 4.277
 -0.136 -1.501 4.276
 -0.11 -1.501 4.276
 -0.085 -1.5 4.274
 -0.059 -1.5 4.273
 -0.033 -1.5 4.273
 -0.008 -1.499 4.272
 0.017 -1.498 4.267
 0.042 -1.498 4.267
 0.068 -1.499 4.268
 0.093 -1.499 4.268
 0.119 -1.499 4.267
 0.144 -1.5 4.27
 0.17 -1.501 4.27
 0.195 -1.5 4.266
 0.221 -1.5 4.265
 0.246 -1.499 4.262
 0.271 -1.499 4.26
 0.297 -1.5 4.261
 0.323 -1.501 4.262
 0.348 -1.502 4.262
 0.374 -1.503 4.263
 0.4 -1.505 4.266
 0.425 -1.504 4.262
 0.451 -1.505 4.262
 0.477 -1.507 4.264
 0.503 -1.507 4.262
 0.528 -1.507 4.258
 0.555 -1.509 4.26
 0.58 -1.509 4.258
 0.606 -1.509 4.255
 0.632 -1.51 4.255
 0.658 -1.511 4.253
 0.684 -1.512 4.252
 0.71 -1.512 4.249
 0.736 -1.513 4.247
 0.762 -1.515 4.248
 0.788 -1.516 4.246
 0.815 -1.517 4.246
 0.841 -1.519 4.247
 0.868 -1.52 4.246
 0.894 -1.521 4.243
 0.921 -1.523 4.243
 0.947 -1.524 4.241
 0.975 -1.527 4.243
 1.002 -1.529 4.243
 1.029 -1.531 4.243
 1.057 -1.533 4.244
 1.083 -1.534 4.241
 1.111 -1.536 4.24
 1.137 -1.537 4.237
 1.164 -1.539 4.235
 1.192 -1.541 4.233
 1.22 -1.543 4.233
 1.246 -1.544 4.228
 1.274 -1.546 4.226
 1.302 -1.548 4.224
 1.329 -1.549 4.22
 1.357 -1.551 4.218
 1.385 -1.553 4.216
 1.414 -1.556 4.217
 1.441 -1.558 4.212
 1.47 -1.56 4.21
 1.498 -1.562 4.207
 1.527 -1.564 4.205
 1.554 -1.566 4.2
 1.584 -1.569 4.198
 1.612 -1.571 4.194
 1.64 -1.572 4.189
 1.669 -1.574 4.184
 1.697 -1.576 4.178
 1.725 -1.577 4.172
 1.753 -1.578 4.165
 1.779 -1.578 4.154
 1.803 -1.576 4.137
 1.826 -1.573 4.119
 1.847 -1.568 4.095
 1.862 -1.559 4.06
 1.876 -1.548 4.022
 1.887 -1.536 3.98
 1.895 -1.522 3.931
 1.905 -1.51 3.888
 1.915 -1.498 3.845
 1.922 -1.484 3.797
 1.933 -1.474 3.76
 0 0 0
 0 0 0
 0 0 0
 0 0 0
 0 0 0
 1.806 -1.279 3.198
 1.826 -1.278 3.185
 1.833 -1.268 3.148
 1.843 -1.26 3.118
 1.846 -1.248 3.077
 1.845 -1.234 3.029
 -2.405 -1.597 4.102
 -2.39 -1.606 4.138
 -2.359 -1.604 4.147
 -2.331 -1.604 4.16
 -2.303 -1.604 4.174
 -2.275 -1.604 4.187
 -2.246 -1.604 4.199
 -2.215 -1.602 4.206
 -2.183 -1.599 4.211
 -2.151 -1.596 4.216
 -2.12 -1.594 4.221
 -2.087 -1.59 4.223
 -2.057 -1.589 4.231
 -2.025 -1.585 4.234
 -1.995 -1.583 4.24
 -1.968 -1.584 4.253
 -1.939 -1.583 4.261
 -1.909 -1.581 4.265
 -1.882 -1.582 4.278
 -1.851 -1.579 4.281
 -1.821 -1.576 4.284
 -1.79 -1.574 4.287
 -1.76 -1.572 4.291
 -1.727 -1.567 4.287
 -1.696 -1.564 4.287
 -1.664 -1.56 4.285
 -1.634 -1.557 4.286
 -1.605 -1.555 4.289
 -1.576 -1.553 4.293
 -1.548 -1.552 4.298
 -1.518 -1.55 4.3
 -1.488 -1.546 4.298
 -1.458 -1.543 4.296
 -1.429 -1.541 4.297
 -1.398 -1.537 4.294
 -1.369 -1.534 4.294
 -1.342 -1.534 4.3
 -1.314 -1.532 4.302
 -1.284 -1.529 4.298
 -1.255 -1.526 4.296
 -1.226 -1.523 4.296
 -1.197 -1.52 4.291
 -1.169 -1.518 4.291
 -1.141 -1.516 4.293
 -1.115 -1.516 4.298
 -1.086 -1.514 4.297
 -1.059 -1.512 4.297
 -1.031 -1.509 4.294
 -1.002 -1.506 4.291
 -0.975 -1.504 4.29
 -0.948 -1.503 4.291
 -0.921 -1.502 4.292
 -0.894 -1.501 4.294
 -0.868 -1.501 4.297
 -0.84 -1.498 4.294
 -0.813 -1.497 4.293
 -0.787 -1.495 4.293
 -0.759 -1.493 4.29
 -0.732 -1.491 4.287
 -0.706 -1.489 4.287
 -0.679 -1.488 4.285
 -0.653 -1.487 4.285
 -0.627 -1.486 4.287
 -0.601 -1.486 4.288
 -0.575 -1.485 4.289
 -0.549 -1.485 4.29
 -0.523 -1.484 4.291
 -0.497 -1.484 4.291
 -0.471 -1.483 4.291
 -0.445 -1.482 4.291
 -0.418 -1.48 4.287
 -0.392 -1.479 4.286
 -0.366 -1.478 4.282
 -0.341 -1.477 4.281
 -0.315 -1.476 4.28
 -0.289 -1.476 4.28
 -0.263 -1.475 4.28
 -0.238 -1.476 4.283
 -0.212 -1.475 4.281
 -0.187 -1.474 4.28
 -0.161 -1.474 4.28
 -0.135 -1.474 4.281
 -0.11 -1.474 4.279
 -0.084 -1.473 4.278
 -0.059 -1.473 4.278
 -0.033 -1.473 4.277
 -0.008 -1.472 4.275
 0.017 -1.471 4.271
 0.042 -1.471 4.27
 0.068 -1.471 4.269
 0.093 -1.471 4.269
 0.118 -1.471 4.267
 0.144 -1.472 4.27
 0.17 -1.473 4.271
 0.195 -1.473 4.269
 0.22 -1.473 4.268
 0.246 -1.473 4.267
 0.271 -1.472 4.264
 0.297 -1.473 4.265
 0.323 -1.474 4.266
 0.348 -1.475 4.265
 0.374 -1.476 4.266
 0.4 -1.477 4.268
 0.425 -1.477 4.264
 0.451 -1.477 4.262
 0.477 -1.479 4.264
 0.502 -1.479 4.264
 0.528 -1.479 4.261
 0.554 -1.481 4.263
 0.58 -1.482 4.263
 0.606 -1.483 4.26
 0.631 -1.483 4.258
 0.657 -1.484 4.257
 0.683 -1.485 4.255
 0.709 -1.485 4.253
 0.735 -1.485 4.25
 0.762 -1.488 4.252
 0.788 -1.489 4.252
 0.814 -1.49 4.251
 0.841 -1.492 4.251
 0.867 -1.493 4.25
 0.894 -1.494 4.248
 0.92 -1.496 4.247
 0.947 -1.497 4.245
 0.974 -1.499 4.246
 1.001 -1.501 4.247
 1.028 -1.503 4.247
 1.056 -1.506 4.248
 1.083 -1.507 4.246
 1.11 -1.51 4.247
 1.137 -1.511 4.244
 1.164 -1.512 4.242
 1.192 -1.514 4.24
 1.22 -1.517 4.242
 1.247 -1.518 4.238
 1.275 -1.52 4.236
 1.302 -1.522 4.233
 1.329 -1.523 4.23
 1.357 -1.525 4.227
 1.385 -1.526 4.224
 1.414 -1.53 4.225
 1.442 -1.532 4.222
 1.471 -1.534 4.22
 1.499 -1.536 4.217
 1.528 -1.539 4.216
 1.556 -1.54 4.211
 1.584 -1.543 4.208
 1.614 -1.545 4.206
 1.642 -1.547 4.201
 1.671 -1.549 4.198
 1.699 -1.551 4.192
 1.728 -1.553 4.189
 1.757 -1.555 4.183
 1.785 -1.556 4.175
 1.809 -1.554 4.16
 1.833 -1.552 4.143
 1.852 -1.546 4.116
 1.867 -1.536 4.08
 1.882 -1.527 4.043
 1.893 -1.515 4
 1.901 -1.501 3.952
 1.913 -1.49 3.913
 1.923 -1.478 3.87
 1.928 -1.463 3.818
 0 0 0
 0 0 0
 0 0 0
 0 0 0
 0 0 0
 0 0 0
 1.804 -1.256 3.202
 1.827 -1.257 3.193
 1.836 -1.249 3.162
 1.847 -1.241 3.132
 1.835 -1.22 3.066
 1.87 -1.229 3.077
 -2.444 -1.594 4.178
 -2.439 -1.61 4.233
 -2.388 -1.595 4.207
 -2.359 -1.595 4.221
 -2.33 -1.595 4.232
 -2.299 -1.593 4.241
 -2.269 -1.592 4.251
 -2.237 -1.589 4.257
 -2.204 -1.586 4.261
 -2.171 -1.583 4.264
 -2.139 -1.58 4.27
 -2.105 -1.576 4.269
 -2.074 -1.573 4.274
 -2.04 -1.569 4.274
 -2.009 -1.566 4.278
 -1.98 -1.566 4.287
 -1.949 -1.564 4.293
 -1.918 -1.561 4.296
 -1.889 -1.56 4.304
 -1.858 -1.557 4.305
 -1.826 -1.554 4.306
 -1.795 -1.551 4.308
 -1.764 -1.548 4.31
 -1.732 -1.544 4.308
 -1.7 -1.54 4.305
 -1.668 -1.536 4.303
 -1.637 -1.532 4.302
 -1.607 -1.53 4.304
 -1.578 -1.528 4.307
 -1.549 -1.526 4.309
 -1.518 -1.523 4.308
 -1.489 -1.52 4.309
 -1.458 -1.517 4.306
 -1.429 -1.514 4.306
 -1.398 -1.51 4.303
 -1.37 -1.508 4.305
 -1.342 -1.507 4.307
 -1.313 -1.504 4.307
 -1.283 -1.501 4.303
 -1.254 -1.498 4.302
 -1.225 -1.495 4.299
 -1.196 -1.492 4.297
 -1.168 -1.491 4.298
 -1.141 -1.49 4.301
 -1.114 -1.489 4.303
 -1.086 -1.487 4.303
 -1.058 -1.484 4.302
 -1.029 -1.481 4.298
 -1.001 -1.479 4.294
 -0.974 -1.477 4.294
 -0.947 -1.476 4.295
 -0.92 -1.474 4.296
 -0.893 -1.474 4.299
 -0.867 -1.473 4.301
 -0.84 -1.471 4.299
 -0.813 -1.47 4.298
 -0.786 -1.468 4.297
 -0.758 -1.465 4.293
 -0.731 -1.463 4.29
 -0.705 -1.462 4.29
 -0.678 -1.46 4.287
 -0.652 -1.46 4.288
 -0.626 -1.459 4.289
 -0.6 -1.459 4.292
 -0.574 -1.458 4.291
 -0.548 -1.458 4.293
 -0.522 -1.456 4.292
 -0.496 -1.456 4.293
 -0.47 -1.455 4.293
 -0.444 -1.455 4.293
 -0.418 -1.454 4.292
 -0.392 -1.453 4.29
 -0.366 -1.451 4.288
 -0.34 -1.45 4.285
 -0.314 -1.449 4.284
 -0.289 -1.448 4.282
 -0.263 -1.448 4.283
 -0.237 -1.448 4.283
 -0.212 -1.448 4.283
 -0.186 -1.446 4.28
 -0.161 -1.446 4.279
 -0.135 -1.446 4.28
 -0.11 -1.446 4.279
 -0.084 -1.445 4.278
 -0.059 -1.446 4.279
 -0.033 -1.445 4.278
 -0.008 -1.445 4.276
 0.017 -1.444 4.273
 0.042 -1.444 4.272
 0.068 -1.444 4.272
 0.093 -1.445 4.273
 0.119 -1.444 4.271
 0.144 -1.445 4.273
 0.17 -1.446 4.273
 0.195 -1.446 4.272
 0.221 -1.447 4.273
 0.246 -1.447 4.273
 0.271 -1.447 4.271
 0.297 -1.448 4.272
 0.323 -1.448 4.27
 0.348 -1.447 4.267
 0.374 -1.449 4.269
 0.399 -1.45 4.27
 0.425 -1.449 4.264
 0.45 -1.449 4.264
 0.476 -1.451 4.265
 0.502 -1.451 4.263
 0.527 -1.451 4.26
 0.553 -1.453 4.263
 0.579 -1.454 4.263
 0.605 -1.455 4.261
 0.631 -1.456 4.262
 0.657 -1.457 4.261
 0.683 -1.458 4.259
 0.709 -1.459 4.258
 0.735 -1.459 4.255
 0.761 -1.46 4.256
 0.787 -1.462 4.255
 0.814 -1.463 4.255
 0.84 -1.464 4.254
 0.867 -1.466 4.254
 0.893 -1.467 4.251
 0.919 -1.468 4.25
 0.946 -1.469 4.247
 0.972 -1.471 4.247
 0.999 -1.473 4.247
 1.026 -1.475 4.247
 1.054 -1.477 4.248
 1.081 -1.478 4.246
 1.109 -1.481 4.248
 1.136 -1.483 4.246
 1.163 -1.485 4.246
 1.191 -1.486 4.243
 1.219 -1.49 4.247
 1.247 -1.491 4.244
 1.274 -1.493 4.241
 1.301 -1.494 4.238
 1.329 -1.496 4.235
 1.356 -1.497 4.232
 1.384 -1.499 4.228
 1.413 -1.502 4.23
 1.441 -1.504 4.228
 1.47 -1.507 4.227
 1.499 -1.509 4.225
 1.528 -1.512 4.223
 1.556 -1.513 4.219
 1.585 -1.516 4.217
 1.613 -1.518 4.214
 1.642 -1.52 4.21
 1.672 -1.523 4.208
 1.701 -1.525 4.204
 1.73 -1.527 4.2
 1.759 -1.53 4.197
 1.787 -1.531 4.189
 1.812 -1.529 4.175
 1.835 -1.527 4.157
 1.856 -1.522 4.133
 1.872 -1.514 4.1
 1.888 -1.505 4.065
 1.899 -1.494 4.022
 1.909 -1.481 3.976
 1.923 -1.472 3.942
 1.931 -1.459 3.895
 0 0 0
 0 0 0
 0 0 0
 0 0 0
 0 0 0
 0 0 0
 0 0 0
 1.897 -1.297 3.375
 1.88 -1.271 3.293
 1.841 -1.23 3.176
 1.849 -1.221 3.142
 1.865 -1.218 3.122
 1.85 -1.195 3.052
 -2.532 -1.622 4.338
 -2.462 -1.597 4.283
 -2.415 -1.584 4.265
 -2.384 -1.583 4.275
 -2.353 -1.582 4.284
 -2.32 -1.579 4.289
 -2.287 -1.576 4.295
 -2.254 -1.573 4.299
 -2.22 -1.569 4.301
 -2.184 -1.564 4.3
 -2.151 -1.561 4.303
 -2.117 -1.557 4.303
 -2.085 -1.554 4.307
 -2.049 -1.548 4.301
 -2.017 -1.545 4.305
 -1.987 -1.543 4.312
 -1.955 -1.54 4.314
 -1.923 -1.537 4.316
 -1.893 -1.535 4.321
 -1.86 -1.531 4.319
 -1.828 -1.527 4.319
 -1.795 -1.524 4.318
 -1.764 -1.52 4.318
 -1.732 -1.517 4.318
 -1.7 -1.513 4.315
 -1.668 -1.508 4.311
 -1.637 -1.505 4.311
 -1.607 -1.503 4.313
 -1.577 -1.5 4.313
 -1.548 -1.499 4.317
 -1.518 -1.496 4.316
 -1.488 -1.493 4.315
 -1.458 -1.489 4.314
 -1.429 -1.487 4.314
 -1.398 -1.483 4.309
 -1.369 -1.48 4.309
 -1.34 -1.479 4.311
 -1.311 -1.476 4.311
 -1.282 -1.473 4.307
 -1.253 -1.471 4.308
 -1.224 -1.468 4.306
 -1.196 -1.466 4.305
 -1.168 -1.464 4.305
 -1.14 -1.463 4.308
 -1.113 -1.462 4.309
 -1.085 -1.46 4.309
 -1.057 -1.458 4.308
 -1.029 -1.455 4.305
 -1.001 -1.452 4.301
 -0.973 -1.45 4.301
 -0.946 -1.449 4.301
 -0.919 -1.447 4.3
 -0.892 -1.446 4.302
 -0.866 -1.445 4.303
 -0.838 -1.442 4.299
 -0.811 -1.442 4.3
 -0.784 -1.44 4.298
 -0.758 -1.438 4.296
 -0.731 -1.436 4.294
 -0.705 -1.436 4.296
 -0.678 -1.433 4.292
 -0.651 -1.432 4.292
 -0.625 -1.431 4.29
 -0.599 -1.431 4.293
 -0.573 -1.43 4.292
 -0.547 -1.43 4.296
 -0.521 -1.43 4.296
 -0.496 -1.43 4.299
 -0.47 -1.43 4.301
 -0.444 -1.429 4.301
 -0.418 -1.428 4.299
 -0.392 -1.427 4.299
 -0.366 -1.425 4.293
 -0.34 -1.422 4.286
 -0.314 -1.422 4.286
 -0.288 -1.421 4.285
 -0.262 -1.42 4.284
 -0.237 -1.42 4.285
 -0.211 -1.42 4.285
 -0.186 -1.419 4.282
 -0.16 -1.419 4.281
 -0.135 -1.419 4.283
 -0.109 -1.419 4.282
 -0.084 -1.419 4.281
 -0.058 -1.419 4.282
 -0.033 -1.418 4.281
 -0.007 -1.418 4.279
 0.017 -1.416 4.274
 0.042 -1.416 4.272
 0.068 -1.417 4.274
 0.093 -1.417 4.275
 0.118 -1.416 4.271
 0.144 -1.418 4.276
 0.17 -1.419 4.278
 0.195 -1.419 4.275
 0.22 -1.42 4.276
 0.246 -1.421 4.278
 0.272 -1.421 4.276
 0.297 -1.422 4.278
 0.323 -1.422 4.277
 0.348 -1.422 4.274
 0.374 -1.423 4.275
 0.4 -1.424 4.276
 0.425 -1.423 4.271
 0.45 -1.424 4.271
 0.476 -1.424 4.27
 0.501 -1.424 4.266
 0.526 -1.423 4.26
 0.552 -1.424 4.261
 0.578 -1.425 4.259
 0.604 -1.425 4.258
 0.63 -1.427 4.259
 0.656 -1.429 4.26
 0.682 -1.429 4.259
 0.708 -1.431 4.26
 0.734 -1.431 4.256
 0.76 -1.432 4.255
 0.786 -1.433 4.253
 0.812 -1.434 4.253
 0.838 -1.435 4.252
 0.865 -1.438 4.254
 0.892 -1.439 4.253
 0.919 -1.441 4.254
 0.945 -1.442 4.252
 0.972 -1.444 4.251
 0.999 -1.445 4.251
 1.026 -1.447 4.251
 1.053 -1.45 4.253
 1.08 -1.451 4.251
 1.108 -1.453 4.251
 1.135 -1.455 4.249
 1.162 -1.457 4.248
 1.189 -1.458 4.246
 1.218 -1.462 4.25
 1.246 -1.464 4.249
 1.273 -1.466 4.247
 1.3 -1.467 4.242
 1.328 -1.468 4.239
 1.355 -1.47 4.236
 1.383 -1.471 4.232
 1.412 -1.474 4.233
 1.44 -1.476 4.231
 1.469 -1.479 4.23
 1.497 -1.481 4.228
 1.526 -1.484 4.227
 1.555 -1.486 4.224
 1.585 -1.489 4.224
 1.613 -1.491 4.221
 1.642 -1.493 4.218
 1.672 -1.496 4.216
 1.701 -1.498 4.212
 1.729 -1.5 4.206
 1.759 -1.502 4.204
 1.786 -1.503 4.195
 1.812 -1.503 4.183
 1.836 -1.5 4.166
 1.858 -1.497 4.145
 1.876 -1.49 4.116
 1.894 -1.483 4.086
 1.906 -1.473 4.046
 1.919 -1.463 4.006
 1.937 -1.457 3.978
 0 0 0
 0 0 0
 0 0 0
 0 0 0
 0 0 0
 0 0 0
 0 0 0
 0 0 0
 1.956 -1.314 3.487
 1.912 -1.27 3.358
 1.831 -1.202 3.166
 1.842 -1.195 3.137
 1.887 -1.211 3.167
 1.862 -1.181 3.077
 -2.47 -1.554 4.242
 -2.475 -1.576 4.315
 -2.435 -1.569 4.31
 -2.402 -1.566 4.317
 -2.369 -1.564 4.324
 -2.334 -1.56 4.325
 -2.298 -1.555 4.326
 -2.264 -1.552 4.329
 -2.229 -1.547 4.329
 -2.192 -1.541 4.325
 -2.158 -1.537 4.326
 -2.123 -1.533 4.325
 -2.09 -1.529 4.326
 -2.053 -1.523 4.32
 -2.02 -1.52 4.322
 -1.989 -1.517 4.325
 -1.956 -1.513 4.325
 -1.923 -1.509 4.324
 -1.891 -1.507 4.327
 -1.859 -1.503 4.327
 -1.827 -1.5 4.328
 -1.795 -1.496 4.327
 -1.764 -1.493 4.327
 -1.733 -1.49 4.327
 -1.7 -1.485 4.323
 -1.667 -1.481 4.318
 -1.637 -1.478 4.319
 -1.607 -1.475 4.32
 -1.576 -1.472 4.32
 -1.547 -1.471 4.323
 -1.517 -1.468 4.322
 -1.487 -1.464 4.32
 -1.457 -1.461 4.319
 -1.428 -1.459 4.32
 -1.397 -1.455 4.315
 -1.368 -1.453 4.316
 -1.339 -1.451 4.317
 -1.31 -1.449 4.316
 -1.28 -1.445 4.31
 -1.252 -1.443 4.312
 -1.223 -1.441 4.311
 -1.194 -1.438 4.308
 -1.167 -1.436 4.31
 -1.14 -1.436 4.313
 -1.112 -1.434 4.313
 -1.085 -1.433 4.315
 -1.057 -1.431 4.314
 -1.028 -1.427 4.307
 -1 -1.425 4.305
 -0.972 -1.423 4.305
 -0.945 -1.421 4.304
 -0.918 -1.42 4.305
 -0.892 -1.42 4.309
 -0.865 -1.419 4.31
 -0.837 -1.416 4.304
 -0.811 -1.415 4.305
 -0.784 -1.413 4.303
 -0.757 -1.411 4.302
 -0.731 -1.41 4.301
 -0.704 -1.41 4.302
 -0.677 -1.407 4.298
 -0.651 -1.406 4.297
 -0.624 -1.404 4.295
 -0.599 -1.404 4.297
 -0.572 -1.403 4.297
 -0.547 -1.404 4.301
 -0.521 -1.403 4.302
 -0.495 -1.404 4.305
 -0.47 -1.404 4.307
 -0.444 -1.403 4.308
 -0.418 -1.403 4.307
 -0.392 -1.402 4.307
 -0.365 -1.399 4.298
 -0.339 -1.395 4.289
 -0.313 -1.395 4.288
 -0.288 -1.393 4.285
 -0.262 -1.392 4.283
 -0.236 -1.393 4.284
 -0.211 -1.393 4.286
 -0.185 -1.392 4.283
 -0.16 -1.391 4.282
 -0.134 -1.392 4.285
 -0.109 -1.391 4.283
 -0.084 -1.391 4.281
 -0.058 -1.392 4.284
 -0.033 -1.391 4.283
 -0.007 -1.391 4.281
 0.017 -1.39 4.278
 0.042 -1.389 4.276
 0.068 -1.39 4.276
 0.093 -1.39 4.278
 0.119 -1.39 4.274
 0.144 -1.391 4.279
 0.17 -1.392 4.279
 0.195 -1.392 4.279
 0.22 -1.393 4.28
 0.246 -1.394 4.283
 0.272 -1.395 4.282
 0.297 -1.396 4.285
 0.323 -1.396 4.283
 0.348 -1.397 4.282
 0.374 -1.397 4.282
 0.4 -1.398 4.283
 0.425 -1.398 4.278
 0.45 -1.398 4.277
 0.476 -1.398 4.274
 0.501 -1.397 4.269
 0.526 -1.396 4.262
 0.552 -1.397 4.263
 0.577 -1.397 4.26
 0.603 -1.398 4.26
 0.629 -1.4 4.261
 0.655 -1.401 4.263
 0.681 -1.402 4.262
 0.708 -1.404 4.264
 0.734 -1.405 4.261
 0.76 -1.406 4.26
 0.786 -1.407 4.259
 0.812 -1.408 4.257
 0.838 -1.408 4.255
 0.865 -1.411 4.259
 0.892 -1.413 4.259
 0.918 -1.414 4.259
 0.945 -1.415 4.257
 0.972 -1.417 4.258
 0.998 -1.419 4.256
 1.025 -1.42 4.255
 1.052 -1.422 4.255
 1.079 -1.423 4.252
 1.106 -1.425 4.252
 1.133 -1.427 4.251
 1.16 -1.428 4.249
 1.188 -1.43 4.247
 1.217 -1.434 4.252
 1.244 -1.435 4.249
 1.271 -1.437 4.247
 1.299 -1.438 4.244
 1.326 -1.44 4.242
 1.354 -1.442 4.24
 1.382 -1.443 4.236
 1.41 -1.446 4.236
 1.439 -1.448 4.235
 1.467 -1.451 4.234
 1.496 -1.453 4.232
 1.525 -1.455 4.23
 1.554 -1.458 4.229
 1.583 -1.461 4.228
 1.612 -1.463 4.224
 1.64 -1.465 4.222
 1.67 -1.468 4.22
 1.699 -1.47 4.216
 1.727 -1.471 4.21
 1.757 -1.474 4.208
 1.784 -1.475 4.2
 1.812 -1.476 4.192
 1.838 -1.475 4.179
 1.861 -1.472 4.16
 1.881 -1.467 4.135
 1.901 -1.462 4.109
 1.915 -1.453 4.072
 1.926 -1.442 4.03
 0 0 0
 0 0 0
 0 0 0
 0 0 0
 0 0 0
 0 0 0
 0 0 0
 0 0 0
 0 0 0
 1.95 -1.287 3.484
 1.905 -1.242 3.352
 1.827 -1.178 3.166
 1.838 -1.171 3.137
 1.88 -1.184 3.161
 1.819 -1.133 3.013
 -2.545 -1.572 4.38
 -2.497 -1.561 4.364
 -2.443 -1.545 4.334
 -2.408 -1.541 4.337
 -2.372 -1.537 4.339
 -2.337 -1.533 4.34
 -2.301 -1.528 4.341
 -2.268 -1.525 4.345
 -2.233 -1.521 4.345
 -2.197 -1.516 4.343
 -2.162 -1.512 4.343
 -2.126 -1.507 4.34
 -2.091 -1.502 4.339
 -2.055 -1.496 4.333
 -2.02 -1.492 4.33
 -1.988 -1.489 4.333
 -1.955 -1.485 4.333
 -1.922 -1.481 4.331
 -1.89 -1.477 4.332
 -1.858 -1.474 4.333
 -1.826 -1.471 4.334
 -1.794 -1.468 4.332
 -1.763 -1.464 4.333
 -1.732 -1.462 4.334
 -1.699 -1.457 4.329
 -1.666 -1.453 4.324
 -1.636 -1.45 4.327
 -1.606 -1.447 4.326
 -1.575 -1.444 4.324
 -1.546 -1.443 4.328
 -1.516 -1.44 4.328
 -1.485 -1.436 4.323
 -1.455 -1.433 4.322
 -1.425 -1.43 4.321
 -1.395 -1.426 4.317
 -1.366 -1.424 4.317
 -1.337 -1.423 4.319
 -1.309 -1.42 4.318
 -1.279 -1.417 4.315
 -1.251 -1.416 4.317
 -1.222 -1.413 4.315
 -1.194 -1.411 4.313
 -1.167 -1.41 4.317
 -1.139 -1.409 4.319
 -1.111 -1.407 4.319
 -1.084 -1.406 4.321
 -1.057 -1.404 4.321
 -1.027 -1.4 4.312
 -0.999 -1.397 4.309
 -0.972 -1.396 4.309
 -0.945 -1.394 4.309
 -0.918 -1.393 4.309
 -0.892 -1.394 4.316
 -0.865 -1.392 4.316
 -0.837 -1.389 4.309
 -0.81 -1.388 4.309
 -0.783 -1.386 4.307
 -0.756 -1.384 4.305
 -0.73 -1.383 4.305
 -0.704 -1.383 4.307
 -0.677 -1.38 4.302
 -0.65 -1.379 4.301
 -0.624 -1.377 4.297
 -0.598 -1.377 4.299
 -0.572 -1.376 4.298
 -0.546 -1.377 4.304
 -0.521 -1.377 4.307
 -0.495 -1.379 4.314
 -0.47 -1.379 4.316
 -0.444 -1.379 4.319
 -0.418 -1.378 4.316
 -0.392 -1.377 4.315
 -0.365 -1.371 4.298
 -0.338 -1.367 4.287
 -0.312 -1.366 4.285
 -0.287 -1.366 4.286
 -0.261 -1.365 4.284
 -0.236 -1.365 4.286
 -0.211 -1.366 4.288
 -0.185 -1.365 4.286
 -0.159 -1.364 4.283
 -0.134 -1.364 4.285
 -0.109 -1.364 4.284
 -0.083 -1.364 4.284
 -0.058 -1.364 4.284
 -0.033 -1.364 4.284
 -0.007 -1.364 4.284
 0.017 -1.363 4.281
 0.043 -1.362 4.276
 0.068 -1.363 4.28
 0.093 -1.364 4.282
 0.119 -1.364 4.279
 0.144 -1.366 4.284
 0.17 -1.367 4.286
 0.195 -1.367 4.287
 0.221 -1.368 4.288
 0.246 -1.37 4.292
 0.272 -1.37 4.293
 0.298 -1.371 4.294
 0.323 -1.371 4.291
 0.348 -1.371 4.289
 0.374 -1.371 4.288
 0.4 -1.372 4.288
 0.425 -1.372 4.284
 0.45 -1.372 4.282
 0.476 -1.371 4.278
 0.501 -1.371 4.273
 0.526 -1.369 4.266
 0.552 -1.37 4.266
 0.577 -1.371 4.265
 0.603 -1.372 4.266
 0.629 -1.374 4.268
 0.655 -1.375 4.269
 0.681 -1.376 4.266
 0.708 -1.378 4.269
 0.733 -1.378 4.266
 0.759 -1.379 4.264
 0.785 -1.38 4.263
 0.812 -1.381 4.263
 0.837 -1.382 4.26
 0.865 -1.385 4.264
 0.892 -1.386 4.265
 0.918 -1.388 4.265
 0.945 -1.389 4.263
 0.971 -1.391 4.262
 0.998 -1.392 4.26
 1.024 -1.393 4.259
 1.051 -1.394 4.257
 1.078 -1.395 4.254
 1.105 -1.397 4.254
 1.132 -1.399 4.252
 1.159 -1.401 4.251
 1.186 -1.402 4.249
 1.215 -1.405 4.251
 1.242 -1.407 4.249
 1.269 -1.408 4.247
 1.296 -1.409 4.243
 1.324 -1.412 4.243
 1.352 -1.413 4.241
 1.38 -1.415 4.238
 1.409 -1.418 4.239
 1.437 -1.42 4.238
 1.465 -1.422 4.234
 1.494 -1.424 4.233
 1.523 -1.427 4.232
 1.552 -1.429 4.231
 1.581 -1.432 4.229
 1.61 -1.434 4.227
 1.638 -1.436 4.223
 1.667 -1.439 4.221
 1.696 -1.44 4.216
 1.724 -1.442 4.211
 1.754 -1.445 4.209
 1.783 -1.446 4.204
 1.811 -1.448 4.198
 1.838 -1.448 4.186
 1.863 -1.447 4.174
 1.887 -1.445 4.156
 1.91 -1.442 4.137
 1.926 -1.434 4.103
 0 0 0
 0 0 0
 0 0 0
 0 0 0
 0 0 0
 0 0 0
 0 0 0
 0 0 0
 0 0 0
 0 0 0
 1.974 -1.279 3.535
 1.911 -1.223 3.37
 1.824 -1.154 3.167
 1.835 -1.148 3.139
 1.859 -1.15 3.132
 1.857 -1.136 3.084
 -2.517 -1.526 4.343
 -2.488 -1.526 4.357
 -2.448 -1.519 4.352
 -2.412 -1.515 4.353
 -2.375 -1.51 4.353
 -2.338 -1.505 4.351
 -2.3 -1.499 4.348
 -2.266 -1.496 4.351
 -2.231 -1.492 4.352
 -2.196 -1.487 4.351
 -2.161 -1.483 4.351
 -2.126 -1.478 4.349
 -2.091 -1.473 4.346
 -2.054 -1.468 4.34
 -2.019 -1.463 4.337
 -1.986 -1.459 4.336
 -1.953 -1.456 4.337
 -1.92 -1.452 4.336
 -1.887 -1.448 4.335
 -1.856 -1.445 4.337
 -1.824 -1.442 4.338
 -1.792 -1.438 4.336
 -1.76 -1.435 4.334
 -1.73 -1.433 4.337
 -1.696 -1.428 4.331
 -1.663 -1.423 4.326
 -1.634 -1.421 4.329
 -1.603 -1.418 4.327
 -1.572 -1.415 4.325
 -1.544 -1.413 4.329
 -1.515 -1.411 4.331
 -1.483 -1.407 4.325
 -1.453 -1.404 4.324
 -1.424 -1.402 4.325
 -1.393 -1.399 4.321
 -1.364 -1.396 4.321
 -1.336 -1.395 4.323
 -1.308 -1.394 4.325
 -1.278 -1.39 4.321
 -1.251 -1.389 4.324
 -1.222 -1.386 4.321
 -1.194 -1.384 4.321
 -1.166 -1.383 4.324
 -1.139 -1.382 4.325
 -1.11 -1.379 4.322
 -1.083 -1.378 4.324
 -1.056 -1.377 4.325
 -1.026 -1.372 4.315
 -0.998 -1.37 4.314
 -0.971 -1.369 4.316
 -0.944 -1.368 4.315
 -0.917 -1.366 4.313
 -0.891 -1.367 4.32
 -0.864 -1.365 4.32
 -0.836 -1.362 4.313
 -0.81 -1.361 4.314
 -0.783 -1.36 4.314
 -0.756 -1.359 4.313
 -0.73 -1.357 4.312
 -0.704 -1.357 4.315
 -0.677 -1.355 4.309
 -0.65 -1.352 4.305
 -0.623 -1.35 4.301
 -0.597 -1.35 4.301
 -0.571 -1.348 4.299
 -0.545 -1.349 4.303
 -0.52 -1.35 4.308
 -0.495 -1.351 4.316
 -0.469 -1.352 4.32
 -0.444 -1.352 4.323
 -0.418 -1.353 4.326
 -0.392 -1.353 4.327
 -0.364 -1.343 4.298
 -0.337 -1.339 4.284
 -0.312 -1.339 4.288
 -0.287 -1.339 4.287
 -0.261 -1.338 4.286
 -0.236 -1.338 4.288
 -0.21 -1.339 4.29
 -0.185 -1.337 4.286
 -0.159 -1.337 4.284
 -0.134 -1.337 4.284
 -0.108 -1.336 4.284
 -0.083 -1.336 4.284
 -0.058 -1.336 4.283
 -0.032 -1.336 4.282
 -0.007 -1.336 4.283
 0.017 -1.336 4.281
 0.043 -1.334 4.275
 0.068 -1.338 4.285
 0.094 -1.339 4.291
 0.119 -1.339 4.289
 0.145 -1.342 4.298
 0.17 -1.343 4.3
 0.196 -1.343 4.297
 0.221 -1.343 4.295
 0.247 -1.345 4.301
 0.272 -1.346 4.303
 0.298 -1.346 4.302
 0.323 -1.345 4.297
 0.349 -1.345 4.295
 0.374 -1.345 4.292
 0.4 -1.346 4.294
 0.425 -1.346 4.29
 0.451 -1.347 4.291
 0.476 -1.347 4.288
 0.501 -1.344 4.277
 0.525 -1.342 4.266
 0.551 -1.343 4.267
 0.576 -1.342 4.261
 0.602 -1.344 4.263
 0.629 -1.347 4.269
 0.655 -1.348 4.271
 0.681 -1.349 4.269
 0.708 -1.352 4.276
 0.733 -1.352 4.273
 0.759 -1.353 4.268
 0.785 -1.353 4.267
 0.811 -1.354 4.266
 0.836 -1.354 4.26
 0.864 -1.358 4.268
 0.892 -1.36 4.271
 0.919 -1.363 4.273
 0.946 -1.364 4.273
 0.971 -1.364 4.267
 0.996 -1.364 4.261
 1.023 -1.365 4.259
 1.049 -1.366 4.255
 1.075 -1.366 4.251
 1.103 -1.368 4.252
 1.129 -1.37 4.249
 1.157 -1.372 4.25
 1.184 -1.373 4.247
 1.212 -1.376 4.25
 1.239 -1.377 4.248
 1.268 -1.38 4.248
 1.294 -1.381 4.244
 1.323 -1.383 4.245
 1.351 -1.385 4.243
 1.378 -1.387 4.241
 1.407 -1.389 4.24
 1.435 -1.392 4.24
 1.463 -1.394 4.237
 1.492 -1.396 4.235
 1.521 -1.399 4.235
 1.55 -1.401 4.234
 1.58 -1.404 4.234
 1.608 -1.406 4.23
 1.637 -1.408 4.228
 1.666 -1.41 4.224
 1.694 -1.412 4.219
 1.722 -1.413 4.213
 1.752 -1.416 4.211
 1.779 -1.417 4.203
 1.808 -1.418 4.198
 1.835 -1.419 4.188
 1.863 -1.419 4.179
 1.889 -1.419 4.168
 1.916 -1.42 4.158
 0 0 0
 0 0 0
 0 0 0
 0 0 0
 0 0 0
 0 0 0
 0 0 0
 0 0 0
 0 0 0
 0 0 0
 0 0 0
 2.007 -1.276 3.601
 1.917 -1.204 3.387
 1.819 -1.13 3.165
 1.831 -1.124 3.139
 1.869 -1.135 3.156
 1.85 -1.11 3.077
 -2.527 -1.502 4.368
 -2.505 -1.507 4.396
 -2.452 -1.492 4.368
 -2.413 -1.487 4.366
 -2.377 -1.482 4.366
 -2.34 -1.477 4.364
 -2.301 -1.471 4.359
 -2.266 -1.467 4.359
 -2.231 -1.463 4.359
 -2.194 -1.457 4.355
 -2.158 -1.453 4.354
 -2.122 -1.448 4.35
 -2.088 -1.444 4.35
 -2.052 -1.438 4.345
 -2.017 -1.433 4.34
 -1.984 -1.43 4.341
 -1.951 -1.426 4.34
 -1.917 -1.422 4.337
 -1.884 -1.418 4.336
 -1.853 -1.415 4.338
 -1.822 -1.413 4.34
 -1.79 -1.409 4.339
 -1.758 -1.406 4.338
 -1.728 -1.404 4.342
 -1.695 -1.399 4.336
 -1.662 -1.395 4.329
 -1.632 -1.392 4.331
 -1.601 -1.389 4.329
 -1.569 -1.385 4.324
 -1.541 -1.384 4.33
 -1.512 -1.382 4.332
 -1.481 -1.378 4.327
 -1.45 -1.375 4.325
 -1.422 -1.373 4.326
 -1.392 -1.371 4.324
 -1.363 -1.368 4.325
 -1.335 -1.367 4.327
 -1.308 -1.367 4.332
 -1.277 -1.363 4.326
 -1.249 -1.361 4.326
 -1.221 -1.359 4.327
 -1.193 -1.357 4.327
 -1.166 -1.357 4.331
 -1.139 -1.355 4.332
 -1.11 -1.353 4.33
 -1.083 -1.352 4.331
 -1.056 -1.351 4.333
 -1.025 -1.345 4.32
 -0.998 -1.344 4.321
 -0.971 -1.343 4.322
 -0.944 -1.341 4.32
 -0.916 -1.339 4.317
 -0.891 -1.34 4.325
 -0.863 -1.338 4.322
 -0.834 -1.333 4.311
 -0.809 -1.334 4.317
 -0.782 -1.332 4.314
 -0.755 -1.331 4.315
 -0.73 -1.333 4.323
 -0.705 -1.334 4.331
 -0.678 -1.331 4.324
 -0.65 -1.328 4.316
 -0.624 -1.326 4.313
 -0.597 -1.324 4.307
 -0.57 -1.322 4.306
 -0.545 -1.322 4.308
 -0.52 -1.325 4.319
 -0.495 -1.326 4.325
 -0.47 -1.329 4.334
 -0.445 -1.33 4.342
 0 0 0
 0 0 0
 -0.363 -1.313 4.288
 -0.336 -1.31 4.28
 -0.311 -1.311 4.285
 -0.286 -1.311 4.287
 -0.26 -1.311 4.287
 -0.235 -1.311 4.289
 -0.21 -1.311 4.289
 -0.184 -1.31 4.286
 -0.159 -1.31 4.285
 -0.133 -1.309 4.285
 -0.108 -1.309 4.284
 -0.083 -1.309 4.284
 -0.057 -1.308 4.282
 -0.032 -1.308 4.281
 -0.007 -1.308 4.28
 0.017 -1.307 4.278
 0.043 -1.304 4.267
 0 0 0
 0 0 0
 0 0 0
 0 0 0
 0 0 0
 0 0 0
 0 0 0
 0 0 0
 0.273 -1.32 4.309
 0.298 -1.321 4.308
 0.324 -1.322 4.311
 0.35 -1.323 4.314
 0.375 -1.322 4.306
 0.401 -1.324 4.312
 0.427 -1.325 4.312
 0.452 -1.325 4.308
 0.477 -1.323 4.301
 0.501 -1.32 4.287
 0.525 -1.316 4.272
 0.55 -1.315 4.267
 0.575 -1.313 4.256
 0.601 -1.316 4.261
 0.628 -1.318 4.267
 0.654 -1.32 4.269
 0.68 -1.322 4.27
 0.708 -1.326 4.281
 0.732 -1.324 4.271
 0.757 -1.323 4.262
 0.782 -1.323 4.258
 0.808 -1.323 4.254
 0.834 -1.324 4.253
 0.862 -1.329 4.265
 0.892 -1.335 4.278
 0.919 -1.338 4.282
 0.946 -1.339 4.282
 0.971 -1.338 4.273
 0.997 -1.338 4.268
 1.023 -1.338 4.264
 1.048 -1.339 4.259
 1.074 -1.339 4.254
 1.102 -1.341 4.254
 1.128 -1.342 4.252
 1.156 -1.344 4.251
 1.183 -1.345 4.249
 1.211 -1.348 4.251
 1.238 -1.35 4.25
 1.266 -1.352 4.251
 1.294 -1.354 4.248
 1.322 -1.356 4.249
 1.35 -1.358 4.248
 1.377 -1.36 4.245
 1.405 -1.361 4.242
 1.433 -1.364 4.241
 1.46 -1.364 4.235
 1.489 -1.366 4.233
 1.518 -1.369 4.234
 1.547 -1.372 4.233
 1.577 -1.375 4.233
 1.606 -1.378 4.233
 1.635 -1.38 4.23
 1.663 -1.381 4.225
 1.692 -1.383 4.221
 1.72 -1.384 4.214
 1.749 -1.386 4.211
 1.776 -1.387 4.203
 1.805 -1.389 4.199
 1.832 -1.39 4.19
 1.86 -1.39 4.181
 1.887 -1.391 4.171
 0 0 0
 0 0 0
 0 0 0
 0 0 0
 0 0 0
 0 0 0
 0 0 0
 0 0 0
 0 0 0
 0 0 0
 0 0 0
 0 0 0
 0 0 0
 1.865 -1.15 3.302
 1.812 -1.104 3.159
 1.827 -1.101 3.138
 1.855 -1.105 3.139
 1.851 -1.09 3.085
 -2.544 -1.482 4.406
 -2.488 -1.467 4.375
 -2.449 -1.461 4.371
 -2.411 -1.456 4.37
 -2.374 -1.451 4.369
 -2.336 -1.446 4.366
 -2.298 -1.441 4.362
 -2.263 -1.436 4.363
 -2.227 -1.432 4.362
 -2.191 -1.427 4.359
 -2.155 -1.422 4.356
 -2.118 -1.417 4.351
 -2.084 -1.413 4.35
 -2.049 -1.408 4.347
 -2.013 -1.403 4.342
 -1.98 -1.399 4.341
 -1.948 -1.396 4.343
 -1.915 -1.392 4.341
 -1.882 -1.389 4.34
 -1.852 -1.387 4.343
 -1.82 -1.384 4.345
 -1.788 -1.381 4.343
 -1.756 -1.377 4.342
 -1.726 -1.375 4.345
 -1.693 -1.371 4.34
 -1.661 -1.366 4.334
 -1.631 -1.364 4.336
 -1.599 -1.361 4.332
 -1.568 -1.357 4.329
 -1.539 -1.355 4.331
 -1.509 -1.353 4.332
 -1.478 -1.349 4.327
 -1.448 -1.346 4.326
 -1.419 -1.344 4.326
 -1.391 -1.343 4.328
 -1.362 -1.341 4.33
 -1.335 -1.34 4.334
 -1.308 -1.341 4.341
 -1.277 -1.336 4.331
 -1.249 -1.334 4.333
 -1.22 -1.332 4.33
 -1.192 -1.33 4.331
 -1.166 -1.331 4.339
 -1.139 -1.33 4.341
 -1.11 -1.327 4.338
 -1.084 -1.327 4.343
 -1.056 -1.326 4.343
 -1.024 -1.318 4.322
 -0.997 -1.317 4.324
 0 0 0
 0 0 0
 0 0 0
 0 0 0
 0 0 0
 0 0 0
 0 0 0
 0 0 0
 0 0 0
 0 0 0
 0 0 0
 0 0 0
 0 0 0
 0 0 0
 0 0 0
 0 0 0
 0 0 0
 0 0 0
 0 0 0
 0 0 0
 0 0 0
 0 0 0
 0 0 0
 -0.362 -1.285 4.286
 -0.336 -1.285 4.287
 -0.311 -1.285 4.291
 -0.286 -1.285 4.292
 -0.26 -1.285 4.29
 -0.235 -1.284 4.29
 -0.209 -1.284 4.29
 -0.184 -1.283 4.286
 -0.158 -1.282 4.284
 -0.133 -1.282 4.284
 -0.108 -1.281 4.282
 -0.082 -1.281 4.282
 -0.057 -1.28 4.278
 -0.032 -1.28 4.276
 -0.007 -1.279 4.274
 0.018 -1.279 4.272
 0.043 -1.274 4.255
 0 0 0
 0 0 0
 0 0 0
 0 0 0
 0 0 0
 0 0 0
 0 0 0
 0 0 0
 0 0 0
 0 0 0
 0 0 0
 0 0 0
 0 0 0
 0 0 0
 0 0 0
 0 0 0
 0 0 0
 0 0 0
 0 0 0
 0 0 0
 0 0 0
 0 0 0
 0 0 0
 0 0 0
 0 0 0
 0 0 0
 0 0 0
 0 0 0
 0 0 0
 0 0 0
 0 0 0
 0 0 0
 0 0 0
 0 0 0
 0 0 0
 0.97 -1.311 4.275
 0.996 -1.311 4.27
 1.021 -1.311 4.265
 1.047 -1.311 4.26
 1.073 -1.312 4.256
 1.1 -1.313 4.256
 1.127 -1.314 4.253
 1.154 -1.316 4.253
 1.181 -1.318 4.252
 1.209 -1.32 4.252
 1.237 -1.322 4.251
 1.265 -1.324 4.252
 1.292 -1.326 4.25
 1.32 -1.328 4.25
 1.348 -1.33 4.247
 1.375 -1.331 4.244
 1.403 -1.332 4.241
 1.431 -1.335 4.24
 1.458 -1.336 4.236
 1.487 -1.338 4.235
 1.515 -1.34 4.233
 1.544 -1.343 4.232
 1.573 -1.345 4.231
 1.602 -1.348 4.23
 1.631 -1.35 4.227
 1.66 -1.352 4.224
 1.689 -1.354 4.221
 1.718 -1.356 4.217
 1.747 -1.358 4.214
 1.775 -1.359 4.207
 1.804 -1.361 4.203
 1.832 -1.362 4.195
 1.859 -1.363 4.186
 1.887 -1.364 4.178
 0 0 0
 0 0 0
 0 0 0
 0 0 0
 0 0 0
 0 0 0
 0 0 0
 0 0 0
 0 0 0
 0 0 0
 0 0 0
 0 0 0
 0 0 0
 1.799 -1.088 3.19
 1.822 -1.089 3.183
 1.834 -1.084 3.157
 1.868 -1.091 3.168
 1.873 -1.082 3.129
 -2.52 -1.44 4.375
 -2.479 -1.433 4.369
 -2.447 -1.431 4.378
 -2.41 -1.427 4.376
 -2.371 -1.421 4.373
 -2.333 -1.415 4.369
 -2.295 -1.41 4.364
 -2.259 -1.406 4.364
 -2.223 -1.401 4.361
 -2.188 -1.397 4.36
 -2.153 -1.393 4.36
 -2.116 -1.387 4.355
 -2.082 -1.383 4.354
 -2.047 -1.379 4.35
 -2.011 -1.374 4.346
 -1.978 -1.37 4.344
 -1.947 -1.368 4.348
 -1.914 -1.364 4.347
 -1.881 -1.361 4.347
 -1.85 -1.358 4.347
 -1.818 -1.355 4.347
 -1.785 -1.351 4.344
 -1.753 -1.347 4.342
 -1.723 -1.345 4.344
 -1.69 -1.341 4.339
 -1.658 -1.337 4.335
 -1.627 -1.334 4.334
 -1.596 -1.331 4.332
 -1.565 -1.328 4.329
 -1.535 -1.326 4.33
 -1.506 -1.324 4.331
 -1.475 -1.32 4.327
 -1.446 -1.317 4.326
 -1.417 -1.315 4.326
 -1.389 -1.314 4.329
 -1.361 -1.313 4.332
 -1.334 -1.313 4.339
 -1.309 -1.314 4.35
 0 0 0
 0 0 0
 0 0 0
 0 0 0
 0 0 0
 0 0 0
 0 0 0
 0 0 0
 0 0 0
 0 0 0
 0 0 0
 0 0 0
 0 0 0
 0 0 0
 0 0 0
 0 0 0
 0 0 0
 0 0 0
 0 0 0
 0 0 0
 0 0 0
 0 0 0
 0 0 0
 0 0 0
 0 0 0
 0 0 0
 0 0 0
 0 0 0
 0 0 0
 0 0 0
 0 0 0
 0 0 0
 0 0 0
 0 0 0
 -0.36 -1.254 4.273
 -0.335 -1.256 4.282
 -0.31 -1.257 4.286
 -0.285 -1.257 4.288
 -0.26 -1.257 4.288
 -0.234 -1.257 4.291
 -0.209 -1.257 4.29
 -0.183 -1.256 4.286
 -0.158 -1.255 4.284
 -0.133 -1.255 4.284
 -0.107 -1.254 4.283
 -0.082 -1.254 4.283
 -0.057 -1.253 4.279
 -0.032 -1.253 4.278
 -0.006 -1.252 4.275
 0.018 -1.251 4.272
 0.043 -1.247 4.256
 0 0 0
 0 0 0
 0 0 0
 0 0 0
 0 0 0
 0 0 0
 0 0 0
 0 0 0
 0 0 0
 0 0 0
 0 0 0
 0 0 0
 0 0 0
 0 0 0
 0 0 0
 0 0 0
 0 0 0
 0 0 0
 0 0 0
 0 0 0
 0 0 0
 0 0 0
 0 0 0
 0 0 0
 0 0 0
 0 0 0
 0 0 0
 0 0 0
 0 0 0
 0 0 0
 0 0 0
 0 0 0
 0 0 0
 0 0 0
 0 0 0
 0.967 -1.281 4.268
 0.994 -1.282 4.267
 1.02 -1.283 4.264
 1.046 -1.283 4.259
 1.072 -1.284 4.256
 1.099 -1.286 4.257
 1.126 -1.287 4.255
 1.153 -1.289 4.256
 1.18 -1.29 4.253
 1.208 -1.293 4.254
 1.235 -1.294 4.253
 1.263 -1.297 4.253
 1.29 -1.298 4.251
 1.319 -1.301 4.252
 1.346 -1.302 4.248
 1.373 -1.302 4.243
 1.4 -1.304 4.241
 1.428 -1.306 4.239
 1.456 -1.307 4.235
 1.484 -1.309 4.233
 1.513 -1.312 4.233
 1.541 -1.314 4.231
 1.57 -1.316 4.23
 1.6 -1.319 4.229
 1.629 -1.321 4.227
 1.658 -1.323 4.225
 1.687 -1.325 4.222
 1.715 -1.327 4.218
 1.744 -1.329 4.215
 1.773 -1.331 4.21
 1.801 -1.332 4.202
 1.828 -1.333 4.194
 1.854 -1.333 4.183
 1.882 -1.334 4.175
 0 0 0
 0 0 0
 0 0 0
 0 0 0
 0 0 0
 0 0 0
 0 0 0
 0 0 0
 0 0 0
 0 0 0
 0 0 0
 0 0 0
 0 0 0
 1.808 -1.071 3.212
 1.827 -1.07 3.198
 1.838 -1.064 3.169
 1.864 -1.067 3.166
 1.846 -1.045 3.089
 -2.502 -1.4 4.352
 -2.488 -1.409 4.393
 -2.441 -1.399 4.375
 -2.403 -1.394 4.373
 -2.368 -1.39 4.375
 -2.331 -1.385 4.373
 -2.293 -1.38 4.37
 -2.259 -1.377 4.371
 -2.222 -1.372 4.369
 -2.184 -1.366 4.362
 -2.148 -1.361 4.359
 -2.112 -1.356 4.354
 -2.077 -1.352 4.351
 -2.041 -1.347 4.346
 -2.006 -1.343 4.343
 -1.971 -1.338 4.338
 -1.941 -1.336 4.342
 -1.909 -1.333 4.344
 -1.877 -1.33 4.345
 -1.846 -1.327 4.345
 -1.814 -1.325 4.345
 -1.781 -1.321 4.342
 -1.749 -1.317 4.339
 -1.719 -1.315 4.341
 -1.686 -1.311 4.337
 -1.654 -1.307 4.333
 -1.624 -1.305 4.333
 -1.593 -1.302 4.332
 -1.563 -1.299 4.33
 -1.533 -1.297 4.33
 -1.504 -1.295 4.331
 -1.473 -1.291 4.328
 -1.443 -1.289 4.326
 -1.414 -1.286 4.325
 -1.386 -1.285 4.329
 -1.359 -1.284 4.333
 -1.331 -1.284 4.336
 -1.305 -1.284 4.344
 0 0 0
 0 0 0
 0 0 0
 0 0 0
 0 0 0
 0 0 0
 0 0 0
 0 0 0
 0 0 0
 0 0 0
 0 0 0
 0 0 0
 0 0 0
 0 0 0
 0 0 0
 0 0 0
 0 0 0
 0 0 0
 0 0 0
 0 0 0
 0 0 0
 0 0 0
 0 0 0
 0 0 0
 0 0 0
 0 0 0
 0 0 0
 0 0 0
 0 0 0
 0 0 0
 0 0 0
 0 0 0
 0 0 0
 0 0 0
 -0.36 -1.23 4.284
 -0.335 -1.23 4.285
 -0.31 -1.23 4.288
 -0.284 -1.23 4.289
 -0.259 -1.23 4.288
 -0.234 -1.23 4.289
 -0.208 -1.229 4.289
 -0.183 -1.228 4.285
 -0.158 -1.228 4.284
 -0.132 -1.228 4.286
 -0.107 -1.228 4.285
 -0.082 -1.227 4.282
 -0.057 -1.227 4.28
 -0.032 -1.227 4.28
 -0.006 -1.226 4.276
 0.018 -1.224 4.27
 0.043 -1.223 4.266
 0 0 0
 0 0 0
 0 0 0
 0 0 0
 0 0 0
 0 0 0
 0 0 0
 0 0 0
 0 0 0
 0 0 0
 0 0 0
 0 0 0
 0 0 0
 0 0 0
 0 0 0
 0 0 0
 0 0 0
 0 0 0
 0 0 0
 0 0 0
 0 0 0
 0 0 0
 0 0 0
 0 0 0
 0 0 0
 0 0 0
 0 0 0
 0 0 0
 0 0 0
 0 0 0
 0 0 0
 0 0 0
 0 0 0
 0 0 0
 0 0 0
 0.967 -1.255 4.274
 0.993 -1.255 4.27
 1.019 -1.255 4.265
 1.045 -1.256 4.261
 1.071 -1.257 4.258
 1.098 -1.258 4.258
 1.124 -1.259 4.255
 1.152 -1.261 4.255
 1.178 -1.262 4.252
 1.206 -1.264 4.253
 1.233 -1.266 4.252
 1.261 -1.269 4.253
 1.289 -1.27 4.252
 1.317 -1.273 4.253
 1.344 -1.274 4.249
 1.371 -1.274 4.244
 1.399 -1.276 4.242
 1.426 -1.278 4.24
 1.454 -1.279 4.236
 1.483 -1.282 4.236
 1.512 -1.284 4.236
 1.54 -1.286 4.233
 1.569 -1.288 4.232
 1.597 -1.29 4.23
 1.626 -1.292 4.226
 1.655 -1.294 4.224
 1.684 -1.296 4.221
 1.712 -1.298 4.217
 1.741 -1.3 4.213
 1.769 -1.301 4.208
 1.796 -1.302 4.2
 1.824 -1.303 4.191
 1.851 -1.303 4.182
 1.878 -1.304 4.173
 0 0 0
 0 0 0
 0 0 0
 0 0 0
 0 0 0
 0 0 0
 0 0 0
 0 0 0
 0 0 0
 0 0 0
 0 0 0
 0 0 0
 0 0 0
 1.8 -1.045 3.204
 1.822 -1.046 3.195
 1.836 -1.042 3.171
 1.876 -1.053 3.193
 1.865 -1.034 3.127
 -2.535 -1.389 4.419
 -2.474 -1.372 4.376
 -2.435 -1.366 4.373
 -2.397 -1.362 4.371
 -2.362 -1.358 4.373
 -2.325 -1.354 4.371
 -2.288 -1.349 4.368
 -2.255 -1.346 4.371
 -2.218 -1.341 4.368
 -2.18 -1.335 4.361
 -2.143 -1.33 4.356
 -2.108 -1.326 4.355
 -2.073 -1.321 4.351
 -2.038 -1.317 4.348
 -2.004 -1.313 4.345
 -1.969 -1.309 4.342
 -1.938 -1.306 4.344
 -1.906 -1.303 4.345
 -1.872 -1.299 4.34
 -1.839 -1.296 4.338
 -1.807 -1.292 4.337
 -1.776 -1.289 4.336
 -1.744 -1.286 4.335
 -1.716 -1.286 4.342
 -1.684 -1.282 4.339
 -1.653 -1.279 4.337
 -1.622 -1.276 4.336
 -1.592 -1.274 4.337
 -1.561 -1.271 4.334
 -1.532 -1.269 4.334
 -1.501 -1.266 4.332
 -1.471 -1.263 4.329
 -1.441 -1.26 4.326
 -1.411 -1.257 4.324
 -1.383 -1.256 4.327
 -1.356 -1.256 4.332
 -1.328 -1.255 4.334
 -1.301 -1.254 4.34
 0 0 0
 0 0 0
 0 0 0
 0 0 0
 0 0 0
 0 0 0
 0 0 0
 0 0 0
 0 0 0
 0 0 0
 0 0 0
 0 0 0
 0 0 0
 0 0 0
 0 0 0
 0 0 0
 0 0 0
 0 0 0
 0 0 0
 0 0 0
 0 0 0
 0 0 0
 0 0 0
 -0.657 -1.239 4.392
 -0.631 -1.239 4.395
 0 0 0
 0 0 0
 0 0 0
 0 0 0
 0 0 0
 0 0 0
 0 0 0
 0 0 0
 0 0 0
 -0.36 -1.203 4.285
 -0.334 -1.202 4.285
 -0.309 -1.202 4.285
 -0.284 -1.202 4.286
 -0.258 -1.203 4.288
 -0.233 -1.202 4.288
 -0.208 -1.202 4.288
 -0.183 -1.201 4.285
 -0.157 -1.201 4.283
 -0.132 -1.201 4.283
 -0.107 -1.201 4.283
 -0.082 -1.2 4.279
 -0.056 -1.199 4.278
 -0.031 -1.199 4.278
 -0.006 -1.198 4.273
 0.018 -1.196 4.265
 0.043 -1.196 4.264
 0 0 0
 0 0 0
 0 0 0
 0 0 0
 0 0 0
 0 0 0
 0 0 0
 0 0 0
 0 0 0
 0 0 0
 0 0 0
 0 0 0
 0 0 0
 0 0 0
 0 0 0
 0 0 0
 0 0 0
 0 0 0
 0 0 0
 0 0 0
 0 0 0
 0 0 0
 0 0 0
 0 0 0
 0 0 0
 0 0 0
 0 0 0
 0 0 0
 0 0 0
 0 0 0
 0 0 0
 0 0 0
 0 0 0
 0 0 0
 0 0 0
 0.97 -1.233 4.293
 0.994 -1.23 4.28
 1.019 -1.23 4.272
 1.045 -1.23 4.267
 1.071 -1.231 4.264
 1.097 -1.231 4.259
 1.124 -1.233 4.259
 1.151 -1.234 4.258
 1.178 -1.236 4.256
 1.205 -1.237 4.255
