 -1.034 -1.626 3.909
 -0.993 -1.598 3.847
 -0.983 -1.622 3.91
 -0.962 -1.628 3.929
 -0.928 -1.612 3.896
 -0.908 -1.618 3.916
 -0.881 -1.614 3.911
 -0.861 -1.622 3.934
 -0.828 -1.606 3.899
 -0.817 -1.632 3.965
 -0.789 -1.625 3.953
 -0.752 -1.598 3.89
 -0.734 -1.611 3.927
 -0.713 -1.618 3.947
 -0.69 -1.621 3.959
 -0.665 -1.621 3.96
 -0.639 -1.616 3.951
 -0.612 -1.609 3.937
 -0.594 -1.626 3.982
 -0.571 -1.631 3.997
 -0.547 -1.63 3.998
 -0.512 -1.6 3.925
 -0.491 -1.608 3.949
 -0.466 -1.607 3.948
 -0.451 -1.638 4.027
 -0.421 -1.617 3.976
 -0.399 -1.628 4.006
 -0.374 -1.624 3.998
 -0.348 -1.619 3.987
 -0.328 -1.639 4.039
 -0.298 -1.611 3.971
 -0.279 -1.639 4.041
 -0.253 -1.631 4.021
 -0.227 -1.616 3.985
 -0.202 -1.614 3.981
 -0.18 -1.631 4.023
 -0.155 -1.628 4.017
 -0.132 -1.648 4.067
 -0.107 -1.635 4.035
 -0.082 -1.632 4.027
 -0.058 -1.63 4.024
 -0.033 -1.596 3.94
 -0.009 -1.622 4.004
 0.014 -1.611 3.975
 0.039 -1.632 4.027
 0.063 -1.617 3.99
 0.088 -1.644 4.055
 0.111 -1.614 3.98
 0.136 -1.622 3.998
 0.159 -1.614 3.977
 0.184 -1.619 3.99
 0.208 -1.618 3.987
 0.231 -1.61 3.963
 0.254 -1.605 3.951
 0.282 -1.628 4.006
 0.307 -1.629 4.007
 0.331 -1.627 3.999
 0.352 -1.615 3.968
 0.383 -1.642 4.031
 0.406 -1.636 4.014
 0.428 -1.629 3.995
 0.453 -1.631 3.997
 0.477 -1.63 3.993
 0.499 -1.622 3.97
 0.524 -1.623 3.969
 0.547 -1.621 3.962
 0.572 -1.623 3.962
 0.593 -1.614 3.937
 0.623 -1.63 3.974
 0.641 -1.613 3.928
 0.676 -1.641 3.992
 0.709 -1.66 4.035
 0.72 -1.63 3.957
 0.748 -1.637 3.969
 0.763 -1.617 3.917
 0.798 -1.639 3.967
 0.809 -1.614 3.901
 0.844 -1.634 3.946
 0.872 -1.642 3.959
 0.888 -1.626 3.915
 0.918 -1.636 3.935
 0.938 -1.629 3.912
 0.966 -1.636 3.924
 0.99 -1.634 3.914
 1.003 -1.617 3.866
 1.04 -1.637 3.909
 1.051 -1.616 3.854
 1.097 -1.649 3.925
 1.111 -1.633 3.882
 1.14 -1.641 3.894
 1.159 -1.634 3.869
 1.193 -1.646 3.892
 1.219 -1.648 3.89
 1.225 -1.625 3.827
 1.265 -1.645 3.868
 1.291 -1.647 3.864
 1.311 -1.641 3.844
 1.335 -1.641 3.836
 1.357 -1.639 3.822
 1.38 -1.637 3.809
 1.405 -1.638 3.804
 1.429 -1.637 3.794
 1.471 -1.657 3.832
 1.491 -1.652 3.811
 1.505 -1.641 3.776
 1.513 -1.623 3.726
 1.538 -1.624 3.721
 1.578 -1.64 3.748
 1.62 -1.658 3.78
 1.614 -1.628 3.701
 1.646 -1.636 3.709
 1.668 -1.634 3.694
 1.708 -1.649 3.718
 1.721 -1.638 3.683
 1.745 -1.637 3.672
 1.773 -1.641 3.67
 1.816 -1.659 3.698
 1.84 -1.657 3.684
 1.799 -1.599 3.543
 1.808 -1.587 3.504
 1.818 -1.575 3.468
 1.818 -1.555 3.413
 1.808 -1.527 3.341
 1.765 -1.473 3.211
 1.765 -1.455 3.16
 1.776 -1.447 3.132
 1.777 -1.431 3.085
 1.742 -1.385 2.977
 1.763 -1.386 2.968
 1.754 -1.363 2.908
 1.747 -1.343 2.853
 1.751 -1.33 2.816
 -2.149 -1.626 3.588
 -2.145 -1.642 3.636
 -2.087 -1.617 3.592
 -2.061 -1.616 3.601
 -2.026 -1.609 3.597
 -2.024 -1.627 3.649
 -1.979 -1.61 3.624
 -1.956 -1.612 3.639
 -1.951 -1.628 3.687
 -1.938 -1.638 3.722
 -1.876 -1.607 3.66
 -1.882 -1.634 3.732
 -1.857 -1.634 3.743
 -1.845 -1.645 3.781
 -1.799 -1.626 3.747
 -1.813 -1.663 3.841
 -1.744 -1.622 3.756
 -1.751 -1.652 3.838
 -1.703 -1.631 3.796
 -1.686 -1.639 3.825
 -1.654 -1.631 3.817
 -1.595 -1.597 3.746
 -1.58 -1.607 3.778
 -1.575 -1.628 3.835
 -1.578 -1.657 3.912
 -1.524 -1.626 3.849
 -1.482 -1.609 3.815
 -1.468 -1.62 3.849
 -1.438 -1.614 3.843
 -1.427 -1.63 3.89
 -1.392 -1.618 3.87
 -1.372 -1.624 3.891
 -1.336 -1.61 3.865
 -1.308 -1.607 3.863
 -1.281 -1.604 3.864
 -1.261 -1.609 3.882
 -1.252 -1.629 3.938
 -1.221 -1.622 3.926
 -1.196 -1.621 3.932
 -1.171 -1.621 3.937
 -1.136 -1.606 3.907
 -1.119 -1.618 3.942
 -1.089 -1.61 3.929
 -1.06 -1.604 3.919
 -1.039 -1.609 3.938
 -1.026 -1.627 3.986
 -1.008 -1.639 4.02
 -0.978 -1.631 4.006
 -0.95 -1.625 3.997
 -0.931 -1.635 4.026
 -0.9 -1.624 4.003
 -0.87 -1.614 3.984
 -0.846 -1.615 3.99
 -0.809 -1.592 3.936
 -0.798 -1.618 4.006
 -0.774 -1.621 4.016
 -0.744 -1.608 3.989
 -0.722 -1.616 4.01
 -0.7 -1.622 4.029
 -0.673 -1.616 4.019
 -0.648 -1.614 4.017
 -0.621 -1.61 4.009
 -0.6 -1.617 4.03
 -0.586 -1.647 4.109
 -0.544 -1.599 3.99
 -0.531 -1.632 4.075
 -0.5 -1.613 4.031
 -0.479 -1.627 4.067
 -0.452 -1.617 4.043
 -0.432 -1.634 4.089
 -0.4 -1.607 4.024
 -0.377 -1.613 4.038
 -0.355 -1.623 4.067
 -0.331 -1.631 4.088
 -0.306 -1.629 4.084
 -0.28 -1.624 4.073
 -0.259 -1.644 4.123
 -0.231 -1.625 4.078
 -0.205 -1.611 4.044
 -0.183 -1.639 4.114
 -0.157 -1.622 4.073
 -0.132 -1.621 4.07
 -0.107 -1.612 4.047
 -0.082 -1.614 4.052
 -0.058 -1.608 4.038
 -0.033 -1.621 4.069
 -0.009 -1.611 4.045
 0.015 -1.648 4.138
 0.04 -1.625 4.078
 0.065 -1.636 4.106
 0.09 -1.635 4.103
 0.114 -1.626 4.08
 0.139 -1.629 4.087
 0.163 -1.628 4.084
 0.189 -1.637 4.104
 0.209 -1.598 4.005
 0.238 -1.63 4.083
 0.261 -1.623 4.065
 0.287 -1.632 4.085
 0.307 -1.604 4.012
 0.335 -1.622 4.057
 0.359 -1.619 4.046
 0.386 -1.631 4.076
 0.406 -1.613 4.027
 0.435 -1.63 4.068
 0.46 -1.629 4.062
 0.477 -1.602 3.993
 0.509 -1.628 4.055
 0.539 -1.645 4.093
 0.559 -1.63 4.052
 0.582 -1.626 4.039
 0.602 -1.615 4.008
 0.635 -1.637 4.059
 0.652 -1.616 4.003
 0.675 -1.614 3.995
 0.708 -1.633 4.039
 0.726 -1.618 3.998
 0.753 -1.623 4.006
 0.784 -1.637 4.037
 0.809 -1.636 4.03
 0.821 -1.612 3.965
 0.85 -1.622 3.984
 0.885 -1.64 4.023
 0.899 -1.621 3.971
 0.937 -1.645 4.027
 0.955 -1.633 3.991
 0.991 -1.652 4.031
 1.013 -1.648 4.016
 1.04 -1.651 4.019
 1.067 -1.654 4.02
 1.084 -1.641 3.983
 1.119 -1.657 4.013
 1.131 -1.639 3.963
 1.157 -1.64 3.961
 1.194 -1.657 3.995
 1.205 -1.637 3.94
 1.234 -1.644 3.948
 1.262 -1.648 3.95
 1.268 -1.624 3.886
 1.31 -1.646 3.932
 1.339 -1.65 3.934
 1.341 -1.624 3.863
 1.381 -1.642 3.898
 1.413 -1.65 3.909
 1.438 -1.65 3.901
 1.454 -1.64 3.869
 1.482 -1.644 3.87
 1.511 -1.649 3.873
 1.521 -1.633 3.826
 1.567 -1.655 3.868
 1.565 -1.628 3.795
 1.614 -1.653 3.844
 1.624 -1.638 3.799
 1.66 -1.649 3.815
 1.691 -1.655 3.82
 1.698 -1.638 3.769
 1.737 -1.651 3.79
 1.739 -1.63 3.731
 1.788 -1.652 3.771
 1.804 -1.645 3.743
 1.811 -1.628 3.695
 1.797 -1.595 3.608
 1.815 -1.59 3.586
 1.837 -1.588 3.571
 1.846 -1.575 3.53
 1.802 -1.518 3.391
 1.805 -1.502 3.344
 1.784 -1.466 3.252
 1.795 -1.458 3.223
 1.763 -1.415 3.116
 1.781 -1.411 3.099
 1.781 -1.395 3.052
 1.745 -1.351 2.945
 1.771 -1.356 2.944
 1.765 -1.336 2.89
 1.752 -1.311 2.826
 -2.177 -1.622 3.645
 -2.188 -1.65 3.72
 -2.126 -1.622 3.67
 -2.1 -1.622 3.682
 -2.074 -1.621 3.691
 -2.048 -1.621 3.703
 -2.025 -1.622 3.718
 -2 -1.623 3.731
 -1.976 -1.624 3.745
 -1.951 -1.624 3.756
 -1.928 -1.627 3.773
 -1.906 -1.629 3.79
 -1.879 -1.628 3.799
 -1.855 -1.629 3.812
 -1.829 -1.628 3.82
 -1.807 -1.632 3.838
 -1.779 -1.629 3.843
 -1.754 -1.63 3.854
 -1.727 -1.628 3.86
 -1.702 -1.628 3.87
 -1.672 -1.624 3.869
 -1.646 -1.624 3.877
 -1.621 -1.624 3.887
 -1.596 -1.624 3.897
 -1.57 -1.623 3.903
 -1.545 -1.624 3.913
 -1.516 -1.62 3.912
 -1.489 -1.618 3.915
 -1.462 -1.616 3.917
 -1.436 -1.615 3.924
 -1.411 -1.615 3.932
 -1.386 -1.615 3.939
 -1.359 -1.613 3.941
 -1.334 -1.614 3.95
 -1.31 -1.615 3.96
 -1.285 -1.615 3.967
 -1.262 -1.617 3.98
 -1.239 -1.62 3.993
 -1.214 -1.621 4.003
 -1.187 -1.619 4.002
 -1.161 -1.617 4.003
 -1.134 -1.614 4.003
 -1.108 -1.613 4.006
 -1.081 -1.611 4.006
 -1.058 -1.614 4.019
 -1.034 -1.616 4.029
 -1.01 -1.617 4.037
 -0.986 -1.618 4.045
 -0.961 -1.619 4.052
 -0.935 -1.617 4.053
 -0.909 -1.615 4.052
 -0.884 -1.616 4.058
 -0.858 -1.614 4.058
 -0.833 -1.614 4.061
 -0.807 -1.612 4.061
 -0.782 -1.612 4.065
 -0.758 -1.614 4.074
 -0.733 -1.615 4.079
 -0.708 -1.615 4.082
 -0.683 -1.616 4.088
 -0.659 -1.617 4.096
 -0.634 -1.617 4.097
 -0.608 -1.616 4.097
 -0.583 -1.616 4.102
 -0.558 -1.615 4.101
 -0.533 -1.614 4.102
 -0.508 -1.614 4.103
 -0.483 -1.615 4.107
 -0.457 -1.613 4.106
 -0.433 -1.616 4.116
 -0.409 -1.617 4.12
 -0.384 -1.619 4.126
 -0.359 -1.619 4.129
 -0.334 -1.621 4.135
 -0.309 -1.621 4.136
 -0.284 -1.619 4.131
 -0.258 -1.616 4.124
 -0.233 -1.615 4.123
 -0.208 -1.615 4.123
 -0.183 -1.615 4.124
 -0.158 -1.616 4.128
 -0.134 -1.618 4.133
 -0.109 -1.617 4.132
 -0.084 -1.616 4.129
 -0.059 -1.614 4.124
 -0.034 -1.614 4.125
 -0.009 -1.616 4.128
 0.015 -1.618 4.135
 0.04 -1.621 4.14
 0.065 -1.621 4.14
 0.09 -1.622 4.142
 0.115 -1.621 4.139
 0.14 -1.619 4.132
 0.165 -1.617 4.125
 0.19 -1.618 4.128
 0.214 -1.615 4.119
 0.239 -1.615 4.118
 0.265 -1.617 4.121
 0.29 -1.619 4.123
 0.315 -1.618 4.12
 0.34 -1.62 4.124
 0.365 -1.62 4.121
 0.39 -1.621 4.122
 0.416 -1.624 4.125
 0.441 -1.623 4.122
 0.465 -1.623 4.119
 0.491 -1.624 4.119
 0.515 -1.623 4.114
 0.54 -1.622 4.107
 0.565 -1.622 4.104
 0.591 -1.624 4.106
 0.615 -1.623 4.1
 0.64 -1.624 4.098
 0.666 -1.625 4.098
 0.691 -1.627 4.098
 0.716 -1.625 4.089
 0.741 -1.626 4.087
 0.767 -1.628 4.088
 0.791 -1.626 4.079
 0.816 -1.627 4.077
 0.843 -1.629 4.079
 0.868 -1.629 4.073
 0.892 -1.628 4.065
 0.918 -1.63 4.066
 0.944 -1.631 4.062
 0.968 -1.63 4.055
 0.994 -1.632 4.053
 1.019 -1.632 4.047
 1.044 -1.631 4.04
 1.07 -1.633 4.038
 1.095 -1.633 4.032
 1.12 -1.632 4.024
 1.145 -1.633 4.02
 1.172 -1.635 4.018
 1.197 -1.635 4.011
 1.222 -1.636 4.006
 1.249 -1.638 4.003
 1.276 -1.64 4.002
 1.301 -1.641 3.996
 1.325 -1.639 3.985
 1.351 -1.64 3.979
 1.376 -1.64 3.971
 1.399 -1.637 3.957
 1.424 -1.638 3.95
 1.451 -1.64 3.946
 1.477 -1.641 3.939
 1.501 -1.64 3.928
 1.526 -1.64 3.919
 1.549 -1.638 3.906
 1.574 -1.637 3.895
 1.598 -1.636 3.884
 1.624 -1.637 3.876
 1.65 -1.638 3.869
 1.675 -1.638 3.859
 1.7 -1.639 3.85
 1.724 -1.638 3.837
 1.75 -1.639 3.829
 1.774 -1.638 3.816
 1.796 -1.635 3.798
 1.81 -1.625 3.765
 1.819 -1.611 3.722
 1.824 -1.594 3.671
 1.826 -1.575 3.616
 1.827 -1.555 3.559
 1.825 -1.533 3.499
 1.826 -1.516 3.446
 1.813 -1.486 3.367
 1.781 -1.442 3.257
 1.77 -1.416 3.187
 1.766 -1.395 3.13
 1.769 -1.381 3.087
 1.771 -1.366 3.044
 1.771 -1.35 2.997
 1.764 -1.33 2.94
 1.766 -1.316 2.899
 1.767 -1.303 2.858
 -2.195 -1.61 3.685
 -2.164 -1.606 3.689
 -2.159 -1.622 3.737
 -2.131 -1.62 3.746
 -2.103 -1.618 3.754
 -2.079 -1.619 3.768
 -2.054 -1.62 3.782
 -2.03 -1.621 3.797
 -2.003 -1.621 3.807
 -1.976 -1.619 3.815
 -1.953 -1.622 3.832
 -1.931 -1.625 3.851
 -1.903 -1.623 3.857
 -1.882 -1.627 3.876
 -1.858 -1.629 3.891
 -1.836 -1.632 3.91
 -1.807 -1.63 3.914
 -1.784 -1.632 3.929
 -1.755 -1.629 3.932
 -1.729 -1.629 3.942
 -1.698 -1.624 3.94
 -1.672 -1.623 3.947
 -1.646 -1.623 3.955
 -1.62 -1.623 3.964
 -1.592 -1.62 3.967
 -1.566 -1.62 3.975
 -1.537 -1.617 3.977
 -1.51 -1.616 3.981
 -1.483 -1.613 3.983
 -1.457 -1.613 3.99
 -1.432 -1.614 4.001
 -1.406 -1.614 4.007
 -1.379 -1.612 4.01
 -1.355 -1.613 4.021
 -1.33 -1.614 4.029
 -1.304 -1.613 4.034
 -1.28 -1.615 4.046
 -1.256 -1.617 4.059
 -1.231 -1.618 4.066
 -1.204 -1.615 4.067
 -1.178 -1.615 4.072
 -1.15 -1.612 4.069
 -1.123 -1.61 4.07
 -1.096 -1.608 4.071
 -1.073 -1.611 4.085
 -1.048 -1.612 4.093
 -1.024 -1.614 4.102
 -1 -1.616 4.113
 -0.974 -1.616 4.118
 -0.948 -1.614 4.117
 -0.921 -1.612 4.118
 -0.896 -1.612 4.122
 -0.869 -1.61 4.121
 -0.844 -1.611 4.127
 -0.818 -1.609 4.126
 -0.792 -1.608 4.128
 -0.767 -1.609 4.135
 -0.743 -1.611 4.142
 -0.717 -1.61 4.143
 -0.692 -1.611 4.149
 -0.667 -1.612 4.156
 -0.642 -1.612 4.158
 -0.615 -1.61 4.155
 -0.591 -1.611 4.163
 -0.565 -1.611 4.164
 -0.54 -1.61 4.165
 -0.514 -1.61 4.165
 -0.489 -1.61 4.168
 -0.462 -1.606 4.16
 -0.438 -1.608 4.169
 -0.413 -1.609 4.173
 -0.388 -1.611 4.178
 -0.363 -1.611 4.181
 -0.338 -1.614 4.19
 -0.312 -1.613 4.189
 -0.287 -1.611 4.184
 -0.261 -1.609 4.181
 -0.236 -1.609 4.18
 -0.21 -1.607 4.178
 -0.185 -1.607 4.177
 -0.16 -1.606 4.177
 -0.135 -1.607 4.179
 -0.109 -1.606 4.177
 -0.084 -1.606 4.177
 -0.059 -1.605 4.175
 -0.034 -1.607 4.179
 -0.009 -1.609 4.183
 0.016 -1.612 4.193
 0.041 -1.614 4.196
 0.066 -1.614 4.195
 0.092 -1.614 4.196
 0.117 -1.614 4.195
 0.142 -1.612 4.188
 0.167 -1.61 4.182
 0.192 -1.611 4.184
 0.217 -1.609 4.177
 0.242 -1.608 4.172
 0.268 -1.609 4.175
 0.293 -1.61 4.175
 0.318 -1.611 4.174
 0.344 -1.612 4.175
 0.369 -1.612 4.174
 0.394 -1.613 4.173
 0.42 -1.615 4.176
 0.445 -1.614 4.171
 0.47 -1.615 4.171
 0.496 -1.616 4.171
 0.522 -1.617 4.171
 0.547 -1.616 4.166
 0.572 -1.617 4.165
 0.598 -1.619 4.166
 0.623 -1.618 4.161
 0.648 -1.617 4.154
 0.673 -1.617 4.151
 0.699 -1.619 4.151
 0.723 -1.616 4.141
 0.749 -1.618 4.139
 0.775 -1.62 4.141
 0.801 -1.62 4.137
 0.826 -1.621 4.134
 0.853 -1.624 4.137
 0.879 -1.624 4.133
 0.903 -1.623 4.126
 0.93 -1.625 4.125
 0.956 -1.626 4.122
 0.981 -1.625 4.115
 1.007 -1.627 4.114
 1.033 -1.628 4.11
 1.058 -1.628 4.104
 1.084 -1.629 4.101
 1.11 -1.629 4.095
 1.134 -1.628 4.085
 1.16 -1.628 4.079
 1.185 -1.629 4.074
 1.21 -1.628 4.066
 1.237 -1.63 4.064
 1.264 -1.632 4.061
 1.292 -1.635 4.063
 1.319 -1.637 4.059
 1.344 -1.637 4.05
 1.369 -1.636 4.041
 1.395 -1.636 4.034
 1.418 -1.634 4.02
 1.444 -1.635 4.014
 1.471 -1.637 4.009
 1.497 -1.637 4.001
 1.522 -1.637 3.992
 1.548 -1.637 3.984
 1.572 -1.636 3.972
 1.597 -1.636 3.962
 1.622 -1.635 3.95
 1.648 -1.636 3.943
 1.674 -1.636 3.934
 1.698 -1.635 3.922
 1.724 -1.636 3.913
 1.75 -1.636 3.903
 1.774 -1.635 3.891
 1.796 -1.632 3.872
 1.814 -1.626 3.846
 1.826 -1.614 3.807
 1.831 -1.596 3.755
 1.834 -1.578 3.7
 1.836 -1.559 3.645
 1.837 -1.54 3.589
 1.835 -1.518 3.527
 1.84 -1.503 3.481
 1.82 -1.468 3.389
 1.779 -1.418 3.261
 1.764 -1.388 3.182
 1.762 -1.371 3.131
 1.768 -1.359 3.093
 1.773 -1.347 3.054
 1.775 -1.333 3.012
 1.77 -1.314 2.959
 1.757 -1.289 2.891
 1.74 -1.263 2.822
 -2.257 -1.63 3.8
 -2.25 -1.643 3.845
 -2.194 -1.622 3.808
 -2.165 -1.62 3.816
 -2.136 -1.618 3.823
 -2.111 -1.619 3.837
 -2.085 -1.619 3.85
 -2.058 -1.618 3.859
 -2.032 -1.618 3.871
 -2.005 -1.617 3.88
 -1.981 -1.619 3.896
 -1.959 -1.622 3.915
 -1.931 -1.621 3.923
 -1.906 -1.622 3.937
 -1.882 -1.624 3.952
 -1.857 -1.625 3.965
 -1.829 -1.623 3.97
 -1.804 -1.625 3.985
 -1.775 -1.622 3.988
 -1.75 -1.623 4
 -1.722 -1.621 4.005
 -1.696 -1.621 4.015
 -1.669 -1.62 4.023
 -1.645 -1.622 4.035
 -1.615 -1.618 4.035
 -1.588 -1.617 4.041
 -1.559 -1.614 4.042
 -1.532 -1.613 4.048
 -1.505 -1.612 4.053
 -1.478 -1.611 4.058
 -1.453 -1.612 4.068
 -1.426 -1.611 4.074
 -1.4 -1.611 4.081
 -1.375 -1.612 4.091
 -1.35 -1.613 4.1
 -1.323 -1.611 4.104
 -1.299 -1.613 4.116
 -1.274 -1.614 4.125
 -1.248 -1.615 4.133
 -1.221 -1.613 4.134
 -1.195 -1.613 4.14
 -1.167 -1.61 4.139
 -1.139 -1.608 4.139
 -1.112 -1.605 4.139
 -1.088 -1.608 4.151
 -1.062 -1.608 4.156
 -1.036 -1.608 4.161
 -1.012 -1.609 4.171
 -0.985 -1.609 4.174
 -0.959 -1.607 4.175
 -0.932 -1.606 4.175
 -0.906 -1.606 4.18
 -0.88 -1.604 4.181
 -0.855 -1.605 4.187
 -0.828 -1.604 4.188
 -0.802 -1.602 4.188
 -0.776 -1.603 4.193
 -0.751 -1.603 4.198
 -0.725 -1.602 4.198
 -0.699 -1.602 4.201
 -0.674 -1.603 4.208
 -0.648 -1.602 4.207
 -0.622 -1.601 4.207
 -0.597 -1.602 4.213
 -0.571 -1.602 4.216
 -0.545 -1.601 4.216
 -0.519 -1.601 4.219
 -0.493 -1.6 4.217
 -0.467 -1.596 4.209
 -0.442 -1.599 4.218
 -0.417 -1.599 4.222
 -0.391 -1.6 4.225
 -0.366 -1.6 4.227
 -0.341 -1.603 4.236
 -0.315 -1.6 4.23
 -0.289 -1.598 4.225
 -0.263 -1.597 4.224
 -0.237 -1.595 4.22
 -0.212 -1.593 4.216
 -0.186 -1.594 4.219
 -0.161 -1.594 4.219
 -0.136 -1.594 4.22
 -0.11 -1.594 4.22
 -0.085 -1.595 4.221
 -0.059 -1.594 4.22
 -0.034 -1.595 4.223
 -0.009 -1.597 4.226
 0.016 -1.6 4.234
 0.041 -1.6 4.236
 0.067 -1.599 4.233
 0.092 -1.601 4.236
 0.118 -1.6 4.232
 0.143 -1.598 4.225
 0.168 -1.597 4.223
 0.194 -1.598 4.224
 0.219 -1.596 4.218
 0.244 -1.596 4.214
 0.27 -1.599 4.221
 0.296 -1.599 4.221
 0.321 -1.6 4.22
 0.347 -1.601 4.22
 0.373 -1.601 4.221
 0.398 -1.6 4.216
 0.424 -1.602 4.219
 0.449 -1.602 4.215
 0.475 -1.603 4.215
 0.5 -1.603 4.212
 0.526 -1.605 4.213
 0.551 -1.604 4.209
 0.577 -1.605 4.209
 0.603 -1.607 4.209
 0.629 -1.607 4.208
 0.654 -1.606 4.201
 0.679 -1.606 4.195
 0.705 -1.607 4.194
 0.73 -1.605 4.186
 0.756 -1.606 4.183
 0.782 -1.608 4.184
 0.808 -1.609 4.184
 0.834 -1.61 4.182
 0.861 -1.613 4.185
 0.887 -1.614 4.181
 0.912 -1.613 4.173
 0.939 -1.614 4.172
 0.964 -1.614 4.167
 0.989 -1.614 4.16
 1.015 -1.614 4.156
 1.041 -1.615 4.152
 1.067 -1.616 4.148
 1.094 -1.617 4.145
 1.12 -1.618 4.141
 1.145 -1.618 4.134
 1.171 -1.618 4.128
 1.197 -1.618 4.122
 1.223 -1.619 4.116
 1.25 -1.62 4.113
 1.278 -1.623 4.114
 1.307 -1.628 4.118
 1.334 -1.63 4.114
 1.36 -1.63 4.108
 1.386 -1.63 4.101
 1.412 -1.631 4.093
 1.435 -1.628 4.077
 1.463 -1.63 4.075
 1.491 -1.632 4.071
 1.517 -1.633 4.064
 1.543 -1.633 4.056
 1.569 -1.633 4.047
 1.593 -1.632 4.034
 1.618 -1.63 4.021
 1.643 -1.63 4.01
 1.668 -1.63 4.001
 1.695 -1.631 3.994
 1.719 -1.63 3.98
 1.745 -1.629 3.969
 1.77 -1.629 3.957
 1.794 -1.627 3.942
 1.813 -1.622 3.919
 1.829 -1.613 3.887
 1.84 -1.6 3.845
 1.841 -1.58 3.785
 1.843 -1.561 3.728
 1.845 -1.542 3.671
 1.846 -1.523 3.615
 1.842 -1.5 3.55
 1.852 -1.489 3.512
 1.829 -1.452 3.414
 1.76 -1.381 3.235
 1.748 -1.355 3.162
 1.754 -1.343 3.125
 1.767 -1.337 3.099
 1.775 -1.327 3.066
 1.779 -1.315 3.027
 1.773 -1.295 2.97
 1.773 -1.281 2.926
 1.78 -1.271 2.894
 -2.316 -1.646 3.91
 -2.254 -1.62 3.862
 -2.227 -1.62 3.876
 -2.199 -1.619 3.885
 -2.169 -1.616 3.892
 -2.145 -1.618 3.908
 -2.119 -1.618 3.921
 -2.09 -1.616 3.929
 -2.063 -1.616 3.94
 -2.036 -1.616 3.952
 -2.01 -1.616 3.964
 -1.985 -1.618 3.978
 -1.957 -1.616 3.986
 -1.932 -1.618 4
 -1.907 -1.619 4.014
 -1.881 -1.619 4.025
 -1.853 -1.618 4.033
 -1.831 -1.622 4.052
 -1.801 -1.619 4.056
 -1.776 -1.62 4.069
 -1.748 -1.619 4.074
 -1.72 -1.618 4.081
 -1.691 -1.615 4.085
 -1.667 -1.617 4.099
 -1.636 -1.613 4.098
 -1.61 -1.613 4.107
 -1.58 -1.61 4.108
 -1.554 -1.61 4.115
 -1.526 -1.609 4.121
 -1.499 -1.608 4.126
 -1.472 -1.607 4.132
 -1.447 -1.608 4.142
 -1.419 -1.607 4.146
 -1.394 -1.608 4.156
 -1.368 -1.608 4.165
 -1.341 -1.608 4.171
 -1.316 -1.608 4.179
 -1.29 -1.609 4.187
 -1.263 -1.608 4.192
 -1.235 -1.605 4.191
 -1.209 -1.606 4.199
 -1.181 -1.604 4.199
 -1.153 -1.601 4.199
 -1.126 -1.6 4.2
 -1.102 -1.602 4.212
 -1.074 -1.601 4.214
 -1.048 -1.6 4.218
 -1.022 -1.601 4.225
 -0.995 -1.599 4.224
 -0.968 -1.597 4.224
 -0.941 -1.595 4.225
 -0.915 -1.595 4.23
 -0.889 -1.595 4.232
 -0.863 -1.595 4.237
 -0.836 -1.594 4.238
 -0.809 -1.592 4.237
 -0.783 -1.59 4.237
 -0.756 -1.59 4.238
 -0.73 -1.589 4.239
 -0.704 -1.587 4.239
 -0.678 -1.588 4.243
 -0.652 -1.587 4.243
 -0.626 -1.586 4.244
 -0.601 -1.587 4.251
 -0.575 -1.587 4.254
 -0.549 -1.588 4.257
 -0.523 -1.588 4.26
 -0.497 -1.586 4.258
 -0.47 -1.582 4.248
 -0.445 -1.584 4.257
 -0.419 -1.584 4.258
 -0.393 -1.584 4.258
 -0.368 -1.583 4.26
 -0.343 -1.586 4.268
 -0.316 -1.583 4.261
 -0.29 -1.582 4.259
 -0.265 -1.581 4.259
 -0.239 -1.58 4.257
 -0.213 -1.579 4.254
 -0.187 -1.579 4.255
 -0.162 -1.579 4.254
 -0.136 -1.578 4.254
 -0.111 -1.578 4.254
 -0.085 -1.578 4.252
 -0.06 -1.578 4.253
 -0.034 -1.579 4.257
 -0.008 -1.581 4.262
 0.016 -1.583 4.267
 0.042 -1.584 4.27
 0.067 -1.583 4.266
 0.093 -1.582 4.263
 0.118 -1.581 4.259
 0.144 -1.581 4.256
 0.169 -1.579 4.25
 0.195 -1.579 4.251
 0.22 -1.579 4.248
 0.246 -1.578 4.244
 0.272 -1.58 4.247
 0.297 -1.581 4.249
 0.323 -1.581 4.246
 0.349 -1.582 4.248
 0.375 -1.584 4.25
 0.4 -1.583 4.245
 0.426 -1.584 4.246
 0.451 -1.585 4.245
 0.477 -1.585 4.243
 0.503 -1.584 4.239
 0.529 -1.587 4.242
 0.554 -1.587 4.239
 0.581 -1.588 4.241
 0.607 -1.59 4.242
 0.633 -1.592 4.242
 0.658 -1.59 4.233
 0.683 -1.589 4.229
 0.709 -1.589 4.224
 0.734 -1.588 4.216
 0.76 -1.588 4.213
 0.787 -1.591 4.216
 0.813 -1.593 4.216
 0.84 -1.594 4.216
 0.867 -1.598 4.22
 0.893 -1.598 4.217
 0.918 -1.598 4.21
 0.945 -1.598 4.206
 0.97 -1.598 4.201
 0.996 -1.598 4.196
 1.023 -1.6 4.194
 1.05 -1.602 4.194
 1.076 -1.603 4.191
 1.103 -1.605 4.189
 1.13 -1.606 4.186
 1.156 -1.606 4.179
 1.181 -1.606 4.172
 1.208 -1.607 4.169
 1.234 -1.608 4.163
 1.262 -1.61 4.161
 1.289 -1.611 4.158
 1.318 -1.616 4.163
 1.345 -1.616 4.156
 1.372 -1.618 4.152
 1.398 -1.618 4.144
 1.426 -1.62 4.142
 1.451 -1.619 4.13
 1.479 -1.622 4.129
 1.507 -1.624 4.125
 1.534 -1.625 4.119
 1.561 -1.625 4.112
 1.586 -1.625 4.101
 1.611 -1.624 4.089
 1.637 -1.624 4.079
 1.663 -1.624 4.069
 1.688 -1.623 4.058
 1.716 -1.625 4.052
 1.74 -1.622 4.036
 1.763 -1.62 4.02
 1.785 -1.616 4
 1.808 -1.613 3.982
 1.824 -1.605 3.951
 1.838 -1.595 3.916
 1.846 -1.581 3.868
 1.851 -1.563 3.814
 1.853 -1.544 3.756
 1.854 -1.525 3.699
 1.857 -1.508 3.646
 1.858 -1.489 3.588
 1.87 -1.479 3.554
 0 0 0
 1.75 -1.351 3.224
 1.747 -1.332 3.167
 1.758 -1.324 3.139
 1.77 -1.318 3.112
 1.779 -1.309 3.08
 1.782 -1.296 3.038
 1.775 -1.276 2.981
 1.774 -1.261 2.936
 1.776 -1.249 2.895
 -2.327 -1.626 3.939
 -2.313 -1.636 3.975
 -2.259 -1.616 3.941
 -2.23 -1.615 3.951
 -2.199 -1.612 3.955
 -2.175 -1.614 3.973
 -2.148 -1.614 3.986
 -2.119 -1.613 3.994
 -2.093 -1.613 4.007
 -2.066 -1.613 4.02
 -2.038 -1.612 4.029
 -2.012 -1.613 4.042
 -1.985 -1.613 4.053
 -1.958 -1.613 4.065
 -1.933 -1.614 4.078
 -1.906 -1.614 4.089
 -1.878 -1.613 4.097
 -1.854 -1.616 4.114
 -1.824 -1.613 4.118
 -1.797 -1.613 4.127
 -1.768 -1.611 4.133
 -1.742 -1.611 4.143
 -1.714 -1.61 4.15
 -1.689 -1.612 4.164
 -1.66 -1.61 4.168
 -1.633 -1.61 4.176
 -1.605 -1.608 4.18
 -1.576 -1.607 4.184
 -1.548 -1.605 4.189
 -1.52 -1.604 4.194
 -1.493 -1.603 4.199
 -1.466 -1.603 4.207
 -1.438 -1.601 4.211
 -1.412 -1.602 4.219
 -1.385 -1.602 4.227
 -1.359 -1.602 4.234
 -1.331 -1.6 4.236
 -1.304 -1.6 4.244
 -1.277 -1.599 4.247
 -1.248 -1.597 4.247
 -1.221 -1.596 4.252
 -1.193 -1.594 4.252
 -1.165 -1.591 4.251
 -1.137 -1.589 4.25
 -1.11 -1.589 4.256
 -1.083 -1.587 4.256
 -1.056 -1.585 4.257
 -1.03 -1.586 4.264
 -1.003 -1.585 4.266
 -0.975 -1.583 4.266
 -0.948 -1.581 4.266
 -0.922 -1.582 4.272
 -0.896 -1.581 4.274
 -0.869 -1.581 4.277
 -0.842 -1.579 4.276
 -0.815 -1.578 4.277
 -0.789 -1.577 4.278
 -0.762 -1.575 4.277
 -0.735 -1.574 4.277
 -0.709 -1.573 4.279
 -0.683 -1.572 4.28
 -0.656 -1.571 4.278
 -0.629 -1.569 4.277
 -0.604 -1.57 4.281
 -0.578 -1.57 4.284
 -0.551 -1.568 4.283
 -0.525 -1.568 4.286
 -0.499 -1.568 4.287
 -0.472 -1.565 4.279
 -0.447 -1.565 4.284
 -0.421 -1.566 4.286
 -0.395 -1.564 4.285
 -0.369 -1.564 4.284
 -0.343 -1.565 4.288
 -0.317 -1.562 4.283
 -0.291 -1.561 4.28
 -0.265 -1.561 4.282
 -0.239 -1.56 4.28
 -0.214 -1.56 4.28
 -0.188 -1.561 4.283
 -0.162 -1.56 4.281
 -0.137 -1.559 4.28
 -0.111 -1.559 4.279
 -0.085 -1.559 4.278
 -0.06 -1.558 4.277
 -0.034 -1.559 4.28
 -0.008 -1.559 4.28
 0.016 -1.561 4.284
 0.042 -1.56 4.282
 0.068 -1.56 4.281
 0.093 -1.559 4.277
 0.119 -1.559 4.276
 0.145 -1.559 4.275
 0.17 -1.559 4.273
 0.196 -1.558 4.271
 0.221 -1.559 4.271
 0.247 -1.558 4.266
 0.273 -1.559 4.268
 0.298 -1.56 4.27
 0.324 -1.561 4.27
 0.35 -1.562 4.271
 0.376 -1.563 4.272
 0.401 -1.561 4.264
 0.427 -1.562 4.264
 0.452 -1.562 4.261
 0.478 -1.562 4.26
 0.504 -1.563 4.259
 0.531 -1.567 4.266
 0.557 -1.567 4.264
 0.583 -1.569 4.266
 0.609 -1.57 4.264
 0.635 -1.57 4.262
 0.66 -1.568 4.251
 0.685 -1.567 4.247
 0.711 -1.567 4.243
 0.737 -1.567 4.239
 0.763 -1.569 4.239
 0.79 -1.572 4.242
 0.817 -1.573 4.242
 0.843 -1.575 4.242
 0.87 -1.577 4.243
 0.896 -1.578 4.24
 0.922 -1.578 4.234
 0.948 -1.578 4.231
 0.974 -1.578 4.226
 1.001 -1.579 4.223
 1.027 -1.58 4.22
 1.054 -1.583 4.22
 1.082 -1.585 4.219
 1.109 -1.586 4.217
 1.136 -1.588 4.215
 1.162 -1.588 4.209
 1.188 -1.589 4.205
 1.215 -1.59 4.201
 1.242 -1.591 4.198
 1.27 -1.594 4.197
 1.298 -1.596 4.194
 1.326 -1.599 4.196
 1.354 -1.601 4.192
 1.381 -1.602 4.189
 1.408 -1.603 4.182
 1.436 -1.605 4.181
 1.462 -1.605 4.171
 1.491 -1.607 4.169
 1.52 -1.61 4.168
 1.548 -1.612 4.164
 1.575 -1.613 4.157
 1.601 -1.613 4.147
 1.627 -1.613 4.138
 1.653 -1.612 4.127
 1.679 -1.612 4.117
 1.705 -1.612 4.107
 1.734 -1.615 4.103
 1.757 -1.612 4.084
 1.78 -1.609 4.068
 1.8 -1.603 4.042
 1.82 -1.598 4.018
 1.835 -1.588 3.983
 1.849 -1.579 3.948
 1.857 -1.564 3.9
 1.864 -1.548 3.85
 1.868 -1.531 3.796
 1.872 -1.515 3.743
 1.875 -1.497 3.689
 1.876 -1.479 3.633
 0 0 0
 0 0 0
 0 0 0
 1.744 -1.308 3.169
 1.759 -1.304 3.149
 1.771 -1.297 3.121
 1.779 -1.288 3.088
 1.783 -1.275 3.048
 1.778 -1.258 2.994
 1.773 -1.24 2.941
 1.743 -1.205 2.847
 -2.316 -1.591 3.929
 -2.339 -1.626 4.029
 -2.198 -1.547 3.844
 -2.264 -1.612 4.021
 -2.233 -1.61 4.027
 -2.208 -1.611 4.044
 -2.18 -1.611 4.056
 -2.151 -1.609 4.064
 -2.123 -1.609 4.075
 -2.096 -1.609 4.088
 -2.068 -1.609 4.099
 -2.042 -1.61 4.112
 -2.015 -1.61 4.124
 -1.988 -1.61 4.137
 -1.962 -1.611 4.15
 -1.932 -1.609 4.156
 -1.904 -1.609 4.165
 -1.879 -1.611 4.18
 -1.85 -1.609 4.185
 -1.822 -1.608 4.195
 -1.794 -1.608 4.202
 -1.767 -1.608 4.213
 -1.737 -1.605 4.215
 -1.71 -1.605 4.225
 -1.68 -1.603 4.228
 -1.652 -1.602 4.234
 -1.622 -1.599 4.235
 -1.594 -1.598 4.24
 -1.566 -1.597 4.246
 -1.537 -1.595 4.25
 -1.509 -1.593 4.254
 -1.482 -1.593 4.261
 -1.453 -1.591 4.264
 -1.426 -1.591 4.27
 -1.398 -1.59 4.276
 -1.371 -1.589 4.281
 -1.342 -1.587 4.281
 -1.315 -1.587 4.287
 -1.286 -1.585 4.288
 -1.258 -1.582 4.287
 -1.231 -1.582 4.295
 -1.203 -1.58 4.296
 -1.174 -1.577 4.292
 -1.146 -1.575 4.292
 -1.118 -1.573 4.294
 -1.089 -1.57 4.291
 -1.062 -1.568 4.291
 -1.035 -1.569 4.297
 -1.008 -1.567 4.297
 -0.981 -1.566 4.299
 -0.953 -1.564 4.299
 -0.926 -1.563 4.301
 -0.9 -1.562 4.302
 -0.873 -1.561 4.305
 -0.846 -1.56 4.304
 -0.819 -1.558 4.304
 -0.792 -1.557 4.303
 -0.765 -1.555 4.303
 -0.738 -1.553 4.301
 -0.711 -1.551 4.299
 -0.684 -1.549 4.296
 -0.657 -1.549 4.298
 -0.631 -1.547 4.295
 -0.605 -1.547 4.299
 -0.579 -1.548 4.305
 -0.553 -1.549 4.308
 -0.527 -1.546 4.305
 -0.5 -1.545 4.303
 -0.474 -1.543 4.299
 -0.447 -1.542 4.298
 -0.421 -1.541 4.297
 -0.395 -1.54 4.298
 -0.369 -1.539 4.295
 -0.343 -1.539 4.297
 -0.317 -1.538 4.295
 -0.291 -1.537 4.294
 -0.266 -1.538 4.297
 -0.24 -1.538 4.298
 -0.214 -1.537 4.295
 -0.188 -1.537 4.297
 -0.162 -1.536 4.293
 -0.137 -1.535 4.291
 -0.111 -1.533 4.288
 -0.085 -1.533 4.288
 -0.059 -1.534 4.289
 -0.034 -1.535 4.292
 -0.008 -1.535 4.292
 0.017 -1.536 4.294
 0.042 -1.536 4.294
 0.068 -1.535 4.292
 0.093 -1.533 4.286
 0.119 -1.533 4.285
 0.145 -1.534 4.284
 0.17 -1.533 4.28
 0.196 -1.531 4.276
 0.222 -1.533 4.28
 0.247 -1.533 4.277
 0.273 -1.534 4.279
 0.299 -1.536 4.281
 0.325 -1.537 4.283
 0.35 -1.537 4.281
 0.376 -1.538 4.282
 0.401 -1.536 4.275
 0.427 -1.536 4.272
 0.453 -1.536 4.269
 0.479 -1.537 4.268
 0.504 -1.537 4.267
 0.531 -1.54 4.272
 0.557 -1.542 4.273
 0.584 -1.544 4.277
 0.61 -1.544 4.274
 0.635 -1.545 4.272
 0.66 -1.543 4.263
 0.686 -1.543 4.258
 0.711 -1.542 4.252
 0.737 -1.543 4.251
 0.764 -1.544 4.25
 0.791 -1.547 4.253
 0.818 -1.549 4.254
 0.845 -1.552 4.257
 0.871 -1.552 4.254
 0.897 -1.553 4.252
 0.924 -1.554 4.249
 0.95 -1.555 4.246
 0.976 -1.556 4.242
 1.004 -1.558 4.243
 1.031 -1.559 4.242
 1.058 -1.562 4.243
 1.086 -1.564 4.243
 1.113 -1.566 4.241
 1.14 -1.567 4.239
 1.167 -1.568 4.234
 1.193 -1.569 4.231
 1.22 -1.57 4.226
 1.247 -1.571 4.221
 1.275 -1.573 4.221
 1.302 -1.575 4.217
 1.331 -1.578 4.218
 1.358 -1.579 4.213
 1.386 -1.581 4.211
 1.413 -1.582 4.205
 1.442 -1.585 4.205
 1.469 -1.586 4.199
 1.498 -1.589 4.198
 1.528 -1.592 4.2
 1.556 -1.595 4.196
 1.585 -1.597 4.193
 1.612 -1.597 4.184
 1.638 -1.597 4.175
 1.664 -1.597 4.164
 1.692 -1.598 4.157
 1.718 -1.597 4.146
 1.746 -1.599 4.139
 1.769 -1.596 4.123
 1.793 -1.594 4.105
 1.81 -1.586 4.075
 1.828 -1.579 4.045
 1.841 -1.567 4.006
 1.855 -1.558 3.969
 1.863 -1.543 3.92
 1.871 -1.529 3.873
 1.878 -1.514 3.824
 1.884 -1.499 3.774
 1.884 -1.48 3.715
 0 0 0
 0 0 0
 0 0 0
 0 0 0
 1.746 -1.288 3.181
 1.761 -1.284 3.16
 1.772 -1.276 3.131
 1.781 -1.268 3.098
 1.784 -1.255 3.057
 1.778 -1.237 3.001
 1.771 -1.218 2.944
 1.769 -1.203 2.897
 -2.366 -1.599 4.025
 -2.341 -1.6 4.042
 -1.759 -1.217 3.081
 -1.832 -1.283 3.259
 -1.806 -1.28 3.262
 -1.786 -1.281 3.276
 -1.852 -1.346 3.452
 -1.826 -1.344 3.457
 -1.802 -1.343 3.465
 -1.865 -1.408 3.645
 -1.925 -1.472 3.823
 -1.813 -1.406 3.659
 -1.874 -1.472 3.844
 -1.85 -1.473 3.857
 -1.823 -1.472 3.864
 -1.716 -1.406 3.699
 -1.772 -1.472 3.883
 -1.748 -1.473 3.897
 -1.796 -1.536 4.073
 -1.769 -1.535 4.081
 -1.815 -1.599 4.261
 -1.787 -1.598 4.269
 -1.754 -1.594 4.267
 -1.726 -1.593 4.275
 -1.697 -1.591 4.278
 -1.668 -1.59 4.285
 -1.637 -1.586 4.283
 -1.608 -1.585 4.289
 -1.58 -1.584 4.293
 -1.551 -1.582 4.297
 -1.521 -1.579 4.297
 -1.493 -1.578 4.303
 -1.463 -1.576 4.304
 -1.434 -1.574 4.305
 -1.406 -1.573 4.31
 -1.38 -1.573 4.317
 -1.35 -1.57 4.316
 -1.322 -1.569 4.321
 -1.294 -1.567 4.322
 -1.265 -1.565 4.323
 -1.237 -1.563 4.323
 -1.208 -1.561 4.323
 -1.179 -1.557 4.32
 -1.151 -1.555 4.321
 -1.122 -1.552 4.317
 -1.093 -1.549 4.313
 -1.065 -1.547 4.313
 -1.037 -1.546 4.315
 -1.01 -1.544 4.315
 -0.984 -1.544 4.32
 -0.956 -1.543 4.32
 -0.929 -1.541 4.32
 -0.902 -1.54 4.322
 -0.874 -1.538 4.321
 -0.847 -1.536 4.32
 -0.82 -1.534 4.319
 -0.793 -1.534 4.32
 -0.766 -1.532 4.319
 -0.739 -1.53 4.317
 -0.711 -1.527 4.312
 -0.684 -1.525 4.309
 -0.658 -1.524 4.309
 -0.631 -1.522 4.308
 -0.605 -1.522 4.309
 -0.579 -1.523 4.315
 -0.553 -1.524 4.319
 -0.527 -1.521 4.315
 -0.501 -1.521 4.317
 -0.474 -1.52 4.316
 -0.448 -1.518 4.312
 -0.421 -1.516 4.309
 -0.395 -1.516 4.309
 -0.369 -1.514 4.305
 -0.343 -1.512 4.302
 -0.317 -1.511 4.299
 -0.291 -1.51 4.299
 -0.265 -1.511 4.3
 -0.239 -1.51 4.299
 -0.214 -1.51 4.299
 -0.188 -1.51 4.301
 -0.162 -1.509 4.299
 -0.136 -1.508 4.297
 -0.111 -1.507 4.293
 -0.085 -1.508 4.295
 -0.059 -1.507 4.295
 -0.034 -1.508 4.297
 -0.008 -1.508 4.296
 0.017 -1.509 4.299
 0.042 -1.508 4.297
 0.068 -1.509 4.297
 0.094 -1.507 4.292
 0.119 -1.507 4.291
 0.145 -1.507 4.29
 0.17 -1.506 4.286
 0.196 -1.505 4.282
 0.222 -1.507 4.285
 0.247 -1.507 4.284
 0.273 -1.508 4.286
 0.299 -1.51 4.29
 0.325 -1.511 4.289
 0.35 -1.51 4.287
 0.376 -1.511 4.285
 0.401 -1.51 4.28
 0.427 -1.509 4.277
 0.453 -1.509 4.274
 0.478 -1.51 4.272
 0.504 -1.511 4.273
 0.53 -1.512 4.273
 0.556 -1.513 4.273
 0.583 -1.516 4.278
 0.609 -1.517 4.277
 0.635 -1.517 4.274
 0.66 -1.517 4.269
 0.686 -1.517 4.265
 0.711 -1.516 4.259
 0.738 -1.518 4.26
 0.764 -1.519 4.261
 0.791 -1.521 4.262
 0.818 -1.523 4.262
 0.845 -1.526 4.266
 0.871 -1.525 4.26
 0.897 -1.526 4.256
 0.923 -1.527 4.254
 0.95 -1.528 4.253
 0.976 -1.529 4.249
 1.004 -1.532 4.251
 1.031 -1.534 4.251
 1.058 -1.535 4.249
 1.086 -1.538 4.251
 1.113 -1.54 4.25
 1.14 -1.541 4.248
 1.167 -1.543 4.246
 1.196 -1.546 4.246
 1.223 -1.547 4.244
 1.251 -1.549 4.242
 1.278 -1.551 4.241
 1.306 -1.552 4.237
 1.334 -1.555 4.237
 1.36 -1.555 4.229
 1.388 -1.556 4.225
 1.415 -1.558 4.221
 1.445 -1.561 4.222
 1.472 -1.563 4.218
 1.502 -1.566 4.217
 1.532 -1.57 4.22
 1.561 -1.573 4.218
 1.589 -1.574 4.213
 1.616 -1.575 4.205
 1.643 -1.575 4.196
 1.67 -1.575 4.187
 1.699 -1.577 4.183
 1.726 -1.578 4.175
 1.753 -1.579 4.167
 1.779 -1.578 4.154
 1.8 -1.574 4.132
 1.815 -1.563 4.094
 1.832 -1.555 4.062
 1.846 -1.545 4.025
 1.859 -1.535 3.987
 1.867 -1.52 3.937
 1.88 -1.51 3.899
 1.888 -1.497 3.854
 1.89 -1.478 3.795
 0 0 0
 0 0 0
 0 0 0
 0 0 0
 0 0 0
 1.754 -1.273 3.204
 1.766 -1.266 3.176
 1.776 -1.258 3.145
 1.783 -1.248 3.109
 1.785 -1.235 3.066
 1.777 -1.215 3.005
 1.754 -1.186 2.922
 1.751 -1.171 2.875
 -0.012 -0.01 0.008
 -2.393 -1.608 4.142
 -1.316 -0.895 2.308
 -1.397 -0.962 2.488
 -1.376 -0.959 2.489
 -1.36 -0.96 2.499
 -1.432 -1.023 2.672
 -1.413 -1.022 2.678
 -1.393 -1.021 2.682
 -1.46 -1.084 2.857
 -1.523 -1.145 3.029
 -1.415 -1.078 2.859
 -1.478 -1.142 3.036
 -1.458 -1.142 3.045
 -1.519 -1.206 3.224
 -1.498 -1.206 3.233
 -1.636 -1.335 3.592
 -1.691 -1.401 3.778
 -1.817 -1.527 4.13
 -1.789 -1.526 4.137
 -1.832 -1.586 4.311
 -1.802 -1.584 4.314
 -1.767 -1.578 4.308
 -1.737 -1.576 4.312
 -1.707 -1.573 4.314
 -1.678 -1.572 4.32
 -1.647 -1.569 4.319
 -1.619 -1.568 4.326
 -1.589 -1.566 4.327
 -1.559 -1.563 4.328
 -1.528 -1.56 4.327
 -1.5 -1.559 4.333
 -1.469 -1.555 4.33
 -1.44 -1.553 4.333
 -1.412 -1.552 4.336
 -1.385 -1.552 4.342
 -1.355 -1.548 4.34
 -1.326 -1.547 4.342
 -1.297 -1.544 4.34
 -1.268 -1.541 4.34
 -1.239 -1.539 4.339
 -1.21 -1.536 4.338
 -1.18 -1.533 4.335
 -1.152 -1.53 4.334
 -1.122 -1.527 4.328
 -1.093 -1.523 4.324
 -1.065 -1.521 4.324
 -1.038 -1.52 4.325
 -1.011 -1.519 4.327
 -0.984 -1.518 4.33
 -0.956 -1.517 4.331
 -0.929 -1.515 4.33
 -0.902 -1.514 4.331
 -0.874 -1.512 4.328
 -0.847 -1.51 4.327
 -0.82 -1.508 4.327
 -0.793 -1.507 4.327
 -0.766 -1.506 4.327
 -0.739 -1.505 4.327
 -0.712 -1.503 4.325
 -0.685 -1.5 4.32
 -0.658 -1.499 4.32
 -0.631 -1.496 4.316
 -0.604 -1.495 4.314
 -0.579 -1.495 4.318
 -0.552 -1.495 4.319
 -0.526 -1.493 4.316
 -0.5 -1.493 4.319
 -0.474 -1.494 4.322
 -0.447 -1.491 4.317
 -0.421 -1.49 4.316
 -0.395 -1.49 4.316
 -0.369 -1.488 4.313
 -0.343 -1.486 4.307
 -0.317 -1.485 4.306
 -0.291 -1.484 4.306
 -0.265 -1.484 4.306
 -0.239 -1.484 4.306
 -0.214 -1.484 4.308
 -0.188 -1.484 4.307
 -0.162 -1.483 4.305
 -0.136 -1.482 4.304
 -0.11 -1.48 4.297
 -0.085 -1.48 4.298
 -0.059 -1.48 4.299
 -0.033 -1.48 4.298
 -0.008 -1.48 4.297
 0.017 -1.482 4.301
 0.042 -1.481 4.298
 0.068 -1.481 4.299
 0.094 -1.48 4.295
 0.119 -1.48 4.294
 0.145 -1.48 4.292
 0.17 -1.479 4.288
 0.196 -1.478 4.285
 0.222 -1.48 4.288
 0.247 -1.479 4.286
 0.273 -1.481 4.288
 0.299 -1.483 4.292
 0.324 -1.483 4.291
 0.35 -1.483 4.289
 0.376 -1.483 4.288
 0.401 -1.483 4.284
 0.427 -1.483 4.281
 0.452 -1.483 4.279
 0.478 -1.483 4.278
 0.504 -1.484 4.278
 0.53 -1.485 4.277
 0.556 -1.487 4.279
 0.583 -1.489 4.281
 0.609 -1.489 4.28
 0.635 -1.49 4.279
 0.66 -1.49 4.275
 0.686 -1.49 4.272
 0.712 -1.49 4.268
 0.738 -1.492 4.27
 0.765 -1.494 4.27
 0.791 -1.495 4.269
 0.818 -1.496 4.269
 0.845 -1.499 4.271
 0.87 -1.498 4.264
 0.896 -1.499 4.261
 0.923 -1.501 4.262
 0.95 -1.503 4.261
 0.976 -1.503 4.257
 1.004 -1.505 4.259
 1.031 -1.508 4.26
 1.058 -1.509 4.256
 1.085 -1.51 4.254
 1.112 -1.512 4.254
 1.139 -1.514 4.252
 1.166 -1.514 4.248
 1.194 -1.518 4.25
 1.223 -1.52 4.251
 1.25 -1.522 4.25
 1.279 -1.525 4.249
 1.306 -1.526 4.246
 1.334 -1.528 4.245
 1.36 -1.528 4.237
 1.388 -1.53 4.233
 1.415 -1.531 4.229
 1.445 -1.534 4.229
 1.473 -1.537 4.227
 1.502 -1.54 4.227
 1.532 -1.543 4.228
 1.561 -1.546 4.226
 1.589 -1.547 4.221
 1.617 -1.549 4.216
 1.645 -1.55 4.209
 1.673 -1.551 4.203
 1.702 -1.554 4.2
 1.731 -1.555 4.194
 1.757 -1.555 4.184
 1.783 -1.555 4.172
 1.804 -1.55 4.149
 1.818 -1.539 4.109
 1.834 -1.531 4.076
 1.849 -1.521 4.04
 1.863 -1.511 4.003
 1.871 -1.498 3.955
 1.892 -1.494 3.933
 1.904 -1.483 3.894
 0 0 0
 0 0 0
 0 0 0
 0 0 0
 0 0 0
 0 0 0
 1.76 -1.255 3.222
 1.768 -1.246 3.187
 1.778 -1.238 3.156
 1.783 -1.226 3.116
 1.784 -1.213 3.071
 1.777 -1.195 3.013
 1.766 -1.174 2.95
 1.744 -1.147 2.87
 -0.014 -0.011 0.012
 -0.054 -0.037 0.081
 -0.873 -0.584 1.53
 -0.958 -0.649 1.707
 -0.944 -0.647 1.706
 -0.93 -0.645 1.708
 -1.005 -0.706 1.877
 -0.992 -0.705 1.88
 -0.977 -0.704 1.882
 -1.048 -0.765 2.052
 -1.116 -0.825 2.221
 -1.013 -0.759 2.048
 -1.08 -0.82 2.22
 -1.064 -0.819 2.224
 -1.21 -0.944 2.572
 -1.273 -1.007 2.753
 -1.494 -1.198 3.286
 -1.627 -1.324 3.641
 -1.829 -1.511 4.167
 -1.801 -1.509 4.173
 -1.843 -1.568 4.346
 -1.811 -1.565 4.347
 -1.777 -1.56 4.342
 -1.746 -1.557 4.343
 -1.716 -1.555 4.347
 -1.687 -1.553 4.351
 -1.655 -1.549 4.35
 -1.626 -1.548 4.355
 -1.596 -1.545 4.355
 -1.564 -1.541 4.352
 -1.533 -1.537 4.349
 -1.503 -1.535 4.351
 -1.473 -1.532 4.349
 -1.443 -1.529 4.35
 -1.415 -1.528 4.353
 -1.386 -1.526 4.355
 -1.355 -1.522 4.351
 -1.326 -1.519 4.349
 -1.297 -1.517 4.349
 -1.267 -1.514 4.348
 -1.238 -1.511 4.345
 -1.209 -1.509 4.345
 -1.181 -1.507 4.344
 -1.151 -1.503 4.339
 -1.121 -1.499 4.333
 -1.093 -1.497 4.332
 -1.065 -1.494 4.33
 -1.037 -1.493 4.331
 -1.01 -1.492 4.333
 -0.983 -1.491 4.337
 -0.956 -1.49 4.337
 -0.928 -1.488 4.335
 -0.901 -1.486 4.335
 -0.873 -1.484 4.333
 -0.846 -1.482 4.331
 -0.818 -1.48 4.329
 -0.792 -1.479 4.331
 -0.765 -1.478 4.331
 -0.739 -1.477 4.332
 -0.712 -1.476 4.33
 -0.685 -1.474 4.328
 -0.658 -1.473 4.327
 -0.631 -1.47 4.322
 -0.604 -1.468 4.32
 -0.578 -1.469 4.323
 -0.552 -1.469 4.326
 -0.526 -1.467 4.324
 -0.5 -1.468 4.329
 -0.474 -1.468 4.33
 -0.447 -1.466 4.325
 -0.421 -1.464 4.322
 -0.395 -1.463 4.32
 -0.368 -1.461 4.315
 -0.342 -1.458 4.31
 -0.316 -1.459 4.312
 -0.29 -1.458 4.31
 -0.265 -1.458 4.312
 -0.239 -1.458 4.312
 -0.213 -1.458 4.314
 -0.187 -1.457 4.311
 -0.162 -1.456 4.309
 -0.136 -1.455 4.308
 -0.11 -1.453 4.302
 -0.085 -1.454 4.303
 -0.059 -1.453 4.301
 -0.033 -1.452 4.299
 -0.008 -1.452 4.296
 0.017 -1.453 4.299
 0.042 -1.452 4.295
 0.068 -1.453 4.299
 0.094 -1.453 4.299
 0.119 -1.453 4.298
 0.145 -1.453 4.296
 0.17 -1.452 4.293
 0.196 -1.452 4.289
 0.222 -1.453 4.292
 0.247 -1.453 4.292
 0.273 -1.454 4.293
 0.299 -1.456 4.297
 0.324 -1.456 4.294
 0.35 -1.455 4.289
 0.375 -1.454 4.286
 0.401 -1.454 4.282
 0.426 -1.454 4.281
 0.452 -1.455 4.279
 0.478 -1.456 4.28
 0.504 -1.457 4.282
 0.53 -1.458 4.281
 0.555 -1.459 4.279
 0.582 -1.46 4.28
 0.608 -1.461 4.281
 0.634 -1.462 4.279
 0.659 -1.462 4.277
 0.685 -1.462 4.274
 0.711 -1.463 4.272
 0.738 -1.466 4.276
 0.764 -1.467 4.275
 0.79 -1.467 4.272
 0.817 -1.469 4.273
 0.844 -1.471 4.272
 0.869 -1.47 4.265
 0.895 -1.47 4.262
 0.922 -1.473 4.264
 0.949 -1.475 4.264
 0.976 -1.476 4.261
 1.003 -1.478 4.262
 1.03 -1.48 4.263
 1.057 -1.481 4.261
 1.084 -1.482 4.258
 1.111 -1.484 4.257
 1.139 -1.486 4.257
 1.166 -1.488 4.254
 1.194 -1.49 4.255
 1.222 -1.493 4.255
 1.25 -1.495 4.256
 1.278 -1.497 4.254
 1.306 -1.5 4.254
 1.334 -1.502 4.252
 1.36 -1.502 4.245
 1.388 -1.503 4.24
 1.416 -1.505 4.237
 1.445 -1.508 4.237
 1.473 -1.51 4.235
 1.502 -1.513 4.235
 1.532 -1.516 4.236
 1.561 -1.519 4.234
 1.588 -1.519 4.226
 1.617 -1.522 4.223
 1.645 -1.523 4.218
 1.672 -1.524 4.21
 1.702 -1.526 4.207
 1.731 -1.528 4.203
 1.757 -1.528 4.192
 1.784 -1.528 4.182
 1.806 -1.525 4.162
 1.823 -1.516 4.128
 1.838 -1.508 4.094
 1.855 -1.5 4.062
 1.87 -1.491 4.026
 1.883 -1.481 3.988
 1.906 -1.479 3.972
 0 0 0
 0 0 0
 0 0 0
 0 0 0
 0 0 0
 0 0 0
 0 0 0
 1.747 -1.224 3.204
 1.761 -1.219 3.18
 1.774 -1.213 3.154
 1.78 -1.204 3.119
 1.784 -1.193 3.079
 1.778 -1.174 3.021
 1.76 -1.15 2.947
 1.767 -1.141 2.914
 -0.013 -0.01 0.009
 -0.069 -0.046 0.107
 -0.435 -0.286 0.757
 -0.523 -0.349 0.928
 -0.513 -0.346 0.924
 -0.5 -0.342 0.915
 -0.58 -0.4 1.079
 -0.569 -0.398 1.075
 -0.557 -0.395 1.07
 -0.633 -0.454 1.237
 -0.705 -0.513 1.402
 -0.605 -0.446 1.221
 -0.676 -0.505 1.388
 -0.665 -0.503 1.387
 -0.814 -0.624 1.729
 -0.963 -0.748 2.082
 -1.266 -0.998 2.788
 -1.478 -1.182 3.314
 -1.759 -1.427 4.015
 -1.807 -1.488 4.197
 -1.849 -1.546 4.371
 -1.816 -1.541 4.368
 -1.783 -1.536 4.364
 -1.752 -1.534 4.366
 -1.719 -1.53 4.364
 -1.69 -1.528 4.368
 -1.658 -1.524 4.365
 -1.628 -1.523 4.369
 -1.597 -1.519 4.368
 -1.566 -1.516 4.366
 -1.534 -1.512 4.363
 -1.504 -1.509 4.363
 -1.473 -1.505 4.359
 -1.443 -1.503 4.359
 -1.414 -1.5 4.359
 -1.383 -1.497 4.356
 -1.354 -1.494 4.355
 -1.324 -1.491 4.354
 -1.295 -1.489 4.353
 -1.266 -1.486 4.352
 -1.237 -1.483 4.35
 -1.208 -1.481 4.351
 -1.18 -1.479 4.349
 -1.149 -1.474 4.342
 -1.12 -1.471 4.338
 -1.093 -1.47 4.339
 -1.064 -1.467 4.336
 -1.037 -1.466 4.338
 -1.01 -1.465 4.341
 -0.983 -1.465 4.343
 -0.955 -1.463 4.342
 -0.927 -1.46 4.338
 -0.9 -1.458 4.337
 -0.872 -1.455 4.332
 -0.844 -1.453 4.331
 -0.817 -1.451 4.327
 -0.791 -1.451 4.331
 -0.763 -1.449 4.33
 -0.737 -1.449 4.333
 -0.71 -1.447 4.33
 -0.684 -1.446 4.33
 -0.657 -1.444 4.328
 -0.63 -1.443 4.326
 -0.604 -1.442 4.326
 -0.578 -1.442 4.328
 -0.551 -1.441 4.329
 -0.525 -1.439 4.323
 -0.499 -1.439 4.327
 -0.473 -1.438 4.327
 -0.447 -1.438 4.327
 -0.42 -1.436 4.322
 -0.394 -1.436 4.324
 -0.368 -1.434 4.321
 -0.342 -1.432 4.317
 -0.316 -1.431 4.315
 -0.29 -1.431 4.315
 -0.264 -1.43 4.314
 -0.239 -1.43 4.314
 -0.213 -1.43 4.314
 -0.187 -1.429 4.312
 -0.161 -1.429 4.312
 -0.136 -1.429 4.312
 -0.11 -1.426 4.303
 -0.084 -1.426 4.305
 -0.059 -1.426 4.303
 -0.033 -1.425 4.3
 -0.007 -1.424 4.297
 0.017 -1.426 4.302
 0.043 -1.424 4.298
 0.068 -1.425 4.3
 0.094 -1.425 4.298
 0.119 -1.426 4.299
 0.145 -1.426 4.3
 0.17 -1.425 4.294
 0.196 -1.424 4.29
 0.221 -1.425 4.293
 0.247 -1.424 4.289
 0.272 -1.425 4.289
 0.298 -1.426 4.292
 0.324 -1.426 4.289
 0.349 -1.425 4.284
 0.374 -1.426 4.284
 0.4 -1.425 4.28
 0.426 -1.427 4.282
 0.452 -1.428 4.282
 0.478 -1.429 4.284
 0.503 -1.43 4.284
 0.529 -1.431 4.283
 0.555 -1.431 4.282
 0.581 -1.432 4.281
 0.607 -1.433 4.282
 0.633 -1.434 4.281
 0.659 -1.434 4.278
 0.684 -1.435 4.275
 0.711 -1.436 4.275
 0.737 -1.438 4.276
 0.764 -1.439 4.277
 0.79 -1.44 4.274
 0.816 -1.441 4.273
 0.843 -1.443 4.274
 0.868 -1.443 4.269
 0.894 -1.442 4.262
 0.921 -1.445 4.266
 0.948 -1.447 4.267
 0.975 -1.448 4.263
 1.001 -1.449 4.262
 1.029 -1.452 4.264
 1.056 -1.453 4.261
 1.082 -1.454 4.258
 1.109 -1.456 4.257
 1.137 -1.458 4.258
 1.164 -1.459 4.256
 1.192 -1.462 4.257
 1.221 -1.465 4.259
 1.25 -1.468 4.261
 1.277 -1.47 4.259
 1.306 -1.473 4.26
 1.334 -1.475 4.259
 1.36 -1.475 4.25
 1.387 -1.475 4.245
 1.415 -1.477 4.242
 1.443 -1.48 4.241
 1.472 -1.482 4.239
 1.501 -1.484 4.238
 1.53 -1.488 4.238
 1.559 -1.49 4.236
 1.586 -1.491 4.229
 1.615 -1.493 4.227
 1.644 -1.495 4.222
 1.671 -1.496 4.215
 1.701 -1.498 4.212
 1.73 -1.5 4.209
 1.756 -1.5 4.197
 1.783 -1.5 4.188
 1.806 -1.497 4.169
 1.824 -1.491 4.14
 1.842 -1.484 4.11
 1.859 -1.476 4.078
 1.873 -1.467 4.041
 1.887 -1.458 4.004
 0 0 0
 0 0 0
 0 0 0
 0 0 0
 0 0 0
 0 0 0
 0 0 0
 0 0 0
 1.749 -1.204 3.215
 1.757 -1.195 3.18
 1.772 -1.191 3.158
 1.779 -1.182 3.123
 1.783 -1.171 3.083
 1.779 -1.154 3.029
 1.761 -1.13 2.954
 1.769 -1.122 2.923
 -0.042 -0.028 0.059
 -0.088 -0.058 0.142
 -0.078 -0.051 0.125
 -0.075 -0.05 0.122
 -0.068 -0.046 0.112
 -0.059 -0.041 0.097
 -0.142 -0.098 0.256
 -0.137 -0.095 0.249
 -0.13 -0.092 0.241
 -0.21 -0.149 0.403
 -0.287 -0.205 0.563
 -0.192 -0.14 0.379
 -0.266 -0.196 0.54
 -0.342 -0.255 0.708
 -0.575 -0.433 1.221
 -0.808 -0.617 1.749
 -1.191 -0.922 2.629
 -1.482 -1.164 3.331
 -1.763 -1.404 4.032
 -1.81 -1.463 4.211
 -1.85 -1.518 4.381
 -1.816 -1.513 4.377
 -1.782 -1.509 4.372
 -1.752 -1.506 4.375
 -1.72 -1.503 4.374
 -1.69 -1.501 4.378
 -1.659 -1.498 4.378
 -1.629 -1.496 4.38
 -1.597 -1.492 4.378
 -1.566 -1.489 4.376
 -1.535 -1.485 4.373
 -1.504 -1.481 4.371
 -1.473 -1.478 4.367
 -1.443 -1.475 4.365
 -1.412 -1.471 4.363
 -1.382 -1.468 4.36
 -1.353 -1.466 4.36
 -1.323 -1.463 4.359
 -1.294 -1.461 4.359
 -1.265 -1.458 4.358
 -1.236 -1.455 4.355
 -1.206 -1.452 4.352
 -1.178 -1.45 4.35
 -1.148 -1.446 4.343
 -1.12 -1.444 4.343
 -1.092 -1.443 4.344
 -1.064 -1.441 4.344
 -1.036 -1.439 4.344
 -1.009 -1.438 4.347
 -0.983 -1.438 4.35
 -0.955 -1.436 4.348
 -0.926 -1.432 4.342
 -0.899 -1.431 4.341
 -0.87 -1.426 4.331
 -0.841 -1.422 4.324
 -0.813 -1.419 4.317
 -0.787 -1.419 4.322
 -0.761 -1.418 4.322
 -0.736 -1.42 4.333
 -0.709 -1.42 4.334
 -0.684 -1.421 4.342
 -0.657 -1.419 4.337
 -0.63 -1.417 4.335
 -0.604 -1.416 4.333
 -0.577 -1.415 4.333
 -0.551 -1.413 4.33
 -0.524 -1.412 4.328
 -0.498 -1.412 4.332
 -0.472 -1.411 4.33
 -0.446 -1.412 4.333
 -0.42 -1.41 4.33
 -0.394 -1.409 4.328
 -0.368 -1.407 4.323
 -0.342 -1.406 4.321
 -0.315 -1.404 4.317
 -0.29 -1.404 4.317
 -0.264 -1.403 4.315
 -0.238 -1.403 4.316
 -0.212 -1.402 4.314
 -0.187 -1.402 4.315
 -0.161 -1.402 4.317
 -0.136 -1.403 4.318
 -0.11 -1.4 4.309
 -0.084 -1.399 4.307
 -0.058 -1.398 4.305
 -0.033 -1.397 4.3
 -0.007 -1.396 4.297
 0.017 -1.398 4.303
 0.043 -1.398 4.303
 0.068 -1.399 4.306
 0.094 -1.399 4.305
 0.119 -1.399 4.305
 0.145 -1.399 4.303
 0.17 -1.398 4.297
 0.196 -1.397 4.293
 0.221 -1.398 4.296
 0.247 -1.397 4.292
 0.272 -1.398 4.291
 0.298 -1.399 4.294
 0.323 -1.398 4.289
 0.348 -1.397 4.284
 0.374 -1.398 4.284
 0.399 -1.398 4.281
 0.425 -1.399 4.284
 0.451 -1.401 4.286
 0.477 -1.402 4.288
 0.503 -1.404 4.289
 0.529 -1.404 4.289
 0.555 -1.405 4.287
 0.581 -1.405 4.284
 0.607 -1.406 4.285
 0.633 -1.408 4.285
 0.658 -1.408 4.281
 0.684 -1.408 4.278
 0.711 -1.41 4.282
 0.737 -1.412 4.284
 0.764 -1.414 4.285
 0.79 -1.414 4.282
 0.816 -1.415 4.28
 0.842 -1.416 4.279
 0.868 -1.416 4.272
 0.893 -1.415 4.266
 0.922 -1.419 4.274
 0.949 -1.421 4.275
 0.975 -1.422 4.271
 1.001 -1.423 4.268
 1.028 -1.424 4.267
 1.054 -1.425 4.263
 1.081 -1.426 4.261
 1.108 -1.428 4.259
 1.136 -1.43 4.26
 1.163 -1.432 4.259
 1.19 -1.433 4.257
 1.218 -1.436 4.258
 1.247 -1.439 4.26
 1.275 -1.441 4.259
 1.304 -1.444 4.261
 1.332 -1.446 4.26
 1.358 -1.446 4.253
 1.386 -1.448 4.249
 1.414 -1.449 4.246
 1.442 -1.452 4.244
 1.471 -1.454 4.243
 1.499 -1.456 4.242
 1.529 -1.459 4.241
 1.557 -1.461 4.239
 1.585 -1.462 4.232
 1.614 -1.465 4.231
 1.643 -1.467 4.228
 1.671 -1.469 4.223
 1.7 -1.471 4.219
 1.729 -1.473 4.215
 1.756 -1.473 4.206
 1.783 -1.473 4.195
 1.806 -1.471 4.177
 1.826 -1.466 4.153
 1.845 -1.46 4.125
 1.862 -1.452 4.092
 1.875 -1.442 4.053
 0 0 0
 0 0 0
 0 0 0
 0 0 0
 0 0 0
 0 0 0
 0 0 0
 0 0 0
 0 0 0
 0 0 0
 1.753 -1.171 3.179
 1.771 -1.169 3.163
 1.779 -1.16 3.129
 1.781 -1.148 3.087
 1.779 -1.134 3.037
 1.749 -1.102 2.941
 1.735 -1.082 2.875
 -0.14 -0.088 0.23
 -0.095 -0.061 0.153
 -0.094 -0.061 0.155
 -0.087 -0.057 0.143
 -0.078 -0.052 0.131
 -0.067 -0.045 0.112
 -0.059 -0.04 0.098
 -0.054 -0.038 0.091
 -0.048 -0.034 0.081
 -0.042 -0.03 0.07
 -0.034 -0.025 0.056
 -0.111 -0.08 0.215
 -0.101 -0.074 0.198
 -0.178 -0.131 0.364
 -0.495 -0.366 1.05
 -0.887 -0.665 1.926
 -1.19 -0.904 2.632
 -1.559 -1.201 3.51
 -1.838 -1.437 4.213
 -1.884 -1.495 4.393
 -1.849 -1.49 4.389
 -1.815 -1.485 4.383
 -1.781 -1.48 4.378
 -1.751 -1.478 4.381
 -1.719 -1.474 4.38
 -1.688 -1.471 4.38
 -1.657 -1.469 4.381
 -1.626 -1.466 4.382
 -1.595 -1.463 4.381
 -1.564 -1.459 4.377
 -1.533 -1.456 4.377
 -1.502 -1.453 4.374
 -1.472 -1.449 4.372
 -1.441 -1.446 4.37
 -1.411 -1.443 4.367
 -1.38 -1.439 4.361
 -1.35 -1.436 4.361
 -1.322 -1.435 4.364
 -1.293 -1.432 4.362
 -1.264 -1.43 4.36
 -1.235 -1.428 4.36
 -1.206 -1.425 4.358
 -1.176 -1.422 4.353
 -1.147 -1.419 4.349
 -1.119 -1.417 4.35
 -1.092 -1.416 4.353
 -1.064 -1.415 4.353
 -1.037 -1.413 4.353
 -1.009 -1.412 4.354
 -0.982 -1.411 4.356
 -0.954 -1.408 4.352
 -0.926 -1.405 4.347
 -0.898 -1.403 4.345
 -0.869 -1.399 4.335
 -0.84 -1.395 4.326
 -0.812 -1.391 4.319
 -0.786 -1.392 4.325
 -0.76 -1.39 4.324
 -0.735 -1.393 4.336
 -0.709 -1.394 4.341
 -0.684 -1.396 4.351
 -0.657 -1.393 4.344
 -0.63 -1.391 4.34
 -0.603 -1.39 4.34
 -0.576 -1.387 4.335
 -0.55 -1.385 4.331
 -0.523 -1.384 4.328
 -0.498 -1.385 4.333
 -0.471 -1.383 4.33
 -0.446 -1.385 4.338
 -0.42 -1.383 4.334
 -0.394 -1.382 4.332
 -0.367 -1.38 4.326
 -0.341 -1.378 4.322
 -0.315 -1.376 4.318
 -0.289 -1.376 4.317
 -0.263 -1.375 4.315
 -0.238 -1.375 4.317
 -0.212 -1.375 4.317
 -0.186 -1.374 4.316
 -0.161 -1.375 4.319
 -0.135 -1.376 4.32
 -0.109 -1.373 4.313
 -0.084 -1.372 4.31
 -0.058 -1.372 4.309
 -0.033 -1.37 4.304
 -0.007 -1.369 4.3
 0.017 -1.371 4.306
 0.043 -1.371 4.306
 0.068 -1.372 4.308
 0.094 -1.372 4.305
 0.119 -1.372 4.306
 0.145 -1.372 4.305
 0.17 -1.371 4.3
 0.196 -1.37 4.297
 0.221 -1.372 4.3
 0.247 -1.371 4.297
 0.272 -1.372 4.296
 0.298 -1.373 4.298
 0.323 -1.372 4.292
 0.348 -1.37 4.286
 0.374 -1.371 4.286
 0.399 -1.37 4.282
 0.425 -1.373 4.288
 0.451 -1.375 4.292
 0.478 -1.377 4.297
 0.504 -1.378 4.297
 0.53 -1.38 4.299
 0.555 -1.38 4.297
 0.581 -1.379 4.291
 0.607 -1.381 4.292
 0.633 -1.382 4.293
 0.658 -1.381 4.286
 0.684 -1.381 4.282
 0.71 -1.383 4.286
 0.737 -1.385 4.286
 0.763 -1.387 4.288
 0.79 -1.387 4.286
 0.816 -1.389 4.285
 0.842 -1.39 4.284
 0.868 -1.39 4.279
 0.893 -1.389 4.273
 0.922 -1.393 4.281
 0.949 -1.395 4.281
 0.974 -1.395 4.275
 1 -1.395 4.271
 1.027 -1.397 4.271
 1.054 -1.398 4.267
 1.08 -1.399 4.265
 1.108 -1.401 4.264
 1.135 -1.402 4.263
 1.161 -1.403 4.259
 1.188 -1.404 4.256
 1.216 -1.407 4.257
 1.244 -1.409 4.258
 1.272 -1.412 4.258
 1.302 -1.415 4.261
 1.329 -1.416 4.258
 1.356 -1.418 4.254
 1.384 -1.419 4.25
 1.412 -1.421 4.248
 1.44 -1.423 4.247
 1.469 -1.426 4.246
 1.497 -1.428 4.243
 1.526 -1.43 4.243
 1.555 -1.432 4.24
 1.582 -1.433 4.233
 1.612 -1.436 4.233
 1.641 -1.439 4.231
 1.669 -1.44 4.225
 1.697 -1.441 4.22
 1.726 -1.444 4.216
 1.754 -1.445 4.209
 1.78 -1.444 4.198
 1.805 -1.443 4.184
 1.828 -1.44 4.165
 1.851 -1.438 4.147
 1.864 -1.427 4.106
 0 0 0
 0 0 0
 0 0 0
 0 0 0
 0 0 0
 0 0 0
 0 0 0
 0 0 0
 0 0 0
 0 0 0
 0 0 0
 1.753 -1.149 3.186
 1.769 -1.146 3.166
 1.778 -1.138 3.134
 1.781 -1.127 3.093
