 0.271 0.101 0.51
 0.289 0.107 0.536
 0.307 0.112 0.561
 0.324 0.117 0.583
 0.343 0.122 0.608
 0.358 0.126 0.626
 0.371 0.129 0.639
 0.389 0.134 0.661
 -0.33 0.124 0.581
 -0.335 0.127 0.598
 -0.339 0.13 0.614
 -0.342 0.133 0.63
 -0.345 0.136 0.645
 -0.347 0.139 0.659
 -0.349 0.141 0.673
 -0.35 0.143 0.686
 -0.349 0.145 0.696
 -0.348 0.147 0.705
 -0.347 0.148 0.714
 -0.345 0.149 0.72
 -0.342 0.15 0.726
 -0.339 0.151 0.733
 -0.337 0.152 0.739
 -0.334 0.152 0.745
 -0.332 0.154 0.753
 -0.332 0.156 0.766
 -0.334 0.159 0.783
 -0.338 0.164 0.808
 -0.345 0.17 0.84
 -0.355 0.177 0.879
 -0.365 0.186 0.922
 -0.376 0.194 0.968
 -0.387 0.203 1.012
 -0.394 0.211 1.052
 -0.401 0.218 1.091
 -0.404 0.223 1.121
 -0.407 0.229 1.151
 -0.409 0.234 1.178
 -0.408 0.238 1.2
 -0.407 0.242 1.221
 -0.406 0.245 1.242
 -0.403 0.248 1.258
 -0.398 0.25 1.27
 -0.394 0.252 1.283
 -0.389 0.254 1.292
 -0.383 0.255 1.301
 -0.377 0.256 1.31
 -0.371 0.257 1.318
 -0.364 0.258 1.323
 -0.357 0.259 1.329
 -0.35 0.259 1.333
 -0.342 0.259 1.335
 -0.333 0.259 1.336
 -0.325 0.259 1.335
 -0.316 0.258 1.334
 -0.308 0.257 1.331
 -0.299 0.256 1.328
 -0.289 0.255 1.322
 -0.28 0.253 1.316
 -0.271 0.252 1.311
 -0.262 0.251 1.307
 -0.254 0.25 1.306
 -0.247 0.251 1.31
 -0.239 0.251 1.313
 -0.232 0.252 1.316
 -0.224 0.252 1.32
 -0.217 0.253 1.323
 -0.209 0.252 1.322
 -0.202 0.252 1.325
 -0.194 0.253 1.329
 -0.187 0.253 1.332
 -0.179 0.254 1.337
 -0.173 0.256 1.345
 -0.166 0.257 1.355
 -0.159 0.26 1.369
 -0.153 0.262 1.383
 -0.146 0.265 1.398
 -0.139 0.268 1.414
 -0.132 0.27 1.424
 -0.124 0.27 1.429
 -0.116 0.27 1.431
 -0.107 0.27 1.427
 -0.099 0.268 1.422
 -0.09 0.267 1.414
 -0.081 0.266 1.409
 -0.073 0.265 1.405
 -0.065 0.264 1.403
 -0.056 0.264 1.4
 -0.048 0.264 1.401
 -0.04 0.264 1.402
 -0.032 0.264 1.403
 -0.024 0.265 1.406
 -0.016 0.266 1.414
 -0.007 0.267 1.422
 0 0.269 1.431
 0.008 0.271 1.441
 0.017 0.272 1.447
 0.025 0.273 1.451
 0.034 0.273 1.454
 0.042 0.273 1.453
 0.051 0.273 1.452
 0.059 0.274 1.455
 0.068 0.274 1.458
 0.077 0.275 1.463
 0.086 0.278 1.476
 0.095 0.28 1.487
 0.104 0.281 1.496
 0.114 0.283 1.502
 0.123 0.283 1.507
 0.131 0.283 1.502
 0.14 0.282 1.497
 0.147 0.28 1.489
 0.155 0.279 1.481
 0.163 0.277 1.471
 0.171 0.276 1.462
 0.177 0.273 1.447
 0.184 0.27 1.43
 0.189 0.265 1.406
 0.194 0.26 1.38
 0.197 0.254 1.346
 0.199 0.246 1.305
 0.199 0.238 1.26
 0.2 0.23 1.218
 0.2 0.222 1.175
 0.199 0.214 1.13
 0.199 0.207 1.094
 0.198 0.199 1.052
 0.193 0.188 0.992
 0.185 0.175 0.924
 0.178 0.163 0.86
 0.173 0.154 0.815
 0.171 0.148 0.779
 0.167 0.141 0.743
 0.161 0.132 0.697
 0.158 0.126 0.664
 0.15 0.117 0.616
 0.143 0.109 0.571
 0.137 0.102 0.534
 0.134 0.097 0.509
 0.133 0.094 0.494
 0.132 0.091 0.477
 0.132 0.089 0.465
 0.13 0.086 0.448
 0.128 0.082 0.431
 0.124 0.079 0.411
 0.124 0.077 0.4
 0.124 0.075 0.391
 0.124 0.074 0.385
 0.125 0.073 0.379
 0.128 0.073 0.381
 0.132 0.075 0.387
 0.136 0.075 0.389
 0.141 0.076 0.395
 0.146 0.078 0.403
 0.149 0.078 0.402
 0.149 0.077 0.395
 0.152 0.077 0.397
 0.157 0.078 0.401
 0.156 0.077 0.392
 0.155 0.075 0.382
 0.159 0.076 0.385
 0.163 0.077 0.389
 0.161 0.075 0.378
 0.165 0.075 0.379
 0.173 0.078 0.392
 0.179 0.079 0.399
 0.182 0.079 0.398
 0.188 0.081 0.406
 0.192 0.081 0.407
 0.194 0.081 0.404
 0.196 0.081 0.403
 0.204 0.083 0.413
 0.215 0.087 0.428
 0.227 0.09 0.445
 0.241 0.095 0.466
 0.255 0.099 0.486
 0.269 0.103 0.505
 0.286 0.109 0.529
 0.303 0.114 0.552
 0.319 0.119 0.574
 0.336 0.124 0.595
 0.35 0.127 0.611
 0.36 0.129 0.619
 0.377 0.134 0.639
 -0.33 0.128 0.58
 -0.329 0.129 0.587
 -0.335 0.133 0.608
 -0.339 0.136 0.623
 -0.342 0.139 0.638
 -0.344 0.142 0.652
 -0.345 0.144 0.666
 -0.347 0.147 0.679
 -0.346 0.148 0.689
 -0.345 0.15 0.698
 -0.344 0.151 0.706
 -0.341 0.152 0.712
 -0.338 0.153 0.717
 -0.335 0.153 0.723
 -0.333 0.154 0.729
 -0.33 0.155 0.735
 -0.328 0.157 0.743
 -0.328 0.159 0.756
 -0.33 0.162 0.774
 -0.335 0.167 0.799
 -0.342 0.173 0.831
 -0.351 0.181 0.868
 -0.362 0.189 0.912
 -0.372 0.198 0.956
 -0.382 0.207 0.999
 -0.39 0.215 1.04
 -0.397 0.223 1.08
 -0.401 0.228 1.11
 -0.405 0.234 1.142
 -0.407 0.24 1.171
 -0.407 0.244 1.194
 -0.406 0.248 1.215
 -0.405 0.252 1.237
 -0.401 0.255 1.251
 -0.397 0.257 1.264
 -0.393 0.259 1.278
 -0.388 0.261 1.288
 -0.382 0.262 1.297
 -0.376 0.264 1.307
 -0.37 0.265 1.314
 -0.363 0.265 1.319
 -0.356 0.266 1.324
 -0.348 0.266 1.328
 -0.341 0.266 1.33
 -0.333 0.266 1.331
 -0.324 0.266 1.33
 -0.316 0.265 1.33
 -0.307 0.265 1.328
 -0.298 0.263 1.324
 -0.288 0.262 1.318
 -0.279 0.26 1.312
 -0.27 0.259 1.306
 -0.261 0.258 1.301
 -0.253 0.257 1.3
 -0.246 0.258 1.304
 -0.238 0.258 1.307
 -0.231 0.258 1.31
 -0.224 0.259 1.315
 -0.216 0.259 1.318
 -0.208 0.259 1.317
 -0.201 0.259 1.319
 -0.193 0.259 1.321
 -0.186 0.26 1.324
 -0.178 0.26 1.328
 -0.171 0.262 1.335
 -0.165 0.263 1.344
 -0.158 0.265 1.356
 -0.151 0.268 1.369
 -0.145 0.271 1.385
 -0.138 0.273 1.399
 -0.131 0.275 1.41
 -0.123 0.276 1.417
 -0.115 0.276 1.418
 -0.106 0.276 1.415
 -0.098 0.275 1.411
 -0.089 0.274 1.405
 -0.081 0.272 1.399
 -0.072 0.272 1.397
 -0.064 0.271 1.394
 -0.056 0.271 1.393
 -0.048 0.271 1.395
 -0.04 0.272 1.398
 -0.032 0.272 1.399
 -0.024 0.273 1.403
 -0.016 0.274 1.41
 -0.007 0.275 1.417
 0 0.277 1.426
 0.008 0.279 1.435
 0.017 0.28 1.441
 0.025 0.28 1.445
 0.034 0.281 1.449
 0.042 0.281 1.447
 0.05 0.281 1.446
 0.059 0.281 1.448
 0.067 0.281 1.45
 0.076 0.282 1.454
 0.085 0.284 1.466
 0.094 0.286 1.475
 0.104 0.288 1.483
 0.113 0.289 1.49
 0.122 0.29 1.494
 0.13 0.289 1.487
 0.138 0.288 1.482
 0.146 0.286 1.473
 0.154 0.285 1.464
 0.161 0.282 1.452
 0.169 0.281 1.444
 0.176 0.278 1.43
 0.182 0.275 1.414
 0.187 0.271 1.39
 0.191 0.265 1.36
 0.194 0.258 1.322
 0.194 0.249 1.276
 0.194 0.239 1.226
 0.194 0.23 1.18
 0.194 0.222 1.137
 0.192 0.213 1.089
 0.192 0.205 1.05
 0.189 0.196 1.001
 0.183 0.183 0.938
 0.175 0.171 0.872
 0.168 0.159 0.813
 0.167 0.153 0.782
 0.165 0.148 0.754
 0.162 0.141 0.719
 0.159 0.134 0.684
 0.155 0.127 0.65
 0.147 0.118 0.602
 0.141 0.11 0.561
 0.136 0.104 0.53
 0.134 0.1 0.509
 0.133 0.097 0.491
 0.131 0.094 0.475
 0.131 0.091 0.464
 0.13 0.089 0.45
 0.129 0.086 0.434
 0.125 0.082 0.414
 0.125 0.08 0.406
 0.126 0.079 0.398
 0.126 0.078 0.391
 0.126 0.076 0.382
 0.129 0.077 0.385
 0.133 0.077 0.388
 0.136 0.078 0.388
 0.14 0.078 0.391
 0.144 0.08 0.397
 0.148 0.08 0.4
 0.148 0.079 0.391
 0.151 0.079 0.392
 0.156 0.08 0.398
 0.156 0.079 0.392
 0.155 0.077 0.382
 0.159 0.078 0.385
 0.164 0.079 0.39
 0.164 0.078 0.384
 0.167 0.078 0.383
 0.174 0.08 0.393
 0.181 0.083 0.403
 0.183 0.082 0.4
 0.188 0.084 0.405
 0.192 0.084 0.407
 0.195 0.084 0.406
 0.196 0.084 0.403
 0.205 0.086 0.415
 0.214 0.089 0.425
 0.226 0.093 0.443
 0.24 0.098 0.464
 0.255 0.102 0.484
 0.268 0.106 0.502
 0.286 0.112 0.529
 0.303 0.118 0.552
 0.319 0.123 0.573
 0.334 0.127 0.59
 0.346 0.13 0.603
 0.366 0.136 0.629
 0.359 0.132 0.608
 -0.327 0.13 0.573
 -0.329 0.133 0.586
 -0.331 0.135 0.599
 -0.335 0.139 0.615
 -0.338 0.142 0.63
 -0.34 0.144 0.644
 -0.342 0.147 0.658
 -0.343 0.149 0.671
 -0.342 0.151 0.681
 -0.341 0.152 0.689
 -0.34 0.154 0.697
 -0.337 0.155 0.703
 -0.334 0.155 0.708
 -0.331 0.156 0.713
 -0.328 0.157 0.719
 -0.326 0.158 0.725
 -0.324 0.159 0.733
 -0.324 0.161 0.746
 -0.326 0.165 0.764
 -0.33 0.17 0.788
 -0.338 0.176 0.82
 -0.346 0.184 0.856
 -0.357 0.193 0.899
 -0.368 0.202 0.943
 -0.378 0.211 0.987
 -0.386 0.219 1.026
 -0.393 0.227 1.066
 -0.397 0.233 1.099
 -0.401 0.239 1.131
 -0.404 0.245 1.16
 -0.405 0.25 1.186
 -0.404 0.255 1.21
 -0.403 0.259 1.231
 -0.4 0.261 1.246
 -0.396 0.264 1.258
 -0.391 0.266 1.272
 -0.386 0.267 1.282
 -0.38 0.269 1.29
 -0.375 0.271 1.301
 -0.369 0.272 1.308
 -0.362 0.272 1.313
 -0.354 0.273 1.317
 -0.347 0.273 1.321
 -0.339 0.273 1.323
 -0.331 0.273 1.323
 -0.323 0.273 1.323
 -0.314 0.272 1.323
 -0.306 0.271 1.321
 -0.297 0.27 1.317
 -0.287 0.269 1.311
 -0.278 0.268 1.307
 -0.269 0.266 1.302
 -0.26 0.265 1.298
 -0.252 0.265 1.297
 -0.245 0.265 1.3
 -0.237 0.265 1.301
 -0.23 0.265 1.305
 -0.223 0.266 1.308
 -0.215 0.266 1.309
 -0.207 0.266 1.309
 -0.2 0.266 1.311
 -0.192 0.265 1.311
 -0.185 0.266 1.315
 -0.177 0.267 1.319
 -0.17 0.268 1.325
 -0.163 0.269 1.332
 -0.157 0.271 1.345
 -0.15 0.273 1.356
 -0.144 0.277 1.372
 -0.137 0.279 1.385
 -0.13 0.281 1.396
 -0.122 0.282 1.401
 -0.114 0.282 1.402
 -0.105 0.282 1.401
 -0.097 0.281 1.4
 -0.089 0.28 1.397
 -0.08 0.28 1.393
 -0.072 0.279 1.393
 -0.064 0.279 1.39
 -0.056 0.278 1.389
 -0.048 0.279 1.392
 -0.04 0.279 1.394
 -0.032 0.279 1.395
 -0.024 0.28 1.4
 -0.015 0.281 1.405
 -0.007 0.283 1.412
 0 0.284 1.42
 0.008 0.286 1.429
 0.017 0.287 1.435
 0.025 0.288 1.439
 0.034 0.289 1.443
 0.042 0.289 1.443
 0.05 0.289 1.443
 0.059 0.289 1.445
 0.067 0.29 1.448
 0.076 0.29 1.45
 0.085 0.292 1.459
 0.094 0.293 1.466
 0.103 0.295 1.474
 0.112 0.296 1.48
 0.121 0.297 1.485
 0.129 0.296 1.478
 0.138 0.295 1.472
 0.145 0.292 1.459
 0.152 0.29 1.448
 0.159 0.287 1.434
 0.167 0.285 1.424
 0.173 0.283 1.412
 0.18 0.28 1.398
 0.185 0.276 1.374
 0.189 0.269 1.341
 0.19 0.261 1.298
 0.19 0.25 1.245
 0.189 0.24 1.192
 0.188 0.23 1.143
 0.188 0.222 1.101
 0.186 0.213 1.056
 0.185 0.204 1.014
 0.183 0.196 0.971
 0.177 0.184 0.911
 0.17 0.171 0.848
 0.165 0.161 0.796
 0.164 0.155 0.768
 0.163 0.15 0.741
 0.16 0.144 0.711
 0.156 0.136 0.674
 0.152 0.129 0.637
 0.145 0.12 0.591
 0.14 0.113 0.559
 0.137 0.108 0.531
 0.136 0.105 0.515
 0.134 0.101 0.497
 0.132 0.097 0.477
 0.131 0.094 0.463
 0.13 0.092 0.45
 0.128 0.088 0.433
 0.126 0.085 0.416
 0.127 0.083 0.409
 0.127 0.082 0.401
 0.126 0.08 0.39
 0.126 0.078 0.38
 0.127 0.078 0.378
 0.131 0.078 0.381
 0.134 0.079 0.381
 0.138 0.08 0.387
 0.143 0.081 0.393
 0.147 0.082 0.396
 0.147 0.081 0.388
 0.15 0.081 0.389
 0.154 0.082 0.393
 0.157 0.082 0.393
 0.159 0.082 0.392
 0.164 0.083 0.396
 0.167 0.084 0.398
 0.168 0.082 0.391
 0.168 0.081 0.385
 0.172 0.082 0.388
 0.179 0.084 0.398
 0.181 0.084 0.395
 0.188 0.086 0.404
 0.194 0.087 0.409
 0.198 0.088 0.412
 0.2 0.088 0.409
 0.209 0.091 0.421
 0.215 0.092 0.427
 0.225 0.095 0.441
 0.238 0.1 0.458
 0.252 0.104 0.479
 0.266 0.109 0.498
 0.285 0.115 0.526
 0.304 0.122 0.553
 0.319 0.126 0.571
 0.332 0.13 0.587
 0.343 0.133 0.596
 0.345 0.132 0.591
 0.35 0.132 0.591
 -0.323 0.132 0.565
 -0.327 0.136 0.581
 -0.328 0.138 0.592
 -0.331 0.141 0.608
 -0.334 0.144 0.623
 -0.336 0.147 0.636
 -0.338 0.149 0.649
 -0.339 0.152 0.662
 -0.338 0.153 0.671
 -0.337 0.155 0.679
 -0.335 0.156 0.687
 -0.333 0.157 0.693
 -0.33 0.158 0.698
 -0.327 0.158 0.703
 -0.324 0.159 0.709
 -0.322 0.16 0.715
 -0.32 0.162 0.723
 -0.32 0.164 0.736
 -0.323 0.168 0.755
 -0.327 0.173 0.778
 -0.334 0.179 0.81
 -0.342 0.187 0.845
 -0.353 0.196 0.887
 -0.363 0.205 0.93
 -0.373 0.214 0.974
 -0.382 0.223 1.015
 -0.39 0.231 1.056
 -0.395 0.238 1.091
 -0.399 0.245 1.123
 -0.402 0.251 1.154
 -0.402 0.256 1.179
 -0.402 0.261 1.203
 -0.401 0.265 1.222
 -0.397 0.267 1.237
 -0.394 0.27 1.251
 -0.389 0.272 1.264
 -0.384 0.274 1.274
 -0.379 0.275 1.283
 -0.373 0.277 1.294
 -0.367 0.278 1.302
 -0.36 0.279 1.307
 -0.353 0.28 1.311
 -0.346 0.28 1.315
 -0.338 0.28 1.316
 -0.33 0.28 1.316
 -0.321 0.279 1.315
 -0.313 0.279 1.315
 -0.304 0.278 1.313
 -0.295 0.277 1.311
 -0.286 0.275 1.305
 -0.278 0.275 1.303
 -0.269 0.273 1.298
 -0.26 0.272 1.293
 -0.252 0.271 1.292
 -0.244 0.272 1.294
 -0.236 0.272 1.295
 -0.229 0.272 1.298
 -0.222 0.272 1.3
 -0.214 0.272 1.302
 -0.206 0.272 1.302
 -0.199 0.272 1.303
 -0.191 0.272 1.304
 -0.184 0.273 1.308
 -0.176 0.273 1.311
 -0.169 0.274 1.316
 -0.162 0.276 1.325
 -0.156 0.278 1.337
 -0.149 0.28 1.348
 -0.143 0.283 1.364
 -0.136 0.286 1.376
 -0.129 0.287 1.384
 -0.121 0.288 1.389
 -0.113 0.288 1.39
 -0.105 0.288 1.39
 -0.097 0.288 1.39
 -0.088 0.287 1.389
 -0.08 0.287 1.387
 -0.072 0.287 1.388
 -0.064 0.286 1.385
 -0.056 0.286 1.384
 -0.048 0.286 1.386
 -0.04 0.286 1.388
 -0.032 0.287 1.391
 -0.023 0.288 1.395
 -0.015 0.289 1.401
 -0.007 0.29 1.407
 0 0.292 1.415
 0.008 0.294 1.424
 0.017 0.295 1.43
 0.025 0.296 1.435
 0.034 0.296 1.438
 0.042 0.296 1.438
 0.05 0.296 1.438
 0.059 0.297 1.44
 0.067 0.297 1.441
 0.076 0.298 1.444
 0.085 0.299 1.451
 0.094 0.3 1.457
 0.103 0.302 1.464
 0.112 0.303 1.47
 0.12 0.304 1.473
 0.129 0.303 1.467
 0.136 0.301 1.459
 0.144 0.298 1.446
 0.151 0.295 1.43
 0.158 0.293 1.418
 0.165 0.29 1.406
 0.171 0.288 1.394
 0.178 0.285 1.379
 0.183 0.281 1.359
 0.186 0.273 1.32
 0.187 0.264 1.276
 0.187 0.253 1.221
 0.185 0.242 1.166
 0.184 0.231 1.115
 0.183 0.222 1.072
 0.182 0.213 1.027
 0.18 0.205 0.987
 0.178 0.196 0.943
 0.172 0.183 0.882
 0.166 0.172 0.827
 0.162 0.163 0.783
 0.161 0.157 0.756
 0.159 0.15 0.722
 0.155 0.143 0.688
 0.151 0.136 0.652
 0.147 0.128 0.615
 0.141 0.12 0.574
 0.138 0.114 0.547
 0.137 0.111 0.531
 0.137 0.108 0.518
 0.135 0.105 0.5
 0.134 0.101 0.482
 0.132 0.098 0.465
 0.13 0.094 0.448
 0.128 0.091 0.431
 0.127 0.088 0.418
 0.127 0.086 0.408
 0.127 0.085 0.401
 0.127 0.083 0.391
 0.126 0.08 0.38
 0.126 0.079 0.375
 0.129 0.08 0.376
 0.131 0.079 0.374
 0.135 0.081 0.378
 0.14 0.082 0.384
 0.144 0.083 0.389
 0.145 0.082 0.383
 0.148 0.083 0.385
 0.153 0.084 0.389
 0.156 0.084 0.39
 0.158 0.084 0.389
 0.162 0.085 0.392
 0.165 0.085 0.391
 0.165 0.084 0.386
 0.166 0.083 0.381
 0.169 0.083 0.382
 0.176 0.086 0.391
 0.178 0.085 0.389
 0.185 0.087 0.397
 0.193 0.09 0.407
 0.198 0.091 0.413
 0.201 0.091 0.412
 0.21 0.094 0.423
 0.215 0.095 0.426
 0.222 0.097 0.433
 0.232 0.1 0.447
 0.246 0.105 0.466
 0.261 0.11 0.487
 0.278 0.116 0.513
 0.297 0.122 0.538
 0.312 0.127 0.559
 0.326 0.131 0.574
 0.335 0.133 0.582
 0.339 0.133 0.58
 0.345 0.134 0.581
 -0.317 0.134 0.553
 -0.32 0.137 0.569
 -0.325 0.14 0.585
 -0.328 0.143 0.6
 -0.33 0.147 0.615
 -0.332 0.149 0.628
 -0.334 0.152 0.642
 -0.335 0.154 0.653
 -0.334 0.156 0.662
 -0.333 0.157 0.671
 -0.332 0.159 0.678
 -0.329 0.16 0.684
 -0.326 0.16 0.688
 -0.323 0.161 0.693
 -0.32 0.162 0.698
 -0.317 0.163 0.704
 -0.315 0.164 0.712
 -0.316 0.167 0.726
 -0.319 0.171 0.745
 -0.323 0.176 0.769
 -0.33 0.182 0.799
 -0.338 0.19 0.833
 -0.348 0.198 0.874
 -0.358 0.208 0.915
 -0.368 0.217 0.958
 -0.377 0.226 1.001
 -0.385 0.235 1.043
 -0.391 0.243 1.08
 -0.396 0.25 1.114
 -0.399 0.257 1.146
 -0.4 0.262 1.171
 -0.4 0.267 1.194
 -0.398 0.27 1.212
 -0.395 0.273 1.227
 -0.391 0.275 1.241
 -0.387 0.278 1.254
 -0.382 0.28 1.265
 -0.376 0.282 1.274
 -0.371 0.283 1.285
 -0.365 0.285 1.293
 -0.358 0.285 1.298
 -0.351 0.286 1.303
 -0.344 0.287 1.308
 -0.336 0.286 1.308
 -0.328 0.286 1.308
 -0.319 0.286 1.307
 -0.311 0.285 1.308
 -0.303 0.284 1.305
 -0.294 0.283 1.302
 -0.285 0.282 1.298
 -0.277 0.281 1.296
 -0.267 0.28 1.291
 -0.259 0.279 1.287
 -0.251 0.278 1.286
 -0.243 0.278 1.287
 -0.235 0.278 1.287
 -0.228 0.278 1.29
 -0.221 0.278 1.293
 -0.213 0.278 1.293
 -0.205 0.278 1.293
 -0.197 0.278 1.292
 -0.19 0.278 1.293
 -0.182 0.278 1.297
 -0.175 0.279 1.301
 -0.168 0.28 1.308
 -0.162 0.282 1.318
 -0.155 0.284 1.328
 -0.148 0.286 1.338
 -0.142 0.289 1.353
 -0.135 0.291 1.364
 -0.128 0.293 1.371
 -0.12 0.294 1.376
 -0.112 0.294 1.379
 -0.104 0.294 1.38
 -0.096 0.294 1.381
 -0.088 0.294 1.382
 -0.08 0.294 1.38
 -0.072 0.294 1.381
 -0.063 0.293 1.378
 -0.055 0.293 1.378
 -0.047 0.293 1.379
 -0.039 0.293 1.381
 -0.031 0.294 1.384
 -0.023 0.295 1.388
 -0.015 0.296 1.394
 -0.007 0.297 1.4
 0 0.299 1.408
 0.008 0.301 1.417
 0.017 0.302 1.424
 0.025 0.303 1.426
 0.033 0.303 1.428
 0.042 0.303 1.428
 0.05 0.303 1.428
 0.058 0.304 1.431
 0.067 0.304 1.434
 0.076 0.305 1.439
 0.085 0.307 1.449
 0.093 0.308 1.453
 0.102 0.309 1.457
 0.111 0.31 1.462
 0.12 0.311 1.463
 0.128 0.309 1.456
 0.136 0.308 1.449
 0.143 0.305 1.435
 0.15 0.301 1.418
 0.156 0.298 1.404
 0.163 0.295 1.386
 0.169 0.292 1.372
 0.175 0.289 1.357
 0.181 0.285 1.338
 0.183 0.277 1.298
 0.185 0.268 1.258
 0.184 0.256 1.202
 0.182 0.244 1.145
 0.18 0.233 1.09
 0.179 0.223 1.047
 0.177 0.213 1
 0.175 0.204 0.957
 0.174 0.196 0.918
 0.168 0.184 0.861
 0.163 0.174 0.812
 0.16 0.165 0.77
 0.158 0.159 0.74
 0.155 0.151 0.705
 0.152 0.145 0.674
 0.148 0.137 0.637
 0.144 0.129 0.602
 0.139 0.122 0.566
 0.136 0.116 0.54
 0.136 0.113 0.525
 0.136 0.111 0.515
 0.135 0.108 0.499
 0.132 0.103 0.475
 0.13 0.099 0.458
 0.128 0.095 0.439
 0.125 0.091 0.422
 0.124 0.089 0.409
 0.125 0.087 0.403
 0.127 0.087 0.399
 0.126 0.085 0.389
 0.127 0.083 0.383
 0.129 0.083 0.381
 0.131 0.083 0.381
 0.131 0.081 0.371
 0.135 0.083 0.376
 0.138 0.083 0.377
 0.141 0.083 0.379
 0.142 0.083 0.374
 0.146 0.084 0.379
 0.149 0.084 0.38
 0.153 0.085 0.381
 0.155 0.085 0.381
 0.158 0.085 0.382
 0.161 0.085 0.381
 0.163 0.085 0.38
 0.165 0.085 0.379
 0.168 0.085 0.378
 0.174 0.087 0.386
 0.178 0.087 0.387
 0.182 0.088 0.39
 0.189 0.091 0.399
 0.194 0.092 0.403
 0.198 0.092 0.404
 0.205 0.095 0.413
 0.209 0.095 0.414
 0.215 0.097 0.42
 0.226 0.1 0.434
 0.238 0.105 0.451
 0.254 0.11 0.475
 0.273 0.117 0.501
 0.29 0.123 0.526
 0.306 0.128 0.546
 0.319 0.132 0.561
 0.327 0.134 0.568
 0.339 0.137 0.579
 0.336 0.134 0.565
 -0.317 0.138 0.554
 -0.317 0.139 0.562
 -0.321 0.143 0.577
 -0.324 0.146 0.592
 -0.327 0.149 0.606
 -0.329 0.152 0.62
 -0.33 0.154 0.633
 -0.331 0.156 0.644
 -0.33 0.158 0.653
 -0.329 0.16 0.661
 -0.327 0.161 0.668
 -0.325 0.162 0.674
 -0.322 0.162 0.678
 -0.318 0.163 0.683
 -0.315 0.164 0.688
 -0.312 0.165 0.692
 -0.31 0.166 0.699
 -0.311 0.169 0.713
 -0.314 0.173 0.732
 -0.319 0.178 0.757
 -0.326 0.185 0.788
 -0.334 0.193 0.823
 -0.344 0.202 0.862
 -0.353 0.211 0.903
 -0.362 0.22 0.943
 -0.372 0.229 0.987
 -0.38 0.238 1.028
 -0.387 0.247 1.067
 -0.392 0.255 1.103
 -0.396 0.261 1.134
 -0.396 0.266 1.158
 -0.396 0.271 1.181
 -0.394 0.275 1.198
 -0.39 0.277 1.213
 -0.387 0.28 1.227
 -0.383 0.283 1.242
 -0.379 0.286 1.255
 -0.374 0.288 1.265
 -0.369 0.29 1.276
 -0.363 0.291 1.284
 -0.356 0.291 1.289
 -0.349 0.292 1.294
 -0.342 0.293 1.297
 -0.334 0.292 1.298
 -0.326 0.292 1.299
 -0.318 0.292 1.299
 -0.31 0.291 1.299
 -0.301 0.291 1.297
 -0.292 0.29 1.294
 -0.284 0.288 1.291
 -0.275 0.288 1.288
 -0.266 0.286 1.283
 -0.258 0.285 1.28
 -0.25 0.285 1.279
 -0.242 0.284 1.279
 -0.234 0.284 1.279
 -0.227 0.284 1.282
 -0.219 0.284 1.281
 -0.211 0.284 1.281
 -0.203 0.283 1.281
 -0.195 0.283 1.279
 -0.188 0.283 1.281
 -0.181 0.284 1.289
 -0.174 0.285 1.293
 -0.168 0.287 1.301
 -0.161 0.289 1.313
 -0.154 0.291 1.322
 -0.148 0.293 1.331
 -0.141 0.295 1.345
 -0.134 0.298 1.355
 -0.127 0.299 1.361
 -0.119 0.3 1.368
 -0.112 0.301 1.372
 -0.104 0.301 1.374
 -0.096 0.301 1.374
 -0.088 0.301 1.376
 -0.079 0.301 1.374
 -0.071 0.301 1.374
 -0.063 0.3 1.372
 -0.055 0.3 1.373
 -0.047 0.3 1.372
 -0.039 0.3 1.374
 -0.031 0.301 1.379
 -0.023 0.302 1.384
 -0.015 0.303 1.388
 -0.007 0.305 1.396
 0 0.307 1.405
 0.008 0.308 1.412
 0.017 0.309 1.416
 0.025 0.31 1.419
 0.033 0.31 1.419
 0.041 0.309 1.417
 0.05 0.309 1.417
 0.058 0.31 1.42
 0.067 0.311 1.423
 0.075 0.312 1.431
 0.084 0.314 1.439
 0.093 0.315 1.444
 0.102 0.316 1.45
 0.111 0.317 1.453
 0.119 0.317 1.451
 0.127 0.315 1.444
 0.135 0.313 1.435
 0.142 0.311 1.421
 0.148 0.307 1.404
 0.155 0.304 1.388
 0.161 0.3 1.37
 0.167 0.297 1.355
 0.173 0.293 1.339
 0.179 0.289 1.321
 0.181 0.281 1.28
 0.182 0.272 1.24
 0.181 0.259 1.182
 0.179 0.246 1.122
 0.176 0.234 1.066
 0.174 0.224 1.019
 0.172 0.213 0.971
 0.17 0.204 0.928
 0.169 0.196 0.89
 0.163 0.184 0.835
 0.16 0.175 0.796
 0.157 0.167 0.756
 0.156 0.161 0.73
 0.153 0.153 0.694
 0.15 0.146 0.663
 0.146 0.138 0.625
 0.141 0.13 0.589
 0.135 0.122 0.552
 0.134 0.118 0.531
 0.134 0.115 0.518
 0.133 0.112 0.504
 0.132 0.108 0.487
 0.13 0.104 0.469
 0.129 0.101 0.453
 0.126 0.097 0.434
 0.125 0.093 0.419
 0.124 0.091 0.407
 0.124 0.089 0.399
 0.126 0.089 0.396
 0.126 0.087 0.387
 0.127 0.086 0.382
 0.13 0.087 0.385
 0.132 0.086 0.384
 0.131 0.084 0.373
 0.133 0.084 0.372
 0.136 0.084 0.371
 0.137 0.083 0.368
 0.139 0.083 0.365
 0.143 0.084 0.369
 0.147 0.085 0.373
 0.149 0.085 0.372
 0.153 0.086 0.374
 0.155 0.085 0.372
 0.156 0.085 0.369
 0.158 0.084 0.366
 0.161 0.085 0.367
 0.163 0.085 0.365
 0.168 0.086 0.372
 0.173 0.088 0.377
 0.179 0.089 0.382
 0.186 0.091 0.391
 0.191 0.093 0.395
 0.196 0.094 0.4
 0.203 0.096 0.407
 0.207 0.097 0.409
 0.212 0.098 0.413
 0.223 0.102 0.428
 0.234 0.106 0.442
 0.25 0.111 0.466
 0.267 0.118 0.489
 0.284 0.124 0.514
 0.299 0.129 0.533
 0.312 0.133 0.548
 0.321 0.135 0.556
 0.335 0.14 0.572
 0.338 0.139 0.568
 -0.313 0.139 0.545
 -0.311 0.14 0.55
 -0.317 0.145 0.57
 -0.32 0.148 0.585
 -0.323 0.151 0.599
 -0.325 0.154 0.612
 -0.326 0.157 0.624
 -0.327 0.159 0.635
 -0.326 0.16 0.644
 -0.325 0.162 0.652
 -0.323 0.163 0.659
 -0.32 0.164 0.664
 -0.317 0.165 0.668
 -0.315 0.165 0.673
 -0.311 0.166 0.678
 -0.308 0.167 0.682
 -0.306 0.168 0.688
 -0.305 0.17 0.699
 -0.308 0.174 0.717
 -0.313 0.179 0.741
 -0.32 0.186 0.771
 -0.328 0.194 0.807
 -0.338 0.204 0.847
 -0.348 0.213 0.888
 -0.358 0.222 0.929
 -0.367 0.232 0.973
 -0.376 0.242 1.014
 -0.383 0.251 1.054
 -0.388 0.258 1.088
 -0.391 0.265 1.119
 -0.391 0.27 1.141
 -0.389 0.273 1.158
 -0.385 0.276 1.17
 -0.382 0.279 1.186
 -0.379 0.282 1.201
 -0.377 0.286 1.219
 -0.375 0.29 1.238
 -0.371 0.293 1.254
 -0.366 0.295 1.266
 -0.361 0.297 1.274
 -0.354 0.297 1.278
 -0.347 0.298 1.284
 -0.34 0.299 1.288
 -0.332 0.299 1.289
 -0.324 0.298 1.289
 -0.315 0.297 1.287
 -0.307 0.296 1.285
 -0.298 0.295 1.283
 -0.29 0.295 1.281
 -0.281 0.294 1.279
 -0.274 0.294 1.281
 -0.265 0.293 1.278
 -0.257 0.292 1.274
 -0.249 0.291 1.274
 -0.241 0.291 1.273
 -0.233 0.29 1.272
 -0.225 0.29 1.274
 -0.217 0.29 1.271
 -0.209 0.289 1.269
 -0.202 0.289 1.27
 -0.194 0.289 1.27
 -0.187 0.289 1.273
 -0.18 0.29 1.281
 -0.173 0.291 1.286
 -0.167 0.293 1.294
 -0.16 0.296 1.306
 -0.154 0.297 1.315
 -0.147 0.299 1.324
 -0.14 0.302 1.337
 -0.134 0.304 1.349
 -0.126 0.306 1.355
 -0.119 0.307 1.36
 -0.111 0.308 1.365
 -0.103 0.308 1.367
 -0.095 0.308 1.367
 -0.087 0.308 1.368
 -0.079 0.308 1.368
 -0.071 0.308 1.368
 -0.063 0.307 1.367
 -0.055 0.307 1.367
 -0.047 0.307 1.367
 -0.039 0.307 1.369
 -0.031 0.308 1.373
 -0.023 0.309 1.378
 -0.015 0.311 1.384
 -0.007 0.312 1.391
 0 0.314 1.4
 0.008 0.316 1.406
 0.017 0.316 1.408
 0.025 0.316 1.409
 0.033 0.316 1.409
 0.041 0.315 1.405
 0.049 0.315 1.405
 0.058 0.316 1.41
 0.066 0.317 1.414
 0.075 0.319 1.421
 0.084 0.321 1.429
 0.093 0.322 1.435
 0.101 0.323 1.439
 0.11 0.323 1.44
 0.118 0.322 1.436
 0.126 0.321 1.43
 0.133 0.318 1.417
 0.14 0.316 1.404
 0.147 0.312 1.387
 0.153 0.309 1.373
 0.159 0.305 1.355
 0.166 0.302 1.341
 0.171 0.298 1.324
 0.177 0.294 1.306
 0.179 0.285 1.267
 0.18 0.276 1.224
 0.179 0.263 1.165
 0.176 0.249 1.105
 0.173 0.236 1.047
 0.171 0.225 0.997
 0.168 0.214 0.949
 0.166 0.205 0.907
 0.165 0.197 0.871
 0.16 0.185 0.82
 0.159 0.178 0.786
 0.156 0.17 0.75
 0.155 0.164 0.725
 0.152 0.156 0.689
 0.149 0.149 0.658
 0.143 0.14 0.615
 0.139 0.132 0.581
 0.133 0.124 0.543
 0.131 0.119 0.521
 0.132 0.116 0.509
 0.131 0.113 0.496
 0.13 0.109 0.478
 0.129 0.106 0.462
 0.127 0.102 0.446
 0.124 0.097 0.424
 0.122 0.094 0.41
 0.121 0.091 0.398
 0.121 0.09 0.39
 0.123 0.089 0.386
 0.124 0.088 0.381
 0.126 0.088 0.379
 0.129 0.088 0.381
 0.131 0.088 0.379
 0.13 0.086 0.37
 0.132 0.086 0.368
 0.134 0.085 0.367
 0.136 0.085 0.363
 0.137 0.085 0.361
 0.141 0.085 0.365
 0.145 0.086 0.367
 0.146 0.085 0.363
 0.148 0.086 0.363
 0.15 0.085 0.36
 0.149 0.083 0.351
 0.149 0.082 0.347
 0.153 0.083 0.348
 0.155 0.083 0.348
 0.16 0.084 0.353
 0.168 0.087 0.365
 0.175 0.09 0.374
 0.183 0.092 0.384
 0.187 0.094 0.388
 0.194 0.095 0.395
 0.199 0.097 0.399
 0.203 0.098 0.401
 0.208 0.098 0.403
 0.217 0.102 0.415
 0.227 0.105 0.428
 0.242 0.111 0.449
 0.257 0.116 0.472
 0.274 0.122 0.494
 0.289 0.128 0.514
 0.302 0.132 0.53
 0.312 0.135 0.539
 0.317 0.136 0.54
 0.331 0.14 0.555
 -0.305 0.139 0.53
 -0.312 0.144 0.552
 -0.315 0.147 0.564
 -0.317 0.15 0.578
 -0.32 0.153 0.592
 -0.322 0.156 0.605
 -0.323 0.159 0.617
 -0.323 0.161 0.627
 -0.322 0.162 0.635
 -0.321 0.164 0.642
 -0.319 0.165 0.649
 -0.316 0.166 0.655
 -0.313 0.167 0.659
 -0.31 0.167 0.663
 -0.307 0.168 0.668
 -0.304 0.169 0.672
 -0.301 0.169 0.677
 -0.3 0.171 0.687
 -0.303 0.175 0.704
 -0.307 0.181 0.728
 -0.314 0.188 0.756
 -0.323 0.196 0.793
 -0.333 0.206 0.833
 -0.343 0.215 0.874
 -0.352 0.225 0.914
 -0.362 0.235 0.959
 -0.371 0.245 1
 -0.378 0.254 1.04
 -0.383 0.262 1.074
 -0.386 0.269 1.103
 -0.385 0.272 1.121
 -0.382 0.275 1.136
 -0.377 0.277 1.145
 -0.374 0.28 1.157
 -0.372 0.283 1.175
 -0.371 0.288 1.198
 -0.369 0.293 1.219
 -0.368 0.298 1.24
 -0.364 0.301 1.256
 -0.358 0.302 1.264
 -0.351 0.303 1.269
 -0.345 0.304 1.274
 -0.338 0.304 1.278
 -0.33 0.304 1.279
 -0.321 0.303 1.276
 -0.312 0.302 1.271
 -0.302 0.3 1.265
 -0.293 0.298 1.26
 -0.285 0.297 1.259
 -0.278 0.298 1.262
 -0.271 0.298 1.266
 -0.263 0.298 1.267
 -0.256 0.298 1.268
 -0.248 0.298 1.267
 -0.239 0.297 1.264
 -0.231 0.296 1.262
 -0.224 0.296 1.262
 -0.216 0.295 1.26
 -0.208 0.295 1.26
 -0.201 0.295 1.261
 -0.193 0.294 1.261
 -0.186 0.295 1.265
 -0.179 0.296 1.272
 -0.172 0.297 1.277
 -0.166 0.299 1.286
 -0.16 0.302 1.299
 -0.153 0.304 1.307
 -0.146 0.305 1.315
 -0.139 0.308 1.327
 -0.133 0.31 1.338
 -0.125 0.312 1.345
 -0.118 0.313 1.351
 -0.11 0.314 1.356
 -0.103 0.315 1.36
 -0.095 0.314 1.358
 -0.087 0.314 1.359
 -0.079 0.314 1.359
 -0.071 0.314 1.358
 -0.063 0.313 1.357
 -0.055 0.313 1.358
 -0.047 0.314 1.36
 -0.039 0.314 1.363
 -0.031 0.315 1.367
 -0.023 0.317 1.373
 -0.015 0.318 1.379
 -0.007 0.319 1.386
 0 0.321 1.393
 0.008 0.322 1.398
 0.016 0.322 1.399
 0.025 0.322 1.398
 0.033 0.321 1.395
 0.041 0.32 1.39
 0.049 0.32 1.389
 0.057 0.321 1.394
 0.066 0.322 1.399
 0.074 0.325 1.408
 0.083 0.327 1.418
 0.092 0.328 1.424
 0.1 0.329 1.426
 0.109 0.329 1.425
 0.117 0.327 1.419
 0.124 0.326 1.411
 0.131 0.323 1.399
 0.139 0.32 1.387
 0.145 0.317 1.372
 0.152 0.314 1.357
 0.158 0.31 1.34
 0.163 0.306 1.322
 0.169 0.302 1.304
 0.174 0.297 1.283
 0.176 0.289 1.247
 0.178 0.279 1.204
 0.176 0.266 1.15
 0.174 0.252 1.088
 0.17 0.239 1.03
 0.167 0.226 0.975
 0.165 0.215 0.926
 0.162 0.205 0.882
 0.16 0.196 0.844
 0.157 0.186 0.8
 0.156 0.179 0.771
 0.154 0.172 0.739
 0.153 0.167 0.715
 0.149 0.158 0.677
 0.146 0.15 0.643
 0.14 0.14 0.598
 0.135 0.132 0.563
 0.129 0.123 0.526
 0.127 0.118 0.505
 0.127 0.115 0.492
 0.128 0.113 0.481
 0.126 0.109 0.463
 0.125 0.105 0.448
 0.124 0.102 0.435
 0.121 0.098 0.415
 0.12 0.095 0.402
 0.119 0.092 0.391
 0.12 0.091 0.384
 0.122 0.091 0.382
 0.123 0.09 0.379
 0.125 0.09 0.377
 0.129 0.09 0.38
 0.13 0.089 0.375
 0.128 0.087 0.364
 0.13 0.086 0.361
 0.132 0.086 0.359
 0.133 0.085 0.355
 0.135 0.085 0.355
 0.138 0.086 0.355
 0.141 0.086 0.357
 0.142 0.086 0.354
 0.145 0.086 0.353
 0.145 0.084 0.348
 0.145 0.083 0.341
 0.145 0.082 0.335
 0.148 0.082 0.336
 0.149 0.082 0.333
 0.154 0.083 0.339
 0.162 0.086 0.351
 0.169 0.089 0.36
 0.175 0.091 0.368
 0.181 0.093 0.373
 0.187 0.095 0.381
 0.192 0.096 0.384
 0.197 0.097 0.388
 0.203 0.099 0.394
 0.213 0.102 0.407
 0.223 0.106 0.42
 0.238 0.112 0.441
 0.253 0.117 0.462
 0.268 0.123 0.483
 0.282 0.128 0.5
 0.294 0.132 0.515
 0.304 0.135 0.524
 0.32 0.14 0.543
 0.333 0.145 0.559
 -0.306 0.143 0.532
 -0.308 0.146 0.543
 -0.312 0.15 0.559
 -0.314 0.153 0.572
 -0.317 0.156 0.585
 -0.319 0.159 0.598
 -0.319 0.161 0.609
 -0.319 0.163 0.619
 -0.318 0.165 0.626
 -0.317 0.166 0.634
 -0.315 0.167 0.64
 -0.312 0.168 0.645
 -0.309 0.169 0.65
 -0.307 0.17 0.655
 -0.303 0.17 0.658
 -0.3 0.171 0.662
 -0.297 0.171 0.665
 -0.295 0.173 0.673
 -0.296 0.176 0.688
 -0.301 0.182 0.711
 -0.308 0.188 0.74
 -0.317 0.197 0.776
 -0.327 0.207 0.816
 -0.337 0.217 0.858
 -0.347 0.227 0.898
 -0.357 0.237 0.942
 -0.366 0.248 0.985
 -0.373 0.257 1.025
 -0.379 0.265 1.059
 -0.38 0.271 1.085
 -0.379 0.275 1.102
 -0.375 0.278 1.115
 -0.37 0.279 1.121
 -0.365 0.28 1.13
 -0.365 0.285 1.151
 -0.365 0.291 1.177
 -0.364 0.296 1.201
 -0.364 0.302 1.226
 -0.361 0.306 1.245
 -0.356 0.308 1.253
 -0.348 0.308 1.256
 -0.342 0.309 1.262
 -0.335 0.31 1.266
 -0.326 0.309 1.265
 -0.317 0.307 1.261
 -0.308 0.306 1.257
 -0.298 0.303 1.248
 -0.288 0.301 1.238
 -0.281 0.301 1.241
 -0.275 0.302 1.247
 -0.268 0.303 1.251
 -0.261 0.303 1.255
 -0.255 0.305 1.262
 -0.247 0.304 1.261
 -0.238 0.303 1.256
 -0.23 0.301 1.251
 -0.222 0.3 1.249
 -0.213 0.299 1.245
 -0.205 0.298 1.243
 -0.198 0.298 1.244
 -0.191 0.298 1.245
 -0.184 0.299 1.249
 -0.177 0.3 1.256
 -0.17 0.301 1.26
 -0.164 0.303 1.27
 -0.158 0.306 1.283
 -0.151 0.308 1.29
 -0.144 0.309 1.298
 -0.138 0.312 1.31
 -0.131 0.314 1.319
 -0.124 0.316 1.328
 -0.117 0.318 1.337
 -0.109 0.319 1.343
 -0.102 0.32 1.348
 -0.094 0.32 1.349
 -0.086 0.32 1.349
 -0.078 0.32 1.349
 -0.07 0.32 1.35
 -0.062 0.32 1.35
 -0.054 0.32 1.352
 -0.047 0.321 1.353
 -0.039 0.321 1.356
 -0.031 0.322 1.36
 -0.023 0.323 1.366
 -0.015 0.325 1.371
 -0.007 0.326 1.379
 0 0.328 1.385
 0.008 0.329 1.39
 0.016 0.329 1.389
 0.024 0.327 1.385
 0.032 0.326 1.379
 0.04 0.325 1.374
 0.048 0.325 1.372
 0.057 0.326 1.377
 0.065 0.328 1.385
 0.074 0.33 1.395
 0.083 0.332 1.405
 0.091 0.334 1.411
 0.1 0.334 1.412
 0.108 0.334 1.41
 0.115 0.332 1.403
 0.123 0.33 1.393
 0.13 0.327 1.38
 0.137 0.324 1.369
 0.144 0.321 1.355
 0.15 0.317 1.339
 0.156 0.313 1.32
 0.161 0.309 1.302
 0.166 0.304 1.28
 0.17 0.298 1.255
 0.173 0.29 1.221
 0.174 0.28 1.177
 0.173 0.267 1.123
 0.17 0.253 1.064
 0.167 0.239 1.006
 0.163 0.226 0.949
 0.16 0.215 0.903
 0.158 0.204 0.857
 0.155 0.195 0.818
 0.154 0.187 0.784
 0.152 0.18 0.753
 0.15 0.172 0.72
 0.15 0.167 0.697
 0.147 0.159 0.663
 0.142 0.15 0.627
 0.137 0.141 0.587
 0.134 0.134 0.556
 0.128 0.125 0.518
 0.125 0.119 0.496
 0.124 0.115 0.478
 0.123 0.112 0.463
 0.121 0.107 0.443
 0.12 0.104 0.429
 0.119 0.101 0.418
 0.117 0.097 0.402
 0.116 0.094 0.388
 0.116 0.092 0.38
 0.118 0.092 0.377
 0.119 0.091 0.372
 0.12 0.09 0.369
 0.124 0.091 0.373
 0.127 0.091 0.374
 0.128 0.091 0.37
 0.128 0.089 0.362
 0.129 0.088 0.359
 0.13 0.087 0.354
 0.131 0.086 0.349
 0.132 0.086 0.347
 0.135 0.086 0.346
 0.138 0.086 0.348
 0.139 0.086 0.345
 0.142 0.086 0.345
 0.142 0.085 0.339
 0.141 0.083 0.332
 0.14 0.081 0.324
 0.142 0.081 0.322
 0.143 0.08 0.319
 0.148 0.082 0.325
 0.156 0.085 0.337
 0.163 0.088 0.347
 0.169 0.09 0.353
 0.174 0.092 0.359
 0.181 0.094 0.367
 0.186 0.095 0.371
 0.191 0.097 0.376
 0.2 0.1 0.387
 0.21 0.103 0.4
 0.22 0.107 0.413
 0.234 0.113 0.432
 0.249 0.119 0.455
 0.263 0.124 0.473
 0.276 0.128 0.488
 0.287 0.132 0.501
 0.296 0.135 0.51
 0.295 0.133 0.5
 0.32 0.143 0.536
 -0.302 0.145 0.523
 -0.307 0.149 0.54
 -0.309 0.152 0.552
 -0.311 0.155 0.565
 -0.313 0.158 0.578
 -0.315 0.161 0.59
 -0.315 0.163 0.6
 -0.315 0.165 0.61
 -0.314 0.166 0.617
 -0.313 0.168 0.625
 -0.311 0.169 0.631
 -0.309 0.17 0.636
 -0.306 0.171 0.641
 -0.303 0.172 0.646
 -0.3 0.172 0.649
 -0.296 0.173 0.652
 -0.293 0.173 0.656
 -0.291 0.174 0.663
 -0.292 0.178 0.677
 -0.297 0.183 0.7
 -0.303 0.19 0.728
 -0.312 0.199 0.764
 -0.323 0.209 0.804
 -0.333 0.219 0.845
 -0.342 0.229 0.885
 -0.352 0.24 0.928
 -0.361 0.25 0.971
 -0.369 0.26 1.011
 -0.374 0.269 1.046
 -0.376 0.275 1.071
 -0.373 0.277 1.084
 -0.368 0.279 1.092
 -0.362 0.279 1.095
 -0.357 0.281 1.102
 -0.356 0.285 1.123
 -0.358 0.292 1.153
 -0.359 0.299 1.181
 -0.359 0.306 1.21
 -0.357 0.31 1.23
 -0.352 0.312 1.239
 -0.345 0.313 1.244
 -0.339 0.314 1.249
 -0.332 0.314 1.254
 -0.323 0.313 1.251
 -0.314 0.312 1.247
 -0.305 0.31 1.241
 -0.294 0.306 1.228
 -0.284 0.303 1.216
 -0.277 0.304 1.221
 -0.271 0.305 1.228
 -0.264 0.306 1.233
 -0.259 0.308 1.242
 -0.253 0.31 1.252
 -0.245 0.309 1.249
 -0.236 0.307 1.242
 -0.227 0.306 1.238
 -0.219 0.304 1.234
 -0.211 0.303 1.228
 -0.203 0.302 1.226
 -0.196 0.302 1.228
 -0.188 0.302 1.229
 -0.181 0.302 1.232
 -0.175 0.304 1.24
 -0.168 0.305 1.245
 -0.162 0.307 1.253
 -0.156 0.31 1.265
 -0.149 0.311 1.273
 -0.143 0.313 1.282
 -0.136 0.316 1.294
 -0.129 0.318 1.303
 -0.123 0.32 1.311
 -0.116 0.323 1.323
 -0.108 0.323 1.327
 -0.101 0.325 1.333
 -0.093 0.326 1.337
 -0.085 0.326 1.337
 -0.078 0.326 1.339
 -0.07 0.327 1.342
 -0.062 0.326 1.342
 -0.054 0.327 1.344
 -0.046 0.327 1.347
 -0.039 0.328 1.35
 -0.031 0.329 1.354
 -0.023 0.33 1.36
 -0.015 0.331 1.365
 -0.007 0.332 1.37
 0 0.334 1.374
 0.008 0.334 1.378
 0.016 0.334 1.375
 0.024 0.333 1.372
 0.032 0.332 1.368
 0.04 0.33 1.362
 0.048 0.33 1.36
 0.056 0.331 1.365
 0.065 0.333 1.371
 0.073 0.335 1.379
 0.082 0.337 1.39
 0.09 0.339 1.397
 0.099 0.339 1.398
 0.107 0.339 1.394
 0.114 0.337 1.386
 0.122 0.335 1.377
 0.128 0.331 1.363
 0.135 0.328 1.35
 0.142 0.325 1.336
 0.148 0.321 1.321
 0.154 0.317 1.303
 0.159 0.312 1.28
 0.163 0.306 1.255
 0.166 0.298 1.224
 0.168 0.29 1.188
 0.168 0.277 1.136
 0.167 0.264 1.084
 0.164 0.251 1.028
 0.161 0.237 0.972
 0.158 0.224 0.917
 0.156 0.214 0.874
 0.153 0.203 0.83
 0.15 0.193 0.787
 0.149 0.185 0.756
 0.147 0.178 0.726
 0.145 0.17 0.694
 0.144 0.164 0.668
 0.141 0.157 0.638
 0.137 0.148 0.601
 0.132 0.139 0.563
 0.129 0.132 0.535
 0.123 0.123 0.5
 0.121 0.118 0.478
 0.119 0.114 0.459
 0.119 0.11 0.446
 0.117 0.106 0.428
 0.117 0.103 0.417
 0.117 0.101 0.407
 0.116 0.098 0.396
 0.114 0.094 0.379
 0.113 0.092 0.37
 0.114 0.091 0.366
 0.114 0.089 0.356
 0.116 0.089 0.354
 0.119 0.09 0.359
 0.122 0.09 0.358
 0.123 0.089 0.354
 0.125 0.089 0.352
 0.125 0.088 0.347
 0.127 0.087 0.344
 0.129 0.087 0.343
 0.131 0.087 0.343
 0.133 0.087 0.342
 0.136 0.087 0.343
 0.137 0.087 0.339
 0.14 0.087 0.34
 0.14 0.086 0.334
 0.139 0.084 0.325
 0.137 0.082 0.317
 0.138 0.081 0.312
 0.137 0.079 0.306
 0.14 0.079 0.306
 0.148 0.083 0.318
 0.155 0.086 0.329
 0.161 0.088 0.336
 0.167 0.09 0.344
 0.175 0.093 0.353
 0.181 0.095 0.361
 0.187 0.097 0.368
 0.196 0.101 0.379
 0.206 0.104 0.392
 0.218 0.109 0.408
 0.23 0.114 0.425
 0.246 0.12 0.447
 0.259 0.125 0.466
 0.272 0.13 0.48
 0.283 0.133 0.492
 0.29 0.135 0.499
 0.291 0.134 0.493
 0.299 0.136 0.498
 -0.304 0.15 0.526
 -0.304 0.151 0.535
 -0.307 0.154 0.547
 -0.308 0.157 0.559
 -0.31 0.16 0.571
 -0.312 0.163 0.583
 -0.312 0.165 0.593
 -0.312 0.167 0.602
 -0.311 0.169 0.609
 -0.31 0.171 0.618
 -0.308 0.172 0.624
 -0.305 0.173 0.629
 -0.303 0.173 0.633
 -0.3 0.174 0.638
 -0.296 0.174 0.64
 -0.293 0.175 0.644
 -0.29 0.176 0.649
 -0.288 0.177 0.655
 -0.288 0.18 0.667
 -0.293 0.185 0.689
 -0.298 0.192 0.715
 -0.306 0.2 0.747
 -0.316 0.21 0.786
 -0.326 0.22 0.827
 -0.335 0.23 0.867
 -0.346 0.241 0.91
 -0.355 0.252 0.954
 -0.363 0.262 0.994
 -0.369 0.271 1.03
 -0.371 0.278 1.056
 -0.369 0.281 1.07
 -0.364 0.282 1.077
 -0.358 0.282 1.08
 -0.353 0.284 1.088
 -0.351 0.288 1.107
 -0.353 0.295 1.136
 -0.354 0.302 1.165
 -0.355 0.309 1.193
 -0.353 0.314 1.213
 -0.349 0.317 1.226
 -0.342 0.317 1.23
 -0.335 0.318 1.236
 -0.329 0.319 1.24
 -0.32 0.317 1.236
 -0.31 0.315 1.227
 -0.3 0.312 1.218
 -0.288 0.308 1.203
 -0.278 0.304 1.19
 -0.272 0.306 1.198
 -0.267 0.308 1.208
 -0.261 0.31 1.217
 -0.256 0.312 1.228
 -0.251 0.315 1.239
 -0.242 0.313 1.233
 -0.233 0.311 1.227
 -0.225 0.309 1.222
 -0.216 0.308 1.217
 -0.208 0.306 1.213
 -0.2 0.305 1.21
 -0.193 0.306 1.212
 -0.186 0.305 1.212
 -0.179 0.306 1.214
 -0.173 0.307 1.22
 -0.166 0.308 1.225
 -0.16 0.31 1.233
 -0.154 0.312 1.244
 -0.147 0.314 1.253
 -0.141 0.317 1.263
 -0.135 0.32 1.276
 -0.128 0.322 1.284
 -0.121 0.324 1.295
 -0.115 0.327 1.308
 -0.107 0.328 1.312
 -0.1 0.329 1.317
 -0.092 0.331 1.324
 -0.085 0.33 1.323
 -0.077 0.33 1.323
 -0.069 0.33 1.324
 -0.061 0.33 1.324
 -0.053 0.33 1.324
 -0.046 0.332 1.331
 -0.038 0.333 1.336
 -0.03 0.334 1.341
 -0.023 0.336 1.348
 -0.015 0.337 1.354
 -0.007 0.338 1.356
 0 0.338 1.359
 0.008 0.339 1.361
 0.016 0.338 1.359
 0.024 0.337 1.355
 0.032 0.337 1.353
 0.04 0.335 1.347
 0.048 0.336 1.349
 0.056 0.337 1.354
 0.064 0.338 1.36
 0.072 0.34 1.367
 0.081 0.343 1.378
 0.09 0.344 1.382
 0.098 0.344 1.382
 0.105 0.343 1.377
 0.113 0.341 1.369
 0.12 0.339 1.36
 0.127 0.335 1.345
 0.134 0.332 1.332
 0.14 0.329 1.318
 0.146 0.325 1.302
 0.151 0.319 1.279
 0.156 0.313 1.254
 0.159 0.306 1.223
 0.162 0.297 1.188
 0.164 0.288 1.151
 0.162 0.274 1.097
 0.161 0.262 1.048
 0.159 0.249 0.996
 0.157 0.236 0.942
 0.153 0.222 0.887
 0.151 0.212 0.845
 0.148 0.201 0.8
 0.144 0.189 0.754
 0.142 0.181 0.722
 0.14 0.173 0.689
 0.138 0.166 0.66
 0.137 0.16 0.634
 0.135 0.154 0.61
 0.132 0.146 0.579
 0.128 0.138 0.545
 0.125 0.131 0.519
 0.121 0.124 0.489
 0.118 0.118 0.465
 0.115 0.112 0.444
 0.115 0.11 0.432
 0.114 0.106 0.416
 0.113 0.103 0.405
 0.114 0.101 0.398
 0.113 0.099 0.387
 0.111 0.095 0.372
 0.111 0.093 0.363
 0.112 0.092 0.357
 0.111 0.089 0.347
 0.113 0.089 0.346
 0.117 0.09 0.349
 0.118 0.089 0.346
 0.119 0.089 0.343
 0.121 0.089 0.343
 0.123 0.088 0.34
 0.124 0.087 0.336
 0.127 0.088 0.338
 0.13 0.088 0.339
 0.132 0.088 0.338
 0.134 0.088 0.337
 0.136 0.088 0.336
 0.137 0.088 0.334
 0.137 0.086 0.327
 0.135 0.083 0.316
 0.133 0.081 0.307
 0.133 0.08 0.301
 0.132 0.078 0.294
 0.135 0.079 0.295
 0.143 0.082 0.307
 0.15 0.085 0.317
 0.155 0.087 0.323
 0.162 0.089 0.332
 0.168 0.092 0.34
 0.176 0.094 0.349
 0.183 0.097 0.358
 0.192 0.101 0.37
 0.202 0.105 0.384
 0.214 0.109 0.4
 0.225 0.114 0.415
 0.24 0.12 0.436
 0.254 0.126 0.455
 0.265 0.13 0.468
 0.275 0.133 0.479
 0.283 0.135 0.485
 0.291 0.138 0.492
 0.29 0.136 0.483
 -0.302 0.152 0.522
 -0.302 0.154 0.53
 -0.303 0.156 0.54
 -0.305 0.159 0.552
 -0.307 0.162 0.564
 -0.308 0.165 0.575
 -0.308 0.167 0.584
 -0.307 0.169 0.592
 -0.307 0.17 0.6
 -0.306 0.172 0.609
 -0.305 0.174 0.616
 -0.302 0.175 0.621
 -0.299 0.176 0.626
 -0.297 0.176 0.63
 -0.292 0.176 0.631
 -0.289 0.177 0.635
 -0.287 0.178 0.64
 -0.285 0.179 0.647
 -0.286 0.182 0.659
 -0.289 0.187 0.68
 -0.294 0.194 0.704
 -0.301 0.201 0.735
 -0.31 0.211 0.771
 -0.32 0.221 0.809
 -0.329 0.231 0.847
 -0.339 0.242 0.891
 -0.349 0.253 0.935
 -0.357 0.264 0.974
 -0.363 0.273 1.013
 -0.366 0.28 1.04
 -0.364 0.284 1.056
 -0.361 0.287 1.068
 -0.357 0.289 1.077
 -0.352 0.29 1.084
 -0.35 0.294 1.102
 -0.351 0.301 1.128
 -0.351 0.307 1.153
 -0.35 0.312 1.175
 -0.348 0.317 1.195
 -0.344 0.32 1.207
 -0.338 0.321 1.214
 -0.332 0.322 1.22
 -0.325 0.323 1.225
 -0.316 0.322 1.221
 -0.306 0.319 1.213
 -0.297 0.316 1.204
 -0.286 0.312 1.19
 -0.275 0.308 1.176
 -0.269 0.309 1.183
 -0.264 0.311 1.192
 -0.258 0.313 1.199
 -0.252 0.315 1.209
 -0.247 0.318 1.22
 -0.238 0.316 1.214
 -0.23 0.314 1.208
 -0.221 0.312 1.202
 -0.213 0.31 1.195
 -0.205 0.308 1.191
 -0.197 0.308 1.189
 -0.19 0.308 1.19
 -0.183 0.307 1.19
 -0.176 0.308 1.193
 -0.17 0.309 1.2
 -0.164 0.311 1.206
 -0.157 0.312 1.213
 -0.151 0.315 1.225
 -0.145 0.317 1.235
 -0.139 0.32 1.245
 -0.133 0.322 1.256
 -0.126 0.324 1.263
 -0.119 0.327 1.275
 -0.113 0.33 1.289
 -0.106 0.331 1.293
 -0.099 0.333 1.3
 -0.091 0.334 1.306
 -0.083 0.333 1.301
 -0.075 0.332 1.298
 -0.068 0.332 1.3
 -0.06 0.332 1.299
 -0.052 0.332 1.299
 -0.045 0.334 1.308
 -0.038 0.336 1.315
 -0.03 0.337 1.321
 -0.022 0.339 1.329
 -0.015 0.341 1.337
 -0.007 0.341 1.338
 0 0.342 1.341
 0.008 0.342 1.343
 0.016 0.342 1.342
 0.024 0.341 1.338
 0.032 0.341 1.336
 0.039 0.339 1.33
 0.047 0.34 1.332
 0.055 0.341 1.336
 0.063 0.343 1.344
 0.072 0.345 1.352
 0.08 0.347 1.362
 0.089 0.348 1.365
 0.096 0.348 1.363
 0.104 0.346 1.356
 0.111 0.343 1.344
 0.118 0.341 1.335
 0.125 0.337 1.32
 0.131 0.334 1.307
 0.138 0.331 1.294
 0.143 0.326 1.274
 0.148 0.319 1.249
 0.151 0.312 1.219
 0.154 0.303 1.183
 0.155 0.292 1.14
 0.157 0.283 1.104
 0.155 0.269 1.048
 0.154 0.257 1
 0.153 0.245 0.953
 0.15 0.232 0.902
 0.146 0.218 0.847
 0.144 0.208 0.809
 0.141 0.197 0.765
 0.137 0.185 0.718
 0.135 0.177 0.686
 0.132 0.168 0.651
 0.13 0.161 0.622
 0.129 0.154 0.596
 0.128 0.149 0.577
 0.126 0.143 0.552
 0.123 0.136 0.524
 0.12 0.129 0.496
 0.117 0.122 0.471
 0.113 0.115 0.444
 0.11 0.11 0.422
 0.11 0.107 0.412
 0.11 0.104 0.401
 0.11 0.102 0.392
 0.111 0.101 0.387
 0.111 0.099 0.379
 0.11 0.096 0.365
 0.11 0.094 0.359
 0.111 0.093 0.353
 0.11 0.09 0.343
 0.112 0.09 0.341
 0.115 0.091 0.344
 0.115 0.089 0.338
 0.116 0.089 0.334
 0.118 0.088 0.333
 0.12 0.088 0.33
 0.12 0.086 0.324
 0.123 0.087 0.326
 0.126 0.088 0.329
 0.128 0.088 0.329
 0.131 0.088 0.329
 0.133 0.088 0.329
 0.135 0.088 0.328
 0.135 0.087 0.321
 0.134 0.085 0.313
 0.133 0.083 0.306
 0.133 0.081 0.3
 0.131 0.079 0.291
 0.133 0.079 0.29
 0.138 0.081 0.296
 0.143 0.083 0.302
 0.147 0.084 0.305
 0.154 0.087 0.314
 0.16 0.089 0.323
 0.169 0.093 0.334
 0.177 0.096 0.346
 0.187 0.101 0.36
 0.197 0.105 0.374
 0.21 0.11 0.392
 0.222 0.115 0.408
 0.235 0.12 0.426
 0.249 0.126 0.445
 0.26 0.13 0.458
 0.269 0.133 0.466
 0.276 0.135 0.472
 0.286 0.138 0.482
 0.278 0.133 0.462
 -0.301 0.155 0.519
 -0.298 0.155 0.522
 -0.3 0.158 0.534
 -0.302 0.161 0.546
 -0.303 0.164 0.556
 -0.304 0.166 0.566
 -0.304 0.168 0.575
 -0.303 0.17 0.584
 -0.302 0.172 0.591
 -0.302 0.174 0.601
 -0.301 0.176 0.607
 -0.299 0.177 0.613
 -0.296 0.177 0.616
 -0.293 0.178 0.621
 -0.289 0.178 0.622
 -0.286 0.178 0.625
 -0.283 0.179 0.63
 -0.282 0.181 0.64
 -0.282 0.184 0.651
 -0.285 0.189 0.67
 -0.29 0.195 0.694
 -0.297 0.203 0.722
 -0.305 0.212 0.756
 -0.314 0.222 0.793
 -0.323 0.232 0.831
 -0.333 0.243 0.873
 -0.343 0.255 0.916
 -0.35 0.265 0.955
 -0.357 0.275 0.993
 -0.361 0.282 1.023
 -0.36 0.287 1.042
 -0.358 0.291 1.056
 -0.355 0.293 1.068
 -0.351 0.296 1.079
 -0.348 0.299 1.094
 -0.348 0.305 1.116
 -0.347 0.31 1.138
 -0.345 0.315 1.157
 -0.343 0.319 1.175
 -0.339 0.322 1.188
 -0.333 0.324 1.196
 -0.327 0.325 1.201
 -0.321 0.326 1.208
 -0.312 0.325 1.204
 -0.303 0.323 1.198
 -0.294 0.321 1.192
 -0.285 0.318 1.183
 -0.274 0.314 1.171
 -0.268 0.315 1.175
 -0.262 0.316 1.181
 -0.255 0.317 1.185
 -0.249 0.318 1.19
 -0.243 0.319 1.197
 -0.235 0.318 1.193
 -0.226 0.316 1.187
 -0.218 0.314 1.18
 -0.209 0.312 1.174
 -0.202 0.311 1.171
 -0.194 0.31 1.168
 -0.187 0.31 1.171
 -0.181 0.31 1.173
 -0.174 0.311 1.176
 -0.167 0.312 1.181
 -0.161 0.313 1.187
 -0.155 0.315 1.193
 -0.149 0.317 1.205
 -0.143 0.32 1.213
 -0.137 0.323 1.225
 -0.131 0.326 1.238
 -0.124 0.327 1.245
 -0.118 0.33 1.257
 -0.112 0.334 1.271
 -0.104 0.335 1.275
 -0.097 0.336 1.281
 -0.09 0.337 1.286
 -0.082 0.335 1.277
 -0.074 0.333 1.272
 -0.067 0.334 1.274
 -0.059 0.333 1.272
 -0.051 0.333 1.273
 -0.044 0.336 1.285
 -0.037 0.339 1.294
 -0.029 0.34 1.3
 -0.022 0.342 1.31
 -0.014 0.345 1.319
 -0.007 0.345 1.319
 0 0.346 1.322
 0.008 0.346 1.323
 0.016 0.345 1.32
 0.023 0.343 1.313
 0.031 0.343 1.312
 0.039 0.341 1.305
 0.046 0.341 1.306
 0.054 0.342 1.311
 0.062 0.345 1.32
 0.071 0.347 1.329
 0.079 0.35 1.339
 0.087 0.35 1.337
 0.094 0.347 1.326
 0.101 0.343 1.311
 0.107 0.338 1.292
 0.114 0.335 1.282
 0.12 0.333 1.272
 0.127 0.332 1.267
 0.134 0.33 1.262
 0.14 0.327 1.247
 0.144 0.319 1.218
 0.148 0.312 1.188
 0.15 0.301 1.147
 0.15 0.289 1.101
 0.151 0.278 1.061
 0.15 0.265 1.009
 0.148 0.251 0.957
 0.146 0.24 0.912
 0.144 0.227 0.862
 0.14 0.214 0.813
 0.138 0.203 0.772
 0.135 0.193 0.732
 0.131 0.181 0.686
 0.129 0.172 0.653
 0.126 0.163 0.617
 0.123 0.155 0.587
 0.121 0.148 0.558
 0.121 0.144 0.542
 0.119 0.138 0.52
 0.117 0.132 0.496
 0.113 0.125 0.47
 0.11 0.118 0.445
 0.106 0.111 0.418
 0.104 0.106 0.4
 0.104 0.104 0.39
 0.105 0.102 0.383
 0.106 0.101 0.378
 0.108 0.101 0.375
 0.108 0.099 0.368
 0.107 0.095 0.356
 0.107 0.093 0.348
 0.107 0.092 0.341
 0.106 0.089 0.331
 0.108 0.089 0.329
 0.111 0.09 0.332
 0.113 0.089 0.33
 0.115 0.09 0.33
 0.117 0.089 0.329
 0.118 0.088 0.325
 0.118 0.087 0.319
 0.121 0.088 0.322
 0.125 0.089 0.325
 0.128 0.09 0.326
 0.13 0.09 0.327
 0.132 0.089 0.324
 0.132 0.088 0.32
 0.131 0.086 0.311
 0.13 0.084 0.302
 0.129 0.082 0.295
 0.129 0.081 0.289
 0.127 0.079 0.282
 0.129 0.079 0.281
 0.132 0.08 0.283
 0.137 0.081 0.289
 0.142 0.083 0.294
 0.148 0.085 0.302
 0.154 0.088 0.31
 0.164 0.092 0.323
 0.173 0.096 0.336
 0.182 0.1 0.35
 0.193 0.105 0.364
 0.205 0.11 0.381
 0.216 0.114 0.396
 0.228 0.12 0.413
 0.241 0.125 0.429
 0.252 0.129 0.443
 0.262 0.133 0.453
 0.268 0.134 0.458
 0.281 0.139 0.473
 0.289 0.141 0.478
 -0.287 0.151 0.494
 -0.293 0.156 0.511
 -0.297 0.16 0.527
 -0.298 0.163 0.538
 -0.299 0.165 0.548
 -0.3 0.168 0.558
 -0.3 0.17 0.567
 -0.3 0.172 0.577
 -0.299 0.174 0.584
 -0.299 0.176 0.593
 -0.298 0.178 0.6
 -0.295 0.179 0.605
 -0.292 0.179 0.608
 -0.289 0.179 0.611
 -0.285 0.18 0.613
 -0.282 0.18 0.617
 -0.28 0.181 0.622
 -0.279 0.183 0.631
 -0.279 0.186 0.643
 -0.281 0.191 0.659
 -0.286 0.197 0.682
 -0.292 0.204 0.709
 -0.299 0.213 0.741
 -0.308 0.222 0.776
 -0.317 0.233 0.814
 -0.326 0.244 0.855
 -0.336 0.255 0.898
 -0.344 0.266 0.936
 -0.351 0.276 0.974
 -0.355 0.285 1.007
 -0.356 0.29 1.028
 -0.354 0.294 1.045
 -0.353 0.298 1.061
 -0.35 0.302 1.075
 -0.346 0.304 1.086
 -0.345 0.309 1.106
 -0.343 0.314 1.124
 -0.34 0.317 1.139
 -0.337 0.321 1.152
 -0.333 0.324 1.167
 -0.328 0.326 1.175
 -0.322 0.327 1.181
 -0.316 0.329 1.188
 -0.308 0.328 1.186
 -0.299 0.326 1.181
 -0.291 0.324 1.176
 -0.281 0.321 1.169
 -0.272 0.319 1.16
 -0.265 0.318 1.16
 -0.258 0.318 1.162
 -0.251 0.318 1.163
 -0.244 0.318 1.165
 -0.237 0.319 1.167
 -0.229 0.317 1.163
 -0.221 0.316 1.159
 -0.214 0.315 1.157
 -0.206 0.314 1.154
 -0.199 0.313 1.154
 -0.192 0.313 1.154
 -0.185 0.314 1.158
 -0.179 0.314 1.159
 -0.172 0.314 1.16
 -0.165 0.315 1.164
 -0.159 0.317 1.172
 -0.153 0.318 1.177
 -0.147 0.32 1.187
 -0.141 0.324 1.2
 -0.136 0.327 1.213
 -0.129 0.33 1.224
 -0.123 0.332 1.232
 -0.117 0.335 1.244
 -0.11 0.337 1.253
 -0.103 0.337 1.256
 -0.096 0.338 1.26
 -0.088 0.339 1.261
 -0.08 0.335 1.249
 -0.072 0.334 1.244
 -0.065 0.334 1.245
 -0.058 0.333 1.243
 -0.05 0.333 1.244
 -0.043 0.337 1.259
 -0.036 0.34 1.269
 -0.029 0.341 1.273
 -0.021 0.342 1.279
 -0.014 0.343 1.283
 -0.006 0.343 1.283
 0 0.344 1.286
 0.008 0.345 1.288
 0.015 0.345 1.288
 0.023 0.344 1.288
 0.031 0.344 1.287
 0.038 0.343 1.281
 0.045 0.343 1.282
 0.053 0.344 1.284
 0.061 0.345 1.291
 0.069 0.347 1.296
 0.077 0.348 1.3
 0.084 0.345 1.29
 0.091 0.342 1.279
 0.097 0.338 1.264
 0.103 0.333 1.245
 0.109 0.33 1.233
 0.117 0.33 1.233
 0.124 0.33 1.23
 0.131 0.329 1.226
 0.137 0.326 1.214
 0.141 0.319 1.188
 0.144 0.31 1.155
 0.145 0.299 1.113
 0.145 0.285 1.062
 0.145 0.274 1.019
 0.144 0.261 0.969
 0.142 0.247 0.917
 0.14 0.235 0.872
 0.137 0.222 0.824
 0.135 0.21 0.778
 0.132 0.199 0.736
 0.129 0.188 0.697
 0.125 0.176 0.651
 0.122 0.167 0.616
 0.118 0.157 0.58
 0.116 0.149 0.552
 0.114 0.142 0.524
 0.114 0.139 0.511
 0.113 0.134 0.492
 0.11 0.127 0.466
 0.107 0.12 0.44
 0.103 0.113 0.415
 0.099 0.106 0.387
 0.097 0.101 0.37
 0.098 0.1 0.365
 0.1 0.1 0.364
 0.102 0.099 0.361
 0.104 0.099 0.362
 0.105 0.098 0.357
 0.105 0.096 0.348
 0.105 0.094 0.34
 0.105 0.092 0.335
 0.105 0.09 0.326
 0.107 0.09 0.324
 0.109 0.09 0.325
 0.111 0.09 0.323
 0.112 0.089 0.32
 0.114 0.089 0.32
 0.115 0.088 0.315
 0.116 0.087 0.312
 0.119 0.088 0.315
 0.122 0.089 0.318
 0.125 0.09 0.32
 0.127 0.09 0.318
 0.128 0.089 0.314
 0.127 0.087 0.308
 0.127 0.085 0.3
 0.125 0.082 0.29
 0.125 0.081 0.285
 0.125 0.08 0.281
 0.124 0.079 0.275
 0.126 0.079 0.274
 0.129 0.079 0.276
 0.134 0.081 0.282
 0.139 0.083 0.287
 0.145 0.085 0.294
 0.152 0.089 0.305
 0.162 0.093 0.319
 0.171 0.097 0.333
 0.18 0.101 0.344
 0.189 0.105 0.357
 0.199 0.109 0.371
 0.209 0.114 0.384
 0.22 0.118 0.397
 0.232 0.123 0.414
 0.245 0.128 0.429
 0.254 0.131 0.438
 0.26 0.133 0.443
 0.266 0.135 0.446
 0.276 0.138 0.455
 -0.289 0.156 0.497
 -0.294 0.16 0.512
 -0.294 0.162 0.52
 -0.295 0.165 0.531
 -0.296 0.167 0.541
 -0.297 0.17 0.551
 -0.297 0.172 0.56
 -0.297 0.174 0.569
 -0.296 0.176 0.576
 -0.296 0.178 0.585
 -0.294 0.179 0.591
 -0.292 0.18 0.596
 -0.288 0.181 0.599
 -0.285 0.181 0.602
 -0.281 0.181 0.603
 -0.278 0.182 0.608
 -0.276 0.183 0.612
 -0.275 0.185 0.621
 -0.275 0.188 0.632
 -0.277 0.192 0.647
 -0.28 0.197 0.667
 -0.286 0.204 0.693
 -0.292 0.212 0.722
 -0.301 0.222 0.756
 -0.31 0.233 0.795
 -0.319 0.244 0.834
 -0.329 0.255 0.876
 -0.337 0.266 0.915
 -0.343 0.276 0.952
 -0.349 0.285 0.985
 -0.351 0.292 1.012
 -0.351 0.298 1.035
 -0.351 0.303 1.054
 -0.349 0.308 1.071
 -0.345 0.31 1.081
