 1.457 -1.52 4.205
 1.471 -1.521 4.203
 1.489 -1.526 4.213
 1.503 -1.527 4.209
 1.519 -1.53 4.213
 1.534 -1.532 4.215
 1.548 -1.532 4.211
 1.56 -1.532 4.205
 1.575 -1.533 4.204
 1.587 -1.532 4.197
 1.601 -1.533 4.194
 1.615 -1.534 4.193
 1.63 -1.535 4.191
 1.644 -1.536 4.19
 1.659 -1.537 4.189
 1.672 -1.538 4.184
 1.688 -1.54 4.185
 1.702 -1.541 4.183
 1.716 -1.542 4.181
 1.73 -1.542 4.177
 1.744 -1.543 4.173
 1.757 -1.542 4.167
 1.77 -1.542 4.162
 1.783 -1.542 4.157
 1.799 -1.544 4.157
 1.814 -1.546 4.155
 1.828 -1.546 4.152
 1.838 -1.544 4.139
 1.848 -1.541 4.126
 1.856 -1.537 4.11
 1.863 -1.531 4.089
 1.862 -1.52 4.054
 1.865 -1.512 4.027
 1.872 -1.508 4.009
 1.877 -1.501 3.986
 1.881 -1.494 3.961
 1.893 -1.493 3.955
 1.903 -1.491 3.942
 1.91 -1.487 3.925
 1.916 -1.482 3.906
 0 0 0
 0 0 0
 0 0 0
 0 0 0
 0 0 0
 0 0 0
 0 0 0
 0 0 0
 0 0 0
 0 0 0
 0 0 0
 0 0 0
 0 0 0
 0 0 0
 0 0 0
 0 0 0
 0 0 0
 0 0 0
 0 0 0
 1.808 -1.235 3.15
 1.831 -1.244 3.167
 1.838 -1.241 3.153
 1.84 -1.235 3.134
 1.85 -1.234 3.127
 1.849 -1.227 3.102
 1.844 -1.217 3.071
 1.817 -1.192 3.002
 1.828 -1.193 2.998
 0 0 0
 -2.446 -1.608 4.195
 -2.431 -1.607 4.2
 -2.417 -1.607 4.208
 -2.393 -1.601 4.198
 -2.369 -1.595 4.188
 -2.35 -1.591 4.185
 -2.338 -1.593 4.196
 -2.327 -1.594 4.208
 -2.315 -1.596 4.22
 -2.313 -1.605 4.249
 -2.299 -1.605 4.255
 -2.28 -1.602 4.253
 -2.267 -1.602 4.262
 -2.252 -1.602 4.267
 -2.23 -1.597 4.259
 -2.216 -1.597 4.265
 -2.203 -1.597 4.273
 -2.186 -1.595 4.274
 -2.171 -1.595 4.278
 -2.155 -1.594 4.281
 -2.137 -1.591 4.28
 -2.121 -1.589 4.282
 -2.107 -1.589 4.288
 -2.09 -1.587 4.288
 -2.073 -1.585 4.288
 -2.058 -1.584 4.291
 -2.042 -1.583 4.293
 -2.024 -1.579 4.29
 -2.006 -1.577 4.288
 -1.991 -1.576 4.291
 -1.976 -1.575 4.294
 -1.955 -1.57 4.286
 -1.938 -1.567 4.283
 -1.924 -1.567 4.288
 -1.91 -1.567 4.293
 -1.895 -1.566 4.296
 -1.883 -1.567 4.305
 -1.868 -1.567 4.308
 -1.852 -1.565 4.309
 -1.837 -1.564 4.311
 -1.822 -1.563 4.314
 -1.807 -1.562 4.315
 -1.791 -1.56 4.316
 -1.779 -1.561 4.324
 -1.763 -1.56 4.325
 -1.745 -1.556 4.319
 -1.731 -1.556 4.323
 -1.716 -1.555 4.325
 -1.697 -1.551 4.316
 -1.679 -1.546 4.309
 -1.666 -1.547 4.314
 -1.65 -1.545 4.315
 -1.635 -1.544 4.314
 -1.621 -1.543 4.318
 -1.609 -1.545 4.327
 -1.592 -1.542 4.323
 -1.574 -1.538 4.314
 -1.559 -1.536 4.314
 -1.544 -1.535 4.316
 -1.526 -1.53 4.307
 -1.511 -1.529 4.307
 -1.496 -1.528 4.307
 -1.481 -1.526 4.307
 -1.465 -1.524 4.303
 -1.452 -1.524 4.309
 -1.437 -1.523 4.308
 -1.424 -1.523 4.313
 -1.409 -1.521 4.311
 -1.393 -1.518 4.306
 -1.377 -1.516 4.302
 -1.363 -1.515 4.305
 -1.35 -1.515 4.307
 -1.336 -1.514 4.309
 -1.321 -1.513 4.309
 -1.307 -1.512 4.309
 -1.292 -1.511 4.309
 -1.277 -1.508 4.304
 -1.261 -1.506 4.3
 -1.249 -1.507 4.308
 -1.236 -1.507 4.311
 -1.221 -1.506 4.31
 -1.207 -1.504 4.309
 -1.192 -1.503 4.307
 -1.176 -1.498 4.297
 -1.16 -1.495 4.291
 -1.146 -1.494 4.291
 -1.132 -1.493 4.292
 -1.119 -1.494 4.295
 -1.106 -1.493 4.297
 -1.092 -1.493 4.299
 -1.078 -1.491 4.297
 -1.065 -1.491 4.299
 -1.051 -1.49 4.299
 -1.037 -1.49 4.301
 -1.023 -1.488 4.298
 -1.01 -1.488 4.3
 -0.994 -1.484 4.291
 -0.981 -1.484 4.294
 -0.967 -1.483 4.291
 -0.953 -1.482 4.291
 -0.939 -1.48 4.288
 -0.926 -1.48 4.29
 -0.912 -1.478 4.286
 -0.899 -1.478 4.289
 -0.885 -1.478 4.29
 -0.872 -1.477 4.291
 -0.859 -1.477 4.292
 -0.844 -1.474 4.287
 -0.831 -1.473 4.285
 -0.817 -1.472 4.283
 -0.804 -1.472 4.286
 -0.791 -1.471 4.284
 -0.777 -1.469 4.281
 -0.763 -1.468 4.279
 -0.75 -1.467 4.278
 -0.736 -1.466 4.278
 -0.724 -1.467 4.281
 -0.712 -1.469 4.289
 -0.699 -1.47 4.294
 -0.686 -1.469 4.292
 -0.672 -1.468 4.291
 -0.659 -1.467 4.29
 -0.646 -1.466 4.287
 -0.632 -1.464 4.282
 -0.619 -1.465 4.287
 -0.606 -1.463 4.284
 -0.593 -1.463 4.284
 -0.58 -1.464 4.289
 -0.568 -1.465 4.293
 -0.555 -1.465 4.293
 -0.542 -1.465 4.295
 -0.529 -1.466 4.3
 -0.516 -1.465 4.297
 -0.503 -1.464 4.294
 -0.49 -1.463 4.293
 -0.476 -1.461 4.29
 -0.463 -1.46 4.287
 -0.45 -1.458 4.282
 -0.437 -1.458 4.283
 -0.423 -1.456 4.278
 -0.411 -1.457 4.282
 -0.398 -1.456 4.279
 -0.385 -1.456 4.279
 -0.372 -1.454 4.274
 -0.359 -1.456 4.282
 -0.346 -1.454 4.275
 -0.333 -1.453 4.275
 -0.32 -1.453 4.274
 -0.308 -1.454 4.279
 -0.294 -1.452 4.272
 -0.282 -1.453 4.276
 -0.269 -1.453 4.276
 -0.256 -1.452 4.275
 -0.243 -1.452 4.274
 -0.231 -1.453 4.279
 -0.218 -1.452 4.275
 -0.205 -1.451 4.273
 -0.192 -1.451 4.273
 -0.179 -1.45 4.271
 -0.167 -1.449 4.266
 -0.154 -1.451 4.272
 -0.141 -1.45 4.271
 -0.129 -1.451 4.273
 -0.116 -1.449 4.269
 -0.103 -1.449 4.267
 -0.09 -1.448 4.264
 -0.078 -1.449 4.268
 -0.065 -1.447 4.262
 -0.052 -1.447 4.263
 -0.039 -1.449 4.267
 -0.027 -1.45 4.271
 -0.014 -1.449 4.269
 -0.001 -1.45 4.272
 0.01 -1.451 4.273
 0.023 -1.45 4.27
 0.036 -1.449 4.268
 0.049 -1.449 4.266
 0.061 -1.448 4.265
 0.074 -1.449 4.265
 0.087 -1.448 4.264
 0.099 -1.449 4.265
 0.112 -1.45 4.268
 0.125 -1.452 4.273
 0.138 -1.453 4.275
 0.15 -1.451 4.27
 0.163 -1.452 4.271
 0.176 -1.45 4.266
 0.188 -1.448 4.259
 0.201 -1.447 4.255
 0.214 -1.449 4.261
 0.226 -1.449 4.259
 0.239 -1.451 4.265
 0.252 -1.451 4.264
 0.265 -1.452 4.267
 0.277 -1.452 4.264
 0.29 -1.449 4.257
 0.302 -1.446 4.246
 0.314 -1.446 4.245
 0.327 -1.445 4.242
 0.34 -1.446 4.242
 0.353 -1.45 4.253
 0.366 -1.451 4.256
 0.38 -1.454 4.262
 0.392 -1.454 4.261
 0.405 -1.455 4.264
 0.418 -1.453 4.258
 0.43 -1.454 4.258
 0.443 -1.454 4.257
 0.457 -1.456 4.261
 0.469 -1.455 4.259
 0.482 -1.456 4.259
 0.494 -1.455 4.255
 0.507 -1.456 4.256
 0.52 -1.455 4.252
 0.532 -1.454 4.246
 0.545 -1.454 4.245
 0.558 -1.455 4.247
 0.57 -1.454 4.244
 0.584 -1.456 4.248
 0.597 -1.456 4.247
 0.61 -1.458 4.249
 0.623 -1.458 4.247
 0.636 -1.458 4.246
 0.647 -1.456 4.238
 0.661 -1.458 4.244
 0.673 -1.457 4.237
 0.687 -1.458 4.24
 0.7 -1.46 4.241
 0.713 -1.46 4.242
 0.727 -1.462 4.246
 0.74 -1.463 4.245
 0.753 -1.464 4.247
 0.767 -1.466 4.249
 0.78 -1.467 4.251
 0.793 -1.467 4.248
 0.806 -1.467 4.247
 0.818 -1.466 4.242
 0.831 -1.466 4.238
 0.844 -1.467 4.24
 0.857 -1.467 4.237
 0.871 -1.469 4.239
 0.883 -1.468 4.235
 0.897 -1.47 4.238
 0.91 -1.471 4.238
 0.923 -1.47 4.233
 0.936 -1.471 4.233
 0.95 -1.473 4.236
 0.962 -1.472 4.23
 0.975 -1.472 4.228
 0.99 -1.474 4.233
 1.003 -1.475 4.233
 1.017 -1.476 4.233
 1.031 -1.478 4.236
 1.044 -1.478 4.231
 1.057 -1.479 4.232
 1.072 -1.481 4.235
 1.085 -1.481 4.232
 1.099 -1.483 4.234
 1.113 -1.485 4.238
 1.127 -1.487 4.239
 1.14 -1.486 4.234
 1.154 -1.488 4.236
 1.167 -1.488 4.232
 1.18 -1.488 4.23
 1.194 -1.488 4.228
 1.208 -1.491 4.23
 1.221 -1.49 4.225
 1.236 -1.493 4.229
 1.25 -1.494 4.231
 1.263 -1.494 4.227
 1.276 -1.494 4.223
 1.29 -1.495 4.223
 1.303 -1.495 4.219
 1.317 -1.496 4.217
 1.332 -1.498 4.219
 1.345 -1.499 4.218
 1.361 -1.502 4.221
 1.374 -1.502 4.22
 1.389 -1.504 4.22
 1.404 -1.506 4.222
 1.417 -1.506 4.218
 1.431 -1.507 4.217
 1.445 -1.508 4.216
 1.458 -1.507 4.209
 1.47 -1.507 4.204
 1.487 -1.511 4.21
 1.5 -1.511 4.205
 1.516 -1.513 4.209
 1.531 -1.515 4.211
 1.544 -1.516 4.207
 1.558 -1.516 4.204
 1.572 -1.517 4.202
 1.585 -1.516 4.195
 1.598 -1.516 4.19
 1.613 -1.518 4.191
 1.627 -1.519 4.188
 1.644 -1.522 4.193
 1.658 -1.523 4.191
 1.672 -1.524 4.188
 1.688 -1.526 4.189
 1.703 -1.528 4.189
 1.716 -1.528 4.183
 1.73 -1.529 4.181
 1.745 -1.53 4.179
 1.757 -1.529 4.173
 1.77 -1.529 4.165
 1.784 -1.53 4.163
 1.801 -1.533 4.166
 1.815 -1.533 4.162
 1.829 -1.533 4.157
 1.841 -1.533 4.15
 1.851 -1.53 4.138
 1.858 -1.525 4.118
 1.866 -1.52 4.1
 1.867 -1.511 4.068
 1.87 -1.503 4.041
 1.875 -1.497 4.019
 1.88 -1.49 3.996
 1.884 -1.484 3.973
 1.896 -1.483 3.964
 1.907 -1.481 3.955
 1.917 -1.479 3.943
 0 0 0
 0 0 0
 0 0 0
 0 0 0
 0 0 0
 0 0 0
 0 0 0
 0 0 0
 0 0 0
 0 0 0
 0 0 0
 0 0 0
 0 0 0
 0 0 0
 0 0 0
 0 0 0
 0 0 0
 0 0 0
 0 0 0
 0 0 0
 1.808 -1.224 3.154
 1.836 -1.236 3.178
 1.842 -1.232 3.164
 1.843 -1.227 3.143
 1.85 -1.224 3.13
 1.848 -1.216 3.104
 1.841 -1.205 3.07
 1.834 -1.193 3.035
 1.859 -1.202 3.052
 -2.448 -1.585 4.171
 -2.484 -1.618 4.264
 -2.446 -1.603 4.231
 -2.434 -1.604 4.242
 -2.421 -1.605 4.252
 -2.39 -1.594 4.23
 -2.371 -1.591 4.228
 -2.353 -1.589 4.228
 -2.343 -1.592 4.243
 -2.331 -1.593 4.253
 -2.329 -1.602 4.283
 -2.316 -1.603 4.292
 -2.299 -1.601 4.293
 -2.285 -1.601 4.3
 -2.266 -1.598 4.299
 -2.245 -1.593 4.293
 -2.228 -1.591 4.294
 -2.212 -1.59 4.296
 -2.195 -1.588 4.296
 -2.18 -1.587 4.301
 -2.164 -1.586 4.305
 -2.146 -1.584 4.304
 -2.13 -1.582 4.304
 -2.115 -1.582 4.31
 -2.099 -1.58 4.311
 -2.081 -1.577 4.31
 -2.066 -1.577 4.314
 -2.052 -1.576 4.318
 -2.033 -1.573 4.314
 -2.016 -1.57 4.314
 -2 -1.569 4.315
 -1.982 -1.566 4.313
 -1.962 -1.561 4.304
 -1.944 -1.558 4.302
 -1.929 -1.557 4.303
 -1.914 -1.556 4.307
 -1.899 -1.555 4.309
 -1.884 -1.555 4.314
 -1.868 -1.553 4.312
 -1.851 -1.55 4.311
 -1.836 -1.55 4.314
 -1.821 -1.548 4.315
 -1.806 -1.547 4.318
 -1.792 -1.548 4.323
 -1.779 -1.548 4.329
 -1.763 -1.546 4.328
 -1.746 -1.543 4.325
 -1.732 -1.543 4.33
 -1.716 -1.542 4.33
 -1.699 -1.538 4.325
 -1.681 -1.535 4.32
 -1.668 -1.535 4.325
 -1.653 -1.534 4.326
 -1.638 -1.533 4.328
 -1.623 -1.532 4.328
 -1.61 -1.532 4.333
 -1.592 -1.528 4.327
 -1.574 -1.524 4.318
 -1.557 -1.521 4.314
 -1.542 -1.52 4.314
 -1.524 -1.515 4.306
 -1.509 -1.514 4.306
 -1.494 -1.512 4.304
 -1.48 -1.511 4.306
 -1.465 -1.51 4.306
 -1.451 -1.51 4.31
 -1.436 -1.508 4.308
 -1.423 -1.508 4.312
 -1.408 -1.506 4.311
 -1.392 -1.504 4.307
 -1.377 -1.502 4.305
 -1.362 -1.501 4.306
 -1.349 -1.501 4.309
 -1.334 -1.499 4.307
 -1.319 -1.498 4.307
 -1.305 -1.497 4.308
 -1.292 -1.497 4.311
 -1.276 -1.493 4.305
 -1.26 -1.491 4.3
 -1.248 -1.492 4.307
 -1.235 -1.493 4.311
 -1.22 -1.491 4.308
 -1.207 -1.491 4.312
 -1.193 -1.491 4.315
 -1.177 -1.487 4.308
 -1.161 -1.483 4.299
 -1.147 -1.483 4.3
 -1.134 -1.482 4.302
 -1.119 -1.48 4.298
 -1.105 -1.479 4.299
 -1.091 -1.479 4.3
 -1.077 -1.477 4.297
 -1.063 -1.476 4.296
 -1.05 -1.476 4.298
 -1.036 -1.475 4.3
 -1.022 -1.474 4.299
 -1.009 -1.474 4.3
 -0.993 -1.47 4.293
 -0.981 -1.471 4.296
 -0.967 -1.469 4.295
 -0.953 -1.468 4.293
 -0.939 -1.467 4.292
 -0.926 -1.468 4.296
 -0.912 -1.466 4.293
 -0.899 -1.466 4.295
 -0.886 -1.466 4.297
 -0.872 -1.464 4.294
 -0.859 -1.464 4.295
 -0.844 -1.462 4.291
 -0.83 -1.46 4.288
 -0.817 -1.46 4.289
 -0.804 -1.46 4.292
 -0.79 -1.458 4.287
 -0.777 -1.457 4.286
 -0.763 -1.455 4.283
 -0.749 -1.453 4.279
 -0.736 -1.454 4.282
 -0.724 -1.456 4.29
 -0.712 -1.457 4.296
 -0.699 -1.457 4.298
 -0.686 -1.458 4.3
 -0.673 -1.457 4.3
 -0.659 -1.454 4.293
 -0.646 -1.453 4.292
 -0.632 -1.451 4.287
 -0.619 -1.452 4.289
 -0.605 -1.449 4.284
 -0.592 -1.448 4.283
 -0.579 -1.448 4.283
 -0.566 -1.449 4.286
 -0.553 -1.449 4.287
 -0.54 -1.448 4.287
 -0.528 -1.449 4.291
 -0.515 -1.448 4.289
 -0.502 -1.447 4.287
 -0.488 -1.446 4.283
 -0.475 -1.445 4.283
 -0.462 -1.445 4.284
 -0.449 -1.444 4.281
 -0.437 -1.446 4.287
 -0.424 -1.445 4.288
 -0.412 -1.447 4.294
 -0.398 -1.445 4.288
 -0.385 -1.445 4.289
 -0.372 -1.442 4.282
 -0.359 -1.443 4.286
 -0.346 -1.44 4.275
 -0.333 -1.44 4.276
 -0.32 -1.439 4.276
 -0.307 -1.44 4.278
 -0.294 -1.437 4.271
 -0.281 -1.438 4.274
 -0.269 -1.438 4.275
 -0.256 -1.439 4.276
 -0.243 -1.439 4.278
 -0.231 -1.441 4.284
 -0.218 -1.44 4.281
 -0.205 -1.438 4.275
 -0.192 -1.437 4.272
 -0.179 -1.436 4.272
 -0.166 -1.435 4.267
 -0.154 -1.436 4.271
 -0.141 -1.437 4.274
 -0.128 -1.437 4.275
 -0.116 -1.436 4.27
 -0.103 -1.435 4.268
 -0.09 -1.434 4.265
 -0.077 -1.435 4.268
 -0.065 -1.433 4.261
 -0.052 -1.433 4.261
 -0.039 -1.434 4.266
 -0.027 -1.435 4.269
 -0.014 -1.435 4.268
 -0.001 -1.436 4.272
 0.01 -1.437 4.272
 0.023 -1.436 4.271
 0.036 -1.436 4.27
 0.049 -1.435 4.265
 0.061 -1.434 4.263
 0.074 -1.434 4.263
 0.087 -1.433 4.26
 0.099 -1.433 4.259
 0.112 -1.435 4.264
 0.125 -1.437 4.27
 0.138 -1.437 4.27
 0.15 -1.436 4.265
 0.163 -1.436 4.265
 0.175 -1.435 4.263
 0.188 -1.433 4.254
 0.2 -1.432 4.252
 0.213 -1.433 4.255
 0.226 -1.433 4.253
 0.239 -1.435 4.259
 0.252 -1.436 4.261
 0.264 -1.437 4.263
 0.277 -1.437 4.262
 0.289 -1.435 4.255
 0.302 -1.432 4.246
 0.314 -1.432 4.245
 0.327 -1.432 4.245
 0.34 -1.434 4.248
 0.353 -1.438 4.259
 0.366 -1.438 4.259
 0.38 -1.441 4.267
 0.392 -1.44 4.263
 0.405 -1.441 4.263
 0.417 -1.439 4.258
 0.43 -1.44 4.26
 0.443 -1.441 4.259
 0.457 -1.443 4.265
 0.469 -1.443 4.263
 0.482 -1.442 4.259
 0.494 -1.441 4.255
 0.507 -1.441 4.254
 0.52 -1.441 4.253
 0.532 -1.44 4.248
 0.545 -1.441 4.25
 0.558 -1.442 4.25
 0.57 -1.44 4.243
 0.583 -1.442 4.246
 0.596 -1.441 4.242
 0.609 -1.442 4.245
 0.622 -1.443 4.245
 0.635 -1.445 4.248
 0.647 -1.442 4.239
 0.661 -1.444 4.243
 0.673 -1.443 4.238
 0.686 -1.445 4.241
 0.699 -1.445 4.239
 0.713 -1.448 4.247
 0.727 -1.45 4.252
 0.74 -1.451 4.251
 0.753 -1.451 4.25
 0.767 -1.452 4.252
 0.779 -1.452 4.247
 0.792 -1.452 4.245
 0.805 -1.452 4.244
 0.817 -1.452 4.241
 0.83 -1.451 4.236
 0.843 -1.452 4.238
 0.855 -1.451 4.232
 0.869 -1.452 4.232
 0.881 -1.452 4.229
 0.896 -1.454 4.234
 0.91 -1.457 4.238
 0.922 -1.456 4.235
 0.936 -1.457 4.234
 0.95 -1.459 4.238
 0.962 -1.459 4.234
 0.974 -1.458 4.228
 0.989 -1.46 4.234
 1.003 -1.462 4.235
 1.016 -1.462 4.234
 1.031 -1.465 4.237
 1.044 -1.466 4.238
 1.058 -1.466 4.237
 1.072 -1.469 4.24
 1.086 -1.47 4.242
 1.099 -1.471 4.24
 1.114 -1.473 4.245
 1.128 -1.475 4.245
 1.141 -1.474 4.24
 1.154 -1.475 4.239
 1.167 -1.475 4.237
 1.179 -1.474 4.23
 1.192 -1.474 4.226
 1.207 -1.476 4.23
 1.22 -1.476 4.226
 1.234 -1.478 4.228
 1.25 -1.481 4.233
 1.263 -1.481 4.232
 1.277 -1.482 4.228
 1.29 -1.483 4.228
 1.304 -1.483 4.225
 1.317 -1.484 4.223
 1.332 -1.485 4.224
 1.345 -1.485 4.221
 1.359 -1.487 4.221
 1.374 -1.488 4.222
 1.387 -1.489 4.219
 1.403 -1.491 4.222
 1.417 -1.493 4.222
 1.432 -1.495 4.225
 1.446 -1.495 4.221
 1.459 -1.496 4.218
 1.472 -1.496 4.214
 1.487 -1.498 4.215
 1.501 -1.498 4.211
 1.516 -1.5 4.213
 1.531 -1.502 4.214
 1.543 -1.501 4.208
 1.558 -1.502 4.206
 1.57 -1.502 4.2
 1.584 -1.503 4.198
 1.598 -1.503 4.195
 1.613 -1.505 4.195
 1.627 -1.505 4.191
 1.643 -1.508 4.195
 1.657 -1.509 4.191
 1.67 -1.508 4.186
 1.686 -1.511 4.188
 1.7 -1.512 4.187
 1.715 -1.513 4.185
 1.728 -1.514 4.181
 1.743 -1.515 4.179
 1.757 -1.516 4.176
 1.77 -1.515 4.169
 1.784 -1.516 4.166
 1.802 -1.52 4.172
 1.816 -1.521 4.169
 1.83 -1.521 4.166
 1.844 -1.522 4.16
 1.855 -1.52 4.151
 1.861 -1.514 4.128
 1.868 -1.509 4.11
 1.869 -1.5 4.078
 1.874 -1.493 4.054
 1.878 -1.485 4.028
 1.886 -1.482 4.013
 1.89 -1.475 3.989
 1.903 -1.475 3.982
 1.909 -1.469 3.962
 0 0 0
 0 0 0
 0 0 0
 0 0 0
 0 0 0
 0 0 0
 0 0 0
 0 0 0
 0 0 0
 0 0 0
 0 0 0
 0 0 0
 0 0 0
 0 0 0
 0 0 0
 0 0 0
 0 0 0
 0 0 0
 0 0 0
 0 0 0
 0 0 0
 1.814 -1.217 3.168
 1.84 -1.228 3.189
 1.842 -1.222 3.169
 1.841 -1.214 3.142
 1.849 -1.213 3.133
 1.847 -1.204 3.106
 1.842 -1.194 3.073
 1.824 -1.176 3.021
 1.836 -1.177 3.019
 -2.459 -1.578 4.195
 -2.448 -1.58 4.208
 -2.463 -1.599 4.265
 -2.445 -1.597 4.266
 -2.436 -1.601 4.283
 -2.404 -1.589 4.259
 -2.383 -1.585 4.255
 -2.362 -1.581 4.25
 -2.357 -1.586 4.272
 -2.343 -1.587 4.281
 -2.341 -1.595 4.309
 -2.326 -1.595 4.316
 -2.313 -1.596 4.325
 -2.298 -1.596 4.331
 -2.278 -1.592 4.327
 -2.259 -1.589 4.324
 -2.239 -1.585 4.32
 -2.22 -1.581 4.315
 -2.201 -1.578 4.314
 -2.186 -1.577 4.318
 -2.168 -1.575 4.318
 -2.15 -1.572 4.315
 -2.132 -1.569 4.314
 -2.115 -1.567 4.314
 -2.097 -1.565 4.313
 -2.081 -1.563 4.313
 -2.068 -1.564 4.322
 -2.052 -1.562 4.323
 -2.035 -1.56 4.323
 -2.019 -1.559 4.325
 -2.001 -1.556 4.322
 -1.982 -1.552 4.317
 -1.964 -1.549 4.315
 -1.947 -1.546 4.312
 -1.931 -1.545 4.313
 -1.918 -1.546 4.321
 -1.903 -1.545 4.324
 -1.887 -1.544 4.325
 -1.871 -1.542 4.325
 -1.855 -1.54 4.325
 -1.838 -1.537 4.322
 -1.821 -1.535 4.32
 -1.807 -1.534 4.324
 -1.793 -1.534 4.328
 -1.778 -1.534 4.332
 -1.762 -1.532 4.331
 -1.747 -1.531 4.333
 -1.734 -1.531 4.339
 -1.717 -1.528 4.335
 -1.698 -1.524 4.327
 -1.681 -1.521 4.324
 -1.667 -1.521 4.327
 -1.65 -1.518 4.322
 -1.635 -1.517 4.324
 -1.619 -1.514 4.322
 -1.605 -1.514 4.326
 -1.587 -1.51 4.319
 -1.571 -1.507 4.314
 -1.556 -1.506 4.314
 -1.542 -1.506 4.318
 -1.524 -1.501 4.31
 -1.51 -1.501 4.311
 -1.493 -1.498 4.306
 -1.478 -1.496 4.304
 -1.462 -1.494 4.303
 -1.449 -1.494 4.307
 -1.434 -1.493 4.307
 -1.421 -1.493 4.311
 -1.407 -1.492 4.313
 -1.392 -1.491 4.312
 -1.376 -1.488 4.308
 -1.362 -1.487 4.308
 -1.348 -1.487 4.312
 -1.334 -1.485 4.311
 -1.318 -1.483 4.308
 -1.305 -1.483 4.311
 -1.291 -1.483 4.313
 -1.274 -1.478 4.302
 -1.258 -1.476 4.299
 -1.246 -1.476 4.304
 -1.233 -1.477 4.309
 -1.218 -1.475 4.305
 -1.206 -1.476 4.313
 -1.191 -1.475 4.311
 -1.175 -1.472 4.305
 -1.16 -1.469 4.299
 -1.146 -1.469 4.302
 -1.134 -1.469 4.306
 -1.119 -1.467 4.302
 -1.105 -1.466 4.304
 -1.091 -1.465 4.302
 -1.075 -1.462 4.296
 -1.06 -1.459 4.29
 -1.048 -1.46 4.296
 -1.035 -1.461 4.299
 -1.021 -1.46 4.299
 -1.008 -1.459 4.301
 -0.993 -1.457 4.295
 -0.98 -1.457 4.298
 -0.966 -1.455 4.294
 -0.952 -1.454 4.295
 -0.939 -1.453 4.295
 -0.926 -1.454 4.299
 -0.912 -1.453 4.298
 -0.9 -1.454 4.303
 -0.886 -1.454 4.304
 -0.873 -1.453 4.302
 -0.859 -1.452 4.303
 -0.844 -1.449 4.295
 -0.83 -1.446 4.289
 -0.816 -1.445 4.287
 -0.803 -1.444 4.288
 -0.79 -1.444 4.288
 -0.776 -1.443 4.287
 -0.762 -1.441 4.283
 -0.749 -1.44 4.281
 -0.736 -1.441 4.287
 -0.724 -1.442 4.29
 -0.711 -1.443 4.295
 -0.699 -1.443 4.298
 -0.686 -1.443 4.298
 -0.672 -1.442 4.297
 -0.658 -1.439 4.289
 -0.645 -1.439 4.293
 -0.632 -1.438 4.289
 -0.619 -1.439 4.293
 -0.605 -1.436 4.287
 -0.592 -1.436 4.287
 -0.579 -1.434 4.284
 -0.566 -1.434 4.285
 -0.553 -1.434 4.285
 -0.54 -1.434 4.285
 -0.527 -1.434 4.288
 -0.514 -1.433 4.286
 -0.501 -1.433 4.286
 -0.487 -1.431 4.28
 -0.474 -1.43 4.281
 -0.462 -1.431 4.284
 -0.449 -1.43 4.281
 -0.436 -1.43 4.284
 -0.424 -1.432 4.289
 -0.411 -1.433 4.294
 -0.398 -1.431 4.288
 -0.385 -1.431 4.29
 -0.372 -1.43 4.286
 -0.359 -1.429 4.286
 -0.345 -1.427 4.278
 -0.332 -1.426 4.276
 -0.319 -1.425 4.273
 -0.307 -1.425 4.275
 -0.294 -1.423 4.269
 -0.281 -1.424 4.272
 -0.268 -1.425 4.275
 -0.256 -1.425 4.278
 -0.243 -1.426 4.279
 -0.231 -1.428 4.286
 -0.218 -1.427 4.285
 -0.205 -1.426 4.281
 -0.192 -1.424 4.277
 -0.179 -1.425 4.279
 -0.166 -1.424 4.275
 -0.154 -1.423 4.274
 -0.141 -1.423 4.274
 -0.128 -1.424 4.278
 -0.115 -1.422 4.271
 -0.103 -1.42 4.264
 -0.09 -1.419 4.26
 -0.077 -1.42 4.265
 -0.064 -1.418 4.26
 -0.052 -1.419 4.261
 -0.039 -1.422 4.27
 -0.027 -1.423 4.272
 -0.014 -1.422 4.269
 -0.001 -1.422 4.271
 0.011 -1.423 4.273
 0.023 -1.422 4.27
 0.036 -1.424 4.274
 0.049 -1.422 4.271
 0.061 -1.421 4.266
 0.074 -1.421 4.265
 0.087 -1.42 4.264
 0.099 -1.421 4.264
 0.112 -1.422 4.267
 0.125 -1.425 4.276
 0.138 -1.425 4.274
 0.15 -1.423 4.27
 0.163 -1.423 4.267
 0.175 -1.422 4.264
 0.188 -1.419 4.255
 0.2 -1.419 4.254
 0.213 -1.42 4.258
 0.226 -1.42 4.257
 0.239 -1.423 4.263
 0.252 -1.423 4.265
 0.265 -1.424 4.266
 0.277 -1.423 4.262
 0.289 -1.421 4.254
 0.301 -1.419 4.247
 0.314 -1.419 4.247
 0.327 -1.419 4.247
 0.34 -1.421 4.251
 0.353 -1.424 4.26
 0.366 -1.425 4.26
 0.379 -1.427 4.265
 0.392 -1.425 4.259
 0.404 -1.425 4.258
 0.417 -1.426 4.259
 0.43 -1.427 4.261
 0.443 -1.428 4.262
 0.457 -1.431 4.269
 0.47 -1.432 4.271
 0.482 -1.43 4.266
 0.495 -1.43 4.264
 0.507 -1.43 4.262
 0.52 -1.43 4.26
 0.532 -1.429 4.255
 0.545 -1.429 4.255
 0.558 -1.428 4.252
 0.57 -1.427 4.247
 0.583 -1.429 4.249
 0.596 -1.428 4.246
 0.609 -1.43 4.248
 0.622 -1.431 4.252
 0.636 -1.433 4.256
 0.648 -1.431 4.248
 0.662 -1.434 4.255
 0.674 -1.433 4.251
 0.687 -1.434 4.25
 0.7 -1.433 4.246
 0.713 -1.434 4.248
 0.726 -1.435 4.248
 0.739 -1.435 4.246
 0.752 -1.436 4.247
 0.765 -1.437 4.247
 0.778 -1.437 4.246
 0.791 -1.438 4.247
 0.805 -1.439 4.247
 0.817 -1.438 4.242
 0.83 -1.438 4.239
 0.843 -1.438 4.238
 0.855 -1.437 4.233
 0.868 -1.438 4.233
 0.881 -1.439 4.232
 0.895 -1.44 4.234
 0.909 -1.442 4.238
 0.922 -1.443 4.236
 0.935 -1.443 4.234
 0.949 -1.445 4.239
 0.963 -1.446 4.239
 0.975 -1.446 4.235
 0.989 -1.447 4.237
 1.003 -1.449 4.239
 1.016 -1.45 4.238
 1.03 -1.45 4.237
 1.043 -1.451 4.237
 1.056 -1.451 4.234
 1.07 -1.453 4.237
 1.085 -1.455 4.239
 1.098 -1.456 4.24
 1.113 -1.459 4.245
 1.128 -1.461 4.247
 1.14 -1.46 4.241
 1.153 -1.459 4.237
 1.166 -1.46 4.236
 1.179 -1.46 4.232
 1.192 -1.461 4.231
 1.208 -1.464 4.237
 1.221 -1.464 4.233
 1.234 -1.464 4.231
 1.249 -1.467 4.234
 1.263 -1.467 4.233
 1.276 -1.468 4.23
 1.29 -1.469 4.23
 1.305 -1.471 4.232
 1.318 -1.471 4.229
 1.333 -1.473 4.23
 1.344 -1.471 4.222
 1.358 -1.472 4.22
 1.372 -1.474 4.221
 1.386 -1.475 4.219
 1.4 -1.476 4.219
 1.416 -1.479 4.223
 1.431 -1.481 4.225
 1.444 -1.48 4.22
 1.457 -1.481 4.217
 1.471 -1.481 4.213
 1.485 -1.482 4.214
 1.499 -1.483 4.212
 1.515 -1.486 4.214
 1.529 -1.486 4.212
 1.542 -1.486 4.207
 1.555 -1.487 4.204
 1.568 -1.487 4.199
 1.583 -1.488 4.198
 1.598 -1.49 4.199
 1.613 -1.492 4.2
 1.627 -1.493 4.197
 1.643 -1.495 4.199
 1.656 -1.494 4.193
 1.668 -1.494 4.186
 1.683 -1.495 4.186
 1.698 -1.497 4.185
 1.713 -1.498 4.183
 1.726 -1.498 4.18
 1.741 -1.5 4.179
 1.755 -1.5 4.175
 1.767 -1.5 4.167
 1.782 -1.5 4.165
 1.799 -1.504 4.17
 1.814 -1.506 4.168
 1.828 -1.506 4.163
 1.842 -1.506 4.159
 1.852 -1.504 4.147
 1.859 -1.499 4.128
 1.867 -1.495 4.112
 1.873 -1.489 4.089
 1.877 -1.482 4.066
 1.883 -1.476 4.044
 1.89 -1.472 4.026
 1.892 -1.463 3.997
 1.901 -1.46 3.982
 0 0 0
 0 0 0
 0 0 0
 0 0 0
 0 0 0
 0 0 0
 0 0 0
 0 0 0
 0 0 0
 0 0 0
 0 0 0
 0 0 0
 0 0 0
 0 0 0
 0 0 0
 0 0 0
 0 0 0
 0 0 0
 0 0 0
 0 0 0
 0 0 0
 0 0 0
 0 0 0
 1.83 -1.21 3.174
 1.838 -1.209 3.165
 1.844 -1.206 3.152
 1.85 -1.203 3.138
 1.85 -1.195 3.114
 1.847 -1.187 3.086
 1.838 -1.175 3.049
 1.834 -1.165 3.018
 0 0 0
 0 0 0
 -2.464 -1.586 4.272
 -2.445 -1.583 4.272
 -2.432 -1.584 4.282
 -2.41 -1.579 4.275
 -2.397 -1.58 4.284
 -2.381 -1.579 4.288
 -2.374 -1.584 4.309
 -2.359 -1.584 4.315
 -2.352 -1.588 4.335
 -2.331 -1.584 4.33
 -2.315 -1.583 4.334
 -2.3 -1.583 4.339
 -2.282 -1.58 4.338
 -2.261 -1.576 4.333
 -2.243 -1.573 4.331
 -2.223 -1.569 4.327
 -2.204 -1.566 4.325
 -2.188 -1.565 4.326
 -2.171 -1.563 4.328
 -2.153 -1.56 4.326
 -2.136 -1.558 4.326
 -2.118 -1.555 4.324
 -2.1 -1.553 4.324
 -2.083 -1.551 4.324
 -2.069 -1.55 4.328
 -2.052 -1.548 4.328
 -2.036 -1.547 4.33
 -2.019 -1.545 4.329
 -2.001 -1.542 4.327
 -1.985 -1.54 4.328
 -1.966 -1.537 4.323
 -1.949 -1.534 4.321
 -1.933 -1.532 4.322
 -1.92 -1.533 4.329
 -1.903 -1.531 4.329
 -1.887 -1.53 4.329
 -1.871 -1.527 4.328
 -1.854 -1.525 4.327
 -1.836 -1.521 4.321
 -1.82 -1.52 4.321
 -1.805 -1.519 4.323
 -1.791 -1.519 4.328
 -1.777 -1.519 4.333
 -1.761 -1.517 4.333
 -1.745 -1.515 4.331
 -1.732 -1.516 4.338
 -1.716 -1.514 4.337
 -1.698 -1.51 4.331
 -1.683 -1.509 4.332
 -1.67 -1.509 4.338
 -1.653 -1.507 4.335
 -1.637 -1.505 4.333
 -1.621 -1.502 4.33
 -1.606 -1.501 4.332
 -1.588 -1.497 4.324
 -1.571 -1.494 4.32
 -1.556 -1.492 4.319
 -1.542 -1.492 4.322
 -1.523 -1.487 4.311
 -1.508 -1.485 4.31
 -1.491 -1.482 4.305
 -1.477 -1.482 4.307
 -1.463 -1.481 4.308
 -1.45 -1.481 4.313
 -1.435 -1.48 4.314
 -1.421 -1.48 4.317
 -1.407 -1.479 4.318
 -1.392 -1.478 4.317
 -1.376 -1.475 4.313
 -1.362 -1.474 4.315
 -1.349 -1.474 4.318
 -1.333 -1.472 4.314
 -1.317 -1.469 4.309
 -1.304 -1.469 4.313
 -1.29 -1.468 4.312
 -1.273 -1.464 4.303
 -1.258 -1.462 4.3
 -1.244 -1.462 4.304
 -1.231 -1.461 4.305
 -1.216 -1.459 4.302
 -1.203 -1.46 4.309
 -1.189 -1.459 4.308
 -1.176 -1.459 4.311
 -1.161 -1.457 4.308
 -1.147 -1.457 4.31
 -1.134 -1.456 4.311
 -1.119 -1.454 4.306
 -1.104 -1.451 4.302
 -1.089 -1.45 4.3
 -1.075 -1.448 4.298
 -1.061 -1.447 4.295
 -1.049 -1.448 4.304
 -1.036 -1.449 4.308
 -1.022 -1.447 4.305
 -1.008 -1.446 4.303
 -0.993 -1.444 4.3
 -0.979 -1.443 4.298
 -0.965 -1.441 4.294
 -0.952 -1.441 4.298
 -0.939 -1.441 4.299
 -0.926 -1.441 4.303
 -0.913 -1.442 4.307
 -0.901 -1.443 4.313
 -0.887 -1.442 4.313
 -0.873 -1.441 4.31
 -0.86 -1.439 4.308
 -0.845 -1.436 4.3
 -0.83 -1.433 4.292
 -0.816 -1.432 4.29
 -0.803 -1.432 4.294
 -0.79 -1.431 4.293
 -0.777 -1.431 4.294
 -0.763 -1.43 4.293
 -0.749 -1.428 4.29
 -0.737 -1.429 4.292
 -0.724 -1.429 4.293
 -0.711 -1.429 4.295
 -0.697 -1.428 4.294
 -0.684 -1.428 4.295
 -0.671 -1.427 4.294
 -0.657 -1.425 4.289
 -0.644 -1.424 4.288
 -0.63 -1.423 4.286
 -0.618 -1.423 4.289
 -0.604 -1.421 4.283
 -0.591 -1.42 4.283
 -0.578 -1.42 4.283
 -0.565 -1.419 4.283
 -0.552 -1.418 4.281
 -0.538 -1.417 4.277
 -0.526 -1.418 4.282
 -0.513 -1.418 4.282
 -0.499 -1.416 4.278
 -0.486 -1.414 4.273
 -0.473 -1.415 4.276
 -0.461 -1.415 4.278
 -0.448 -1.414 4.277
 -0.436 -1.416 4.284
 -0.423 -1.419 4.291
 -0.411 -1.42 4.298
 -0.398 -1.419 4.294
 -0.385 -1.42 4.298
 -0.372 -1.419 4.297
 -0.359 -1.419 4.296
 -0.346 -1.416 4.287
 -0.333 -1.414 4.283
 -0.319 -1.412 4.278
 -0.306 -1.411 4.274
 -0.293 -1.409 4.268
 -0.281 -1.409 4.269
 -0.268 -1.41 4.273
 -0.255 -1.409 4.27
 -0.243 -1.41 4.275
 -0.23 -1.412 4.281
 -0.217 -1.412 4.281
 -0.205 -1.411 4.277
 -0.192 -1.411 4.277
 -0.179 -1.41 4.275
 -0.166 -1.41 4.275
 -0.153 -1.409 4.273
 -0.141 -1.409 4.274
 -0.128 -1.41 4.278
 -0.115 -1.409 4.275
 -0.103 -1.407 4.268
 -0.09 -1.407 4.268
 -0.077 -1.407 4.267
 -0.064 -1.405 4.26
 -0.052 -1.405 4.26
 -0.039 -1.408 4.269
 -0.026 -1.408 4.27
 -0.014 -1.407 4.267
 -0.001 -1.408 4.271
 0.011 -1.409 4.273
 0.023 -1.408 4.269
 0.036 -1.409 4.274
 0.049 -1.409 4.271
 0.061 -1.408 4.267
 0.074 -1.408 4.268
 0.087 -1.408 4.267
 0.099 -1.407 4.265
 0.112 -1.409 4.269
 0.125 -1.411 4.275
 0.137 -1.409 4.268
 0.15 -1.408 4.265
 0.163 -1.408 4.266
 0.175 -1.407 4.263
 0.188 -1.406 4.257
 0.201 -1.407 4.259
 0.213 -1.408 4.262
 0.226 -1.408 4.262
 0.239 -1.41 4.266
 0.252 -1.41 4.268
 0.265 -1.412 4.272
 0.277 -1.412 4.271
 0.29 -1.409 4.26
 0.302 -1.407 4.254
 0.314 -1.407 4.252
 0.327 -1.407 4.252
 0.34 -1.407 4.25
 0.353 -1.41 4.259
 0.366 -1.411 4.26
 0.379 -1.413 4.266
 0.391 -1.411 4.26
 0.404 -1.412 4.259
 0.417 -1.412 4.259
 0.43 -1.413 4.26
 0.443 -1.414 4.262
 0.456 -1.415 4.264
 0.469 -1.416 4.267
 0.481 -1.415 4.263
 0.494 -1.415 4.262
 0.507 -1.415 4.259
 0.519 -1.415 4.257
 0.532 -1.414 4.252
 0.545 -1.415 4.256
 0.557 -1.413 4.249
 0.569 -1.413 4.245
 0.582 -1.413 4.244
 0.595 -1.413 4.241
 0.608 -1.414 4.244
 0.622 -1.417 4.251
 0.635 -1.419 4.255
 0.648 -1.419 4.252
 0.662 -1.422 4.259
 0.675 -1.421 4.256
 0.687 -1.42 4.251
 0.7 -1.42 4.249
 0.713 -1.421 4.251
 0.726 -1.422 4.251
 0.738 -1.421 4.245
 0.752 -1.423 4.249
 0.765 -1.423 4.248
 0.778 -1.423 4.246
 0.791 -1.424 4.245
 0.805 -1.426 4.251
 0.817 -1.425 4.245
 0.829 -1.424 4.241
 0.843 -1.425 4.241
 0.855 -1.425 4.238
 0.868 -1.425 4.237
 0.882 -1.427 4.238
 0.896 -1.429 4.242
 0.91 -1.431 4.245
 0.923 -1.431 4.245
 0.936 -1.432 4.244
 0.95 -1.433 4.246
 0.963 -1.434 4.245
 0.975 -1.433 4.238
 0.988 -1.433 4.237
 1.002 -1.434 4.236
 1.015 -1.434 4.235
 1.028 -1.435 4.234
 1.042 -1.437 4.236
 1.055 -1.437 4.234
 1.069 -1.439 4.236
 1.084 -1.441 4.24
 1.098 -1.443 4.242
 1.113 -1.445 4.247
 1.127 -1.447 4.249
 1.14 -1.446 4.244
 1.152 -1.446 4.238
 1.165 -1.445 4.234
 1.177 -1.445 4.23
 1.191 -1.446 4.231
 1.207 -1.45 4.237
 1.221 -1.45 4.236
 1.234 -1.451 4.234
 1.248 -1.452 4.234
 1.262 -1.453 4.233
 1.275 -1.453 4.23
 1.289 -1.454 4.23
 1.304 -1.457 4.233
 1.316 -1.456 4.228
 1.33 -1.457 4.227
 1.343 -1.457 4.222
 1.356 -1.457 4.219
 1.371 -1.459 4.22
 1.386 -1.461 4.222
 1.4 -1.462 4.222
 1.415 -1.464 4.223
 1.43 -1.466 4.226
 1.443 -1.465 4.219
 1.456 -1.466 4.217
 1.47 -1.467 4.215
 1.484 -1.468 4.213
 1.497 -1.467 4.208
 1.512 -1.47 4.211
 1.527 -1.471 4.21
 1.54 -1.472 4.207
 1.555 -1.473 4.207
 1.57 -1.475 4.207
 1.584 -1.476 4.205
 1.599 -1.477 4.204
 1.613 -1.478 4.202
 1.626 -1.478 4.198
 1.641 -1.48 4.198
 1.654 -1.48 4.194
 1.668 -1.48 4.189
 1.683 -1.481 4.189
 1.698 -1.483 4.189
 1.712 -1.484 4.186
 1.725 -1.484 4.181
 1.739 -1.485 4.177
 1.753 -1.485 4.175
 1.765 -1.484 4.167
 1.78 -1.486 4.165
 1.798 -1.49 4.171
 1.813 -1.491 4.17
 1.825 -1.49 4.162
 1.838 -1.49 4.156
 1.849 -1.488 4.144
 1.856 -1.483 4.125
 1.866 -1.48 4.112
 1.873 -1.476 4.095
 1.882 -1.472 4.079
 1.89 -1.468 4.062
 1.898 -1.464 4.046
 1.901 -1.457 4.019
 0 0 0
 0 0 0
 0 0 0
 0 0 0
 0 0 0
 0 0 0
 0 0 0
 0 0 0
 0 0 0
 0 0 0
 0 0 0
 0 0 0
 0 0 0
 0 0 0
 0 0 0
 0 0 0
 0 0 0
 0 0 0
 0 0 0
 0 0 0
 0 0 0
 0 0 0
 0 0 0
 0 0 0
 1.838 -1.205 3.193
 1.844 -1.201 3.178
 1.849 -1.198 3.163
 1.852 -1.193 3.144
 1.849 -1.185 3.117
 1.847 -1.177 3.09
 1.822 -1.154 3.024
 1.861 -1.172 3.066
 -2.509 -1.582 4.291
 0 0 0
 -2.473 -1.577 4.292
 -2.455 -1.575 4.295
 -2.441 -1.575 4.302
 -2.426 -1.575 4.307
 -2.419 -1.58 4.329
 -2.398 -1.576 4.325
 -2.392 -1.582 4.347
 -2.375 -1.58 4.349
 -2.366 -1.583 4.365
 -2.342 -1.577 4.355
 -2.325 -1.576 4.357
 -2.305 -1.572 4.354
 -2.288 -1.57 4.356
 -2.263 -1.563 4.342
 -2.246 -1.561 4.343
 -2.226 -1.557 4.337
 -2.206 -1.553 4.333
 -2.188 -1.551 4.333
 -2.173 -1.55 4.336
 -2.155 -1.547 4.335
 -2.139 -1.546 4.338
 -2.121 -1.544 4.336
 -2.102 -1.54 4.331
 -2.083 -1.537 4.328
 -2.067 -1.535 4.328
 -2.049 -1.532 4.328
 -2.035 -1.532 4.333
 -2.02 -1.532 4.337
 -2.003 -1.529 4.335
 -1.986 -1.528 4.336
 -1.968 -1.524 4.332
 -1.95 -1.521 4.329
 -1.932 -1.518 4.324
 -1.919 -1.519 4.332
 -1.903 -1.517 4.333
 -1.887 -1.515 4.333
 -1.87 -1.513 4.331
 -1.853 -1.511 4.33
 -1.835 -1.507 4.324
 -1.819 -1.505 4.323
 -1.804 -1.504 4.326
 -1.789 -1.504 4.329
 -1.775 -1.503 4.333
 -1.76 -1.502 4.334
 -1.744 -1.5 4.333
 -1.731 -1.501 4.34
 -1.716 -1.5 4.342
 -1.698 -1.496 4.336
 -1.683 -1.496 4.338
 -1.668 -1.494 4.338
 -1.651 -1.491 4.335
 -1.635 -1.489 4.331
 -1.619 -1.487 4.33
 -1.603 -1.485 4.329
 -1.587 -1.483 4.327
 -1.571 -1.481 4.325
 -1.556 -1.479 4.324
 -1.542 -1.479 4.326
 -1.524 -1.475 4.319
 -1.508 -1.473 4.316
 -1.491 -1.469 4.31
 -1.477 -1.468 4.311
 -1.462 -1.467 4.312
 -1.449 -1.467 4.315
 -1.434 -1.466 4.316
 -1.42 -1.465 4.317
 -1.406 -1.465 4.319
 -1.392 -1.464 4.32
 -1.376 -1.461 4.315
 -1.361 -1.46 4.315
 -1.348 -1.46 4.319
 -1.331 -1.456 4.311
 -1.315 -1.453 4.306
 -1.302 -1.454 4.311
 -1.288 -1.452 4.309
 -1.272 -1.449 4.304
 -1.258 -1.449 4.306
 -1.245 -1.449 4.308
 -1.231 -1.449 4.311
 -1.216 -1.447 4.308
 -1.203 -1.447 4.312
 -1.188 -1.445 4.309
 -1.175 -1.444 4.311
 -1.16 -1.443 4.308
 -1.148 -1.444 4.315
 -1.134 -1.443 4.315
 -1.119 -1.441 4.312
 -1.104 -1.439 4.309
 -1.09 -1.437 4.305
 -1.074 -1.434 4.298
 -1.059 -1.431 4.293
 -1.048 -1.434 4.302
 -1.035 -1.434 4.307
 -1.021 -1.433 4.304
 -1.007 -1.432 4.305
 -0.994 -1.432 4.306
 -0.978 -1.428 4.298
 -0.964 -1.427 4.297
 -0.951 -1.427 4.299
 -0.937 -1.426 4.298
 -0.924 -1.426 4.3
 -0.912 -1.427 4.304
 -0.899 -1.427 4.308
 -0.886 -1.427 4.308
 -0.872 -1.425 4.306
 -0.859 -1.426 4.31
 -0.846 -1.425 4.309
 -0.831 -1.422 4.301
 -0.817 -1.421 4.3
 -0.804 -1.421 4.302
 -0.79 -1.419 4.299
 -0.777 -1.418 4.298
 -0.763 -1.418 4.298
 -0.75 -1.416 4.296
 -0.737 -1.417 4.298
 -0.724 -1.416 4.297
 -0.709 -1.413 4.292
 -0.696 -1.412 4.29
 -0.683 -1.411 4.288
 -0.67 -1.411 4.288
 -0.656 -1.409 4.285
 -0.644 -1.411 4.291
 -0.63 -1.41 4.29
 -0.618 -1.411 4.296
 -0.604 -1.409 4.289
 -0.59 -1.406 4.283
 -0.577 -1.405 4.28
 -0.564 -1.405 4.28
 -0.551 -1.403 4.277
 -0.537 -1.401 4.271
 -0.525 -1.402 4.276
 -0.512 -1.402 4.277
 -0.498 -1.4 4.271
 -0.485 -1.399 4.27
 -0.473 -1.401 4.277
 -0.461 -1.402 4.282
 -0.448 -1.401 4.28
 -0.436 -1.404 4.288
 -0.424 -1.406 4.297
 -0.411 -1.408 4.303
 -0.398 -1.406 4.299
 -0.385 -1.407 4.3
 -0.372 -1.407 4.302
 -0.359 -1.406 4.299
 -0.346 -1.403 4.29
 -0.333 -1.401 4.287
 -0.32 -1.4 4.284
 -0.306 -1.398 4.277
 -0.293 -1.395 4.269
 -0.28 -1.395 4.27
 -0.268 -1.396 4.274
 -0.255 -1.396 4.273
 -0.243 -1.398 4.279
 -0.23 -1.4 4.286
 -0.217 -1.399 4.285
 -0.205 -1.398 4.282
 -0.192 -1.399 4.283
 -0.179 -1.398 4.281
 -0.166 -1.397 4.28
 -0.154 -1.398 4.281
 -0.141 -1.398 4.282
 -0.128 -1.398 4.281
 -0.115 -1.396 4.277
 -0.102 -1.394 4.271
 -0.09 -1.394 4.271
 -0.077 -1.394 4.27
 -0.064 -1.392 4.264
 -0.052 -1.393 4.265
 -0.039 -1.396 4.275
 -0.026 -1.395 4.272
 -0.014 -1.395 4.271
 -0.001 -1.396 4.276
 0.011 -1.397 4.278
 0.023 -1.396 4.275
 0.036 -1.398 4.28
 0.049 -1.397 4.276
 0.061 -1.395 4.27
 0.074 -1.395 4.271
 0.087 -1.394 4.268
 0.099 -1.394 4.266
 0.112 -1.394 4.268
 0.125 -1.396 4.271
 0.137 -1.393 4.262
 0.15 -1.391 4.257
 0.162 -1.392 4.258
 0.175 -1.392 4.259
 0.188 -1.392 4.257
 0.201 -1.394 4.263
 0.213 -1.395 4.266
 0.226 -1.395 4.266
 0.239 -1.396 4.268
 0.252 -1.397 4.27
 0.264 -1.397 4.269
 0.277 -1.398 4.269
 0.289 -1.395 4.26
 0.302 -1.395 4.259
 0.315 -1.395 4.257
 0.327 -1.396 4.259
 0.34 -1.396 4.26
 0.353 -1.397 4.262
 0.366 -1.396 4.258
 0.378 -1.396 4.257
 0.391 -1.396 4.256
 0.403 -1.396 4.253
 0.417 -1.399 4.263
 0.43 -1.401 4.265
 0.443 -1.402 4.27
 0.456 -1.403 4.269
 0.469 -1.404 4.273
 0.481 -1.402 4.264
 0.494 -1.402 4.263
 0.507 -1.402 4.261
 0.519 -1.402 4.26
 0.532 -1.401 4.255
 0.545 -1.402 4.258
 0.557 -1.4 4.25
 0.569 -1.4 4.248
 0.582 -1.4 4.247
 0.594 -1.399 4.242
 0.608 -1.4 4.245
 0.622 -1.403 4.251
 0.635 -1.405 4.255
 0.647 -1.404 4.251
 0.661 -1.407 4.258
 0.674 -1.407 4.256
 0.687 -1.407 4.255
 0.7 -1.408 4.254
 0.713 -1.409 4.255
 0.726 -1.409 4.254
 0.738 -1.407 4.246
 0.751 -1.407 4.245
 0.764 -1.408 4.245
 0.777 -1.409 4.246
 0.79 -1.409 4.244
 0.804 -1.412 4.25
 0.817 -1.412 4.25
 0.829 -1.411 4.243
 0.842 -1.411 4.242
 0.855 -1.411 4.239
 0.868 -1.412 4.238
 0.881 -1.413 4.24
 0.895 -1.415 4.243
 0.909 -1.416 4.243
 0.923 -1.418 4.247
 0.936 -1.418 4.244
 0.949 -1.418 4.243
 0.962 -1.419 4.243
 0.974 -1.418 4.237
 0.986 -1.417 4.232
 1 -1.418 4.232
 1.013 -1.419 4.232
 1.027 -1.42 4.232
 1.042 -1.423 4.238
 1.056 -1.424 4.239
 1.07 -1.426 4.241
 1.084 -1.428 4.244
 1.098 -1.429 4.244
 1.112 -1.431 4.246
 1.126 -1.433 4.248
 1.139 -1.432 4.244
 1.152 -1.432 4.241
 1.165 -1.432 4.238
 1.178 -1.433 4.236
 1.192 -1.434 4.235
 1.207 -1.437 4.241
 1.221 -1.438 4.241
 1.234 -1.437 4.236
 1.247 -1.438 4.234
 1.26 -1.438 4.231
 1.274 -1.439 4.231
 1.287 -1.439 4.228
 1.303 -1.443 4.235
 1.316 -1.443 4.231
 1.331 -1.445 4.233
 1.343 -1.444 4.225
 1.357 -1.444 4.223
 1.37 -1.445 4.222
 1.385 -1.446 4.222
 1.398 -1.447 4.219
 1.413 -1.448 4.22
 1.427 -1.45 4.22
 1.439 -1.449 4.213
 1.454 -1.451 4.214
 1.468 -1.451 4.213
 1.481 -1.451 4.208
 1.494 -1.452 4.205
 1.51 -1.454 4.207
 1.522 -1.454 4.202
 1.537 -1.455 4.203
 1.554 -1.459 4.207
 1.569 -1.461 4.21
 1.584 -1.462 4.209
 1.6 -1.465 4.211
 1.613 -1.465 4.206
 1.627 -1.465 4.203
 1.641 -1.467 4.203
 1.656 -1.467 4.2
 1.668 -1.467 4.195
 1.683 -1.468 4.193
 1.698 -1.47 4.194
 1.712 -1.47 4.189
 1.725 -1.47 4.184
 1.739 -1.471 4.181
 1.753 -1.472 4.178
 1.763 -1.47 4.166
 1.778 -1.471 4.164
 1.795 -1.474 4.169
 1.81 -1.475 4.166
 1.823 -1.475 4.16
 1.837 -1.476 4.158
 1.849 -1.475 4.149
 1.857 -1.471 4.132
 1.868 -1.469 4.122
 1.879 -1.467 4.111
 1.889 -1.464 4.098
 1.899 -1.462 4.085
 1.91 -1.46 4.075
 0 0 0
 0 0 0
 0 0 0
 0 0 0
 0 0 0
 0 0 0
 0 0 0
 0 0 0
 0 0 0
 0 0 0
 0 0 0
 0 0 0
 0 0 0
 0 0 0
 0 0 0
 0 0 0
 0 0 0
 0 0 0
 0 0 0
 0 0 0
 0 0 0
 0 0 0
 0 0 0
 0 0 0
 0 0 0
 1.828 -1.187 3.178
 1.839 -1.187 3.172
 1.848 -1.186 3.164
 1.85 -1.181 3.144
 1.852 -1.176 3.124
 1.851 -1.168 3.099
 1.844 -1.157 3.065
 1.805 -1.127 2.978
 0 0 0
 0 0 0
 -2.484 -1.57 4.317
 -2.468 -1.569 4.321
 -2.451 -1.567 4.324
 -2.435 -1.566 4.328
 -2.428 -1.571 4.35
 -2.407 -1.567 4.346
 -2.396 -1.569 4.358
 -2.376 -1.566 4.355
 -2.363 -1.567 4.365
 -2.34 -1.561 4.356
 -2.324 -1.56 4.359
 -2.302 -1.555 4.351
 -2.286 -1.554 4.356
 -2.263 -1.549 4.346
 -2.247 -1.548 4.35
 -2.226 -1.543 4.342
 -2.209 -1.541 4.343
 -2.191 -1.538 4.342
 -2.174 -1.536 4.342
 -2.158 -1.535 4.346
 -2.143 -1.535 4.349
 -2.124 -1.531 4.346
 -2.107 -1.53 4.347
 -2.09 -1.527 4.346
 -2.07 -1.523 4.341
 -2.052 -1.52 4.337
 -2.035 -1.518 4.337
 -2.019 -1.517 4.338
 -2.001 -1.514 4.337
 -1.985 -1.513 4.338
 -1.969 -1.511 4.339
 -1.954 -1.51 4.341
 -1.935 -1.506 4.336
 -1.921 -1.506 4.34
 -1.904 -1.504 4.34
 -1.888 -1.503 4.34
 -1.87 -1.499 4.336
 -1.854 -1.497 4.336
 -1.835 -1.494 4.329
 -1.819 -1.492 4.329
 -1.803 -1.49 4.328
 -1.788 -1.489 4.331
 -1.773 -1.488 4.331
 -1.758 -1.487 4.334
 -1.743 -1.486 4.335
 -1.729 -1.486 4.341
 -1.715 -1.485 4.343
 -1.698 -1.483 4.34
 -1.684 -1.483 4.345
 -1.667 -1.48 4.341
 -1.65 -1.477 4.336
 -1.634 -1.474 4.333
 -1.618 -1.472 4.331
 -1.601 -1.47 4.329
 -1.586 -1.468 4.328
 -1.571 -1.467 4.328
 -1.555 -1.464 4.324
 -1.541 -1.464 4.328
 -1.524 -1.461 4.323
 -1.508 -1.459 4.321
 -1.491 -1.456 4.314
 -1.476 -1.454 4.313
 -1.462 -1.453 4.314
 -1.447 -1.452 4.315
 -1.433 -1.451 4.316
 -1.419 -1.451 4.319
 -1.406 -1.451 4.322
 -1.391 -1.45 4.323
 -1.375 -1.447 4.318
 -1.36 -1.446 4.317
 -1.346 -1.445 4.318
 -1.331 -1.442 4.314
 -1.315 -1.44 4.309
 -1.302 -1.441 4.315
 -1.287 -1.439 4.313
 -1.272 -1.437 4.31
 -1.257 -1.435 4.307
 -1.244 -1.435 4.311
 -1.229 -1.433 4.308
 -1.215 -1.431 4.306
 -1.202 -1.432 4.311
 -1.188 -1.432 4.312
 -1.174 -1.43 4.311
 -1.16 -1.429 4.312
 -1.148 -1.431 4.321
 -1.134 -1.43 4.32
 -1.119 -1.428 4.315
 -1.105 -1.427 4.315
 -1.091 -1.425 4.313
 -1.074 -1.421 4.302
 -1.059 -1.418 4.296
 -1.047 -1.42 4.305
 -1.034 -1.42 4.307
 -1.019 -1.417 4.3
 -1.005 -1.416 4.301
 -0.992 -1.416 4.303
 -0.977 -1.413 4.296
 -0.963 -1.412 4.294
 -0.95 -1.412 4.297
 -0.936 -1.411 4.297
 -0.924 -1.412 4.302
 -0.912 -1.413 4.307
 -0.899 -1.413 4.309
 -0.885 -1.413 4.311
 -0.872 -1.412 4.309
 -0.858 -1.412 4.31
 -0.844 -1.41 4.307
 -0.83 -1.408 4.301
 -0.816 -1.406 4.299
 -0.802 -1.405 4.296
 -0.788 -1.402 4.291
 -0.775 -1.403 4.295
 -0.762 -1.402 4.293
 -0.748 -1.401 4.291
 -0.736 -1.402 4.297
 -0.723 -1.402 4.298
 -0.709 -1.399 4.29
 -0.695 -1.398 4.29
 -0.682 -1.397 4.289
 -0.67 -1.398 4.293
 -0.656 -1.396 4.289
 -0.644 -1.398 4.294
 -0.631 -1.398 4.295
 -0.618 -1.399 4.3
 -0.604 -1.395 4.291
 -0.59 -1.393 4.286
 -0.577 -1.392 4.283
 -0.563 -1.39 4.279
 -0.55 -1.389 4.276
 -0.536 -1.386 4.267
 -0.524 -1.387 4.271
 -0.511 -1.387 4.272
 -0.497 -1.384 4.266
 -0.484 -1.383 4.262
 -0.472 -1.385 4.271
 -0.46 -1.387 4.278
 -0.447 -1.386 4.276
 -0.435 -1.39 4.287
 -0.423 -1.393 4.298
 -0.411 -1.395 4.305
 -0.398 -1.393 4.299
 -0.385 -1.394 4.304
 -0.373 -1.395 4.309
 -0.359 -1.393 4.303
 -0.346 -1.391 4.297
 -0.332 -1.388 4.288
 -0.319 -1.387 4.287
 -0.306 -1.384 4.276
 -0.293 -1.382 4.271
 -0.28 -1.381 4.27
 -0.268 -1.383 4.275
 -0.255 -1.381 4.27
 -0.242 -1.384 4.278
 -0.23 -1.386 4.285
 -0.217 -1.386 4.287
 -0.204 -1.385 4.285
 -0.192 -1.386 4.287
 -0.179 -1.386 4.286
 -0.166 -1.385 4.284
 -0.153 -1.384 4.283
 -0.141 -1.385 4.283
 -0.128 -1.384 4.282
 -0.115 -1.382 4.275
 -0.102 -1.381 4.271
 -0.09 -1.381 4.272
 -0.077 -1.381 4.271
 -0.064 -1.379 4.265
 -0.052 -1.379 4.267
 -0.039 -1.381 4.273
 -0.026 -1.38 4.269
 -0.014 -1.38 4.269
 -0.001 -1.382 4.275
 0.011 -1.383 4.279
 0.023 -1.382 4.276
 0.036 -1.384 4.28
 0.049 -1.383 4.278
 0.061 -1.381 4.269
 0.074 -1.381 4.271
 0.087 -1.381 4.269
 0.099 -1.381 4.269
 0.112 -1.381 4.269
 0.125 -1.383 4.273
 0.137 -1.378 4.259
 0.149 -1.376 4.253
 0.162 -1.376 4.253
 0.175 -1.378 4.257
 0.188 -1.378 4.256
 0.201 -1.381 4.264
 0.214 -1.382 4.269
 0.226 -1.382 4.268
 0.239 -1.383 4.268
 0.252 -1.384 4.272
 0.265 -1.385 4.273
 0.277 -1.384 4.269
 0.289 -1.382 4.262
 0.302 -1.382 4.262
 0.314 -1.381 4.258
 0.327 -1.382 4.261
 0.34 -1.383 4.263
 0.353 -1.383 4.26
 0.365 -1.382 4.256
 0.378 -1.381 4.253
 0.39 -1.381 4.252
 0.403 -1.381 4.249
 0.417 -1.385 4.261
 0.43 -1.386 4.262
 0.443 -1.388 4.268
 0.456 -1.389 4.269
 0.469 -1.391 4.276
 0.481 -1.389 4.266
 0.494 -1.39 4.269
 0.507 -1.389 4.265
 0.519 -1.388 4.261
 0.531 -1.387 4.256
 0.545 -1.389 4.261
 0.556 -1.386 4.249
 0.569 -1.386 4.248
 0.582 -1.387 4.248
 0.594 -1.386 4.244
 0.608 -1.387 4.248
 0.622 -1.391 4.256
 0.636 -1.393 4.262
 0.648 -1.393 4.259
 0.662 -1.396 4.266
 0.675 -1.395 4.262
 0.687 -1.395 4.259
 0.7 -1.395 4.257
 0.713 -1.395 4.257
 0.725 -1.395 4.254
 0.737 -1.393 4.245
 0.75 -1.393 4.244
 0.763 -1.394 4.244
 0.776 -1.395 4.245
 0.789 -1.395 4.244
 0.804 -1.399 4.255
 0.818 -1.4 4.256
 0.83 -1.4 4.252
 0.843 -1.399 4.248
 0.855 -1.398 4.243
 0.867 -1.398 4.24
 0.881 -1.4 4.244
 0.895 -1.402 4.247
 0.91 -1.404 4.251
 0.924 -1.407 4.256
 0.937 -1.407 4.255
 0.95 -1.407 4.251
 0.962 -1.406 4.246
 0.974 -1.405 4.239
 0.987 -1.405 4.236
 1 -1.405 4.235
 1.014 -1.407 4.238
 1.028 -1.409 4.24
 1.043 -1.412 4.246
 1.056 -1.412 4.244
 1.069 -1.412 4.242
 1.083 -1.413 4.241
 1.096 -1.413 4.24
 1.109 -1.414 4.238
 1.123 -1.415 4.238
 1.136 -1.416 4.237
 1.15 -1.416 4.236
 1.163 -1.417 4.236
 1.177 -1.419 4.237
 1.191 -1.42 4.238
 1.207 -1.423 4.242
 1.221 -1.425 4.245
 1.233 -1.423 4.236
 1.247 -1.424 4.237
 1.26 -1.425 4.236
 1.275 -1.427 4.236
 1.287 -1.425 4.229
 1.303 -1.429 4.237
 1.316 -1.429 4.233
 1.33 -1.431 4.234
 1.342 -1.429 4.225
 1.355 -1.43 4.223
 1.37 -1.431 4.223
 1.383 -1.431 4.22
 1.395 -1.431 4.214
 1.411 -1.433 4.218
 1.426 -1.436 4.221
 1.438 -1.435 4.215
 1.454 -1.438 4.219
 1.47 -1.44 4.222
 1.482 -1.439 4.214
 1.494 -1.439 4.209
 1.51 -1.441 4.211
 1.521 -1.439 4.203
 1.536 -1.441 4.202
 1.553 -1.444 4.208
 1.57 -1.448 4.215
 1.584 -1.449 4.212
 1.601 -1.452 4.218
 1.615 -1.453 4.215
 1.628 -1.453 4.21
 1.64 -1.452 4.204
 1.656 -1.454 4.204
 1.667 -1.453 4.195
 1.681 -1.453 4.192
 1.697 -1.456 4.195
 1.711 -1.456 4.191
 1.724 -1.456 4.186
 1.738 -1.457 4.183
 1.752 -1.458 4.18
 1.763 -1.456 4.169
 1.777 -1.456 4.165
 1.794 -1.459 4.169
 1.809 -1.461 4.169
 1.823 -1.462 4.165
 1.837 -1.462 4.161
 1.849 -1.461 4.153
 1.857 -1.457 4.136
 1.867 -1.455 4.124
 1.876 -1.452 4.109
 1.886 -1.449 4.096
 1.894 -1.445 4.08
 0 0 0
 0 0 0
 0 0 0
 0 0 0
 0 0 0
 0 0 0
 0 0 0
 0 0 0
 0 0 0
 0 0 0
 0 0 0
 0 0 0
 0 0 0
 0 0 0
 0 0 0
 0 0 0
 0 0 0
 0 0 0
 0 0 0
 0 0 0
 0 0 0
 0 0 0
 0 0 0
 0 0 0
 0 0 0
 0 0 0
 1.812 -1.166 3.154
 1.83 -1.171 3.161
 1.843 -1.173 3.16
 1.848 -1.169 3.145
 1.852 -1.165 3.128
 1.853 -1.159 3.106
 1.857 -1.155 3.089
 1.844 -1.14 3.045
 0 0 0
 -2.532 -1.576 4.373
 -2.496 -1.563 4.343
 -2.478 -1.561 4.345
 -2.46 -1.558 4.344
 -2.447 -1.559 4.355
 -2.437 -1.563 4.371
 -2.414 -1.557 4.362
 -2.399 -1.557 4.368
 -2.376 -1.551 4.359
 -2.358 -1.549 4.36
 -2.331 -1.541 4.344
 -2.314 -1.539 4.346
 -2.291 -1.534 4.336
 -2.277 -1.534 4.343
 -2.254 -1.528 4.333
 -2.24 -1.529 4.341
 -2.223 -1.526 4.341
 -2.207 -1.525 4.343
 -2.189 -1.523 4.342
 -2.172 -1.521 4.343
 -2.157 -1.52 4.348
 -2.141 -1.519 4.35
 -2.123 -1.516 4.348
 -2.106 -1.515 4.35
 -2.089 -1.513 4.349
 -2.069 -1.509 4.343
 -2.05 -1.505 4.338
 -2.032 -1.502 4.336
 -2.016 -1.501 4.337
 -1.999 -1.499 4.337
 -1.985 -1.498 4.341
 -1.968 -1.496 4.341
 -1.954 -1.497 4.347
 -1.936 -1.493 4.342
 -1.92 -1.492 4.344
 -1.902 -1.489 4.34
 -1.887 -1.487 4.341
 -1.868 -1.484 4.335
 -1.852 -1.482 4.336
 -1.833 -1.478 4.33
 -1.818 -1.477 4.331
 -1.802 -1.475 4.33
 -1.787 -1.475 4.333
 -1.771 -1.472 4.331
 -1.756 -1.471 4.333
 -1.74 -1.47 4.333
 -1.726 -1.469 4.336
 -1.711 -1.468 4.337
 -1.695 -1.466 4.337
 -1.681 -1.466 4.341
 -1.666 -1.465 4.341
 -1.648 -1.461 4.334
 -1.631 -1.458 4.33
 -1.615 -1.456 4.327
 -1.598 -1.453 4.323
 -1.582 -1.451 4.32
 -1.567 -1.45 4.321
 -1.552 -1.449 4.322
 -1.539 -1.449 4.327
 -1.524 -1.447 4.326
 -1.508 -1.445 4.324
 -1.493 -1.443 4.322
 -1.477 -1.442 4.32
 -1.461 -1.439 4.318
 -1.447 -1.439 4.319
 -1.433 -1.438 4.321
 -1.419 -1.437 4.322
 -1.405 -1.437 4.325
 -1.391 -1.436 4.326
 -1.374 -1.432 4.318
 -1.36 -1.432 4.319
 -1.346 -1.431 4.321
 -1.331 -1.43 4.32
 -1.315 -1.426 4.313
 -1.303 -1.428 4.321
 -1.287 -1.426 4.317
 -1.271 -1.422 4.311
 -1.257 -1.421 4.31
 -1.244 -1.421 4.313
 -1.229 -1.42 4.311
 -1.215 -1.419 4.312
 -1.202 -1.419 4.316
 -1.187 -1.417 4.314
 -1.173 -1.416 4.311
 -1.159 -1.416 4.314
 -1.147 -1.417 4.321
 -1.133 -1.416 4.319
 -1.119 -1.414 4.319
 -1.105 -1.414 4.321
 -1.091 -1.412 4.318
 -1.074 -1.407 4.304
 -1.059 -1.405 4.301
 -1.046 -1.406 4.305
 -1.033 -1.406 4.307
 -1.017 -1.402 4.297
 -1.004 -1.402 4.3
 -0.992 -1.403 4.305
 -0.976 -1.4 4.298
 -0.962 -1.398 4.294
 -0.95 -1.4 4.303
 -0.937 -1.399 4.302
 -0.923 -1.399 4.304
 -0.911 -1.4 4.31
 -0.898 -1.4 4.313
 -0.885 -1.4 4.315
 -0.872 -1.399 4.315
 -0.858 -1.399 4.314
 -0.844 -1.397 4.312
 -0.83 -1.395 4.307
 -0.816 -1.392 4.3
 -0.802 -1.391 4.296
 -0.788 -1.389 4.293
 -0.775 -1.389 4.297
 -0.761 -1.387 4.291
 -0.748 -1.387 4.293
 -0.736 -1.388 4.298
 -0.722 -1.386 4.294
 -0.707 -1.383 4.283
 -0.694 -1.383 4.288
 -0.681 -1.381 4.283
 -0.668 -1.383 4.288
 -0.655 -1.382 4.289
 -0.643 -1.383 4.294
 -0.63 -1.384 4.297
 -0.618 -1.386 4.303
 -0.604 -1.383 4.295
 -0.59 -1.38 4.288
 -0.577 -1.379 4.287
 -0.563 -1.377 4.282
 -0.55 -1.375 4.277
 -0.535 -1.372 4.267
 -0.523 -1.374 4.274
 -0.51 -1.373 4.273
 -0.497 -1.371 4.267
 -0.484 -1.37 4.265
 -0.472 -1.373 4.276
 -0.459 -1.373 4.277
 -0.446 -1.372 4.275
 -0.434 -1.374 4.281
 -0.422 -1.376 4.289
 -0.41 -1.377 4.294
 -0.396 -1.376 4.292
 -0.385 -1.379 4.302
 -0.372 -1.381 4.309
 -0.359 -1.381 4.31
 -0.346 -1.379 4.304
 -0.332 -1.376 4.293
 -0.319 -1.374 4.287
 -0.306 -1.371 4.281
 -0.293 -1.37 4.277
 -0.28 -1.369 4.276
 -0.268 -1.371 4.28
 -0.255 -1.369 4.274
 -0.242 -1.37 4.279
 -0.23 -1.371 4.283
 -0.217 -1.371 4.284
 -0.204 -1.37 4.281
 -0.191 -1.372 4.285
 -0.179 -1.371 4.284
 -0.166 -1.371 4.283
 -0.153 -1.371 4.285
 -0.141 -1.371 4.285
 -0.128 -1.371 4.286
 -0.115 -1.369 4.278
 -0.102 -1.368 4.274
 -0.089 -1.367 4.273
 -0.077 -1.367 4.272
 -0.064 -1.365 4.264
 -0.051 -1.366 4.269
 -0.039 -1.368 4.274
 -0.026 -1.367 4.27
 -0.013 -1.367 4.27
 -0.001 -1.37 4.28
 0.011 -1.37 4.281
 0.023 -1.368 4.274
 0.036 -1.371 4.283
 0.049 -1.371 4.281
 0.061 -1.368 4.274
 0.074 -1.37 4.279
 0.087 -1.371 4.282
 0.1 -1.371 4.28
 0.112 -1.371 4.282
 0.125 -1.371 4.28
 0.137 -1.367 4.267
 0.15 -1.365 4.259
 0.163 -1.367 4.265
 0.175 -1.367 4.265
 0.188 -1.367 4.265
 0.201 -1.369 4.271
 0.214 -1.372 4.279
 0.226 -1.371 4.276
 0.239 -1.372 4.278
 0.252 -1.373 4.28
 0.265 -1.375 4.284
 0.278 -1.373 4.278
 0.29 -1.37 4.269
 0.302 -1.37 4.269
 0.315 -1.37 4.265
 0.328 -1.37 4.265
 0.34 -1.37 4.263
 0.352 -1.369 4.259
 0.365 -1.367 4.254
 0.377 -1.366 4.248
 0.39 -1.367 4.25
 0.403 -1.367 4.25
 0.417 -1.372 4.263
 0.43 -1.373 4.267
 0.443 -1.376 4.273
 0.456 -1.376 4.273
 0.47 -1.379 4.28
 0.481 -1.376 4.271
 0.494 -1.377 4.272
 0.507 -1.376 4.269
 0.519 -1.375 4.264
 0.531 -1.374 4.258
 0.545 -1.376 4.262
 0.556 -1.373 4.251
 0.569 -1.373 4.25
 0.582 -1.373 4.25
 0.594 -1.373 4.247
 0.608 -1.374 4.25
 0.622 -1.378 4.259
 0.636 -1.38 4.265
 0.648 -1.38 4.263
 0.662 -1.383 4.271
 0.675 -1.384 4.27
 0.688 -1.382 4.264
 0.701 -1.384 4.266
 0.713 -1.382 4.26
 0.725 -1.381 4.254
 0.736 -1.378 4.242
 0.75 -1.379 4.245
 0.762 -1.379 4.241
 0.776 -1.382 4.248
 0.79 -1.383 4.249
 0.805 -1.388 4.262
 0.819 -1.389 4.263
 0.831 -1.389 4.261
 0.843 -1.387 4.254
 0.856 -1.387 4.251
 0.868 -1.386 4.247
 0.882 -1.388 4.248
 0.895 -1.389 4.249
 0.909 -1.391 4.253
 0.924 -1.394 4.259
 0.937 -1.394 4.257
 0.949 -1.393 4.253
 0.962 -1.393 4.248
 0.974 -1.392 4.244
 0.987 -1.392 4.241
 1 -1.393 4.241
 1.015 -1.395 4.245
 1.028 -1.396 4.245
 1.043 -1.399 4.249
 1.056 -1.399 4.247
 1.069 -1.398 4.243
 1.081 -1.399 4.241
 1.095 -1.399 4.24
 1.107 -1.399 4.235
 1.121 -1.4 4.235
 1.134 -1.4 4.232
 1.148 -1.401 4.234
 1.162 -1.403 4.234
 1.176 -1.404 4.236
 1.19 -1.406 4.238
 1.206 -1.409 4.243
 1.22 -1.41 4.243
 1.231 -1.408 4.235
 1.247 -1.411 4.239
 1.26 -1.411 4.237
 1.274 -1.413 4.239
 1.287 -1.412 4.233
 1.304 -1.417 4.243
 1.316 -1.416 4.236
 1.33 -1.417 4.236
 1.342 -1.416 4.228
 1.356 -1.417 4.229
 1.369 -1.417 4.226
 1.382 -1.418 4.222
 1.395 -1.417 4.217
 1.41 -1.419 4.218
 1.423 -1.42 4.216
 1.436 -1.419 4.21
 1.451 -1.422 4.214
 1.467 -1.424 4.217
 1.479 -1.424 4.212
 1.493 -1.424 4.209
 1.51 -1.428 4.215
 1.522 -1.427 4.209
 1.537 -1.429 4.209
 1.553 -1.431 4.211
 1.57 -1.434 4.218
 1.583 -1.434 4.213
 1.599 -1.437 4.216
 1.613 -1.438 4.214
 1.627 -1.438 4.211
 1.639 -1.438 4.205
 1.655 -1.44 4.206
 1.667 -1.439 4.199
 1.681 -1.439 4.195
 1.698 -1.443 4.201
 1.711 -1.443 4.195
