 0.597 -1.588 4.218
 0.61 -1.588 4.215
 0.623 -1.59 4.218
 0.636 -1.589 4.214
 0.648 -1.588 4.211
 0.662 -1.59 4.213
 0.674 -1.589 4.21
 0.687 -1.588 4.206
 0.7 -1.589 4.206
 0.712 -1.589 4.203
 0.725 -1.588 4.198
 0.738 -1.588 4.198
 0.75 -1.589 4.197
 0.763 -1.589 4.194
 0.777 -1.591 4.198
 0.79 -1.592 4.198
 0.804 -1.593 4.199
 0.817 -1.595 4.203
 0.831 -1.596 4.202
 0.843 -1.595 4.197
 0.855 -1.594 4.193
 0.868 -1.594 4.191
 0.88 -1.592 4.183
 0.892 -1.592 4.18
 0.906 -1.593 4.181
 0.919 -1.593 4.178
 0.933 -1.597 4.185
 0.947 -1.599 4.187
 0.961 -1.6 4.189
 0.974 -1.601 4.187
 0.988 -1.603 4.19
 1 -1.601 4.181
 1.013 -1.601 4.179
 1.026 -1.602 4.179
 1.038 -1.601 4.174
 1.051 -1.6 4.168
 1.065 -1.603 4.172
 1.078 -1.602 4.167
 1.09 -1.602 4.164
 1.104 -1.603 4.163
 1.116 -1.602 4.158
 1.129 -1.602 4.154
 1.143 -1.604 4.156
 1.158 -1.606 4.159
 1.169 -1.604 4.151
 1.185 -1.608 4.157
 1.199 -1.61 4.158
 1.212 -1.611 4.157
 1.223 -1.608 4.148
 1.239 -1.612 4.154
 1.252 -1.612 4.15
 1.263 -1.61 4.14
 1.275 -1.609 4.135
 1.291 -1.612 4.14
 1.304 -1.613 4.138
 1.318 -1.614 4.137
 1.333 -1.616 4.139
 1.349 -1.62 4.144
 1.36 -1.617 4.134
 1.374 -1.619 4.134
 1.385 -1.617 4.126
 1.399 -1.619 4.125
 1.412 -1.618 4.119
 1.424 -1.617 4.112
 1.436 -1.616 4.106
 1.449 -1.617 4.104
 1.462 -1.616 4.098
 1.472 -1.614 4.088
 1.488 -1.617 4.092
 1.502 -1.618 4.09
 1.516 -1.619 4.089
 1.532 -1.622 4.092
 1.545 -1.622 4.086
 1.558 -1.623 4.084
 1.572 -1.623 4.081
 1.581 -1.62 4.067
 1.59 -1.615 4.051
 1.605 -1.618 4.053
 1.617 -1.617 4.046
 1.629 -1.615 4.038
 1.645 -1.619 4.04
 1.658 -1.619 4.036
 1.669 -1.617 4.026
 1.683 -1.618 4.024
 1.694 -1.616 4.015
 1.707 -1.617 4.011
 1.721 -1.617 4.007
 1.735 -1.618 4.005
 1.748 -1.619 4.001
 1.765 -1.622 4.004
 1.779 -1.623 4.001
 1.791 -1.622 3.994
 1.801 -1.62 3.982
 1.811 -1.618 3.971
 1.82 -1.614 3.956
 1.832 -1.613 3.949
 1.842 -1.611 3.938
 1.851 -1.608 3.925
 1.856 -1.601 3.903
 1.866 -1.599 3.892
 1.87 -1.591 3.867
 1.876 -1.585 3.848
 1.878 -1.576 3.82
 1.879 -1.566 3.791
 1.881 -1.558 3.765
 1.876 -1.544 3.725
 1.872 -1.53 3.687
 1.873 -1.521 3.659
 1.877 -1.515 3.638
 1.875 -1.504 3.605
 1.881 -1.499 3.588
 1.887 -1.495 3.571
 1.896 -1.492 3.559
 1.9 -1.486 3.539
 1.913 -1.487 3.536
 0 0 0
 0 0 0
 0 0 0
 0 0 0
 0 0 0
 0 0 0
 1.807 -1.347 3.163
 1.823 -1.351 3.167
 1.831 -1.348 3.156
 1.842 -1.349 3.152
 1.843 -1.342 3.129
 1.849 -1.338 3.116
 1.846 -1.328 3.087
 1.843 -1.319 3.059
 1.837 -1.307 3.027
 1.83 -1.295 2.993
 1.828 -1.287 2.967
 -2.294 -1.618 3.861
 -2.278 -1.617 3.863
 -2.273 -1.622 3.883
 -2.26 -1.623 3.891
 -2.244 -1.621 3.892
 -2.232 -1.622 3.901
 -2.221 -1.624 3.912
 -2.206 -1.622 3.916
 -2.191 -1.621 3.919
 -2.178 -1.622 3.927
 -2.167 -1.623 3.936
 -2.149 -1.62 3.934
 -2.133 -1.618 3.936
 -2.119 -1.617 3.94
 -2.108 -1.619 3.951
 -2.095 -1.619 3.956
 -2.082 -1.619 3.963
 -2.074 -1.624 3.98
 -2.061 -1.624 3.987
 -2.047 -1.624 3.992
 -2.033 -1.622 3.995
 -2.019 -1.623 4.001
 -2.004 -1.621 4.002
 -1.988 -1.619 4.003
 -1.975 -1.619 4.008
 -1.958 -1.616 4.006
 -1.942 -1.614 4.007
 -1.93 -1.615 4.015
 -1.915 -1.613 4.016
 -1.899 -1.611 4.016
 -1.89 -1.615 4.031
 -1.879 -1.617 4.042
 -1.865 -1.616 4.044
 -1.855 -1.619 4.058
 -1.846 -1.622 4.071
 -1.839 -1.628 4.091
 -1.824 -1.627 4.093
 -1.81 -1.627 4.097
 -1.796 -1.626 4.099
 -1.78 -1.623 4.098
 -1.758 -1.616 4.083
 -1.746 -1.617 4.092
 -1.734 -1.618 4.098
 -1.721 -1.619 4.105
 -1.708 -1.618 4.109
 -1.696 -1.62 4.118
 -1.683 -1.62 4.123
 -1.667 -1.617 4.12
 -1.652 -1.616 4.121
 -1.638 -1.615 4.124
 -1.622 -1.612 4.122
 -1.606 -1.61 4.119
 -1.594 -1.611 4.126
 -1.582 -1.612 4.133
 -1.567 -1.61 4.134
 -1.552 -1.609 4.133
 -1.54 -1.609 4.138
 -1.525 -1.608 4.14
 -1.509 -1.605 4.135
 -1.495 -1.604 4.138
 -1.481 -1.603 4.139
 -1.466 -1.601 4.138
 -1.454 -1.602 4.144
 -1.443 -1.605 4.155
 -1.43 -1.605 4.16
 -1.419 -1.608 4.17
 -1.408 -1.609 4.178
 -1.394 -1.608 4.179
 -1.378 -1.606 4.177
 -1.366 -1.607 4.183
 -1.354 -1.608 4.189
 -1.34 -1.608 4.192
 -1.329 -1.609 4.2
 -1.317 -1.612 4.209
 -1.303 -1.61 4.208
 -1.289 -1.61 4.211
 -1.276 -1.609 4.213
 -1.261 -1.607 4.212
 -1.245 -1.604 4.205
 -1.231 -1.603 4.206
 -1.218 -1.603 4.208
 -1.204 -1.602 4.21
 -1.192 -1.604 4.217
 -1.18 -1.605 4.224
 -1.167 -1.604 4.224
 -1.151 -1.6 4.217
 -1.136 -1.598 4.214
 -1.121 -1.595 4.21
 -1.107 -1.594 4.21
 -1.094 -1.594 4.212
 -1.082 -1.596 4.22
 -1.07 -1.597 4.225
 -1.055 -1.594 4.22
 -1.042 -1.595 4.224
 -1.031 -1.597 4.233
 -1.018 -1.597 4.236
 -1.004 -1.596 4.236
 -0.993 -1.6 4.248
 -0.979 -1.598 4.246
 -0.964 -1.595 4.24
 -0.95 -1.593 4.238
 -0.937 -1.593 4.24
 -0.922 -1.591 4.235
 -0.909 -1.589 4.233
 -0.896 -1.59 4.238
 -0.883 -1.589 4.238
 -0.869 -1.588 4.236
 -0.856 -1.587 4.237
 -0.843 -1.588 4.242
 -0.829 -1.586 4.239
 -0.816 -1.585 4.237
 -0.803 -1.586 4.242
 -0.79 -1.586 4.243
 -0.777 -1.586 4.245
 -0.764 -1.585 4.245
 -0.752 -1.587 4.251
 -0.737 -1.584 4.244
 -0.724 -1.583 4.246
 -0.711 -1.583 4.246
 -0.698 -1.583 4.247
 -0.685 -1.582 4.247
 -0.672 -1.582 4.249
 -0.659 -1.581 4.248
 -0.645 -1.579 4.244
 -0.632 -1.579 4.245
 -0.619 -1.578 4.242
 -0.606 -1.578 4.243
 -0.592 -1.576 4.239
 -0.58 -1.578 4.246
 -0.567 -1.577 4.246
 -0.554 -1.578 4.249
 -0.542 -1.578 4.252
 -0.529 -1.578 4.253
 -0.515 -1.576 4.249
 -0.503 -1.577 4.252
 -0.489 -1.575 4.248
 -0.476 -1.575 4.249
 -0.464 -1.576 4.252
 -0.451 -1.575 4.251
 -0.438 -1.576 4.253
 -0.425 -1.576 4.256
 -0.412 -1.576 4.255
 -0.399 -1.576 4.256
 -0.386 -1.575 4.255
 -0.373 -1.574 4.254
 -0.36 -1.572 4.249
 -0.347 -1.572 4.249
 -0.334 -1.572 4.25
 -0.322 -1.573 4.252
 -0.309 -1.574 4.257
 -0.297 -1.576 4.261
 -0.284 -1.574 4.258
 -0.27 -1.571 4.25
 -0.257 -1.569 4.246
 -0.244 -1.567 4.239
 -0.231 -1.567 4.24
 -0.219 -1.567 4.241
 -0.206 -1.569 4.245
 -0.193 -1.57 4.249
 -0.181 -1.569 4.248
 -0.168 -1.569 4.247
 -0.155 -1.57 4.252
 -0.142 -1.57 4.25
 -0.129 -1.568 4.245
 -0.117 -1.567 4.243
 -0.104 -1.567 4.243
 -0.091 -1.564 4.234
 -0.078 -1.562 4.229
 -0.065 -1.562 4.23
 -0.053 -1.562 4.228
 -0.04 -1.56 4.224
 -0.027 -1.56 4.223
 -0.015 -1.562 4.229
 -0.002 -1.564 4.233
 0.01 -1.566 4.24
 0.022 -1.568 4.244
 0.035 -1.569 4.248
 0.048 -1.569 4.246
 0.061 -1.566 4.24
 0.073 -1.565 4.237
 0.086 -1.564 4.232
 0.099 -1.563 4.23
 0.111 -1.564 4.232
 0.124 -1.565 4.234
 0.137 -1.564 4.231
 0.149 -1.564 4.231
 0.162 -1.566 4.235
 0.175 -1.563 4.228
 0.188 -1.566 4.233
 0.2 -1.566 4.234
 0.213 -1.567 4.235
 0.226 -1.566 4.232
 0.239 -1.568 4.237
 0.251 -1.567 4.233
 0.264 -1.567 4.232
 0.277 -1.569 4.236
 0.29 -1.571 4.242
 0.303 -1.571 4.24
 0.316 -1.571 4.241
 0.329 -1.573 4.244
 0.341 -1.572 4.24
 0.353 -1.568 4.227
 0.366 -1.568 4.227
 0.378 -1.565 4.219
 0.391 -1.565 4.216
 0.403 -1.565 4.215
 0.417 -1.567 4.221
 0.43 -1.568 4.222
 0.443 -1.572 4.232
 0.457 -1.574 4.236
 0.47 -1.576 4.24
 0.483 -1.576 4.238
 0.496 -1.577 4.239
 0.508 -1.576 4.234
 0.52 -1.573 4.227
 0.533 -1.573 4.223
 0.546 -1.573 4.224
 0.558 -1.572 4.217
 0.571 -1.572 4.216
 0.584 -1.574 4.221
 0.597 -1.574 4.219
 0.61 -1.575 4.219
 0.623 -1.577 4.223
 0.636 -1.577 4.221
 0.649 -1.576 4.216
 0.662 -1.576 4.216
 0.674 -1.575 4.211
 0.687 -1.576 4.211
 0.7 -1.577 4.211
 0.713 -1.577 4.21
 0.725 -1.576 4.206
 0.738 -1.576 4.204
 0.751 -1.577 4.204
 0.764 -1.577 4.202
 0.778 -1.58 4.207
 0.792 -1.582 4.21
 0.805 -1.583 4.212
 0.818 -1.584 4.211
 0.832 -1.586 4.214
 0.845 -1.585 4.209
 0.857 -1.585 4.206
 0.87 -1.585 4.206
 0.883 -1.585 4.202
 0.896 -1.585 4.2
 0.909 -1.586 4.199
 0.922 -1.587 4.2
 0.938 -1.591 4.207
 0.951 -1.591 4.205
 0.963 -1.591 4.202
 0.977 -1.592 4.202
 0.99 -1.593 4.201
 1.003 -1.592 4.197
 1.016 -1.592 4.195
 1.03 -1.595 4.198
 1.043 -1.595 4.197
 1.056 -1.595 4.194
 1.07 -1.597 4.196
 1.083 -1.597 4.192
 1.095 -1.595 4.185
 1.108 -1.595 4.182
 1.12 -1.595 4.177
 1.131 -1.592 4.167
 1.145 -1.594 4.168
 1.16 -1.597 4.173
 1.172 -1.595 4.165
 1.188 -1.599 4.172
 1.203 -1.602 4.177
 1.217 -1.604 4.178
 1.229 -1.603 4.171
 1.245 -1.606 4.177
 1.258 -1.606 4.174
 1.269 -1.604 4.163
 1.282 -1.605 4.162
 1.298 -1.608 4.167
 1.311 -1.609 4.165
 1.325 -1.609 4.163
 1.34 -1.612 4.166
 1.355 -1.614 4.168
 1.365 -1.611 4.155
 1.379 -1.612 4.154
 1.39 -1.61 4.145
 1.405 -1.612 4.146
 1.417 -1.611 4.139
 1.43 -1.611 4.135
 1.443 -1.61 4.13
 1.455 -1.61 4.124
 1.468 -1.61 4.12
 1.48 -1.609 4.113
 1.496 -1.612 4.118
 1.51 -1.613 4.115
 1.526 -1.616 4.118
 1.54 -1.618 4.118
 1.552 -1.617 4.111
 1.566 -1.617 4.108
 1.58 -1.619 4.107
 1.59 -1.616 4.094
 1.601 -1.613 4.084
 1.616 -1.616 4.086
 1.629 -1.615 4.079
 1.64 -1.613 4.07
 1.656 -1.617 4.073
 1.667 -1.615 4.063
 1.679 -1.614 4.056
 1.694 -1.616 4.056
 1.706 -1.615 4.049
 1.719 -1.615 4.043
 1.732 -1.615 4.038
 1.746 -1.615 4.035
 1.759 -1.615 4.029
 1.775 -1.619 4.032
 1.789 -1.619 4.028
 1.802 -1.619 4.024
 1.811 -1.616 4.01
 1.82 -1.612 3.995
 1.829 -1.609 3.981
 1.84 -1.607 3.972
 1.849 -1.604 3.957
 1.858 -1.6 3.943
 1.862 -1.593 3.919
 1.869 -1.587 3.901
 1.872 -1.58 3.875
 1.877 -1.573 3.855
 1.879 -1.565 3.827
 1.882 -1.557 3.802
 1.886 -1.55 3.779
 1.884 -1.538 3.745
 1.883 -1.527 3.712
 1.883 -1.517 3.683
 1.888 -1.512 3.664
 1.888 -1.502 3.634
 1.889 -1.493 3.607
 1.895 -1.489 3.591
 1.909 -1.49 3.589
 1.91 -1.482 3.563
 0 0 0
 0 0 0
 0 0 0
 0 0 0
 0 0 0
 0 0 0
 0 0 0
 1.801 -1.331 3.157
 1.819 -1.337 3.163
 1.826 -1.334 3.151
 1.837 -1.335 3.147
 1.84 -1.329 3.129
 1.845 -1.325 3.113
 1.845 -1.317 3.089
 1.843 -1.308 3.063
 1.839 -1.298 3.033
 1.832 -1.286 3
 1.849 -1.291 3.005
 -2.337 -1.635 3.937
 -2.305 -1.622 3.914
 -2.29 -1.621 3.917
 -2.278 -1.622 3.927
 -2.263 -1.621 3.931
 -2.246 -1.619 3.931
 -2.234 -1.62 3.94
 -2.221 -1.62 3.946
 -2.204 -1.617 3.947
 -2.192 -1.618 3.956
 -2.183 -1.621 3.97
 -2.166 -1.619 3.97
 -2.148 -1.616 3.968
 -2.135 -1.616 3.975
 -2.124 -1.618 3.985
 -2.11 -1.617 3.991
 -2.097 -1.618 3.998
 -2.09 -1.623 4.016
 -2.079 -1.624 4.025
 -2.067 -1.626 4.034
 -2.049 -1.622 4.032
 -2.036 -1.623 4.039
 -2.02 -1.621 4.039
 -2.004 -1.619 4.04
 -1.989 -1.618 4.043
 -1.976 -1.618 4.049
 -1.963 -1.618 4.055
 -1.949 -1.617 4.059
 -1.935 -1.617 4.063
 -1.918 -1.614 4.062
 -1.906 -1.615 4.07
 -1.893 -1.615 4.075
 -1.88 -1.616 4.081
 -1.865 -1.615 4.085
 -1.853 -1.616 4.092
 -1.845 -1.62 4.109
 -1.83 -1.619 4.111
 -1.817 -1.619 4.117
 -1.807 -1.623 4.13
 -1.793 -1.622 4.134
 -1.772 -1.615 4.121
 -1.76 -1.617 4.129
 -1.747 -1.617 4.135
 -1.732 -1.615 4.135
 -1.719 -1.615 4.14
 -1.706 -1.616 4.147
 -1.693 -1.616 4.152
 -1.677 -1.614 4.15
 -1.664 -1.614 4.156
 -1.649 -1.613 4.156
 -1.634 -1.611 4.156
 -1.619 -1.609 4.156
 -1.607 -1.61 4.164
 -1.591 -1.608 4.162
 -1.578 -1.608 4.167
 -1.563 -1.606 4.166
 -1.549 -1.606 4.17
 -1.536 -1.606 4.175
 -1.52 -1.603 4.171
 -1.506 -1.602 4.171
 -1.491 -1.601 4.172
 -1.476 -1.599 4.17
 -1.461 -1.597 4.17
 -1.451 -1.6 4.181
 -1.437 -1.599 4.183
 -1.425 -1.601 4.191
 -1.413 -1.603 4.2
 -1.4 -1.602 4.202
 -1.386 -1.601 4.203
 -1.373 -1.602 4.209
 -1.36 -1.602 4.212
 -1.345 -1.6 4.211
 -1.333 -1.602 4.218
 -1.32 -1.602 4.224
 -1.306 -1.601 4.224
 -1.294 -1.603 4.232
 -1.281 -1.603 4.236
 -1.267 -1.602 4.237
 -1.252 -1.6 4.233
 -1.237 -1.598 4.231
 -1.224 -1.598 4.234
 -1.21 -1.596 4.234
 -1.197 -1.596 4.237
 -1.185 -1.598 4.244
 -1.172 -1.598 4.248
 -1.156 -1.595 4.242
 -1.142 -1.594 4.241
 -1.127 -1.59 4.236
 -1.112 -1.588 4.233
 -1.098 -1.587 4.233
 -1.086 -1.588 4.237
 -1.073 -1.588 4.241
 -1.059 -1.587 4.24
 -1.045 -1.587 4.242
 -1.033 -1.588 4.249
 -1.021 -1.59 4.255
 -1.007 -1.588 4.253
 -0.996 -1.591 4.263
 -0.982 -1.59 4.263
 -0.967 -1.587 4.257
 -0.953 -1.585 4.255
 -0.94 -1.585 4.258
 -0.926 -1.583 4.255
 -0.912 -1.582 4.253
 -0.9 -1.584 4.26
 -0.886 -1.583 4.261
 -0.873 -1.582 4.261
 -0.859 -1.58 4.256
 -0.845 -1.58 4.258
 -0.832 -1.578 4.255
 -0.818 -1.576 4.253
 -0.805 -1.577 4.257
 -0.793 -1.578 4.261
 -0.78 -1.579 4.265
 -0.767 -1.578 4.265
 -0.754 -1.578 4.266
 -0.739 -1.574 4.259
 -0.726 -1.574 4.258
 -0.712 -1.573 4.258
 -0.699 -1.573 4.259
 -0.686 -1.571 4.256
 -0.673 -1.571 4.257
 -0.659 -1.57 4.256
 -0.646 -1.568 4.253
 -0.632 -1.566 4.249
 -0.619 -1.566 4.25
 -0.606 -1.567 4.253
 -0.593 -1.565 4.249
 -0.58 -1.566 4.255
 -0.568 -1.567 4.258
 -0.555 -1.567 4.26
 -0.542 -1.567 4.26
 -0.529 -1.567 4.262
 -0.516 -1.565 4.258
 -0.502 -1.563 4.254
 -0.489 -1.562 4.252
 -0.476 -1.562 4.253
 -0.464 -1.563 4.256
 -0.451 -1.563 4.257
 -0.438 -1.564 4.262
 -0.425 -1.564 4.261
 -0.412 -1.563 4.261
 -0.399 -1.563 4.26
 -0.386 -1.561 4.257
 -0.373 -1.562 4.258
 -0.36 -1.56 4.255
 -0.347 -1.56 4.254
 -0.334 -1.56 4.255
 -0.322 -1.561 4.258
 -0.309 -1.561 4.26
 -0.297 -1.562 4.264
 -0.284 -1.561 4.261
 -0.27 -1.559 4.256
 -0.257 -1.557 4.252
 -0.244 -1.554 4.244
 -0.231 -1.554 4.243
 -0.219 -1.554 4.244
 -0.206 -1.554 4.243
 -0.193 -1.554 4.246
 -0.18 -1.555 4.249
 -0.168 -1.556 4.251
 -0.155 -1.558 4.257
 -0.142 -1.559 4.259
 -0.13 -1.557 4.255
 -0.117 -1.556 4.253
 -0.104 -1.555 4.249
 -0.091 -1.552 4.24
 -0.078 -1.55 4.235
 -0.065 -1.549 4.234
 -0.053 -1.548 4.231
 -0.04 -1.548 4.23
 -0.027 -1.547 4.228
 -0.015 -1.55 4.234
 -0.002 -1.552 4.241
 0.01 -1.554 4.247
 0.023 -1.555 4.249
 0.035 -1.556 4.25
 0.048 -1.555 4.247
 0.061 -1.552 4.239
 0.073 -1.552 4.239
 0.086 -1.551 4.236
 0.099 -1.551 4.237
 0.112 -1.554 4.244
 0.124 -1.556 4.247
 0.137 -1.555 4.246
 0.15 -1.554 4.242
 0.162 -1.554 4.241
 0.175 -1.55 4.23
 0.188 -1.552 4.234
 0.2 -1.552 4.233
 0.213 -1.553 4.235
 0.226 -1.554 4.239
 0.239 -1.557 4.247
 0.252 -1.556 4.243
 0.265 -1.557 4.243
 0.278 -1.56 4.252
 0.291 -1.561 4.254
 0.303 -1.559 4.248
 0.316 -1.559 4.246
 0.329 -1.56 4.248
 0.341 -1.559 4.243
 0.353 -1.556 4.234
 0.366 -1.557 4.235
 0.379 -1.554 4.227
 0.391 -1.554 4.227
 0.404 -1.553 4.223
 0.417 -1.554 4.224
 0.43 -1.555 4.224
 0.443 -1.559 4.235
 0.457 -1.56 4.237
 0.47 -1.564 4.245
 0.483 -1.564 4.244
 0.496 -1.565 4.244
 0.509 -1.564 4.241
 0.521 -1.562 4.235
 0.533 -1.56 4.228
 0.545 -1.56 4.225
 0.558 -1.559 4.223
 0.571 -1.559 4.219
 0.584 -1.561 4.224
 0.597 -1.562 4.224
 0.611 -1.563 4.227
 0.624 -1.565 4.229
 0.637 -1.566 4.231
 0.65 -1.565 4.226
 0.663 -1.566 4.226
 0.675 -1.566 4.224
 0.688 -1.565 4.221
 0.701 -1.567 4.223
 0.714 -1.567 4.222
 0.727 -1.567 4.22
 0.739 -1.566 4.215
 0.753 -1.567 4.216
 0.765 -1.567 4.213
 0.778 -1.567 4.212
 0.792 -1.57 4.216
 0.806 -1.572 4.22
 0.819 -1.572 4.218
 0.832 -1.573 4.217
 0.844 -1.572 4.212
 0.857 -1.571 4.207
 0.87 -1.572 4.207
 0.883 -1.572 4.205
 0.896 -1.572 4.202
 0.909 -1.573 4.203
 0.923 -1.575 4.207
 0.937 -1.577 4.209
 0.95 -1.577 4.207
 0.964 -1.579 4.209
 0.978 -1.58 4.209
 0.99 -1.58 4.207
 1.004 -1.58 4.205
 1.017 -1.581 4.205
 1.03 -1.582 4.203
 1.044 -1.584 4.205
 1.057 -1.584 4.202
 1.072 -1.586 4.205
 1.084 -1.586 4.201
 1.097 -1.585 4.196
 1.11 -1.585 4.194
 1.124 -1.587 4.194
 1.135 -1.584 4.184
 1.149 -1.585 4.185
 1.163 -1.587 4.186
 1.175 -1.586 4.179
 1.19 -1.589 4.183
 1.204 -1.59 4.184
 1.219 -1.593 4.188
 1.232 -1.593 4.184
 1.247 -1.596 4.188
 1.26 -1.595 4.184
 1.272 -1.595 4.178
 1.285 -1.595 4.176
 1.3 -1.598 4.179
 1.314 -1.599 4.178
 1.329 -1.601 4.179
 1.343 -1.602 4.18
 1.359 -1.605 4.184
 1.369 -1.602 4.172
 1.382 -1.602 4.167
 1.394 -1.601 4.16
 1.41 -1.605 4.166
 1.421 -1.602 4.155
 1.435 -1.603 4.154
 1.449 -1.605 4.153
 1.461 -1.603 4.145
 1.473 -1.603 4.139
 1.488 -1.604 4.139
 1.504 -1.607 4.143
 1.517 -1.608 4.139
 1.533 -1.61 4.142
 1.547 -1.612 4.141
 1.558 -1.609 4.131
 1.572 -1.61 4.128
 1.587 -1.612 4.128
 1.597 -1.609 4.116
 1.608 -1.607 4.106
 1.623 -1.609 4.106
 1.637 -1.61 4.103
 1.648 -1.608 4.095
 1.666 -1.613 4.101
 1.679 -1.613 4.096
 1.692 -1.613 4.091
 1.706 -1.614 4.09
 1.718 -1.612 4.08
 1.73 -1.612 4.074
 1.743 -1.611 4.068
 1.756 -1.612 4.063
 1.767 -1.61 4.053
 1.783 -1.613 4.055
 1.797 -1.613 4.05
 1.808 -1.612 4.042
 1.819 -1.609 4.031
 1.827 -1.605 4.014
 1.835 -1.601 3.999
 1.845 -1.598 3.987
 1.853 -1.594 3.97
 1.861 -1.59 3.954
 1.865 -1.583 3.931
 1.871 -1.577 3.911
 1.874 -1.569 3.885
 1.879 -1.562 3.863
 1.881 -1.553 3.835
 1.886 -1.547 3.815
 1.89 -1.54 3.791
 1.888 -1.529 3.757
 1.89 -1.52 3.731
 1.89 -1.51 3.701
 1.896 -1.505 3.683
 1.897 -1.496 3.655
 1.899 -1.489 3.632
 1.907 -1.485 3.617
 1.931 -1.495 3.635
 0 0 0
 0 0 0
 0 0 0
 0 0 0
 0 0 0
 0 0 0
 0 0 0
 0 0 0
 0 0 0
 1.817 -1.324 3.164
 1.827 -1.324 3.157
 1.839 -1.324 3.153
 1.846 -1.322 3.142
 1.848 -1.316 3.121
 1.847 -1.307 3.096
 1.844 -1.298 3.068
 1.837 -1.286 3.033
 1.883 -1.311 3.087
 1.851 -1.281 3.011
 0 0 0
 -2.315 -1.615 3.935
 -2.305 -1.618 3.948
 -2.292 -1.619 3.956
 -2.279 -1.619 3.963
 -2.261 -1.616 3.962
 -2.249 -1.617 3.971
 -2.236 -1.618 3.98
 -2.22 -1.616 3.981
 -2.208 -1.617 3.991
 -2.195 -1.617 3.998
 -2.178 -1.614 3.996
 -2.159 -1.611 3.994
 -2.147 -1.612 4.003
 -2.134 -1.612 4.009
 -2.124 -1.615 4.022
 -2.112 -1.616 4.03
 -2.101 -1.618 4.041
 -2.09 -1.619 4.052
 -2.078 -1.621 4.061
 -2.059 -1.617 4.058
 -2.048 -1.618 4.067
 -2.033 -1.618 4.071
 -2.018 -1.616 4.073
 -2.004 -1.616 4.077
 -1.992 -1.617 4.087
 -1.977 -1.616 4.09
 -1.963 -1.616 4.094
 -1.948 -1.614 4.096
 -1.933 -1.613 4.098
 -1.919 -1.612 4.102
 -1.904 -1.611 4.105
 -1.891 -1.612 4.111
 -1.877 -1.611 4.114
 -1.861 -1.609 4.114
 -1.85 -1.611 4.125
 -1.836 -1.611 4.129
 -1.825 -1.613 4.139
 -1.815 -1.616 4.153
 -1.804 -1.618 4.164
 -1.787 -1.615 4.16
 -1.773 -1.615 4.164
 -1.756 -1.612 4.161
 -1.741 -1.61 4.162
 -1.726 -1.609 4.164
 -1.712 -1.609 4.167
 -1.701 -1.61 4.176
 -1.687 -1.61 4.18
 -1.675 -1.611 4.188
 -1.66 -1.61 4.189
 -1.645 -1.609 4.19
 -1.632 -1.609 4.195
 -1.619 -1.61 4.201
 -1.602 -1.606 4.195
 -1.59 -1.607 4.203
 -1.574 -1.605 4.201
 -1.559 -1.603 4.2
 -1.545 -1.602 4.203
 -1.53 -1.601 4.204
 -1.516 -1.6 4.205
 -1.501 -1.598 4.204
 -1.485 -1.595 4.201
 -1.472 -1.595 4.205
 -1.459 -1.596 4.211
 -1.444 -1.594 4.209
 -1.432 -1.596 4.218
 -1.42 -1.597 4.225
 -1.407 -1.597 4.228
 -1.393 -1.596 4.23
 -1.381 -1.598 4.237
 -1.367 -1.597 4.24
 -1.352 -1.596 4.239
 -1.338 -1.595 4.24
 -1.326 -1.596 4.245
 -1.311 -1.594 4.246
 -1.299 -1.596 4.253
 -1.287 -1.597 4.26
 -1.273 -1.596 4.26
 -1.257 -1.593 4.256
 -1.243 -1.591 4.254
 -1.228 -1.589 4.251
 -1.212 -1.586 4.247
 -1.199 -1.586 4.25
 -1.186 -1.587 4.254
 -1.174 -1.589 4.262
 -1.16 -1.587 4.26
 -1.147 -1.588 4.265
 -1.132 -1.584 4.259
 -1.117 -1.583 4.258
 -1.103 -1.581 4.256
 -1.09 -1.581 4.259
 -1.076 -1.58 4.258
 -1.062 -1.579 4.257
 -1.048 -1.578 4.258
 -1.036 -1.579 4.264
 -1.023 -1.579 4.267
 -1.009 -1.577 4.264
 -0.996 -1.578 4.269
 -0.983 -1.579 4.272
 -0.968 -1.575 4.266
 -0.954 -1.574 4.266
 -0.942 -1.575 4.27
 -0.928 -1.575 4.272
 -0.914 -1.573 4.269
 -0.902 -1.574 4.274
 -0.888 -1.573 4.273
 -0.875 -1.573 4.274
 -0.86 -1.57 4.27
 -0.847 -1.57 4.272
 -0.833 -1.567 4.265
 -0.819 -1.566 4.265
 -0.806 -1.565 4.264
 -0.793 -1.565 4.266
 -0.779 -1.564 4.265
 -0.767 -1.565 4.269
 -0.753 -1.565 4.27
 -0.74 -1.563 4.268
 -0.727 -1.563 4.268
 -0.714 -1.563 4.27
 -0.701 -1.563 4.271
 -0.687 -1.561 4.267
 -0.673 -1.559 4.265
 -0.66 -1.558 4.263
 -0.646 -1.556 4.259
 -0.633 -1.555 4.259
 -0.62 -1.555 4.26
 -0.607 -1.555 4.261
 -0.593 -1.554 4.258
 -0.581 -1.555 4.263
 -0.568 -1.556 4.266
 -0.556 -1.556 4.269
 -0.543 -1.556 4.271
 -0.53 -1.557 4.273
 -0.517 -1.555 4.27
 -0.503 -1.552 4.262
 -0.49 -1.552 4.262
 -0.477 -1.553 4.266
 -0.464 -1.552 4.264
 -0.451 -1.552 4.266
 -0.439 -1.554 4.272
 -0.425 -1.552 4.267
 -0.412 -1.55 4.262
 -0.399 -1.549 4.262
 -0.386 -1.548 4.259
 -0.373 -1.547 4.258
 -0.36 -1.547 4.259
 -0.347 -1.548 4.261
 -0.335 -1.548 4.262
 -0.322 -1.548 4.264
 -0.309 -1.549 4.265
 -0.296 -1.549 4.266
 -0.283 -1.547 4.262
 -0.27 -1.547 4.263
 -0.257 -1.546 4.259
 -0.244 -1.544 4.254
 -0.232 -1.544 4.255
 -0.219 -1.544 4.257
 -0.206 -1.543 4.252
 -0.193 -1.544 4.258
 -0.181 -1.545 4.259
 -0.168 -1.545 4.259
 -0.155 -1.547 4.265
 -0.142 -1.547 4.267
 -0.13 -1.546 4.263
 -0.117 -1.545 4.261
 -0.104 -1.544 4.257
 -0.091 -1.54 4.248
 -0.078 -1.54 4.246
 -0.065 -1.538 4.241
 -0.053 -1.537 4.239
 -0.04 -1.538 4.241
 -0.027 -1.537 4.239
 -0.015 -1.539 4.243
 -0.002 -1.541 4.248
 0.01 -1.542 4.252
 0.023 -1.543 4.253
 0.035 -1.544 4.257
 0.048 -1.543 4.254
 0.061 -1.542 4.25
 0.073 -1.54 4.246
 0.086 -1.539 4.241
 0.099 -1.538 4.24
 0.112 -1.541 4.247
 0.124 -1.541 4.246
 0.137 -1.542 4.248
 0.15 -1.541 4.245
 0.162 -1.54 4.242
 0.175 -1.536 4.23
 0.188 -1.538 4.234
 0.2 -1.538 4.234
 0.213 -1.539 4.236
 0.226 -1.542 4.243
 0.239 -1.545 4.251
 0.252 -1.544 4.247
 0.265 -1.545 4.249
 0.278 -1.548 4.258
 0.291 -1.549 4.259
 0.304 -1.547 4.254
 0.316 -1.547 4.251
 0.329 -1.548 4.252
 0.341 -1.545 4.244
 0.354 -1.543 4.238
 0.366 -1.543 4.238
 0.379 -1.543 4.235
 0.391 -1.542 4.231
 0.404 -1.541 4.229
 0.417 -1.541 4.227
 0.43 -1.544 4.232
 0.443 -1.546 4.239
 0.457 -1.548 4.241
 0.471 -1.552 4.251
 0.484 -1.552 4.251
 0.496 -1.55 4.243
 0.508 -1.549 4.24
 0.521 -1.548 4.235
 0.532 -1.545 4.226
 0.544 -1.544 4.22
 0.557 -1.545 4.221
 0.57 -1.544 4.218
 0.583 -1.546 4.222
 0.597 -1.548 4.224
 0.611 -1.551 4.231
 0.624 -1.552 4.233
 0.638 -1.555 4.24
 0.651 -1.555 4.237
 0.663 -1.554 4.232
 0.676 -1.554 4.231
 0.689 -1.554 4.229
 0.701 -1.554 4.226
 0.714 -1.553 4.223
 0.727 -1.554 4.224
 0.739 -1.553 4.219
 0.752 -1.554 4.219
 0.765 -1.554 4.216
 0.778 -1.554 4.216
 0.792 -1.555 4.216
 0.805 -1.557 4.219
 0.818 -1.557 4.216
 0.832 -1.558 4.218
 0.845 -1.559 4.218
 0.858 -1.56 4.217
 0.871 -1.56 4.216
 0.885 -1.562 4.218
 0.898 -1.562 4.216
 0.91 -1.562 4.213
 0.923 -1.562 4.211
 0.938 -1.565 4.215
 0.95 -1.564 4.211
 0.964 -1.565 4.211
 0.978 -1.567 4.213
 0.991 -1.568 4.213
 1.005 -1.569 4.214
 1.019 -1.571 4.216
 1.032 -1.572 4.215
 1.046 -1.573 4.216
 1.059 -1.574 4.214
 1.073 -1.575 4.215
 1.085 -1.574 4.209
 1.099 -1.575 4.208
 1.113 -1.576 4.208
 1.126 -1.577 4.206
 1.138 -1.575 4.199
 1.152 -1.577 4.2
 1.165 -1.577 4.199
 1.176 -1.575 4.189
 1.191 -1.577 4.192
 1.205 -1.579 4.192
 1.219 -1.58 4.192
 1.232 -1.58 4.189
 1.247 -1.583 4.193
 1.26 -1.583 4.19
 1.273 -1.583 4.185
 1.287 -1.584 4.185
 1.302 -1.587 4.189
 1.316 -1.588 4.188
 1.331 -1.59 4.19
 1.346 -1.592 4.191
 1.361 -1.595 4.194
 1.371 -1.592 4.182
 1.384 -1.592 4.179
 1.397 -1.591 4.172
 1.412 -1.594 4.175
 1.423 -1.592 4.166
 1.438 -1.593 4.165
 1.453 -1.595 4.168
 1.466 -1.596 4.164
 1.479 -1.595 4.159
 1.494 -1.597 4.16
 1.51 -1.6 4.163
 1.521 -1.599 4.155
 1.537 -1.601 4.157
 1.551 -1.603 4.157
 1.562 -1.601 4.146
 1.577 -1.602 4.146
 1.593 -1.605 4.148
 1.603 -1.602 4.136
 1.615 -1.601 4.129
 1.63 -1.603 4.13
 1.645 -1.604 4.128
 1.657 -1.604 4.122
 1.673 -1.606 4.123
 1.687 -1.607 4.121
 1.701 -1.608 4.117
 1.715 -1.608 4.114
 1.725 -1.606 4.101
 1.74 -1.608 4.102
 1.752 -1.607 4.094
 1.765 -1.606 4.088
 1.776 -1.604 4.078
 1.793 -1.608 4.082
 1.804 -1.606 4.071
 1.815 -1.604 4.062
 1.826 -1.603 4.052
 1.834 -1.598 4.034
 1.843 -1.594 4.02
 1.851 -1.59 4.004
 1.86 -1.586 3.989
 1.866 -1.581 3.969
 1.871 -1.575 3.948
 1.875 -1.567 3.923
 1.878 -1.559 3.898
 1.883 -1.552 3.875
 1.884 -1.543 3.847
 1.888 -1.536 3.823
 1.892 -1.529 3.8
 1.892 -1.519 3.769
 1.894 -1.511 3.744
 1.894 -1.501 3.713
 1.897 -1.494 3.69
 1.897 -1.484 3.66
 1.902 -1.479 3.641
 0 0 0
 0 0 0
 0 0 0
 0 0 0
 0 0 0
 0 0 0
 0 0 0
 0 0 0
 0 0 0
 0 0 0
 0 0 0
 1.826 -1.32 3.183
 1.824 -1.311 3.157
 1.836 -1.312 3.152
 1.843 -1.309 3.14
 1.844 -1.302 3.119
 1.842 -1.294 3.092
 1.843 -1.287 3.07
 1.836 -1.275 3.036
 1.819 -1.256 2.984
 1.812 -1.244 2.951
 0 0 0
 -2.323 -1.608 3.955
 -2.316 -1.612 3.972
 -2.304 -1.614 3.982
 -2.292 -1.615 3.991
 -2.278 -1.615 3.998
 -2.267 -1.616 4.009
 -2.254 -1.617 4.016
 -2.236 -1.614 4.015
 -2.222 -1.614 4.021
 -2.207 -1.612 4.024
 -2.193 -1.613 4.031
 -2.176 -1.61 4.03
 -2.164 -1.611 4.04
 -2.154 -1.614 4.053
 -2.144 -1.616 4.064
 -2.127 -1.614 4.065
 -2.115 -1.615 4.074
 -2.104 -1.617 4.085
 -2.09 -1.617 4.09
 -2.073 -1.614 4.089
 -2.061 -1.615 4.097
 -2.046 -1.615 4.102
 -2.031 -1.614 4.105
 -2.017 -1.613 4.109
 -2.004 -1.614 4.116
 -1.989 -1.612 4.119
 -1.975 -1.612 4.124
 -1.961 -1.611 4.128
 -1.944 -1.609 4.128
 -1.927 -1.606 4.125
 -1.914 -1.607 4.132
 -1.9 -1.606 4.135
 -1.883 -1.603 4.134
 -1.868 -1.602 4.134
 -1.859 -1.605 4.149
 -1.846 -1.606 4.156
 -1.836 -1.609 4.17
 -1.827 -1.613 4.185
 -1.817 -1.617 4.199
 -1.802 -1.615 4.199
 -1.787 -1.614 4.202
 -1.77 -1.611 4.198
 -1.755 -1.61 4.201
 -1.74 -1.608 4.201
 -1.724 -1.606 4.2
 -1.711 -1.607 4.207
 -1.696 -1.605 4.206
 -1.682 -1.605 4.21
 -1.666 -1.602 4.209
 -1.653 -1.603 4.214
 -1.639 -1.603 4.219
 -1.628 -1.605 4.228
 -1.611 -1.601 4.224
 -1.599 -1.603 4.231
 -1.583 -1.6 4.228
 -1.567 -1.598 4.227
 -1.553 -1.597 4.229
 -1.54 -1.598 4.234
 -1.524 -1.595 4.233
 -1.509 -1.594 4.233
 -1.494 -1.591 4.229
 -1.479 -1.59 4.231
 -1.465 -1.589 4.231
 -1.451 -1.589 4.235
 -1.438 -1.589 4.24
 -1.426 -1.59 4.246
 -1.412 -1.59 4.25
 -1.399 -1.59 4.254
 -1.385 -1.589 4.254
 -1.373 -1.591 4.262
 -1.359 -1.59 4.263
 -1.345 -1.589 4.265
 -1.332 -1.589 4.269
 -1.319 -1.59 4.274
 -1.306 -1.591 4.279
 -1.292 -1.59 4.281
 -1.278 -1.589 4.283
 -1.262 -1.586 4.276
 -1.247 -1.583 4.272
 -1.23 -1.579 4.264
 -1.215 -1.577 4.263
 -1.203 -1.578 4.267
 -1.19 -1.579 4.272
 -1.178 -1.58 4.279
 -1.164 -1.58 4.281
 -1.151 -1.579 4.283
 -1.134 -1.575 4.273
 -1.122 -1.576 4.279
 -1.107 -1.573 4.274
 -1.093 -1.573 4.277
 -1.08 -1.572 4.278
 -1.065 -1.57 4.275
 -1.05 -1.568 4.27
 -1.037 -1.568 4.274
 -1.024 -1.568 4.276
 -1.009 -1.566 4.273
 -0.998 -1.568 4.281
 -0.984 -1.567 4.281
 -0.97 -1.565 4.279
 -0.956 -1.564 4.278
 -0.943 -1.564 4.281
 -0.929 -1.564 4.281
 -0.916 -1.563 4.281
 -0.903 -1.563 4.283
 -0.888 -1.56 4.279
 -0.876 -1.561 4.283
 -0.861 -1.559 4.279
 -0.848 -1.559 4.281
 -0.834 -1.556 4.274
 -0.821 -1.556 4.277
 -0.806 -1.554 4.272
 -0.793 -1.553 4.272
 -0.779 -1.551 4.268
 -0.766 -1.552 4.272
 -0.753 -1.55 4.269
 -0.739 -1.549 4.268
 -0.725 -1.548 4.266
 -0.713 -1.548 4.269
 -0.7 -1.549 4.273
 -0.687 -1.548 4.272
 -0.674 -1.548 4.272
 -0.66 -1.546 4.271
 -0.647 -1.545 4.268
 -0.633 -1.543 4.264
 -0.62 -1.544 4.268
 -0.607 -1.544 4.269
 -0.594 -1.543 4.269
 -0.582 -1.544 4.272
 -0.569 -1.544 4.275
 -0.556 -1.544 4.274
 -0.543 -1.544 4.276
 -0.53 -1.543 4.275
 -0.516 -1.542 4.273
 -0.502 -1.538 4.264
 -0.49 -1.539 4.267
 -0.477 -1.54 4.269
 -0.464 -1.54 4.272
 -0.451 -1.54 4.273
 -0.439 -1.542 4.279
 -0.426 -1.54 4.274
 -0.412 -1.538 4.269
 -0.399 -1.537 4.268
 -0.386 -1.535 4.264
 -0.373 -1.536 4.266
 -0.36 -1.536 4.267
 -0.348 -1.536 4.268
 -0.334 -1.535 4.264
 -0.322 -1.534 4.265
 -0.309 -1.533 4.262
 -0.296 -1.532 4.26
 -0.283 -1.531 4.258
 -0.27 -1.533 4.263
 -0.257 -1.532 4.261
 -0.244 -1.53 4.256
 -0.231 -1.53 4.257
 -0.219 -1.53 4.256
 -0.206 -1.529 4.254
 -0.193 -1.531 4.259
 -0.181 -1.533 4.266
 -0.168 -1.533 4.266
 -0.155 -1.535 4.273
 -0.142 -1.535 4.272
 -0.13 -1.534 4.27
 -0.117 -1.533 4.267
 -0.104 -1.533 4.266
 -0.091 -1.53 4.258
 -0.078 -1.53 4.259
 -0.065 -1.528 4.253
 -0.053 -1.527 4.249
 -0.04 -1.526 4.248
 -0.027 -1.526 4.246
 -0.014 -1.526 4.248
 -0.002 -1.529 4.254
 0.01 -1.53 4.257
 0.023 -1.531 4.262
 0.036 -1.533 4.265
 0.048 -1.532 4.262
 0.061 -1.53 4.258
 0.074 -1.529 4.255
 0.086 -1.527 4.249
 0.099 -1.527 4.248
 0.112 -1.529 4.251
 0.124 -1.528 4.249
 0.137 -1.529 4.251
 0.15 -1.528 4.248
 0.162 -1.527 4.244
 0.175 -1.524 4.235
 0.188 -1.527 4.242
 0.201 -1.527 4.242
 0.213 -1.528 4.244
 0.226 -1.53 4.251
 0.24 -1.533 4.258
 0.252 -1.531 4.252
 0.265 -1.532 4.254
 0.278 -1.535 4.261
 0.291 -1.536 4.262
 0.304 -1.534 4.257
 0.316 -1.534 4.256
 0.329 -1.535 4.257
 0.342 -1.533 4.25
 0.354 -1.532 4.247
 0.367 -1.532 4.247
 0.379 -1.531 4.242
 0.392 -1.53 4.238
 0.404 -1.53 4.236
 0.417 -1.529 4.233
 0.43 -1.532 4.238
 0.444 -1.535 4.246
 0.457 -1.536 4.247
 0.47 -1.538 4.253
 0.483 -1.539 4.253
 0.496 -1.537 4.248
 0.508 -1.536 4.242
 0.521 -1.536 4.24
 0.532 -1.533 4.231
 0.544 -1.531 4.224
 0.557 -1.531 4.222
 0.569 -1.53 4.218
 0.582 -1.531 4.218
 0.596 -1.532 4.221
 0.61 -1.535 4.227
 0.624 -1.538 4.234
 0.638 -1.542 4.244
 0.651 -1.543 4.244
 0.664 -1.543 4.243
 0.677 -1.543 4.242
 0.689 -1.542 4.236
 0.702 -1.541 4.231
 0.714 -1.54 4.226
 0.727 -1.541 4.226
 0.74 -1.54 4.223
 0.753 -1.541 4.223
 0.765 -1.541 4.221
 0.778 -1.541 4.219
 0.791 -1.542 4.219
 0.805 -1.544 4.222
 0.818 -1.545 4.222
 0.831 -1.545 4.22
 0.845 -1.546 4.222
 0.858 -1.548 4.224
 0.871 -1.547 4.22
 0.884 -1.548 4.219
 0.897 -1.548 4.218
 0.911 -1.549 4.218
 0.923 -1.549 4.215
 0.938 -1.552 4.219
 0.951 -1.552 4.217
 0.965 -1.554 4.221
 0.979 -1.556 4.223
 0.993 -1.558 4.224
 1.007 -1.56 4.227
 1.02 -1.56 4.226
 1.034 -1.561 4.225
 1.048 -1.563 4.226
 1.061 -1.563 4.224
 1.074 -1.563 4.223
 1.088 -1.565 4.224
 1.102 -1.566 4.223
 1.115 -1.566 4.221
 1.128 -1.567 4.219
 1.14 -1.565 4.211
 1.153 -1.566 4.21
 1.166 -1.566 4.207
 1.179 -1.565 4.202
 1.192 -1.566 4.201
 1.207 -1.568 4.203
 1.22 -1.568 4.198
 1.233 -1.568 4.197
 1.247 -1.57 4.197
 1.26 -1.569 4.192
 1.273 -1.57 4.191
 1.289 -1.573 4.195
 1.302 -1.573 4.191
 1.316 -1.575 4.192
 1.331 -1.577 4.194
 1.345 -1.578 4.194
 1.36 -1.58 4.195
 1.374 -1.581 4.194
 1.388 -1.583 4.193
 1.402 -1.583 4.191
 1.416 -1.585 4.191
 1.428 -1.584 4.185
 1.441 -1.584 4.18
 1.456 -1.586 4.181
 1.469 -1.585 4.175
 1.481 -1.585 4.17
 1.496 -1.587 4.171
 1.513 -1.591 4.177
 1.524 -1.589 4.168
 1.54 -1.591 4.17
 1.555 -1.593 4.17
 1.566 -1.591 4.16
 1.58 -1.592 4.158
 1.597 -1.596 4.163
 1.608 -1.593 4.153
 1.621 -1.593 4.148
 1.637 -1.596 4.151
 1.652 -1.598 4.15
 1.665 -1.598 4.145
 1.681 -1.6 4.146
 1.696 -1.602 4.146
 1.709 -1.602 4.14
 1.722 -1.602 4.136
 1.733 -1.599 4.124
 1.748 -1.602 4.125
 1.759 -1.6 4.115
 1.772 -1.6 4.109
 1.784 -1.598 4.1
 1.8 -1.601 4.101
 1.81 -1.598 4.088
 1.818 -1.594 4.073
 1.83 -1.592 4.064
 1.837 -1.587 4.046
 1.843 -1.582 4.026
 1.852 -1.578 4.011
 1.863 -1.576 4.001
 1.868 -1.57 3.979
 1.874 -1.564 3.958
 1.879 -1.558 3.937
 1.884 -1.551 3.915
 1.887 -1.543 3.889
 1.89 -1.535 3.862
 1.893 -1.527 3.838
 1.896 -1.52 3.813
 1.897 -1.511 3.784
 1.901 -1.504 3.761
 1.902 -1.495 3.733
 1.904 -1.487 3.706
 1.904 -1.477 3.678
 0 0 0
 0 0 0
 0 0 0
 0 0 0
 0 0 0
 0 0 0
 0 0 0
 0 0 0
 0 0 0
 0 0 0
 0 0 0
 0 0 0
 1.828 -1.31 3.19
 1.823 -1.3 3.159
 1.837 -1.302 3.159
 1.843 -1.299 3.145
 1.844 -1.291 3.122
 1.841 -1.282 3.095
 1.843 -1.276 3.074
 1.835 -1.263 3.037
 1.813 -1.242 2.979
 1.818 -1.238 2.964
 0 0 0
 0 0 0
 -2.338 -1.614 4.014
 -2.322 -1.613 4.019
 -2.312 -1.615 4.031
 -2.295 -1.613 4.032
 -2.281 -1.613 4.039
 -2.268 -1.613 4.046
 -2.251 -1.611 4.046
 -2.235 -1.61 4.05
 -2.224 -1.611 4.06
 -2.211 -1.612 4.068
 -2.194 -1.609 4.068
 -2.181 -1.61 4.075
 -2.17 -1.612 4.087
 -2.155 -1.611 4.091
 -2.14 -1.61 4.094
 -2.128 -1.611 4.103
 -2.118 -1.614 4.116
 -2.104 -1.614 4.123
 -2.09 -1.614 4.128
 -2.075 -1.612 4.131
 -2.061 -1.613 4.136
 -2.047 -1.612 4.141
 -2.031 -1.611 4.144
 -2.018 -1.611 4.149
 -2.004 -1.611 4.155
 -1.99 -1.611 4.16
 -1.976 -1.611 4.165
 -1.96 -1.608 4.165
 -1.944 -1.607 4.166
 -1.932 -1.608 4.174
 -1.917 -1.607 4.178
 -1.902 -1.606 4.18
 -1.887 -1.605 4.183
 -1.875 -1.606 4.191
 -1.862 -1.607 4.198
 -1.849 -1.607 4.204
 -1.836 -1.608 4.211
 -1.825 -1.61 4.221
 -1.81 -1.609 4.224
 -1.793 -1.606 4.22
 -1.776 -1.603 4.218
 -1.761 -1.602 4.219
 -1.747 -1.601 4.223
 -1.731 -1.599 4.222
 -1.719 -1.601 4.232
 -1.705 -1.601 4.235
 -1.691 -1.6 4.239
 -1.676 -1.599 4.239
 -1.662 -1.598 4.242
 -1.649 -1.599 4.248
 -1.636 -1.6 4.255
 -1.62 -1.597 4.252
 -1.606 -1.596 4.254
 -1.591 -1.595 4.256
 -1.575 -1.592 4.252
 -1.56 -1.591 4.253
 -1.548 -1.592 4.26
 -1.533 -1.591 4.261
 -1.518 -1.589 4.26
 -1.502 -1.587 4.258
 -1.488 -1.586 4.26
 -1.472 -1.583 4.256
 -1.458 -1.583 4.258
 -1.443 -1.582 4.26
 -1.43 -1.582 4.264
 -1.417 -1.582 4.269
 -1.404 -1.583 4.274
 -1.39 -1.581 4.274
 -1.377 -1.583 4.281
 -1.363 -1.581 4.281
 -1.348 -1.58 4.28
 -1.334 -1.579 4.281
 -1.32 -1.579 4.284
 -1.307 -1.579 4.288
 -1.294 -1.579 4.293
 -1.28 -1.578 4.293
 -1.264 -1.575 4.287
 -1.248 -1.572 4.281
 -1.233 -1.569 4.278
 -1.219 -1.568 4.278
 -1.205 -1.568 4.281
 -1.192 -1.568 4.283
 -1.18 -1.57 4.292
 -1.165 -1.568 4.289
 -1.151 -1.567 4.288
 -1.136 -1.564 4.284
 -1.124 -1.566 4.292
 -1.109 -1.563 4.288
 -1.095 -1.563 4.289
 -1.081 -1.561 4.288
 -1.066 -1.559 4.285
 -1.052 -1.557 4.282
 -1.038 -1.557 4.283
 -1.025 -1.556 4.283
 -1.01 -1.554 4.281
 -0.997 -1.554 4.283
 -0.983 -1.553 4.281
 -0.97 -1.552 4.283
 -0.957 -1.553 4.288
 -0.944 -1.553 4.289
 -0.931 -1.553 4.293
 -0.918 -1.553 4.294
 -0.904 -1.552 4.292
 -0.889 -1.549 4.287
 -0.877 -1.55 4.292
 -0.862 -1.547 4.286
 -0.848 -1.546 4.285
 -0.834 -1.543 4.28
 -0.82 -1.543 4.279
 -0.806 -1.54 4.273
 -0.792 -1.539 4.274
 -0.779 -1.539 4.274
 -0.766 -1.538 4.275
 -0.752 -1.537 4.273
 -0.739 -1.536 4.272
 -0.725 -1.535 4.27
 -0.712 -1.535 4.271
 -0.7 -1.536 4.276
 -0.687 -1.535 4.277
 -0.673 -1.534 4.275
 -0.66 -1.534 4.276
 -0.647 -1.534 4.277
 -0.634 -1.533 4.275
 -0.621 -1.533 4.277
 -0.609 -1.534 4.283
 -0.595 -1.533 4.281
 -0.582 -1.532 4.278
 -0.569 -1.532 4.28
 -0.556 -1.53 4.277
 -0.542 -1.53 4.277
 -0.53 -1.53 4.278
 -0.516 -1.529 4.276
 -0.502 -1.525 4.266
 -0.49 -1.526 4.271
 -0.477 -1.525 4.27
 -0.464 -1.525 4.271
 -0.451 -1.527 4.275
 -0.439 -1.528 4.279
 -0.425 -1.525 4.273
 -0.412 -1.525 4.272
 -0.399 -1.523 4.269
 -0.385 -1.521 4.263
 -0.373 -1.522 4.267
 -0.36 -1.523 4.27
 -0.347 -1.523 4.271
 -0.335 -1.522 4.27
 -0.322 -1.523 4.273
 -0.309 -1.521 4.269
 -0.296 -1.52 4.267
 -0.283 -1.519 4.264
 -0.27 -1.52 4.265
 -0.257 -1.518 4.262
 -0.244 -1.517 4.258
 -0.231 -1.517 4.259
 -0.218 -1.517 4.26
 -0.206 -1.517 4.26
 -0.193 -1.518 4.264
 -0.181 -1.521 4.271
 -0.168 -1.52 4.27
 -0.155 -1.522 4.276
 -0.142 -1.521 4.274
 -0.13 -1.521 4.274
 -0.117 -1.52 4.269
 -0.104 -1.519 4.268
 -0.091 -1.516 4.258
 -0.078 -1.517 4.262
 -0.065 -1.515 4.257
 -0.053 -1.515 4.256
 -0.04 -1.514 4.254
 -0.027 -1.515 4.256
 -0.014 -1.515 4.256
 -0.002 -1.516 4.258
 0.01 -1.517 4.26
 0.023 -1.518 4.265
 0.036 -1.519 4.267
 0.048 -1.518 4.263
 0.061 -1.517 4.261
 0.074 -1.516 4.257
 0.086 -1.515 4.253
 0.099 -1.514 4.25
 0.112 -1.514 4.251
 0.124 -1.514 4.251
 0.137 -1.516 4.255
 0.15 -1.516 4.254
 0.163 -1.515 4.251
 0.175 -1.513 4.246
 0.188 -1.515 4.251
 0.201 -1.515 4.248
 0.214 -1.516 4.25
 0.227 -1.518 4.257
 0.24 -1.52 4.26
 0.252 -1.518 4.254
 0.265 -1.519 4.257
 0.278 -1.52 4.257
 0.29 -1.519 4.254
 0.303 -1.519 4.253
 0.316 -1.519 4.252
 0.329 -1.519 4.253
 0.341 -1.519 4.25
 0.354 -1.519 4.25
 0.367 -1.519 4.249
 0.379 -1.518 4.246
 0.392 -1.517 4.242
 0.405 -1.517 4.241
 0.417 -1.517 4.239
 0.43 -1.518 4.241
 0.444 -1.52 4.245
 0.456 -1.521 4.246
 0.47 -1.523 4.25
 0.482 -1.523 4.248
 0.495 -1.521 4.243
 0.507 -1.521 4.241
 0.52 -1.521 4.24
 0.532 -1.518 4.23
 0.544 -1.517 4.224
 0.557 -1.517 4.225
 0.569 -1.516 4.22
 0.582 -1.517 4.219
 0.596 -1.519 4.225
 0.61 -1.522 4.23
 0.624 -1.525 4.238
 0.638 -1.53 4.248
 0.651 -1.53 4.247
 0.664 -1.53 4.245
 0.677 -1.53 4.245
 0.689 -1.529 4.239
 0.701 -1.527 4.232
 0.714 -1.527 4.231
 0.727 -1.529 4.232
 0.74 -1.528 4.228
 0.753 -1.529 4.23
 0.767 -1.531 4.232
 0.78 -1.531 4.23
 0.793 -1.532 4.231
 0.807 -1.534 4.234
 0.819 -1.533 4.229
 0.832 -1.533 4.227
 0.845 -1.534 4.228
 0.858 -1.534 4.225
 0.871 -1.534 4.222
 0.884 -1.535 4.223
 0.898 -1.536 4.223
 0.911 -1.537 4.223
 0.925 -1.538 4.225
 0.938 -1.54 4.225
 0.951 -1.539 4.222
 0.965 -1.541 4.223
 0.978 -1.541 4.222
 0.991 -1.542 4.221
 1.006 -1.544 4.225
 1.019 -1.545 4.224
 1.033 -1.547 4.226
 1.048 -1.55 4.231
 1.062 -1.551 4.232
 1.075 -1.552 4.23
 1.089 -1.553 4.231
 1.101 -1.552 4.224
 1.113 -1.551 4.219
 1.127 -1.552 4.218
 1.138 -1.55 4.21
 1.152 -1.551 4.209
 1.166 -1.552 4.208
 1.18 -1.554 4.21
 1.193 -1.554 4.208
 1.208 -1.556 4.211
 1.221 -1.557 4.208
 1.234 -1.556 4.203
 1.247 -1.556 4.199
 1.259 -1.556 4.195
 1.273 -1.557 4.194
 1.288 -1.559 4.197
 1.303 -1.561 4.198
 1.317 -1.562 4.198
 1.332 -1.565 4.202
 1.347 -1.567 4.202
 1.361 -1.568 4.202
 1.375 -1.569 4.202
 1.389 -1.57 4.2
 1.402 -1.57 4.196
 1.415 -1.571 4.193
 1.428 -1.57 4.187
 1.442 -1.571 4.186
 1.458 -1.574 4.189
 1.47 -1.574 4.185
 1.484 -1.574 4.181
 1.5 -1.578 4.186
 1.515 -1.579 4.187
 1.527 -1.578 4.18
 1.544 -1.582 4.184
 1.558 -1.582 4.182
 1.57 -1.581 4.174
 1.584 -1.583 4.173
 1.6 -1.585 4.175
 1.611 -1.583 4.166
 1.626 -1.585 4.166
 1.64 -1.586 4.163
 1.656 -1.589 4.165
 1.67 -1.589 4.161
 1.684 -1.59 4.16
 1.7 -1.592 4.16
 1.714 -1.594 4.159
 1.728 -1.594 4.155
 1.739 -1.592 4.144
 1.753 -1.593 4.141
 1.765 -1.592 4.133
 1.778 -1.591 4.126
 1.788 -1.589 4.114
 1.804 -1.591 4.115
 1.813 -1.588 4.101
 1.823 -1.585 4.089
 1.833 -1.582 4.076
 1.841 -1.577 4.058
 1.849 -1.573 4.042
 1.859 -1.57 4.03
 1.869 -1.568 4.019
 1.876 -1.563 3.999
 1.881 -1.557 3.978
 1.884 -1.549 3.951
 1.889 -1.542 3.928
 1.89 -1.533 3.899
 1.893 -1.525 3.873
 1.895 -1.516 3.846
 1.898 -1.509 3.82
 1.898 -1.498 3.789
 1.902 -1.492 3.768
 1.905 -1.485 3.744
 1.91 -1.479 3.723
 0 0 0
 0 0 0
 0 0 0
 0 0 0
 0 0 0
 0 0 0
 0 0 0
 0 0 0
 0 0 0
 0 0 0
 0 0 0
 0 0 0
 0 0 0
 1.828 -1.299 3.194
 1.818 -1.285 3.153
 1.828 -1.285 3.147
 1.839 -1.284 3.141
 1.839 -1.277 3.118
 1.839 -1.27 3.093
 1.841 -1.264 3.074
 1.835 -1.253 3.041
 1.837 -1.247 3.022
 1.814 -1.225 2.962
 0 0 0
 0 0 0
 -2.352 -1.61 4.045
 -2.339 -1.61 4.052
 -2.329 -1.613 4.065
 -2.311 -1.61 4.064
 -2.298 -1.611 4.073
 -2.285 -1.611 4.081
 -2.268 -1.609 4.081
 -2.251 -1.607 4.082
 -2.239 -1.608 4.092
 -2.228 -1.61 4.104
 -2.213 -1.61 4.109
 -2.2 -1.61 4.117
 -2.189 -1.613 4.129
 -2.174 -1.612 4.133
 -2.159 -1.611 4.137
 -2.145 -1.611 4.142
 -2.134 -1.613 4.153
 -2.119 -1.612 4.158
 -2.106 -1.613 4.165
 -2.088 -1.609 4.163
 -2.073 -1.608 4.166
 -2.057 -1.607 4.167
 -2.041 -1.605 4.168
 -2.027 -1.605 4.173
 -2.014 -1.605 4.181
 -2.002 -1.606 4.19
 -1.99 -1.608 4.199
 -1.974 -1.606 4.2
 -1.957 -1.604 4.2
 -1.945 -1.605 4.209
 -1.931 -1.605 4.214
 -1.914 -1.602 4.212
 -1.902 -1.604 4.22
 -1.887 -1.603 4.223
 -1.875 -1.604 4.232
 -1.86 -1.603 4.234
 -1.846 -1.603 4.239
 -1.833 -1.604 4.246
 -1.82 -1.604 4.251
 -1.8 -1.599 4.243
 -1.784 -1.597 4.243
 -1.771 -1.597 4.248
 -1.757 -1.597 4.253
 -1.741 -1.595 4.252
 -1.728 -1.595 4.257
 -1.715 -1.596 4.263
 -1.701 -1.596 4.267
 -1.685 -1.594 4.267
 -1.672 -1.594 4.272
 -1.659 -1.594 4.278
 -1.644 -1.593 4.279
 -1.627 -1.59 4.275
 -1.611 -1.588 4.274
 -1.597 -1.587 4.275
 -1.58 -1.584 4.272
 -1.566 -1.583 4.273
 -1.552 -1.583 4.276
 -1.538 -1.583 4.28
 -1.522 -1.58 4.278
 -1.508 -1.579 4.279
 -1.492 -1.577 4.276
 -1.476 -1.574 4.273
 -1.461 -1.572 4.272
 -1.447 -1.573 4.276
 -1.433 -1.571 4.276
 -1.422 -1.575 4.289
 -1.41 -1.575 4.295
 -1.395 -1.574 4.294
 -1.38 -1.572 4.293
 -1.365 -1.57 4.291
 -1.35 -1.568 4.29
 -1.335 -1.567 4.288
 -1.322 -1.567 4.293
 -1.308 -1.566 4.294
 -1.295 -1.567 4.3
 -1.279 -1.564 4.294
 -1.263 -1.561 4.29
 -1.247 -1.558 4.284
 -1.232 -1.556 4.281
 -1.219 -1.555 4.283
 -1.205 -1.555 4.286
 -1.193 -1.557 4.293
 -1.181 -1.558 4.301
 -1.167 -1.557 4.3
 -1.153 -1.556 4.3
 -1.138 -1.553 4.296
 -1.125 -1.554 4.3
 -1.11 -1.552 4.297
 -1.096 -1.551 4.297
 -1.081 -1.548 4.293
 -1.067 -1.547 4.291
 -1.052 -1.544 4.287
 -1.038 -1.543 4.284
 -1.024 -1.542 4.285
 -1.011 -1.542 4.287
 -0.997 -1.541 4.286
 -0.983 -1.54 4.287
 -0.97 -1.54 4.289
 -0.957 -1.54 4.292
 -0.943 -1.538 4.288
 -0.931 -1.54 4.296
 -0.917 -1.538 4.293
 -0.903 -1.537 4.292
 -0.888 -1.535 4.288
 -0.876 -1.535 4.292
 -0.861 -1.533 4.287
 -0.848 -1.532 4.286
 -0.834 -1.531 4.285
 -0.821 -1.531 4.287
 -0.807 -1.528 4.282
 -0.793 -1.527 4.28
 -0.78 -1.526 4.281
 -0.766 -1.526 4.28
 -0.752 -1.524 4.277
 -0.74 -1.525 4.28
 -0.727 -1.524 4.281
 -0.713 -1.524 4.282
 -0.701 -1.526 4.289
 -0.688 -1.526 4.291
 -0.674 -1.523 4.284
 -0.661 -1.522 4.282
 -0.647 -1.521 4.283
 -0.634 -1.52 4.279
 -0.62 -1.519 4.277
 -0.608 -1.52 4.284
 -0.595 -1.52 4.284
 -0.582 -1.519 4.282
 -0.569 -1.519 4.284
 -0.556 -1.519 4.284
 -0.543 -1.519 4.286
 -0.53 -1.52 4.289
 -0.517 -1.518 4.285
 -0.502 -1.513 4.274
 -0.49 -1.515 4.278
 -0.476 -1.512 4.273
 -0.463 -1.511 4.269
 -0.45 -1.511 4.271
 -0.438 -1.512 4.276
 -0.424 -1.51 4.269
 -0.412 -1.51 4.272
 -0.399 -1.51 4.271
 -0.385 -1.508 4.268
 -0.373 -1.508 4.268
 -0.36 -1.509 4.272
 -0.347 -1.509 4.272
 -0.334 -1.509 4.273
 -0.322 -1.51 4.276
 -0.309 -1.508 4.271
 -0.296 -1.508 4.271
 -0.283 -1.507 4.268
 -0.27 -1.507 4.269
 -0.257 -1.506 4.267
 -0.244 -1.506 4.267
 -0.231 -1.505 4.265
 -0.218 -1.504 4.262
 -0.206 -1.503 4.261
 -0.193 -1.504 4.264
 -0.18 -1.507 4.272
 -0.168 -1.506 4.27
 -0.155 -1.508 4.274
 -0.142 -1.508 4.276
 -0.129 -1.508 4.277
 -0.116 -1.506 4.271
 -0.104 -1.506 4.271
 -0.091 -1.504 4.266
 -0.078 -1.504 4.266
 -0.065 -1.502 4.26
 -0.053 -1.502 4.26
 -0.04 -1.502 4.259
 -0.027 -1.502 4.26
 -0.014 -1.503 4.261
 -0.002 -1.504 4.264
 0.01 -1.503 4.261
 0.023 -1.503 4.262
 0.036 -1.503 4.262
 0.048 -1.503 4.259
 0.061 -1.503 4.26
 0.074 -1.503 4.26
 0.086 -1.502 4.257
 0.099 -1.502 4.257
 0.112 -1.502 4.256
 0.124 -1.5 4.251
 0.137 -1.502 4.255
 0.15 -1.502 4.256
 0.163 -1.501 4.252
 0.175 -1.5 4.249
 0.188 -1.502 4.253
 0.201 -1.502 4.251
 0.213 -1.501 4.249
 0.227 -1.504 4.256
 0.239 -1.504 4.256
 0.252 -1.504 4.254
 0.265 -1.505 4.257
 0.278 -1.506 4.26
 0.29 -1.505 4.255
 0.303 -1.506 4.258
 0.316 -1.507 4.258
 0.329 -1.508 4.26
 0.342 -1.507 4.258
 0.354 -1.507 4.257
 0.367 -1.507 4.255
 0.38 -1.507 4.254
 0.392 -1.505 4.247
 0.405 -1.505 4.245
 0.418 -1.506 4.248
 0.431 -1.507 4.25
 0.444 -1.508 4.251
 0.457 -1.508 4.251
 0.47 -1.51 4.253
 0.482 -1.509 4.249
 0.495 -1.507 4.243
 0.507 -1.508 4.243
 0.52 -1.508 4.243
 0.532 -1.506 4.236
 0.545 -1.505 4.232
 0.558 -1.507 4.236
 0.57 -1.506 4.23
 0.583 -1.506 4.23
 0.597 -1.509 4.236
 0.61 -1.511 4.24
 0.624 -1.513 4.244
 0.638 -1.516 4.25
 0.65 -1.515 4.245
 0.663 -1.515 4.243
 0.676 -1.516 4.243
 0.688 -1.514 4.237
 0.7 -1.513 4.231
 0.713 -1.513 4.231
 0.726 -1.514 4.23
 0.74 -1.515 4.231
 0.753 -1.515 4.23
 0.766 -1.517 4.232
 0.78 -1.518 4.233
 0.793 -1.519 4.235
 0.806 -1.519 4.233
 0.819 -1.519 4.23
 0.832 -1.52 4.23
 0.845 -1.52 4.228
 0.857 -1.52 4.226
 0.87 -1.52 4.224
 0.884 -1.522 4.226
 0.897 -1.523 4.226
 0.911 -1.524 4.228
 0.925 -1.525 4.229
 0.939 -1.527 4.231
 0.951 -1.527 4.227
 0.966 -1.529 4.231
 0.978 -1.529 4.228
 0.992 -1.53 4.227
 1.005 -1.531 4.228
 1.019 -1.532 4.228
 1.032 -1.533 4.227
 1.048 -1.536 4.234
 1.061 -1.537 4.234
 1.075 -1.538 4.233
 1.089 -1.539 4.233
 1.101 -1.538 4.228
 1.113 -1.537 4.221
 1.126 -1.538 4.22
 1.139 -1.538 4.216
 1.153 -1.539 4.216
 1.167 -1.54 4.217
 1.182 -1.543 4.22
 1.195 -1.543 4.219
 1.209 -1.544 4.218
 1.222 -1.545 4.216
 1.235 -1.545 4.213
 1.247 -1.543 4.205
 1.259 -1.542 4.198
 1.274 -1.544 4.201
 1.288 -1.545 4.199
 1.301 -1.546 4.197
 1.317 -1.549 4.203
 1.333 -1.553 4.208
 1.346 -1.553 4.206
 1.361 -1.555 4.208
 1.376 -1.558 4.21
 1.39 -1.558 4.206
 1.403 -1.558 4.204
 1.418 -1.56 4.204
 1.431 -1.56 4.2
 1.444 -1.561 4.198
 1.46 -1.564 4.202
 1.474 -1.564 4.199
 1.487 -1.564 4.194
 1.502 -1.566 4.195
 1.516 -1.567 4.194
 1.528 -1.566 4.187
 1.544 -1.569 4.19
 1.559 -1.57 4.188
 1.571 -1.569 4.182
 1.587 -1.572 4.184
 1.601 -1.573 4.183
 1.614 -1.573 4.177
 1.628 -1.574 4.175
 1.643 -1.575 4.175
 1.658 -1.577 4.173
 1.673 -1.579 4.174
 1.688 -1.58 4.172
 1.704 -1.583 4.175
 1.718 -1.584 4.172
 1.732 -1.584 4.169
 1.743 -1.582 4.157
 1.758 -1.583 4.156
 1.769 -1.582 4.147
 1.782 -1.582 4.142
 1.794 -1.581 4.133
 1.809 -1.582 4.131
 1.819 -1.579 4.119
 1.83 -1.577 4.108
 1.84 -1.574 4.095
 1.847 -1.569 4.076
 1.853 -1.564 4.056
 1.863 -1.56 4.042
 1.872 -1.558 4.03
 1.877 -1.551 4.007
 1.884 -1.546 3.988
 1.89 -1.54 3.967
 1.894 -1.533 3.943
 1.896 -1.525 3.916
 1.902 -1.519 3.895
 1.902 -1.509 3.865
 1.904 -1.501 3.837
 1.904 -1.49 3.805
 1.906 -1.482 3.779
 1.906 -1.473 3.75
 0 0 0
 0 0 0
 0 0 0
 0 0 0
 0 0 0
 0 0 0
 0 0 0
 0 0 0
 0 0 0
 0 0 0
 0 0 0
 0 0 0
 0 0 0
 0 0 0
 0 0 0
 1.823 -1.278 3.166
 1.832 -1.276 3.156
 1.842 -1.276 3.151
 1.845 -1.27 3.131
 1.844 -1.263 3.106
 1.846 -1.257 3.086
 1.84 -1.246 3.053
 1.811 -1.22 2.983
 1.845 -1.235 3.015
 0 0 0
 0 0 0
 -2.369 -1.608 4.079
 -2.351 -1.605 4.079
 -2.34 -1.607 4.09
 -2.323 -1.605 4.091
 -2.306 -1.603 4.093
 -2.294 -1.604 4.103
 -2.28 -1.604 4.109
 -2.262 -1.601 4.108
 -2.253 -1.604 4.123
 -2.242 -1.606 4.134
 -2.228 -1.607 4.142
 -2.216 -1.608 4.151
 -2.206 -1.611 4.166
 -2.189 -1.609 4.166
 -2.173 -1.607 4.167
 -2.157 -1.605 4.169
 -2.143 -1.606 4.176
 -2.126 -1.603 4.175
 -2.113 -1.604 4.183
 -2.096 -1.602 4.183
 -2.082 -1.602 4.189
 -2.067 -1.601 4.192
 -2.051 -1.599 4.194
 -2.037 -1.599 4.2
 -2.023 -1.599 4.205
 -2.009 -1.598 4.209
 -1.995 -1.598 4.215
 -1.982 -1.599 4.223
 -1.966 -1.597 4.222
 -1.954 -1.599 4.232
 -1.941 -1.599 4.24
 -1.926 -1.599 4.243
 -1.912 -1.599 4.248
 -1.899 -1.599 4.255
 -1.887 -1.6 4.263
 -1.871 -1.599 4.265
 -1.855 -1.597 4.263
 -1.839 -1.595 4.263
 -1.824 -1.594 4.267
 -1.806 -1.59 4.261
 -1.789 -1.588 4.259
 -1.777 -1.589 4.267
 -1.762 -1.588 4.269
 -1.748 -1.587 4.273
 -1.733 -1.586 4.274
 -1.72 -1.587 4.282
 -1.706 -1.586 4.284
 -1.691 -1.586 4.287
 -1.676 -1.584 4.287
 -1.662 -1.584 4.29
 -1.646 -1.582 4.291
 -1.631 -1.581 4.291
 -1.616 -1.579 4.291
 -1.601 -1.578 4.293
 -1.585 -1.576 4.29
 -1.57 -1.574 4.29
 -1.556 -1.573 4.292
 -1.541 -1.573 4.294
 -1.525 -1.57 4.29
 -1.511 -1.569 4.292
 -1.495 -1.567 4.29
 -1.479 -1.564 4.286
 -1.464 -1.562 4.285
 -1.45 -1.562 4.288
 -1.435 -1.561 4.289
 -1.424 -1.563 4.298
 -1.41 -1.562 4.3
 -1.395 -1.561 4.299
 -1.381 -1.56 4.302
 -1.366 -1.558 4.3
 -1.351 -1.556 4.298
 -1.337 -1.556 4.3
 -1.324 -1.556 4.305
 -1.309 -1.555 4.304
 -1.296 -1.555 4.306
 -1.28 -1.552 4.302
 -1.263 -1.548 4.294
 -1.247 -1.545 4.288
 -1.233 -1.543 4.286
 -1.219 -1.542 4.288
 -1.206 -1.543 4.293
 -1.193 -1.544 4.298
 -1.18 -1.544 4.301
 -1.166 -1.542 4.3
 -1.152 -1.541 4.3
 -1.137 -1.539 4.296
 -1.125 -1.54 4.303
 -1.111 -1.54 4.304
 -1.096 -1.538 4.302
 -1.082 -1.536 4.301
 -1.068 -1.535 4.3
 -1.053 -1.533 4.297
 -1.039 -1.531 4.294
 -1.026 -1.531 4.296
 -1.012 -1.53 4.296
 -0.997 -1.527 4.29
 -0.983 -1.527 4.291
 -0.97 -1.527 4.293
 -0.957 -1.526 4.295
 -0.942 -1.524 4.29
 -0.93 -1.526 4.298
 -0.916 -1.525 4.297
 -0.902 -1.522 4.292
 -0.888 -1.52 4.289
 -0.875 -1.52 4.291
 -0.861 -1.519 4.29
 -0.847 -1.518 4.287
 -0.833 -1.516 4.283
 -0.82 -1.515 4.284
 -0.806 -1.514 4.284
 -0.792 -1.512 4.277
 -0.779 -1.512 4.281
 -0.766 -1.512 4.283
 -0.752 -1.511 4.282
 -0.74 -1.512 4.286
 -0.727 -1.512 4.288
 -0.713 -1.51 4.283
 -0.701 -1.512 4.29
 -0.688 -1.513 4.294
 -0.674 -1.509 4.286
 -0.661 -1.509 4.286
 -0.648 -1.51 4.29
 -0.634 -1.508 4.286
 -0.62 -1.506 4.281
 -0.608 -1.507 4.286
 -0.594 -1.505 4.282
 -0.581 -1.504 4.279
 -0.568 -1.503 4.28
 -0.555 -1.503 4.28
 -0.542 -1.504 4.285
 -0.53 -1.506 4.29
 -0.516 -1.503 4.283
 -0.502 -1.5 4.277
 -0.49 -1.501 4.28
 -0.476 -1.498 4.272
 -0.463 -1.497 4.269
 -0.45 -1.497 4.273
 -0.438 -1.499 4.279
 -0.424 -1.496 4.271
 -0.411 -1.497 4.274
 -0.398 -1.496 4.271
 -0.385 -1.495 4.271
 -0.372 -1.494 4.268
 -0.36 -1.496 4.274
 -0.347 -1.495 4.273
 -0.334 -1.497 4.277
 -0.322 -1.497 4.28
 -0.308 -1.495 4.274
 -0.295 -1.494 4.273
 -0.283 -1.494 4.271
 -0.27 -1.492 4.268
 -0.257 -1.492 4.267
 -0.244 -1.492 4.269
 -0.231 -1.492 4.27
 -0.218 -1.491 4.267
 -0.206 -1.492 4.27
 -0.193 -1.493 4.272
 -0.18 -1.495 4.279
 -0.167 -1.493 4.272
 -0.155 -1.494 4.277
 -0.142 -1.494 4.276
 -0.129 -1.493 4.275
 -0.116 -1.491 4.269
 -0.104 -1.492 4.271
 -0.091 -1.491 4.267
 -0.078 -1.49 4.266
 -0.065 -1.49 4.266
 -0.052 -1.49 4.266
 -0.04 -1.49 4.266
 -0.027 -1.49 4.264
 -0.014 -1.489 4.263
 -0.002 -1.489 4.261
 0.01 -1.487 4.257
 0.023 -1.488 4.257
 0.036 -1.488 4.257
 0.048 -1.488 4.258
 0.061 -1.488 4.258
 0.074 -1.488 4.257
 0.086 -1.488 4.257
 0.099 -1.489 4.258
 0.112 -1.487 4.253
 0.124 -1.486 4.25
 0.137 -1.487 4.253
 0.15 -1.488 4.255
 0.163 -1.487 4.252
 0.175 -1.488 4.255
