 -2.149 -1.585 4.309
 -2.136 -1.586 4.317
 -2.119 -1.584 4.317
 -2.104 -1.584 4.323
 -2.084 -1.579 4.315
 -2.068 -1.578 4.318
 -2.052 -1.577 4.32
 -2.034 -1.574 4.317
 -2.017 -1.572 4.317
 -2.001 -1.57 4.318
 -1.984 -1.568 4.317
 -1.969 -1.567 4.32
 -1.954 -1.566 4.324
 -1.937 -1.564 4.322
 -1.918 -1.559 4.315
 -1.9 -1.556 4.313
 -1.886 -1.556 4.317
 -1.871 -1.555 4.32
 -1.857 -1.555 4.324
 -1.844 -1.556 4.331
 -1.828 -1.555 4.333
 -1.811 -1.552 4.33
 -1.796 -1.55 4.331
 -1.778 -1.547 4.326
 -1.762 -1.545 4.325
 -1.744 -1.542 4.321
 -1.728 -1.54 4.319
 -1.711 -1.537 4.316
 -1.696 -1.536 4.317
 -1.679 -1.533 4.314
 -1.664 -1.531 4.314
 -1.65 -1.531 4.318
 -1.633 -1.529 4.315
 -1.618 -1.527 4.314
 -1.604 -1.526 4.317
 -1.59 -1.526 4.321
 -1.575 -1.525 4.32
 -1.56 -1.524 4.323
 -1.545 -1.522 4.322
 -1.528 -1.519 4.316
 -1.512 -1.516 4.313
 -1.494 -1.512 4.304
 -1.48 -1.512 4.309
 -1.466 -1.511 4.308
 -1.452 -1.511 4.312
 -1.438 -1.51 4.314
 -1.424 -1.51 4.317
 -1.408 -1.507 4.312
 -1.396 -1.508 4.319
 -1.382 -1.507 4.321
 -1.366 -1.505 4.319
 -1.35 -1.503 4.314
 -1.335 -1.5 4.311
 -1.319 -1.497 4.306
 -1.306 -1.497 4.309
 -1.291 -1.496 4.309
 -1.278 -1.496 4.312
 -1.262 -1.493 4.306
 -1.247 -1.491 4.303
 -1.231 -1.488 4.299
 -1.217 -1.487 4.299
 -1.203 -1.486 4.299
 -1.189 -1.486 4.301
 -1.175 -1.484 4.298
 -1.161 -1.483 4.298
 -1.147 -1.482 4.298
 -1.132 -1.48 4.295
 -1.12 -1.481 4.301
 -1.106 -1.48 4.301
 -1.092 -1.48 4.302
 -1.078 -1.479 4.302
 -1.064 -1.478 4.302
 -1.051 -1.477 4.303
 -1.036 -1.475 4.3
 -1.022 -1.473 4.296
 -1.007 -1.471 4.291
 -0.993 -1.47 4.292
 -0.979 -1.468 4.288
 -0.967 -1.469 4.295
 -0.953 -1.469 4.297
 -0.94 -1.469 4.297
 -0.926 -1.468 4.296
 -0.913 -1.467 4.298
 -0.899 -1.466 4.297
 -0.886 -1.465 4.296
 -0.873 -1.466 4.301
 -0.86 -1.466 4.301
 -0.846 -1.464 4.298
 -0.832 -1.462 4.294
 -0.818 -1.461 4.292
 -0.804 -1.46 4.291
 -0.791 -1.459 4.291
 -0.779 -1.46 4.297
 -0.766 -1.46 4.298
 -0.752 -1.46 4.298
 -0.738 -1.457 4.292
 -0.725 -1.457 4.295
 -0.711 -1.456 4.291
 -0.698 -1.455 4.291
 -0.685 -1.454 4.289
 -0.672 -1.455 4.293
 -0.659 -1.454 4.293
 -0.645 -1.453 4.29
 -0.631 -1.45 4.284
 -0.619 -1.45 4.285
 -0.606 -1.451 4.288
 -0.592 -1.449 4.283
 -0.579 -1.448 4.283
 -0.567 -1.45 4.289
 -0.554 -1.449 4.288
 -0.54 -1.447 4.283
 -0.527 -1.447 4.284
 -0.514 -1.447 4.286
 -0.501 -1.446 4.283
 -0.488 -1.444 4.279
 -0.475 -1.444 4.281
 -0.462 -1.445 4.285
 -0.45 -1.447 4.289
 -0.437 -1.447 4.29
 -0.424 -1.447 4.292
 -0.411 -1.446 4.29
 -0.398 -1.443 4.283
 -0.384 -1.442 4.279
 -0.371 -1.441 4.278
 -0.359 -1.44 4.277
 -0.346 -1.44 4.277
 -0.333 -1.44 4.276
 -0.32 -1.439 4.273
 -0.307 -1.438 4.272
 -0.294 -1.439 4.276
 -0.282 -1.439 4.277
 -0.269 -1.442 4.285
 -0.257 -1.442 4.285
 -0.244 -1.442 4.287
 -0.231 -1.441 4.284
 -0.218 -1.441 4.284
 -0.205 -1.438 4.275
 -0.192 -1.439 4.279
 -0.179 -1.438 4.277
 -0.167 -1.439 4.278
 -0.154 -1.438 4.275
 -0.141 -1.44 4.283
 -0.129 -1.439 4.28
 -0.116 -1.439 4.279
 -0.103 -1.439 4.279
 -0.09 -1.438 4.278
 -0.077 -1.435 4.269
 -0.065 -1.436 4.272
 -0.052 -1.436 4.27
 -0.039 -1.437 4.274
 -0.027 -1.437 4.273
 -0.014 -1.438 4.276
 -0.001 -1.435 4.267
 0.01 -1.435 4.269
 0.023 -1.433 4.26
 0.036 -1.434 4.263
 0.049 -1.435 4.265
 0.061 -1.436 4.269
 0.074 -1.435 4.267
 0.087 -1.436 4.268
 0.099 -1.436 4.267
 0.112 -1.435 4.264
 0.125 -1.436 4.267
 0.138 -1.437 4.27
 0.15 -1.437 4.268
 0.163 -1.437 4.267
 0.176 -1.436 4.265
 0.188 -1.433 4.255
 0.2 -1.432 4.251
 0.213 -1.433 4.254
 0.226 -1.433 4.252
 0.238 -1.433 4.252
 0.251 -1.434 4.254
 0.264 -1.435 4.258
 0.277 -1.433 4.252
 0.289 -1.433 4.25
 0.302 -1.434 4.252
 0.315 -1.435 4.253
 0.328 -1.436 4.256
 0.341 -1.438 4.261
 0.354 -1.441 4.267
 0.367 -1.439 4.262
 0.379 -1.439 4.26
 0.391 -1.437 4.252
 0.404 -1.437 4.253
 0.417 -1.436 4.249
 0.43 -1.438 4.252
 0.442 -1.438 4.252
 0.456 -1.44 4.255
 0.468 -1.439 4.252
 0.481 -1.44 4.253
 0.494 -1.44 4.252
 0.506 -1.44 4.25
 0.519 -1.439 4.247
 0.532 -1.439 4.245
 0.544 -1.439 4.244
 0.557 -1.44 4.245
 0.57 -1.441 4.246
 0.584 -1.444 4.254
 0.598 -1.446 4.258
 0.611 -1.446 4.257
 0.623 -1.445 4.251
 0.636 -1.447 4.255
 0.649 -1.446 4.25
 0.661 -1.445 4.246
 0.674 -1.445 4.243
 0.687 -1.447 4.247
 0.7 -1.447 4.245
 0.713 -1.448 4.246
 0.727 -1.449 4.248
 0.739 -1.449 4.247
 0.752 -1.45 4.246
 0.765 -1.45 4.245
 0.778 -1.45 4.242
 0.791 -1.45 4.24
 0.804 -1.451 4.241
 0.817 -1.451 4.237
 0.83 -1.451 4.236
 0.843 -1.452 4.238
 0.856 -1.452 4.235
 0.869 -1.452 4.233
 0.882 -1.453 4.232
 0.896 -1.455 4.235
 0.908 -1.454 4.231
 0.922 -1.456 4.235
 0.937 -1.459 4.24
 0.951 -1.462 4.245
 0.965 -1.463 4.248
 0.979 -1.464 4.247
 0.992 -1.464 4.244
 1.003 -1.462 4.237
 1.016 -1.462 4.232
 1.027 -1.46 4.225
 1.041 -1.462 4.226
 1.055 -1.462 4.225
 1.069 -1.464 4.228
 1.083 -1.466 4.231
 1.097 -1.468 4.232
 1.111 -1.468 4.23
 1.125 -1.47 4.232
 1.137 -1.47 4.227
 1.151 -1.471 4.229
 1.166 -1.473 4.231
 1.179 -1.474 4.23
 1.194 -1.476 4.232
 1.21 -1.479 4.239
 1.22 -1.477 4.228
 1.233 -1.476 4.224
 1.248 -1.479 4.227
 1.262 -1.479 4.225
 1.275 -1.48 4.223
 1.291 -1.483 4.229
 1.306 -1.485 4.231
 1.32 -1.487 4.232
 1.334 -1.487 4.23
 1.348 -1.489 4.23
 1.362 -1.49 4.229
 1.375 -1.49 4.227
 1.388 -1.49 4.221
 1.402 -1.49 4.219
 1.417 -1.493 4.222
 1.431 -1.494 4.221
 1.446 -1.496 4.222
 1.461 -1.498 4.223
 1.475 -1.499 4.222
 1.49 -1.5 4.222
 1.504 -1.501 4.221
 1.518 -1.502 4.219
 1.533 -1.504 4.22
 1.548 -1.505 4.219
 1.56 -1.504 4.211
 1.573 -1.505 4.208
 1.588 -1.506 4.208
 1.602 -1.507 4.204
 1.617 -1.509 4.206
 1.63 -1.509 4.201
 1.645 -1.51 4.199
 1.657 -1.509 4.191
 1.671 -1.51 4.19
 1.684 -1.509 4.183
 1.699 -1.511 4.184
 1.712 -1.511 4.179
 1.729 -1.514 4.182
 1.743 -1.515 4.178
 1.757 -1.516 4.176
 1.771 -1.516 4.173
 1.787 -1.518 4.172
 1.799 -1.517 4.165
 1.813 -1.518 4.162
 1.825 -1.517 4.153
 1.835 -1.514 4.14
 1.847 -1.513 4.131
 1.855 -1.509 4.116
 1.863 -1.505 4.099
 1.872 -1.501 4.083
 1.88 -1.497 4.067
 1.882 -1.489 4.038
 1.889 -1.484 4.02
 1.896 -1.479 4
 1.897 -1.47 3.971
 1.888 -1.454 3.919
 0 0 0
 0 0 0
 0 0 0
 0 0 0
 0 0 0
 0 0 0
 0 0 0
 0 0 0
 0 0 0
 0 0 0
 0 0 0
 0 0 0
 0 0 0
 0 0 0
 0 0 0
 0 0 0
 0 0 0
 0 0 0
 0 0 0
 0 0 0
 0 0 0
 0 0 0
 1.833 -1.223 3.176
 1.839 -1.22 3.163
 1.841 -1.214 3.143
 1.847 -1.211 3.128
 1.849 -1.206 3.109
 1.844 -1.196 3.078
 1.847 -1.191 3.059
 1.821 -1.168 2.994
 -2.465 -1.582 4.206
 -2.473 -1.596 4.25
 -2.449 -1.59 4.241
 -2.438 -1.593 4.255
 -2.423 -1.592 4.261
 -2.411 -1.594 4.271
 -2.401 -1.597 4.286
 -2.382 -1.594 4.286
 -2.362 -1.59 4.282
 -2.348 -1.591 4.29
 -2.329 -1.588 4.288
 -2.303 -1.579 4.272
 -2.297 -1.585 4.294
 -2.28 -1.583 4.296
 -2.262 -1.581 4.296
 -2.248 -1.581 4.303
 -2.241 -1.586 4.323
 -2.216 -1.578 4.308
 -2.2 -1.578 4.313
 -2.186 -1.577 4.318
 -2.173 -1.578 4.327
 -2.156 -1.577 4.328
 -2.14 -1.575 4.331
 -2.121 -1.571 4.326
 -2.108 -1.573 4.335
 -2.088 -1.568 4.329
 -2.072 -1.567 4.33
 -2.056 -1.566 4.333
 -2.041 -1.565 4.337
 -2.022 -1.562 4.332
 -2.005 -1.559 4.332
 -1.988 -1.557 4.33
 -1.972 -1.555 4.332
 -1.956 -1.553 4.332
 -1.938 -1.55 4.328
 -1.92 -1.547 4.325
 -1.902 -1.544 4.321
 -1.887 -1.543 4.325
 -1.871 -1.542 4.325
 -1.856 -1.541 4.327
 -1.841 -1.54 4.329
 -1.827 -1.539 4.333
 -1.81 -1.537 4.332
 -1.794 -1.535 4.332
 -1.776 -1.532 4.326
 -1.761 -1.53 4.327
 -1.742 -1.527 4.321
 -1.725 -1.524 4.318
 -1.71 -1.523 4.319
 -1.696 -1.522 4.323
 -1.679 -1.519 4.319
 -1.664 -1.518 4.319
 -1.649 -1.517 4.32
 -1.632 -1.514 4.316
 -1.616 -1.511 4.313
 -1.603 -1.512 4.319
 -1.59 -1.512 4.324
 -1.576 -1.512 4.328
 -1.561 -1.511 4.329
 -1.545 -1.509 4.328
 -1.528 -1.505 4.32
 -1.51 -1.501 4.314
 -1.492 -1.496 4.302
 -1.479 -1.497 4.309
 -1.465 -1.497 4.311
 -1.45 -1.495 4.311
 -1.437 -1.496 4.316
 -1.424 -1.496 4.32
 -1.407 -1.493 4.315
 -1.395 -1.493 4.32
 -1.381 -1.494 4.325
 -1.367 -1.493 4.325
 -1.352 -1.491 4.322
 -1.337 -1.489 4.323
 -1.322 -1.487 4.32
 -1.309 -1.488 4.324
 -1.294 -1.486 4.322
 -1.279 -1.484 4.319
 -1.262 -1.48 4.312
 -1.246 -1.477 4.307
 -1.23 -1.474 4.3
 -1.216 -1.473 4.301
 -1.203 -1.473 4.303
 -1.188 -1.471 4.301
 -1.174 -1.47 4.301
 -1.161 -1.47 4.303
 -1.146 -1.468 4.301
 -1.132 -1.467 4.299
 -1.119 -1.468 4.304
 -1.105 -1.466 4.302
 -1.09 -1.464 4.3
 -1.076 -1.463 4.299
 -1.062 -1.462 4.298
 -1.049 -1.461 4.299
 -1.035 -1.46 4.298
 -1.021 -1.459 4.298
 -1.007 -1.458 4.296
 -0.993 -1.457 4.296
 -0.979 -1.456 4.294
 -0.967 -1.458 4.302
 -0.954 -1.457 4.301
 -0.939 -1.455 4.298
 -0.926 -1.454 4.299
 -0.912 -1.452 4.296
 -0.898 -1.451 4.294
 -0.884 -1.45 4.292
 -0.872 -1.451 4.299
 -0.858 -1.451 4.299
 -0.846 -1.451 4.301
 -0.831 -1.449 4.297
 -0.818 -1.448 4.296
 -0.804 -1.447 4.295
 -0.791 -1.446 4.294
 -0.778 -1.446 4.296
 -0.765 -1.445 4.296
 -0.752 -1.445 4.298
 -0.737 -1.443 4.292
 -0.724 -1.443 4.293
 -0.711 -1.442 4.293
 -0.698 -1.442 4.293
 -0.685 -1.441 4.292
 -0.672 -1.442 4.297
 -0.659 -1.442 4.298
 -0.646 -1.441 4.297
 -0.632 -1.438 4.29
 -0.618 -1.437 4.287
 -0.605 -1.437 4.29
 -0.592 -1.435 4.285
 -0.579 -1.435 4.286
 -0.566 -1.435 4.288
 -0.553 -1.435 4.29
 -0.539 -1.433 4.282
 -0.527 -1.433 4.285
 -0.513 -1.432 4.283
 -0.501 -1.432 4.285
 -0.488 -1.431 4.283
 -0.475 -1.432 4.284
 -0.462 -1.432 4.286
 -0.449 -1.432 4.289
 -0.436 -1.432 4.289
 -0.424 -1.432 4.288
 -0.411 -1.432 4.291
 -0.397 -1.43 4.284
 -0.384 -1.428 4.28
 -0.372 -1.43 4.285
 -0.358 -1.428 4.281
 -0.346 -1.427 4.279
 -0.333 -1.426 4.278
 -0.32 -1.426 4.276
 -0.307 -1.424 4.273
 -0.294 -1.426 4.278
 -0.281 -1.426 4.279
 -0.269 -1.428 4.285
 -0.256 -1.427 4.284
 -0.243 -1.426 4.281
 -0.23 -1.425 4.278
 -0.218 -1.425 4.278
 -0.205 -1.423 4.273
 -0.192 -1.425 4.278
 -0.179 -1.424 4.276
 -0.166 -1.424 4.276
 -0.154 -1.423 4.272
 -0.141 -1.424 4.276
 -0.128 -1.423 4.273
 -0.115 -1.423 4.273
 -0.103 -1.424 4.276
 -0.09 -1.424 4.277
 -0.077 -1.422 4.271
 -0.065 -1.423 4.275
 -0.052 -1.424 4.276
 -0.039 -1.423 4.274
 -0.027 -1.422 4.271
 -0.014 -1.424 4.276
 -0.001 -1.421 4.267
 0.011 -1.421 4.268
 0.023 -1.421 4.266
 0.036 -1.421 4.267
 0.049 -1.421 4.267
 0.061 -1.423 4.272
 0.074 -1.421 4.265
 0.087 -1.421 4.265
 0.099 -1.42 4.263
 0.112 -1.42 4.261
 0.125 -1.42 4.262
 0.137 -1.422 4.267
 0.15 -1.421 4.264
 0.163 -1.422 4.264
 0.175 -1.42 4.257
 0.188 -1.418 4.251
 0.2 -1.418 4.252
 0.213 -1.419 4.255
 0.226 -1.419 4.253
 0.238 -1.42 4.256
 0.251 -1.419 4.253
 0.264 -1.42 4.253
 0.276 -1.419 4.25
 0.289 -1.42 4.251
 0.302 -1.421 4.253
 0.315 -1.423 4.259
 0.328 -1.423 4.258
 0.341 -1.424 4.261
 0.354 -1.426 4.266
 0.367 -1.426 4.265
 0.379 -1.426 4.263
 0.392 -1.425 4.26
 0.404 -1.425 4.258
 0.417 -1.424 4.254
 0.429 -1.424 4.254
 0.442 -1.424 4.252
 0.455 -1.426 4.254
 0.468 -1.424 4.25
 0.48 -1.425 4.249
 0.493 -1.425 4.249
 0.506 -1.425 4.249
 0.519 -1.426 4.248
 0.532 -1.427 4.252
 0.545 -1.428 4.253
 0.558 -1.43 4.256
 0.571 -1.431 4.257
 0.585 -1.432 4.259
 0.598 -1.433 4.26
 0.61 -1.433 4.257
 0.622 -1.43 4.249
 0.635 -1.432 4.251
 0.647 -1.43 4.244
 0.659 -1.429 4.239
 0.672 -1.429 4.238
 0.686 -1.431 4.243
 0.699 -1.432 4.244
 0.713 -1.434 4.247
 0.726 -1.436 4.25
 0.74 -1.436 4.25
 0.752 -1.437 4.249
 0.765 -1.437 4.247
 0.778 -1.437 4.246
 0.791 -1.437 4.243
 0.804 -1.437 4.242
 0.817 -1.438 4.241
 0.829 -1.438 4.238
 0.843 -1.438 4.239
 0.855 -1.438 4.235
 0.869 -1.439 4.236
 0.882 -1.439 4.234
 0.895 -1.441 4.237
 0.908 -1.44 4.232
 0.922 -1.443 4.238
 0.936 -1.444 4.238
 0.95 -1.447 4.244
 0.964 -1.448 4.243
 0.977 -1.448 4.243
 0.99 -1.448 4.24
 1.003 -1.449 4.238
 1.015 -1.448 4.233
 1.027 -1.447 4.228
 1.042 -1.449 4.23
 1.055 -1.449 4.229
 1.069 -1.451 4.231
 1.083 -1.453 4.234
 1.097 -1.454 4.235
 1.111 -1.456 4.237
 1.126 -1.458 4.239
 1.138 -1.458 4.235
 1.152 -1.458 4.233
 1.166 -1.46 4.234
 1.179 -1.46 4.231
 1.193 -1.461 4.232
 1.208 -1.465 4.239
 1.22 -1.463 4.23
 1.232 -1.461 4.223
 1.246 -1.464 4.225
 1.26 -1.464 4.224
 1.273 -1.464 4.219
 1.289 -1.467 4.225
 1.304 -1.47 4.231
 1.319 -1.472 4.232
 1.333 -1.473 4.23
 1.346 -1.474 4.229
 1.361 -1.475 4.229
 1.375 -1.476 4.228
 1.387 -1.476 4.223
 1.401 -1.476 4.221
 1.417 -1.479 4.224
 1.43 -1.48 4.223
 1.445 -1.481 4.222
 1.459 -1.483 4.223
 1.474 -1.484 4.221
 1.488 -1.485 4.221
 1.502 -1.486 4.22
 1.517 -1.487 4.219
 1.532 -1.489 4.22
 1.547 -1.491 4.22
 1.56 -1.491 4.216
 1.574 -1.492 4.214
 1.589 -1.494 4.214
 1.602 -1.493 4.209
 1.617 -1.495 4.21
 1.63 -1.495 4.204
 1.644 -1.496 4.201
 1.656 -1.495 4.194
 1.67 -1.495 4.19
 1.682 -1.494 4.183
 1.697 -1.496 4.182
 1.711 -1.497 4.18
 1.727 -1.499 4.182
 1.742 -1.5 4.18
 1.758 -1.503 4.182
 1.773 -1.504 4.18
 1.788 -1.506 4.18
 1.8 -1.505 4.172
 1.815 -1.506 4.17
 1.825 -1.503 4.157
 1.837 -1.503 4.149
 1.846 -1.499 4.135
 1.856 -1.497 4.122
 1.863 -1.492 4.103
 1.874 -1.49 4.093
 1.881 -1.485 4.073
 1.885 -1.478 4.048
 1.894 -1.475 4.034
 1.903 -1.471 4.019
 1.903 -1.462 3.988
 0 0 0
 0 0 0
 0 0 0
 0 0 0
 0 0 0
 0 0 0
 0 0 0
 0 0 0
 0 0 0
 0 0 0
 0 0 0
 0 0 0
 0 0 0
 0 0 0
 0 0 0
 0 0 0
 0 0 0
 0 0 0
 0 0 0
 0 0 0
 0 0 0
 0 0 0
 0 0 0
 1.827 -1.208 3.17
 1.833 -1.205 3.155
 1.836 -1.2 3.138
 1.844 -1.199 3.127
 1.848 -1.194 3.11
 1.847 -1.187 3.085
 1.86 -1.189 3.085
 1.856 -1.179 3.055
 -2.558 -1.627 4.37
 0 0 0
 -2.459 -1.583 4.264
 -2.454 -1.589 4.288
 -2.446 -1.593 4.305
 -2.427 -1.59 4.306
 -2.417 -1.593 4.32
 -2.402 -1.593 4.326
 -2.381 -1.589 4.322
 -2.365 -1.588 4.326
 -2.348 -1.586 4.328
 -2.32 -1.576 4.308
 -2.308 -1.579 4.321
 -2.289 -1.575 4.319
 -2.27 -1.572 4.316
 -2.257 -1.573 4.324
 -2.247 -1.576 4.339
 -2.223 -1.569 4.326
 -2.205 -1.567 4.327
 -2.188 -1.565 4.327
 -2.173 -1.565 4.332
 -2.156 -1.562 4.332
 -2.139 -1.56 4.333
 -2.121 -1.558 4.332
 -2.109 -1.559 4.341
 -2.09 -1.556 4.338
 -2.074 -1.555 4.34
 -2.058 -1.553 4.342
 -2.041 -1.551 4.342
 -2.021 -1.547 4.335
 -2.002 -1.543 4.33
 -1.985 -1.541 4.329
 -1.97 -1.539 4.331
 -1.955 -1.539 4.334
 -1.938 -1.537 4.333
 -1.921 -1.534 4.332
 -1.902 -1.53 4.326
 -1.887 -1.529 4.328
 -1.869 -1.526 4.325
 -1.854 -1.525 4.328
 -1.84 -1.525 4.332
 -1.826 -1.525 4.336
 -1.81 -1.523 4.336
 -1.793 -1.521 4.335
 -1.775 -1.517 4.328
 -1.758 -1.514 4.325
 -1.74 -1.511 4.321
 -1.724 -1.509 4.318
 -1.71 -1.508 4.321
 -1.696 -1.509 4.328
 -1.68 -1.506 4.325
 -1.665 -1.505 4.326
 -1.65 -1.504 4.329
 -1.633 -1.501 4.323
 -1.616 -1.498 4.32
 -1.603 -1.498 4.323
 -1.589 -1.499 4.328
 -1.574 -1.496 4.326
 -1.56 -1.496 4.33
 -1.543 -1.494 4.327
 -1.526 -1.49 4.32
 -1.509 -1.487 4.315
 -1.492 -1.483 4.307
 -1.478 -1.483 4.31
 -1.464 -1.482 4.313
 -1.45 -1.482 4.315
 -1.437 -1.482 4.319
 -1.423 -1.482 4.322
 -1.407 -1.479 4.317
 -1.393 -1.479 4.321
 -1.38 -1.479 4.324
 -1.366 -1.478 4.325
 -1.352 -1.478 4.328
 -1.338 -1.477 4.329
 -1.324 -1.476 4.33
 -1.31 -1.476 4.334
 -1.294 -1.473 4.328
 -1.278 -1.47 4.323
 -1.263 -1.467 4.317
 -1.246 -1.464 4.31
 -1.231 -1.461 4.305
 -1.217 -1.46 4.306
 -1.202 -1.459 4.305
 -1.188 -1.458 4.304
 -1.174 -1.457 4.304
 -1.159 -1.455 4.302
 -1.144 -1.452 4.296
 -1.13 -1.451 4.295
 -1.117 -1.451 4.298
 -1.102 -1.449 4.295
 -1.088 -1.448 4.296
 -1.075 -1.449 4.299
 -1.062 -1.449 4.301
 -1.049 -1.449 4.305
 -1.035 -1.447 4.303
 -1.021 -1.447 4.303
 -1.008 -1.446 4.303
 -0.993 -1.444 4.301
 -0.979 -1.442 4.296
 -0.967 -1.444 4.305
 -0.953 -1.443 4.303
 -0.939 -1.441 4.299
 -0.925 -1.44 4.299
 -0.912 -1.44 4.3
 -0.898 -1.438 4.297
 -0.884 -1.437 4.297
 -0.872 -1.438 4.303
 -0.859 -1.438 4.304
 -0.846 -1.438 4.306
 -0.832 -1.437 4.304
 -0.819 -1.437 4.305
 -0.805 -1.435 4.302
 -0.792 -1.435 4.303
 -0.778 -1.434 4.303
 -0.765 -1.434 4.303
 -0.752 -1.433 4.303
 -0.738 -1.431 4.299
 -0.724 -1.43 4.298
 -0.711 -1.43 4.298
 -0.698 -1.429 4.297
 -0.684 -1.428 4.296
 -0.672 -1.429 4.302
 -0.659 -1.428 4.3
 -0.645 -1.426 4.294
 -0.631 -1.424 4.29
 -0.617 -1.421 4.283
 -0.604 -1.422 4.286
 -0.592 -1.423 4.291
 -0.579 -1.423 4.292
 -0.566 -1.422 4.289
 -0.553 -1.423 4.294
 -0.539 -1.42 4.288
 -0.526 -1.419 4.285
 -0.513 -1.419 4.286
 -0.501 -1.419 4.288
 -0.488 -1.419 4.288
 -0.475 -1.418 4.287
 -0.462 -1.418 4.287
 -0.449 -1.418 4.288
 -0.436 -1.418 4.289
 -0.423 -1.417 4.288
 -0.411 -1.419 4.292
 -0.397 -1.416 4.284
 -0.384 -1.415 4.282
 -0.372 -1.416 4.287
 -0.358 -1.414 4.28
 -0.345 -1.412 4.275
 -0.332 -1.412 4.277
 -0.319 -1.411 4.274
 -0.306 -1.41 4.273
 -0.294 -1.412 4.278
 -0.281 -1.413 4.28
 -0.269 -1.413 4.284
 -0.256 -1.414 4.285
 -0.243 -1.413 4.282
 -0.23 -1.411 4.279
 -0.217 -1.411 4.279
 -0.204 -1.41 4.275
 -0.192 -1.411 4.278
 -0.179 -1.41 4.274
 -0.166 -1.409 4.273
 -0.154 -1.409 4.274
 -0.141 -1.411 4.28
 -0.128 -1.41 4.277
 -0.115 -1.409 4.275
 -0.103 -1.41 4.277
 -0.09 -1.409 4.274
 -0.077 -1.407 4.266
 -0.065 -1.408 4.271
 -0.052 -1.41 4.276
 -0.039 -1.41 4.276
 -0.026 -1.409 4.274
 -0.014 -1.411 4.281
 -0.001 -1.41 4.276
 0.011 -1.409 4.273
 0.023 -1.409 4.273
 0.036 -1.41 4.274
 0.049 -1.409 4.273
 0.061 -1.409 4.272
 0.074 -1.408 4.269
 0.087 -1.409 4.27
 0.099 -1.408 4.269
 0.112 -1.408 4.268
 0.125 -1.408 4.268
 0.138 -1.409 4.27
 0.15 -1.409 4.268
 0.163 -1.408 4.266
 0.175 -1.406 4.258
 0.188 -1.405 4.254
 0.2 -1.406 4.256
 0.213 -1.406 4.257
 0.226 -1.406 4.257
 0.238 -1.407 4.257
 0.251 -1.405 4.253
 0.263 -1.405 4.25
 0.276 -1.405 4.25
 0.289 -1.406 4.25
 0.302 -1.407 4.254
 0.315 -1.409 4.258
 0.328 -1.409 4.259
 0.341 -1.411 4.262
 0.354 -1.412 4.266
 0.366 -1.412 4.263
 0.379 -1.413 4.265
 0.392 -1.413 4.265
 0.404 -1.412 4.262
 0.417 -1.413 4.262
 0.43 -1.414 4.263
 0.443 -1.413 4.26
 0.455 -1.413 4.259
 0.468 -1.412 4.254
 0.48 -1.411 4.249
 0.493 -1.411 4.248
 0.506 -1.412 4.25
 0.518 -1.412 4.248
 0.531 -1.413 4.25
 0.544 -1.414 4.25
 0.558 -1.416 4.257
 0.571 -1.417 4.257
 0.584 -1.419 4.261
 0.598 -1.42 4.262
 0.61 -1.42 4.261
 0.622 -1.418 4.253
 0.635 -1.419 4.254
 0.647 -1.416 4.246
 0.66 -1.416 4.243
 0.672 -1.416 4.24
 0.686 -1.418 4.243
 0.699 -1.418 4.244
 0.712 -1.419 4.245
 0.725 -1.421 4.247
 0.739 -1.422 4.249
 0.752 -1.423 4.249
 0.765 -1.423 4.247
 0.778 -1.424 4.248
 0.791 -1.425 4.249
 0.804 -1.425 4.247
 0.816 -1.423 4.24
 0.828 -1.423 4.236
 0.842 -1.424 4.238
 0.854 -1.423 4.233
 0.868 -1.424 4.234
 0.882 -1.427 4.239
 0.896 -1.428 4.241
 0.908 -1.428 4.238
 0.922 -1.43 4.241
 0.935 -1.43 4.238
 0.949 -1.431 4.24
 0.962 -1.432 4.239
 0.975 -1.432 4.236
 0.988 -1.433 4.235
 1.001 -1.433 4.234
 1.015 -1.434 4.234
 1.028 -1.435 4.234
 1.043 -1.437 4.238
 1.056 -1.438 4.236
 1.07 -1.44 4.239
 1.084 -1.441 4.239
 1.097 -1.441 4.237
 1.11 -1.442 4.237
 1.124 -1.443 4.237
 1.136 -1.442 4.232
 1.149 -1.442 4.227
 1.164 -1.444 4.23
 1.177 -1.445 4.229
 1.191 -1.446 4.23
 1.207 -1.45 4.237
 1.22 -1.45 4.233
 1.231 -1.448 4.224
 1.245 -1.449 4.225
 1.259 -1.45 4.224
 1.272 -1.45 4.222
 1.287 -1.452 4.223
 1.303 -1.455 4.228
 1.317 -1.457 4.229
 1.33 -1.457 4.227
 1.344 -1.458 4.226
 1.358 -1.459 4.224
 1.371 -1.459 4.221
 1.385 -1.46 4.22
 1.399 -1.461 4.218
 1.414 -1.463 4.221
 1.429 -1.465 4.222
 1.443 -1.466 4.221
 1.458 -1.468 4.222
 1.472 -1.468 4.219
 1.486 -1.47 4.219
 1.501 -1.472 4.221
 1.516 -1.473 4.22
 1.53 -1.474 4.219
 1.545 -1.476 4.22
 1.558 -1.476 4.216
 1.573 -1.478 4.215
 1.588 -1.479 4.215
 1.601 -1.48 4.212
 1.617 -1.482 4.213
 1.629 -1.481 4.205
 1.643 -1.482 4.203
 1.657 -1.482 4.2
 1.67 -1.482 4.195
 1.683 -1.482 4.189
 1.699 -1.484 4.192
 1.714 -1.485 4.19
 1.728 -1.487 4.188
 1.743 -1.488 4.188
 1.76 -1.491 4.19
 1.774 -1.492 4.188
 1.79 -1.494 4.187
 1.802 -1.493 4.181
 1.814 -1.492 4.172
 1.824 -1.489 4.159
 1.836 -1.489 4.152
 1.845 -1.485 4.137
 1.856 -1.483 4.126
 1.866 -1.48 4.112
 1.877 -1.479 4.103
 1.883 -1.473 4.082
 1.887 -1.466 4.056
 1.895 -1.462 4.04
 1.907 -1.461 4.031
 0 0 0
 0 0 0
 0 0 0
 0 0 0
 0 0 0
 0 0 0
 0 0 0
 0 0 0
 0 0 0
 0 0 0
 0 0 0
 0 0 0
 0 0 0
 0 0 0
 0 0 0
 0 0 0
 0 0 0
 0 0 0
 0 0 0
 0 0 0
 0 0 0
 0 0 0
 0 0 0
 0 0 0
 1.819 -1.192 3.16
 1.826 -1.19 3.148
 1.834 -1.188 3.138
 1.843 -1.187 3.129
 1.851 -1.185 3.119
 1.851 -1.179 3.096
 1.854 -1.174 3.077
 1.849 -1.165 3.047
 0 0 0
 0 0 0
 -2.479 -1.581 4.303
 -2.468 -1.583 4.316
 -2.453 -1.583 4.323
 -2.432 -1.579 4.319
 -2.421 -1.581 4.332
 -2.41 -1.584 4.346
 -2.392 -1.581 4.347
 -2.377 -1.581 4.353
 -2.359 -1.579 4.353
 -2.333 -1.571 4.338
 -2.317 -1.57 4.342
 -2.296 -1.566 4.336
 -2.275 -1.561 4.33
 -2.26 -1.561 4.335
 -2.25 -1.564 4.35
 -2.228 -1.558 4.341
 -2.213 -1.558 4.347
 -2.196 -1.556 4.347
 -2.182 -1.556 4.354
 -2.159 -1.551 4.344
 -2.144 -1.55 4.348
 -2.123 -1.545 4.34
 -2.111 -1.546 4.35
 -2.091 -1.542 4.344
 -2.076 -1.542 4.349
 -2.057 -1.539 4.345
 -2.041 -1.537 4.345
 -2.019 -1.531 4.334
 -2.001 -1.528 4.33
 -1.984 -1.526 4.33
 -1.969 -1.525 4.333
 -1.954 -1.524 4.337
 -1.94 -1.524 4.342
 -1.924 -1.522 4.342
 -1.905 -1.519 4.337
 -1.888 -1.516 4.335
 -1.868 -1.511 4.326
 -1.852 -1.51 4.327
 -1.837 -1.509 4.328
 -1.821 -1.507 4.328
 -1.806 -1.506 4.331
 -1.791 -1.505 4.333
 -1.774 -1.502 4.329
 -1.757 -1.5 4.327
 -1.74 -1.497 4.324
 -1.723 -1.494 4.321
 -1.71 -1.495 4.328
 -1.696 -1.495 4.331
 -1.68 -1.493 4.33
 -1.665 -1.491 4.33
 -1.649 -1.49 4.33
 -1.632 -1.487 4.326
 -1.616 -1.484 4.322
 -1.601 -1.483 4.323
 -1.588 -1.484 4.33
 -1.574 -1.483 4.332
 -1.559 -1.482 4.333
 -1.543 -1.48 4.331
 -1.526 -1.477 4.325
 -1.51 -1.474 4.321
 -1.492 -1.47 4.312
 -1.477 -1.469 4.313
 -1.463 -1.468 4.313
 -1.449 -1.467 4.315
 -1.435 -1.467 4.318
 -1.422 -1.467 4.323
 -1.406 -1.464 4.318
 -1.393 -1.465 4.322
 -1.379 -1.465 4.327
 -1.365 -1.463 4.326
 -1.351 -1.463 4.329
 -1.337 -1.463 4.331
 -1.323 -1.462 4.332
 -1.308 -1.461 4.331
 -1.293 -1.459 4.328
 -1.277 -1.455 4.322
 -1.261 -1.453 4.317
 -1.244 -1.449 4.308
 -1.23 -1.447 4.307
 -1.216 -1.446 4.306
 -1.2 -1.443 4.3
 -1.186 -1.442 4.3
 -1.173 -1.442 4.303
 -1.159 -1.442 4.305
 -1.144 -1.439 4.3
 -1.131 -1.44 4.305
 -1.118 -1.439 4.306
 -1.102 -1.437 4.301
 -1.087 -1.434 4.296
 -1.073 -1.433 4.295
 -1.06 -1.433 4.297
 -1.047 -1.433 4.3
 -1.033 -1.432 4.3
 -1.02 -1.432 4.302
 -1.007 -1.432 4.305
 -0.992 -1.43 4.3
 -0.978 -1.428 4.298
 -0.967 -1.43 4.306
 -0.952 -1.429 4.304
 -0.938 -1.427 4.3
 -0.924 -1.426 4.299
 -0.911 -1.425 4.3
 -0.896 -1.423 4.295
 -0.883 -1.422 4.295
 -0.871 -1.424 4.303
 -0.858 -1.424 4.306
 -0.845 -1.425 4.309
 -0.832 -1.424 4.309
 -0.819 -1.424 4.311
 -0.805 -1.422 4.306
 -0.791 -1.421 4.305
 -0.778 -1.42 4.304
 -0.764 -1.419 4.302
 -0.75 -1.418 4.299
 -0.736 -1.415 4.294
 -0.723 -1.415 4.295
 -0.71 -1.414 4.295
 -0.697 -1.414 4.294
 -0.683 -1.413 4.293
 -0.671 -1.414 4.297
 -0.657 -1.412 4.292
 -0.643 -1.41 4.287
 -0.63 -1.408 4.284
 -0.616 -1.406 4.279
 -0.603 -1.407 4.283
 -0.592 -1.409 4.292
 -0.578 -1.409 4.292
 -0.565 -1.408 4.29
 -0.553 -1.41 4.299
 -0.54 -1.409 4.296
 -0.526 -1.407 4.291
 -0.513 -1.407 4.291
 -0.501 -1.407 4.293
 -0.488 -1.407 4.294
 -0.474 -1.405 4.289
 -0.461 -1.405 4.289
 -0.449 -1.406 4.293
 -0.436 -1.405 4.292
 -0.423 -1.404 4.288
 -0.41 -1.405 4.295
 -0.397 -1.403 4.287
 -0.384 -1.402 4.285
 -0.371 -1.403 4.29
 -0.358 -1.4 4.282
 -0.345 -1.398 4.277
 -0.332 -1.399 4.278
 -0.319 -1.397 4.273
 -0.306 -1.396 4.272
 -0.293 -1.397 4.276
 -0.281 -1.397 4.276
 -0.268 -1.398 4.279
 -0.255 -1.398 4.28
 -0.243 -1.398 4.28
 -0.23 -1.398 4.279
 -0.217 -1.398 4.28
 -0.204 -1.397 4.279
 -0.192 -1.398 4.281
 -0.179 -1.396 4.276
 -0.166 -1.395 4.271
 -0.153 -1.396 4.275
 -0.141 -1.397 4.278
 -0.128 -1.396 4.274
 -0.115 -1.395 4.272
 -0.103 -1.397 4.279
 -0.09 -1.397 4.278
 -0.077 -1.395 4.273
 -0.064 -1.396 4.277
 -0.052 -1.398 4.283
 -0.039 -1.398 4.281
 -0.026 -1.395 4.272
 -0.014 -1.396 4.277
 -0.001 -1.396 4.277
 0.011 -1.395 4.272
 0.023 -1.394 4.27
 0.036 -1.396 4.275
 0.049 -1.395 4.273
 0.061 -1.396 4.273
 0.074 -1.394 4.269
 0.087 -1.396 4.273
 0.099 -1.395 4.27
 0.112 -1.396 4.271
 0.125 -1.394 4.267
 0.138 -1.396 4.272
 0.15 -1.395 4.267
 0.163 -1.394 4.265
 0.175 -1.391 4.254
 0.188 -1.391 4.254
 0.2 -1.391 4.255
 0.213 -1.392 4.257
 0.226 -1.394 4.26
 0.239 -1.395 4.263
 0.251 -1.393 4.256
 0.264 -1.392 4.254
 0.276 -1.393 4.255
 0.288 -1.391 4.247
 0.301 -1.392 4.249
 0.314 -1.392 4.251
 0.327 -1.394 4.254
 0.34 -1.396 4.259
 0.354 -1.4 4.272
 0.366 -1.4 4.269
 0.379 -1.4 4.269
 0.392 -1.399 4.266
 0.404 -1.398 4.26
 0.417 -1.398 4.26
 0.43 -1.401 4.266
 0.443 -1.401 4.266
 0.456 -1.401 4.265
 0.468 -1.4 4.26
 0.48 -1.397 4.25
 0.492 -1.395 4.243
 0.505 -1.397 4.248
 0.518 -1.398 4.249
 0.531 -1.399 4.251
 0.544 -1.401 4.254
 0.558 -1.404 4.261
 0.571 -1.404 4.261
 0.584 -1.404 4.258
 0.597 -1.404 4.258
 0.609 -1.404 4.255
 0.621 -1.402 4.248
 0.634 -1.402 4.246
 0.646 -1.402 4.244
 0.659 -1.402 4.242
 0.672 -1.403 4.243
 0.686 -1.405 4.246
 0.698 -1.404 4.244
 0.711 -1.405 4.244
 0.725 -1.407 4.249
 0.739 -1.409 4.251
 0.751 -1.409 4.25
 0.765 -1.411 4.253
 0.779 -1.413 4.257
 0.792 -1.413 4.257
 0.805 -1.413 4.255
 0.817 -1.413 4.25
 0.83 -1.412 4.246
 0.842 -1.412 4.244
 0.855 -1.411 4.239
 0.868 -1.412 4.24
 0.883 -1.415 4.246
 0.896 -1.416 4.247
 0.909 -1.416 4.244
 0.922 -1.417 4.244
 0.935 -1.416 4.24
 0.948 -1.417 4.239
 0.961 -1.417 4.238
 0.973 -1.417 4.234
 0.987 -1.418 4.235
 1.001 -1.42 4.237
 1.014 -1.42 4.234
 1.028 -1.422 4.236
 1.043 -1.425 4.245
 1.057 -1.426 4.244
 1.07 -1.426 4.242
 1.084 -1.428 4.245
 1.096 -1.427 4.239
 1.109 -1.427 4.235
 1.123 -1.428 4.236
 1.136 -1.428 4.232
 1.148 -1.427 4.226
 1.163 -1.43 4.232
 1.177 -1.431 4.231
 1.191 -1.432 4.231
 1.206 -1.436 4.238
 1.219 -1.435 4.233
 1.23 -1.434 4.225
 1.245 -1.435 4.226
 1.258 -1.435 4.223
 1.271 -1.436 4.222
 1.287 -1.439 4.227
 1.302 -1.441 4.23
 1.316 -1.443 4.231
 1.331 -1.445 4.233
 1.344 -1.445 4.23
 1.358 -1.445 4.227
 1.37 -1.445 4.222
 1.384 -1.446 4.221
 1.396 -1.445 4.214
 1.411 -1.447 4.216
 1.426 -1.449 4.218
 1.441 -1.45 4.218
 1.456 -1.453 4.22
 1.472 -1.455 4.223
 1.487 -1.457 4.224
 1.502 -1.459 4.225
 1.517 -1.461 4.227
 1.531 -1.462 4.226
 1.545 -1.462 4.223
 1.558 -1.463 4.219
 1.573 -1.464 4.218
 1.586 -1.464 4.214
 1.599 -1.464 4.21
 1.613 -1.465 4.208
 1.625 -1.464 4.199
 1.64 -1.465 4.198
 1.654 -1.466 4.197
 1.667 -1.466 4.192
 1.682 -1.467 4.19
 1.698 -1.47 4.193
 1.713 -1.471 4.192
 1.728 -1.473 4.193
 1.743 -1.474 4.19
 1.758 -1.476 4.19
 1.772 -1.477 4.187
 1.786 -1.477 4.184
 1.799 -1.477 4.177
 1.812 -1.476 4.171
 1.823 -1.475 4.161
 1.836 -1.475 4.155
 1.847 -1.473 4.144
 1.859 -1.472 4.136
 1.87 -1.471 4.127
 1.883 -1.47 4.119
 1.889 -1.465 4.099
 1.895 -1.459 4.078
 1.901 -1.454 4.057
 0 0 0
 0 0 0
 0 0 0
 0 0 0
 0 0 0
 0 0 0
 0 0 0
 0 0 0
 0 0 0
 0 0 0
 0 0 0
 0 0 0
 0 0 0
 0 0 0
 0 0 0
 0 0 0
 0 0 0
 0 0 0
 0 0 0
 0 0 0
 0 0 0
 0 0 0
 0 0 0
 0 0 0
 0 0 0
 1.835 -1.192 3.19
 1.834 -1.184 3.164
 1.839 -1.181 3.149
 1.843 -1.177 3.133
 1.851 -1.175 3.123
 1.852 -1.169 3.101
 1.857 -1.166 3.086
 1.861 -1.161 3.069
 0 0 0
 0 0 0
 -2.51 -1.586 4.362
 -2.492 -1.584 4.364
 -2.471 -1.58 4.36
 -2.441 -1.57 4.34
 -2.427 -1.571 4.348
 -2.413 -1.571 4.356
 -2.392 -1.567 4.352
 -2.376 -1.566 4.356
 -2.365 -1.569 4.369
 -2.34 -1.561 4.355
 -2.322 -1.559 4.356
 -2.305 -1.557 4.357
 -2.283 -1.553 4.351
 -2.264 -1.55 4.349
 -2.251 -1.55 4.357
 -2.23 -1.546 4.35
 -2.212 -1.543 4.35
 -2.192 -1.539 4.344
 -2.175 -1.537 4.346
 -2.156 -1.534 4.343
 -2.14 -1.533 4.345
 -2.122 -1.53 4.342
 -2.109 -1.531 4.35
 -2.091 -1.528 4.348
 -2.075 -1.527 4.35
 -2.055 -1.522 4.343
 -2.037 -1.52 4.341
 -2.017 -1.515 4.334
 -2 -1.513 4.333
 -1.983 -1.511 4.332
 -1.97 -1.512 4.341
 -1.957 -1.512 4.348
 -1.941 -1.511 4.35
 -1.925 -1.509 4.35
 -1.907 -1.506 4.346
 -1.887 -1.502 4.338
 -1.866 -1.496 4.327
 -1.851 -1.495 4.329
 -1.835 -1.493 4.329
 -1.818 -1.491 4.327
 -1.804 -1.491 4.331
 -1.789 -1.49 4.332
 -1.773 -1.488 4.332
 -1.757 -1.486 4.331
 -1.742 -1.485 4.333
 -1.725 -1.483 4.33
 -1.713 -1.484 4.339
 -1.698 -1.483 4.34
 -1.681 -1.48 4.337
 -1.665 -1.478 4.335
 -1.648 -1.475 4.332
 -1.63 -1.471 4.324
 -1.613 -1.468 4.319
 -1.599 -1.467 4.321
 -1.586 -1.468 4.328
 -1.572 -1.468 4.33
 -1.558 -1.468 4.335
 -1.543 -1.466 4.333
 -1.527 -1.464 4.33
 -1.51 -1.461 4.325
 -1.492 -1.456 4.315
 -1.475 -1.453 4.311
 -1.46 -1.452 4.31
 -1.445 -1.45 4.309
 -1.432 -1.45 4.312
 -1.42 -1.452 4.322
 -1.405 -1.45 4.319
 -1.391 -1.449 4.321
 -1.378 -1.45 4.325
 -1.363 -1.449 4.326
 -1.35 -1.448 4.329
 -1.336 -1.448 4.33
 -1.322 -1.447 4.331
 -1.307 -1.446 4.332
 -1.292 -1.444 4.33
 -1.275 -1.44 4.321
 -1.26 -1.438 4.318
 -1.244 -1.435 4.311
 -1.229 -1.433 4.308
 -1.215 -1.432 4.306
 -1.199 -1.428 4.3
 -1.184 -1.427 4.298
 -1.17 -1.426 4.299
 -1.157 -1.426 4.303
 -1.144 -1.426 4.303
 -1.131 -1.427 4.309
 -1.118 -1.427 4.312
 -1.104 -1.425 4.31
 -1.089 -1.423 4.305
 -1.074 -1.42 4.301
 -1.06 -1.42 4.301
 -1.047 -1.42 4.303
 -1.033 -1.419 4.305
 -1.019 -1.418 4.303
 -1.007 -1.418 4.307
 -0.993 -1.417 4.306
 -0.978 -1.416 4.303
 -0.966 -1.416 4.306
 -0.952 -1.416 4.308
 -0.938 -1.413 4.303
 -0.923 -1.411 4.299
 -0.91 -1.411 4.301
 -0.896 -1.41 4.298
 -0.882 -1.408 4.295
 -0.87 -1.409 4.3
 -0.857 -1.409 4.303
 -0.844 -1.409 4.304
 -0.831 -1.409 4.305
 -0.818 -1.409 4.308
 -0.804 -1.408 4.305
 -0.791 -1.407 4.305
 -0.776 -1.404 4.297
 -0.762 -1.402 4.293
 -0.748 -1.401 4.291
 -0.735 -1.399 4.289
 -0.722 -1.399 4.291
 -0.71 -1.401 4.296
 -0.697 -1.401 4.299
 -0.684 -1.4 4.298
 -0.67 -1.4 4.298
 -0.656 -1.398 4.292
 -0.643 -1.396 4.289
 -0.629 -1.395 4.286
 -0.615 -1.392 4.278
 -0.603 -1.394 4.286
 -0.592 -1.396 4.296
 -0.578 -1.396 4.296
 -0.565 -1.396 4.295
 -0.554 -1.398 4.305
 -0.54 -1.397 4.301
 -0.526 -1.394 4.294
 -0.513 -1.393 4.292
 -0.501 -1.394 4.296
 -0.488 -1.395 4.299
 -0.475 -1.393 4.294
 -0.462 -1.392 4.294
 -0.449 -1.394 4.299
 -0.436 -1.392 4.296
 -0.423 -1.391 4.291
 -0.411 -1.394 4.301
 -0.397 -1.392 4.297
 -0.384 -1.39 4.293
 -0.372 -1.392 4.299
 -0.358 -1.389 4.29
 -0.345 -1.386 4.28
 -0.332 -1.386 4.281
 -0.318 -1.383 4.273
 -0.306 -1.382 4.272
 -0.293 -1.383 4.273
 -0.28 -1.383 4.274
 -0.268 -1.383 4.274
 -0.255 -1.383 4.277
 -0.242 -1.383 4.276
 -0.229 -1.382 4.275
 -0.217 -1.383 4.276
 -0.204 -1.383 4.277
 -0.191 -1.383 4.277
 -0.178 -1.382 4.273
 -0.166 -1.38 4.269
 -0.153 -1.381 4.271
 -0.14 -1.381 4.272
 -0.128 -1.38 4.27
 -0.115 -1.38 4.27
 -0.102 -1.381 4.274
 -0.09 -1.381 4.272
 -0.077 -1.381 4.272
 -0.064 -1.382 4.274
 -0.052 -1.383 4.278
 -0.039 -1.382 4.276
 -0.026 -1.381 4.272
 -0.014 -1.381 4.271
 -0.001 -1.382 4.275
 0.011 -1.381 4.272
 0.023 -1.383 4.278
 0.036 -1.384 4.281
 0.049 -1.383 4.277
 0.061 -1.382 4.274
 0.074 -1.381 4.27
 0.087 -1.38 4.268
 0.099 -1.381 4.27
 0.112 -1.382 4.271
 0.125 -1.381 4.268
 0.137 -1.382 4.271
 0.15 -1.382 4.271
 0.163 -1.381 4.268
 0.175 -1.377 4.255
 0.188 -1.378 4.257
 0.2 -1.379 4.258
 0.213 -1.378 4.255
 0.226 -1.379 4.258
 0.238 -1.38 4.261
 0.251 -1.378 4.252
 0.263 -1.378 4.251
 0.276 -1.38 4.258
 0.288 -1.377 4.248
 0.301 -1.379 4.253
 0.314 -1.38 4.254
 0.327 -1.381 4.257
 0.34 -1.382 4.258
 0.354 -1.386 4.272
 0.366 -1.385 4.265
 0.379 -1.385 4.264
 0.391 -1.384 4.262
 0.404 -1.384 4.258
 0.416 -1.384 4.259
 0.43 -1.388 4.27
 0.443 -1.389 4.271
 0.456 -1.389 4.27
 0.469 -1.389 4.268
 0.48 -1.386 4.258
 0.492 -1.383 4.247
 0.506 -1.386 4.256
 0.519 -1.386 4.255
 0.531 -1.386 4.254
 0.544 -1.388 4.258
 0.558 -1.391 4.265
 0.571 -1.391 4.264
 0.583 -1.39 4.259
 0.597 -1.391 4.261
 0.609 -1.39 4.256
 0.621 -1.389 4.251
 0.634 -1.389 4.249
 0.646 -1.389 4.246
 0.659 -1.388 4.242
 0.672 -1.389 4.244
 0.686 -1.391 4.249
 0.698 -1.391 4.244
 0.711 -1.391 4.245
 0.725 -1.394 4.251
 0.739 -1.396 4.254
 0.751 -1.395 4.252
 0.765 -1.397 4.255
 0.78 -1.401 4.264
 0.794 -1.403 4.267
 0.807 -1.403 4.267
 0.818 -1.401 4.257
 0.831 -1.401 4.255
 0.843 -1.401 4.252
 0.855 -1.398 4.242
 0.867 -1.398 4.239
 0.882 -1.402 4.248
 0.895 -1.402 4.247
 0.909 -1.403 4.247
 0.922 -1.403 4.246
 0.935 -1.404 4.245
 0.947 -1.404 4.241
 0.96 -1.404 4.238
 0.972 -1.402 4.23
 0.986 -1.404 4.235
 0.999 -1.405 4.233
 1.013 -1.406 4.236
 1.028 -1.409 4.24
 1.043 -1.412 4.248
 1.056 -1.412 4.245
 1.07 -1.413 4.246
 1.084 -1.415 4.248
 1.096 -1.414 4.241
 1.109 -1.414 4.237
 1.122 -1.415 4.237
 1.135 -1.414 4.233
 1.147 -1.414 4.228
 1.162 -1.416 4.233
 1.177 -1.418 4.234
 1.19 -1.419 4.234
 1.205 -1.421 4.238
 1.217 -1.42 4.231
 1.23 -1.419 4.226
 1.243 -1.42 4.224
 1.256 -1.42 4.221
 1.272 -1.423 4.226
 1.286 -1.425 4.229
 1.301 -1.428 4.232
 1.316 -1.429 4.234
 1.331 -1.432 4.237
 1.343 -1.43 4.228
 1.357 -1.431 4.228
 1.37 -1.432 4.226
 1.384 -1.432 4.223
 1.397 -1.432 4.219
 1.411 -1.434 4.22
 1.427 -1.436 4.223
 1.441 -1.437 4.221
 1.456 -1.439 4.224
 1.471 -1.441 4.225
 1.486 -1.443 4.227
 1.501 -1.445 4.226
 1.515 -1.446 4.226
 1.528 -1.446 4.221
 1.542 -1.447 4.22
 1.556 -1.448 4.218
 1.571 -1.449 4.218
 1.584 -1.449 4.214
 1.599 -1.45 4.212
 1.611 -1.45 4.206
 1.623 -1.448 4.198
 1.638 -1.45 4.197
 1.654 -1.453 4.2
 1.666 -1.452 4.193
 1.681 -1.453 4.193
 1.698 -1.457 4.197
 1.712 -1.457 4.194
 1.727 -1.458 4.193
 1.742 -1.46 4.193
 1.757 -1.462 4.192
 1.771 -1.463 4.189
 1.786 -1.463 4.186
 1.798 -1.463 4.18
 1.812 -1.464 4.176
 1.822 -1.461 4.164
 1.835 -1.461 4.157
 1.849 -1.461 4.152
 1.86 -1.46 4.143
 1.87 -1.457 4.13
 1.888 -1.461 4.135
 1.9 -1.46 4.126
 1.899 -1.449 4.09
 0 0 0
 0 0 0
 0 0 0
 0 0 0
 0 0 0
 0 0 0
 0 0 0
 0 0 0
 0 0 0
 0 0 0
 0 0 0
 0 0 0
 0 0 0
 0 0 0
 0 0 0
 0 0 0
 0 0 0
 0 0 0
 0 0 0
 0 0 0
 0 0 0
 0 0 0
 0 0 0
 0 0 0
 0 0 0
 0 0 0
 1.83 -1.178 3.185
 1.835 -1.174 3.17
 1.842 -1.172 3.159
 1.846 -1.168 3.141
 1.854 -1.166 3.131
 1.854 -1.16 3.108
 1.867 -1.161 3.107
 1.86 -1.15 3.071
 -2.563 -1.586 4.393
 -2.514 -1.565 4.341
 -2.507 -1.569 4.362
 -2.493 -1.57 4.37
 -2.472 -1.566 4.366
 -2.447 -1.559 4.355
 -2.433 -1.56 4.362
 -2.416 -1.559 4.367
 -2.394 -1.553 4.359
 -2.378 -1.553 4.364
 -2.366 -1.555 4.376
 -2.342 -1.548 4.365
 -2.325 -1.547 4.367
 -2.309 -1.545 4.37
 -2.288 -1.541 4.364
 -2.266 -1.536 4.357
 -2.252 -1.536 4.363
 -2.231 -1.532 4.357
 -2.213 -1.529 4.355
 -2.194 -1.526 4.353
 -2.178 -1.525 4.355
 -2.161 -1.524 4.357
 -2.145 -1.522 4.36
 -2.127 -1.52 4.358
 -2.113 -1.519 4.363
 -2.095 -1.517 4.362
 -2.075 -1.513 4.355
 -2.055 -1.509 4.349
 -2.037 -1.506 4.346
 -2.017 -1.502 4.34
 -1.999 -1.499 4.336
 -1.982 -1.496 4.336
 -1.968 -1.496 4.34
 -1.955 -1.497 4.348
 -1.94 -1.496 4.351
 -1.925 -1.495 4.354
 -1.908 -1.493 4.352
 -1.888 -1.489 4.345
 -1.867 -1.483 4.333
 -1.85 -1.481 4.332
 -1.833 -1.478 4.328
 -1.817 -1.477 4.329
 -1.802 -1.475 4.33
 -1.787 -1.474 4.332
 -1.77 -1.472 4.33
 -1.755 -1.471 4.332
 -1.739 -1.469 4.33
 -1.724 -1.468 4.332
 -1.711 -1.468 4.337
 -1.696 -1.467 4.339
 -1.678 -1.464 4.334
 -1.662 -1.462 4.332
 -1.645 -1.459 4.327
 -1.628 -1.456 4.322
 -1.612 -1.453 4.32
 -1.598 -1.453 4.322
 -1.584 -1.453 4.325
 -1.57 -1.453 4.33
 -1.556 -1.452 4.331
 -1.54 -1.45 4.33
 -1.525 -1.449 4.33
 -1.509 -1.446 4.326
 -1.491 -1.442 4.318
 -1.475 -1.44 4.314
 -1.46 -1.438 4.313
 -1.444 -1.435 4.309
 -1.431 -1.436 4.314
 -1.419 -1.437 4.321
 -1.404 -1.436 4.321
 -1.391 -1.436 4.324
 -1.376 -1.435 4.325
 -1.361 -1.433 4.324
 -1.348 -1.434 4.329
 -1.335 -1.433 4.331
 -1.32 -1.432 4.33
 -1.306 -1.431 4.331
 -1.29 -1.429 4.327
 -1.274 -1.426 4.32
 -1.259 -1.424 4.317
 -1.244 -1.422 4.316
 -1.229 -1.42 4.313
 -1.215 -1.419 4.312
 -1.199 -1.415 4.304
 -1.184 -1.414 4.302
 -1.17 -1.412 4.3
 -1.157 -1.413 4.307
 -1.143 -1.412 4.307
 -1.131 -1.414 4.314
 -1.117 -1.413 4.313
 -1.103 -1.411 4.311
 -1.088 -1.409 4.306
 -1.074 -1.407 4.304
 -1.058 -1.404 4.297
 -1.045 -1.404 4.299
 -1.032 -1.404 4.303
 -1.017 -1.402 4.298
 -1.004 -1.402 4.299
 -0.992 -1.403 4.305
 -0.978 -1.402 4.304
 -0.963 -1.4 4.3
 -0.951 -1.401 4.305
 -0.936 -1.399 4.301
 -0.922 -1.397 4.298
 -0.909 -1.396 4.298
 -0.896 -1.396 4.3
 -0.882 -1.394 4.297
 -0.869 -1.395 4.301
 -0.856 -1.396 4.304
 -0.844 -1.397 4.31
 -0.831 -1.396 4.309
 -0.818 -1.397 4.315
 -0.804 -1.395 4.311
 -0.791 -1.394 4.31
 -0.775 -1.39 4.299
 -0.762 -1.388 4.295
 -0.748 -1.387 4.293
 -0.735 -1.387 4.294
 -0.722 -1.387 4.294
 -0.709 -1.388 4.299
 -0.697 -1.388 4.302
 -0.683 -1.386 4.298
 -0.67 -1.385 4.297
 -0.656 -1.383 4.292
 -0.643 -1.383 4.291
 -0.629 -1.382 4.289
 -0.615 -1.379 4.283
 -0.603 -1.381 4.29
 -0.591 -1.383 4.299
 -0.579 -1.384 4.301
 -0.565 -1.383 4.299
 -0.554 -1.386 4.311
 -0.54 -1.385 4.307
 -0.527 -1.383 4.303
 -0.513 -1.381 4.299
 -0.501 -1.383 4.306
 -0.489 -1.383 4.308
 -0.475 -1.38 4.299
 -0.461 -1.379 4.296
 -0.449 -1.38 4.301
 -0.435 -1.378 4.296
 -0.422 -1.376 4.291
 -0.411 -1.381 4.305
 -0.398 -1.38 4.304
 -0.384 -1.378 4.298
 -0.372 -1.38 4.305
 -0.358 -1.375 4.289
 -0.344 -1.37 4.276
 -0.331 -1.371 4.28
 -0.318 -1.368 4.269
 -0.305 -1.368 4.271
 -0.293 -1.369 4.274
 -0.28 -1.368 4.271
 -0.267 -1.366 4.267
 -0.254 -1.367 4.27
 -0.241 -1.366 4.267
 -0.229 -1.367 4.269
 -0.216 -1.368 4.273
 -0.204 -1.369 4.275
 -0.191 -1.369 4.278
 -0.178 -1.368 4.275
 -0.165 -1.366 4.268
 -0.153 -1.366 4.269
 -0.14 -1.367 4.271
 -0.127 -1.366 4.268
 -0.115 -1.366 4.267
 -0.102 -1.367 4.27
 -0.089 -1.366 4.269
 -0.077 -1.367 4.271
 -0.064 -1.367 4.271
 -0.051 -1.367 4.273
 -0.039 -1.366 4.268
 -0.026 -1.366 4.267
 -0.013 -1.365 4.265
 -0.001 -1.368 4.273
 0.011 -1.368 4.274
 0.024 -1.373 4.291
 0.036 -1.373 4.29
 0.049 -1.371 4.283
 0.061 -1.368 4.274
 0.074 -1.366 4.267
 0.087 -1.366 4.265
 0.099 -1.368 4.271
 0.112 -1.369 4.276
 0.125 -1.369 4.273
 0.138 -1.37 4.276
 0.15 -1.37 4.276
 0.163 -1.368 4.27
 0.175 -1.364 4.256
 0.188 -1.366 4.263
 0.201 -1.368 4.269
 0.213 -1.366 4.262
 0.226 -1.368 4.265
 0.239 -1.369 4.267
 0.25 -1.364 4.252
 0.263 -1.362 4.246
 0.276 -1.366 4.258
 0.288 -1.365 4.252
 0.302 -1.368 4.26
 0.315 -1.37 4.268
 0.328 -1.372 4.271
 0.341 -1.372 4.27
 0.354 -1.375 4.28
 0.366 -1.373 4.272
 0.379 -1.372 4.267
 0.391 -1.372 4.266
 0.404 -1.371 4.263
 0.417 -1.373 4.266
 0.431 -1.377 4.279
 0.444 -1.379 4.282
 0.457 -1.379 4.283
 0.47 -1.378 4.279
 0.481 -1.374 4.263
 0.492 -1.369 4.248
 0.505 -1.372 4.254
 0.518 -1.372 4.254
 0.531 -1.373 4.254
 0.545 -1.376 4.262
 0.559 -1.379 4.271
 0.572 -1.38 4.273
 0.584 -1.378 4.266
 0.597 -1.379 4.266
 0.609 -1.377 4.259
 0.621 -1.376 4.254
 0.633 -1.375 4.248
 0.646 -1.374 4.245
 0.658 -1.373 4.24
 0.671 -1.375 4.244
 0.685 -1.378 4.249
 0.698 -1.377 4.246
 0.711 -1.379 4.25
 0.726 -1.382 4.258
 0.739 -1.384 4.261
 0.751 -1.383 4.255
 0.764 -1.383 4.255
 0.779 -1.386 4.262
 0.793 -1.389 4.267
 0.806 -1.389 4.267
 0.818 -1.388 4.259
 0.831 -1.388 4.259
 0.844 -1.388 4.256
 0.855 -1.385 4.245
 0.867 -1.385 4.243
 0.883 -1.389 4.253
 0.896 -1.39 4.252
 0.909 -1.391 4.253
 0.922 -1.391 4.251
 0.935 -1.391 4.248
 0.947 -1.39 4.241
 0.959 -1.389 4.238
 0.971 -1.388 4.231
 0.986 -1.391 4.238
 1.001 -1.393 4.242
 1.016 -1.397 4.249
 1.029 -1.398 4.25
 1.044 -1.4 4.254
 1.057 -1.4 4.25
 1.069 -1.399 4.246
 1.082 -1.399 4.244
 1.095 -1.4 4.241
 1.108 -1.4 4.238
 1.121 -1.4 4.237
 1.134 -1.4 4.232
 1.146 -1.399 4.228
 1.161 -1.402 4.232
 1.176 -1.405 4.237
 1.19 -1.406 4.237
 1.206 -1.409 4.243
 1.218 -1.408 4.239
 1.231 -1.408 4.233
 1.243 -1.407 4.229
 1.257 -1.408 4.228
 1.272 -1.411 4.232
 1.287 -1.413 4.234
 1.302 -1.415 4.237
 1.316 -1.416 4.237
 1.33 -1.418 4.237
 1.342 -1.416 4.229
 1.355 -1.417 4.227
 1.37 -1.418 4.227
 1.384 -1.419 4.228
 1.398 -1.42 4.226
 1.413 -1.422 4.228
 1.428 -1.425 4.232
 1.442 -1.425 4.229
 1.456 -1.426 4.228
 1.472 -1.429 4.232
 1.486 -1.43 4.23
 1.5 -1.431 4.229
 1.515 -1.432 4.228
 1.528 -1.433 4.226
 1.541 -1.433 4.221
 1.557 -1.434 4.222
 1.572 -1.436 4.223
 1.584 -1.436 4.217
 1.599 -1.437 4.217
 1.612 -1.437 4.211
 1.624 -1.436 4.205
 1.639 -1.438 4.204
 1.656 -1.441 4.21
 1.669 -1.441 4.203
 1.685 -1.443 4.206
 1.7 -1.445 4.206
 1.715 -1.446 4.205
 1.728 -1.446 4.199
 1.743 -1.447 4.198
 1.756 -1.447 4.193
 1.77 -1.448 4.19
 1.784 -1.449 4.187
 1.797 -1.448 4.18
 1.811 -1.449 4.176
 1.821 -1.446 4.164
 1.834 -1.446 4.157
 1.846 -1.446 4.151
 1.859 -1.445 4.145
 1.87 -1.443 4.133
 1.89 -1.448 4.142
 1.901 -1.447 4.133
 0 0 0
 0 0 0
 0 0 0
 0 0 0
 0 0 0
 0 0 0
 0 0 0
 0 0 0
 0 0 0
 0 0 0
 0 0 0
 0 0 0
 0 0 0
 0 0 0
 0 0 0
 0 0 0
 0 0 0
 0 0 0
 0 0 0
 0 0 0
 0 0 0
 0 0 0
 0 0 0
 0 0 0
 0 0 0
 0 0 0
 0 0 0
 1.821 -1.161 3.172
 1.835 -1.163 3.173
 1.844 -1.162 3.164
 1.849 -1.159 3.149
 1.855 -1.156 3.136
 1.857 -1.151 3.116
 0 0 0
 1.863 -1.141 3.079
 -2.55 -1.563 4.376
 -2.557 -1.576 4.421
 -2.509 -1.556 4.37
 -2.491 -1.554 4.372
 -2.472 -1.552 4.372
 -2.444 -1.543 4.355
 -2.429 -1.543 4.362
 -2.412 -1.541 4.363
 -2.391 -1.537 4.359
 -2.373 -1.535 4.358
 -2.362 -1.537 4.373
 -2.342 -1.534 4.37
 -2.325 -1.532 4.37
 -2.31 -1.532 4.377
 -2.289 -1.528 4.371
 -2.266 -1.522 4.361
 -2.249 -1.52 4.362
 -2.231 -1.518 4.362
 -2.211 -1.514 4.356
 -2.191 -1.51 4.351
 -2.176 -1.51 4.356
 -2.16 -1.508 4.359
 -2.144 -1.507 4.361
 -2.125 -1.504 4.359
 -2.112 -1.504 4.365
 -2.092 -1.5 4.359
 -2.071 -1.496 4.352
 -2.051 -1.491 4.344
 -2.034 -1.489 4.344
 -2.015 -1.486 4.34
 -1.998 -1.484 4.339
 -1.981 -1.482 4.338
 -1.969 -1.483 4.347
 -1.955 -1.483 4.353
 -1.94 -1.482 4.356
 -1.925 -1.482 4.359
 -1.91 -1.481 4.362
 -1.889 -1.476 4.352
 -1.87 -1.471 4.344
 -1.853 -1.469 4.343
 -1.837 -1.468 4.343
 -1.821 -1.466 4.342
 -1.804 -1.463 4.34
 -1.788 -1.462 4.339
 -1.772 -1.459 4.338
 -1.755 -1.457 4.335
 -1.738 -1.454 4.332
 -1.723 -1.454 4.335
 -1.709 -1.453 4.338
 -1.694 -1.452 4.34
 -1.678 -1.45 4.338
 -1.663 -1.449 4.337
 -1.647 -1.447 4.336
 -1.631 -1.445 4.335
 -1.615 -1.442 4.332
 -1.598 -1.44 4.329
 -1.583 -1.439 4.329
 -1.568 -1.437 4.329
 -1.553 -1.436 4.329
 -1.538 -1.434 4.327
 -1.524 -1.434 4.331
 -1.509 -1.433 4.33
 -1.493 -1.43 4.326
 -1.476 -1.427 4.321
 -1.46 -1.424 4.317
 -1.444 -1.422 4.312
 -1.429 -1.421 4.312
 -1.416 -1.421 4.316
 -1.401 -1.419 4.315
 -1.388 -1.42 4.321
 -1.374 -1.419 4.321
 -1.36 -1.418 4.322
 -1.347 -1.419 4.327
 -1.332 -1.418 4.328
 -1.317 -1.416 4.325
 -1.303 -1.415 4.327
 -1.287 -1.412 4.322
 -1.271 -1.409 4.314
 -1.257 -1.409 4.316
 -1.244 -1.409 4.32
 -1.229 -1.407 4.317
 -1.215 -1.406 4.316
 -1.199 -1.403 4.311
 -1.185 -1.401 4.308
 -1.169 -1.399 4.303
 -1.156 -1.399 4.306
 -1.143 -1.399 4.31
 -1.131 -1.4 4.315
 -1.117 -1.399 4.314
 -1.102 -1.397 4.312
 -1.088 -1.396 4.31
 -1.073 -1.394 4.307
 -1.058 -1.39 4.299
 -1.044 -1.39 4.301
 -1.031 -1.391 4.304
 -1.016 -1.387 4.295
 -1.003 -1.387 4.298
 -0.991 -1.388 4.304
 -0.977 -1.387 4.302
 -0.961 -1.384 4.295
 -0.95 -1.386 4.305
 -0.936 -1.385 4.302
 -0.921 -1.382 4.297
 -0.909 -1.384 4.304
 -0.897 -1.385 4.308
 -0.882 -1.383 4.304
 -0.87 -1.383 4.308
 -0.857 -1.384 4.311
 -0.844 -1.383 4.311
 -0.83 -1.383 4.312
 -0.818 -1.384 4.317
 -0.804 -1.382 4.312
 -0.79 -1.38 4.31
 -0.775 -1.376 4.3
 -0.76 -1.374 4.293
 -0.746 -1.371 4.287
 -0.733 -1.371 4.287
 -0.72 -1.371 4.291
 -0.708 -1.373 4.296
 -0.696 -1.374 4.301
 -0.682 -1.372 4.297
 -0.669 -1.371 4.296
 -0.654 -1.366 4.282
 -0.64 -1.365 4.278
 -0.628 -1.366 4.282
 -0.614 -1.365 4.281
 -0.603 -1.367 4.29
 -0.592 -1.372 4.306
 -0.579 -1.372 4.307
 -0.566 -1.37 4.304
 -0.554 -1.373 4.315
 -0.541 -1.373 4.315
 -0.527 -1.371 4.31
 -0.514 -1.371 4.311
 -0.501 -1.371 4.31
 -0.488 -1.37 4.31
 -0.474 -1.365 4.295
 -0.461 -1.364 4.292
 -0.448 -1.365 4.298
 -0.435 -1.365 4.297
 -0.422 -1.363 4.292
 -0.41 -1.367 4.306
 -0.397 -1.365 4.301
 -0.383 -1.363 4.293
 -0.37 -1.362 4.29
 -0.356 -1.356 4.273
 -0.342 -1.35 4.257
 -0.331 -1.355 4.273
 -0.317 -1.351 4.26
 -0.305 -1.353 4.268
 -0.292 -1.354 4.271
 -0.279 -1.354 4.27
 -0.267 -1.353 4.269
 -0.254 -1.355 4.275
 -0.241 -1.354 4.272
 -0.229 -1.354 4.272
 -0.216 -1.354 4.273
 -0.204 -1.355 4.275
 -0.191 -1.354 4.274
 -0.178 -1.354 4.274
 -0.165 -1.353 4.269
 -0.153 -1.355 4.277
 -0.14 -1.356 4.279
 -0.128 -1.356 4.281
 -0.115 -1.355 4.278
 -0.102 -1.356 4.28
 -0.089 -1.355 4.276
 -0.077 -1.354 4.274
 -0.064 -1.353 4.27
 -0.051 -1.353 4.27
 -0.039 -1.353 4.27
 -0.026 -1.351 4.265
 -0.013 -1.35 4.262
 -0.001 -1.353 4.272
 0.011 -1.354 4.273
 0.024 -1.357 4.283
 0.036 -1.361 4.294
 0.049 -1.36 4.291
 0.061 -1.354 4.271
 0.074 -1.357 4.281
 0.087 -1.357 4.28
 0.1 -1.36 4.29
 0.113 -1.359 4.288
 0.125 -1.361 4.292
 0.138 -1.361 4.292
 0.151 -1.364 4.3
 0.163 -1.36 4.289
 0.176 -1.358 4.282
 0.189 -1.361 4.289
 0.201 -1.36 4.286
 0.213 -1.355 4.271
 0.227 -1.358 4.279
 0.239 -1.357 4.273
 0.251 -1.351 4.254
 0.263 -1.351 4.253
 0.277 -1.355 4.266
 0.288 -1.349 4.245
 0.301 -1.353 4.258
 0.314 -1.354 4.258
 0.328 -1.357 4.268
 0.34 -1.358 4.27
 0.355 -1.364 4.289
 0.366 -1.36 4.275
 0.379 -1.36 4.274
 0.391 -1.359 4.269
 0.404 -1.359 4.268
 0.417 -1.36 4.27
 0.432 -1.367 4.291
 0.445 -1.369 4.297
 0.458 -1.37 4.298
 0.471 -1.369 4.294
 0.482 -1.363 4.274
 0.492 -1.357 4.252
 0.505 -1.359 4.259
 0.518 -1.359 4.257
 0.53 -1.357 4.249
 0.544 -1.36 4.255
 0.558 -1.363 4.264
 0.57 -1.364 4.264
 0.583 -1.363 4.26
 0.596 -1.364 4.262
 0.608 -1.363 4.259
 0.621 -1.363 4.255
 0.632 -1.36 4.246
 0.645 -1.36 4.242
 0.658 -1.361 4.243
 0.671 -1.363 4.248
 0.685 -1.365 4.254
 0.698 -1.365 4.251
 0.712 -1.367 4.256
 0.725 -1.368 4.258
 0.739 -1.37 4.261
 0.751 -1.369 4.255
 0.764 -1.37 4.258
 0.779 -1.373 4.264
 0.794 -1.378 4.277
 0.808 -1.379 4.278
 0.819 -1.376 4.267
 0.832 -1.376 4.266
 0.844 -1.376 4.263
 0.854 -1.372 4.246
 0.867 -1.371 4.243
 0.883 -1.376 4.257
 0.895 -1.376 4.252
 0.909 -1.377 4.254
 0.922 -1.378 4.253
 0.936 -1.379 4.256
 0.947 -1.376 4.243
 0.96 -1.377 4.245
 0.972 -1.376 4.236
 0.987 -1.379 4.245
 1 -1.38 4.243
 1.015 -1.383 4.251
 1.03 -1.385 4.254
 1.044 -1.386 4.256
 1.056 -1.386 4.25
 1.069 -1.386 4.249
 1.083 -1.387 4.248
 1.094 -1.385 4.241
 1.107 -1.386 4.239
 1.121 -1.386 4.238
 1.133 -1.386 4.233
 1.146 -1.386 4.229
 1.16 -1.388 4.232
 1.175 -1.39 4.235
 1.189 -1.391 4.234
 1.204 -1.393 4.239
 1.217 -1.393 4.236
 1.23 -1.394 4.235
 1.244 -1.395 4.234
 1.258 -1.396 4.234
 1.273 -1.399 4.239
 1.288 -1.4 4.24
 1.301 -1.401 4.237
 1.315 -1.402 4.236
 1.329 -1.403 4.237
 1.34 -1.401 4.228
 1.354 -1.402 4.226
 1.368 -1.403 4.227
 1.382 -1.404 4.225
 1.396 -1.405 4.224
 1.411 -1.407 4.227
 1.426 -1.409 4.229
 1.44 -1.41 4.228
 1.454 -1.411 4.227
 1.471 -1.414 4.231
 1.484 -1.415 4.229
 1.499 -1.416 4.228
 1.513 -1.418 4.228
 1.527 -1.418 4.225
 1.539 -1.417 4.219
 1.554 -1.419 4.22
 1.569 -1.42 4.219
 1.58 -1.419 4.21
 1.596 -1.421 4.213
 1.609 -1.421 4.208
 1.622 -1.421 4.203
 1.636 -1.422 4.2
 1.654 -1.426 4.208
 1.666 -1.425 4.201
 1.683 -1.428 4.204
 1.698 -1.43 4.204
 1.712 -1.43 4.202
 1.726 -1.431 4.198
 1.741 -1.433 4.198
 1.754 -1.432 4.192
 1.768 -1.433 4.188
 1.783 -1.434 4.187
 1.794 -1.433 4.178
 1.808 -1.434 4.175
 1.82 -1.432 4.165
 1.832 -1.431 4.158
 1.847 -1.433 4.156
 1.862 -1.434 4.155
 1.872 -1.432 4.143
 1.899 -1.442 4.167
 0 0 0
 0 0 0
 0 0 0
 0 0 0
 0 0 0
 0 0 0
 0 0 0
 0 0 0
 0 0 0
 0 0 0
 0 0 0
 0 0 0
 0 0 0
 0 0 0
 0 0 0
 0 0 0
 0 0 0
 0 0 0
 0 0 0
 0 0 0
 0 0 0
 0 0 0
 0 0 0
 0 0 0
 0 0 0
 0 0 0
 0 0 0
 0 0 0
 1.821 -1.15 3.176
 1.836 -1.153 3.178
 1.843 -1.151 3.167
 1.847 -1.147 3.15
 1.853 -1.144 3.136
 1.855 -1.139 3.116
 1.852 -1.131 3.088
 1.853 -1.125 3.067
 -2.531 -1.537 4.348
 -2.514 -1.535 4.35
 -2.511 -1.543 4.379
 -2.492 -1.54 4.379
 -2.472 -1.537 4.376
 -2.448 -1.531 4.366
 -2.431 -1.53 4.37
 -2.413 -1.527 4.37
 -2.392 -1.523 4.364
 -2.375 -1.522 4.367
 -2.361 -1.522 4.375
 -2.343 -1.52 4.375
 -2.323 -1.516 4.371
 -2.311 -1.518 4.383
 -2.289 -1.513 4.375
 -2.267 -1.508 4.367
 -2.247 -1.504 4.362
 -2.23 -1.503 4.364
 -2.209 -1.498 4.357
 -2.189 -1.495 4.352
 -2.174 -1.494 4.357
 -2.16 -1.494 4.363
 -2.143 -1.492 4.364
 -2.125 -1.49 4.362
 -2.111 -1.49 4.368
 -2.091 -1.486 4.362
 -2.069 -1.48 4.352
 -2.049 -1.476 4.346
 -2.031 -1.473 4.341
 -2.012 -1.47 4.337
 -1.997 -1.469 4.341
 -1.982 -1.468 4.344
 -1.968 -1.468 4.349
 -1.954 -1.469 4.356
 -1.939 -1.468 4.359
 -1.924 -1.467 4.362
 -1.908 -1.466 4.363
 -1.89 -1.462 4.357
 -1.871 -1.458 4.351
 -1.853 -1.455 4.347
 -1.836 -1.453 4.344
 -1.82 -1.451 4.345
 -1.803 -1.449 4.342
 -1.787 -1.447 4.341
 -1.771 -1.445 4.34
 -1.755 -1.443 4.339
 -1.739 -1.441 4.338
 -1.723 -1.44 4.339
 -1.709 -1.439 4.341
 -1.694 -1.439 4.344
 -1.677 -1.436 4.34
