 1.459 -1.602 4.163
 1.486 -1.603 4.157
 1.514 -1.604 4.153
 1.542 -1.606 4.149
 1.569 -1.607 4.142
 1.597 -1.609 4.137
 1.623 -1.609 4.129
 1.651 -1.61 4.122
 1.677 -1.611 4.112
 1.704 -1.611 4.105
 1.73 -1.611 4.093
 1.756 -1.611 4.082
 1.781 -1.609 4.069
 1.804 -1.607 4.052
 1.826 -1.603 4.032
 1.846 -1.598 4.007
 1.861 -1.589 3.974
 1.871 -1.576 3.929
 1.879 -1.561 3.88
 1.885 -1.545 3.831
 1.889 -1.528 3.776
 1.892 -1.511 3.723
 1.9 -1.497 3.678
 1.902 -1.481 3.625
 1.903 -1.462 3.569
 1.912 -1.452 3.531
 0 0 0
 1.816 -1.346 3.25
 1.801 -1.319 3.175
 1.823 -1.319 3.164
 1.833 -1.311 3.134
 1.841 -1.302 3.1
 1.853 -1.296 3.074
 1.823 -1.261 2.979
 -2.352 -1.616 3.991
 -2.33 -1.62 4.015
 -2.292 -1.613 4.008
 -2.267 -1.615 4.026
 -2.239 -1.614 4.039
 -2.208 -1.611 4.043
 -2.182 -1.612 4.058
 -2.155 -1.612 4.072
 -2.126 -1.611 4.081
 -2.097 -1.61 4.089
 -2.072 -1.612 4.106
 -2.044 -1.611 4.116
 -2.015 -1.61 4.126
 -1.986 -1.609 4.133
 -1.958 -1.608 4.142
 -1.931 -1.608 4.153
 -1.903 -1.607 4.161
 -1.873 -1.606 4.167
 -1.846 -1.606 4.177
 -1.818 -1.605 4.185
 -1.789 -1.603 4.191
 -1.761 -1.602 4.198
 -1.733 -1.601 4.206
 -1.703 -1.599 4.208
 -1.675 -1.598 4.215
 -1.646 -1.596 4.219
 -1.617 -1.594 4.222
 -1.589 -1.593 4.227
 -1.562 -1.592 4.235
 -1.532 -1.59 4.236
 -1.505 -1.589 4.243
 -1.477 -1.588 4.248
 -1.449 -1.587 4.252
 -1.42 -1.585 4.254
 -1.392 -1.583 4.257
 -1.362 -1.58 4.255
 -1.334 -1.578 4.257
 -1.306 -1.576 4.258
 -1.278 -1.574 4.261
 -1.25 -1.573 4.263
 -1.223 -1.572 4.266
 -1.196 -1.571 4.27
 -1.168 -1.57 4.272
 -1.14 -1.568 4.273
 -1.114 -1.567 4.276
 -1.085 -1.565 4.275
 -1.058 -1.562 4.274
 -1.03 -1.56 4.274
 -1.003 -1.559 4.275
 -0.976 -1.558 4.276
 -0.949 -1.556 4.278
 -0.922 -1.555 4.278
 -0.895 -1.554 4.28
 -0.869 -1.554 4.283
 -0.841 -1.552 4.282
 -0.815 -1.551 4.283
 -0.788 -1.549 4.282
 -0.761 -1.547 4.281
 -0.734 -1.545 4.279
 -0.707 -1.544 4.278
 -0.681 -1.543 4.279
 -0.655 -1.543 4.281
 -0.628 -1.542 4.281
 -0.602 -1.541 4.281
 -0.577 -1.541 4.285
 -0.55 -1.539 4.282
 -0.523 -1.537 4.279
 -0.497 -1.536 4.277
 -0.471 -1.534 4.273
 -0.444 -1.531 4.268
 -0.418 -1.53 4.268
 -0.393 -1.53 4.268
 -0.367 -1.529 4.267
 -0.341 -1.53 4.271
 -0.315 -1.529 4.269
 -0.29 -1.529 4.271
 -0.264 -1.529 4.272
 -0.239 -1.529 4.274
 -0.213 -1.528 4.272
 -0.187 -1.529 4.273
 -0.162 -1.528 4.273
 -0.136 -1.527 4.269
 -0.11 -1.525 4.266
 -0.085 -1.524 4.262
 -0.059 -1.524 4.261
 -0.034 -1.524 4.261
 -0.008 -1.524 4.262
 0.016 -1.525 4.264
 0.042 -1.526 4.265
 0.067 -1.526 4.266
 0.093 -1.526 4.265
 0.118 -1.526 4.263
 0.144 -1.527 4.264
 0.169 -1.526 4.262
 0.195 -1.525 4.258
 0.22 -1.526 4.26
 0.246 -1.526 4.259
 0.271 -1.526 4.255
 0.297 -1.526 4.253
 0.323 -1.527 4.255
 0.348 -1.526 4.251
 0.374 -1.527 4.251
 0.399 -1.528 4.252
 0.425 -1.53 4.256
 0.451 -1.531 4.255
 0.477 -1.533 4.256
 0.503 -1.532 4.253
 0.528 -1.533 4.252
 0.554 -1.533 4.249
 0.579 -1.533 4.245
 0.606 -1.534 4.246
 0.632 -1.536 4.247
 0.658 -1.537 4.247
 0.684 -1.538 4.245
 0.711 -1.541 4.249
 0.737 -1.541 4.246
 0.763 -1.543 4.246
 0.789 -1.544 4.246
 0.816 -1.546 4.245
 0.842 -1.546 4.241
 0.868 -1.547 4.239
 0.894 -1.548 4.237
 0.92 -1.548 4.233
 0.947 -1.55 4.233
 0.974 -1.552 4.233
 1.001 -1.554 4.232
 1.028 -1.556 4.232
 1.056 -1.559 4.234
 1.083 -1.56 4.233
 1.11 -1.562 4.23
 1.137 -1.563 4.228
 1.164 -1.565 4.227
 1.192 -1.567 4.225
 1.219 -1.569 4.224
 1.247 -1.571 4.223
 1.275 -1.573 4.221
 1.302 -1.575 4.218
 1.329 -1.576 4.213
 1.357 -1.578 4.211
 1.385 -1.579 4.207
 1.412 -1.581 4.203
 1.44 -1.583 4.2
 1.468 -1.585 4.197
 1.495 -1.586 4.19
 1.523 -1.587 4.186
 1.551 -1.589 4.182
 1.579 -1.591 4.177
 1.607 -1.592 4.172
 1.634 -1.593 4.164
 1.662 -1.594 4.158
 1.689 -1.595 4.15
 1.716 -1.596 4.142
 1.743 -1.596 4.133
 1.77 -1.597 4.124
 1.796 -1.596 4.112
 1.819 -1.593 4.094
 1.839 -1.588 4.069
 1.857 -1.581 4.04
 1.87 -1.57 4.001
 1.879 -1.556 3.954
 1.887 -1.541 3.906
 1.895 -1.527 3.858
 1.899 -1.51 3.804
 1.904 -1.495 3.753
 1.91 -1.481 3.706
 1.916 -1.467 3.66
 0 0 0
 0 0 0
 0 0 0
 0 0 0
 1.799 -1.296 3.178
 1.822 -1.297 3.17
 1.833 -1.29 3.141
 1.84 -1.28 3.106
 1.851 -1.273 3.078
 1.835 -1.248 3.005
 -2.386 -1.612 4.058
 -2.352 -1.608 4.061
 -2.324 -1.608 4.075
 -2.298 -1.609 4.091
 -2.269 -1.608 4.102
 -2.239 -1.607 4.112
 -2.213 -1.607 4.126
 -2.183 -1.606 4.135
 -2.154 -1.605 4.144
 -2.124 -1.604 4.153
 -2.097 -1.604 4.166
 -2.067 -1.602 4.174
 -2.039 -1.602 4.184
 -2.009 -1.6 4.191
 -1.979 -1.598 4.197
 -1.952 -1.598 4.207
 -1.923 -1.597 4.216
 -1.893 -1.595 4.22
 -1.864 -1.594 4.228
 -1.836 -1.593 4.236
 -1.806 -1.591 4.239
 -1.776 -1.589 4.244
 -1.747 -1.587 4.249
 -1.716 -1.584 4.25
 -1.687 -1.583 4.255
 -1.657 -1.58 4.257
 -1.628 -1.578 4.259
 -1.599 -1.576 4.265
 -1.571 -1.575 4.271
 -1.541 -1.572 4.27
 -1.513 -1.571 4.274
 -1.484 -1.569 4.276
 -1.455 -1.567 4.279
 -1.425 -1.564 4.278
 -1.397 -1.562 4.28
 -1.368 -1.559 4.28
 -1.339 -1.557 4.281
 -1.31 -1.555 4.282
 -1.283 -1.554 4.285
 -1.255 -1.552 4.287
 -1.226 -1.55 4.288
 -1.199 -1.549 4.291
 -1.171 -1.547 4.291
 -1.143 -1.545 4.291
 -1.115 -1.543 4.29
 -1.087 -1.541 4.291
 -1.059 -1.538 4.288
 -1.031 -1.536 4.287
 -1.004 -1.534 4.288
 -0.977 -1.533 4.29
 -0.949 -1.531 4.289
 -0.922 -1.529 4.287
 -0.895 -1.528 4.289
 -0.868 -1.527 4.289
 -0.84 -1.524 4.286
 -0.814 -1.523 4.286
 -0.787 -1.522 4.288
 -0.76 -1.521 4.287
 -0.733 -1.519 4.285
 -0.707 -1.517 4.285
 -0.681 -1.517 4.286
 -0.654 -1.516 4.285
 -0.628 -1.515 4.286
 -0.602 -1.514 4.287
 -0.576 -1.514 4.289
 -0.549 -1.512 4.287
 -0.523 -1.51 4.284
 -0.497 -1.509 4.282
 -0.47 -1.507 4.278
 -0.444 -1.505 4.276
 -0.418 -1.505 4.275
 -0.393 -1.505 4.277
 -0.367 -1.504 4.277
 -0.341 -1.505 4.28
 -0.315 -1.503 4.277
 -0.289 -1.503 4.276
 -0.264 -1.503 4.278
 -0.238 -1.502 4.277
 -0.213 -1.502 4.278
 -0.187 -1.503 4.28
 -0.161 -1.502 4.279
 -0.136 -1.5 4.274
 -0.11 -1.499 4.272
 -0.084 -1.498 4.267
 -0.059 -1.497 4.266
 -0.033 -1.498 4.267
 -0.008 -1.498 4.269
 0.017 -1.499 4.269
 0.042 -1.5 4.271
 0.068 -1.5 4.271
 0.093 -1.5 4.271
 0.119 -1.5 4.27
 0.144 -1.501 4.273
 0.17 -1.501 4.272
 0.195 -1.501 4.269
 0.221 -1.501 4.27
 0.246 -1.502 4.268
 0.272 -1.5 4.263
 0.297 -1.5 4.26
 0.323 -1.501 4.261
 0.348 -1.5 4.257
 0.373 -1.5 4.256
 0.399 -1.502 4.257
 0.425 -1.504 4.261
 0.451 -1.505 4.261
 0.477 -1.505 4.26
 0.503 -1.506 4.258
 0.528 -1.506 4.255
 0.554 -1.506 4.254
 0.579 -1.506 4.25
 0.605 -1.508 4.252
 0.631 -1.509 4.251
 0.658 -1.511 4.253
 0.684 -1.511 4.25
 0.71 -1.513 4.252
 0.736 -1.514 4.251
 0.763 -1.516 4.253
 0.789 -1.517 4.251
 0.816 -1.519 4.251
 0.841 -1.519 4.247
 0.868 -1.521 4.246
 0.894 -1.521 4.244
 0.921 -1.523 4.242
 0.948 -1.524 4.242
 0.975 -1.527 4.244
 1.002 -1.529 4.243
 1.029 -1.531 4.243
 1.056 -1.533 4.243
 1.083 -1.534 4.241
 1.11 -1.536 4.239
 1.137 -1.537 4.237
 1.165 -1.539 4.236
 1.192 -1.541 4.235
 1.221 -1.544 4.236
 1.248 -1.546 4.233
 1.275 -1.547 4.23
 1.303 -1.549 4.228
 1.33 -1.55 4.224
 1.358 -1.552 4.222
 1.387 -1.555 4.221
 1.415 -1.557 4.22
 1.444 -1.56 4.218
 1.472 -1.562 4.216
 1.499 -1.563 4.209
 1.527 -1.564 4.205
 1.555 -1.566 4.201
 1.583 -1.568 4.197
 1.611 -1.569 4.191
 1.639 -1.571 4.185
 1.668 -1.574 4.183
 1.696 -1.575 4.177
 1.724 -1.577 4.171
 1.753 -1.578 4.165
 1.78 -1.579 4.155
 1.804 -1.577 4.14
 1.827 -1.573 4.121
 1.846 -1.567 4.094
 1.863 -1.56 4.062
 1.876 -1.548 4.022
 1.886 -1.535 3.977
 1.894 -1.521 3.928
 1.902 -1.507 3.882
 1.906 -1.491 3.828
 1.913 -1.477 3.78
 1.92 -1.463 3.733
 0 0 0
 0 0 0
 0 0 0
 0 0 0
 0 0 0
 1.79 -1.268 3.169
 1.819 -1.273 3.171
 1.832 -1.267 3.146
 1.838 -1.257 3.11
 1.864 -1.261 3.107
 1.847 -1.235 3.033
 0 0 0
 -2.373 -1.594 4.108
 -2.354 -1.601 4.138
 -2.325 -1.6 4.15
 -2.297 -1.6 4.163
 -2.266 -1.598 4.17
 -2.242 -1.601 4.19
 -2.211 -1.599 4.198
 -2.181 -1.597 4.207
 -2.15 -1.595 4.214
 -2.12 -1.594 4.222
 -2.089 -1.591 4.227
 -2.06 -1.591 4.237
 -2.029 -1.588 4.241
 -1.997 -1.585 4.243
 -1.968 -1.584 4.251
 -1.937 -1.582 4.257
 -1.906 -1.578 4.258
 -1.876 -1.577 4.265
 -1.848 -1.577 4.274
 -1.818 -1.574 4.277
 -1.788 -1.572 4.282
 -1.759 -1.57 4.287
 -1.728 -1.567 4.288
 -1.698 -1.565 4.291
 -1.667 -1.562 4.292
 -1.637 -1.559 4.293
 -1.606 -1.556 4.293
 -1.577 -1.554 4.295
 -1.546 -1.55 4.292
 -1.516 -1.547 4.293
 -1.486 -1.544 4.292
 -1.458 -1.543 4.295
 -1.429 -1.541 4.298
 -1.4 -1.539 4.3
 -1.371 -1.536 4.299
 -1.343 -1.535 4.301
 -1.314 -1.532 4.301
 -1.285 -1.53 4.301
 -1.256 -1.528 4.302
 -1.227 -1.525 4.3
 -1.199 -1.523 4.3
 -1.171 -1.52 4.299
 -1.142 -1.518 4.298
 -1.114 -1.515 4.296
 -1.086 -1.514 4.297
 -1.059 -1.512 4.296
 -1.031 -1.51 4.295
 -1.003 -1.508 4.295
 -0.976 -1.507 4.297
 -0.949 -1.505 4.296
 -0.921 -1.503 4.295
 -0.895 -1.502 4.296
 -0.868 -1.5 4.296
 -0.84 -1.497 4.291
 -0.813 -1.496 4.292
 -0.786 -1.495 4.292
 -0.759 -1.493 4.29
 -0.733 -1.491 4.289
 -0.706 -1.491 4.29
 -0.68 -1.49 4.291
 -0.654 -1.489 4.291
 -0.628 -1.488 4.293
 -0.601 -1.488 4.293
 -0.575 -1.487 4.294
 -0.549 -1.486 4.293
 -0.522 -1.483 4.288
 -0.496 -1.482 4.287
 -0.47 -1.48 4.283
 -0.444 -1.479 4.283
 -0.418 -1.479 4.282
 -0.393 -1.48 4.287
 -0.367 -1.479 4.285
 -0.341 -1.479 4.289
 -0.315 -1.477 4.284
 -0.289 -1.477 4.283
 -0.264 -1.476 4.283
 -0.238 -1.475 4.281
 -0.212 -1.475 4.28
 -0.187 -1.475 4.283
 -0.161 -1.475 4.283
 -0.135 -1.473 4.278
 -0.11 -1.473 4.278
 -0.084 -1.472 4.273
 -0.059 -1.472 4.273
 -0.033 -1.471 4.272
 -0.008 -1.472 4.274
 0.017 -1.472 4.274
 0.042 -1.474 4.279
 0.068 -1.474 4.277
 0.093 -1.474 4.276
 0.119 -1.474 4.275
 0.144 -1.475 4.278
 0.17 -1.475 4.276
 0.195 -1.475 4.275
 0.221 -1.475 4.274
 0.246 -1.475 4.274
 0.272 -1.474 4.268
 0.297 -1.474 4.265
 0.323 -1.474 4.265
 0.348 -1.474 4.264
 0.373 -1.474 4.26
 0.399 -1.475 4.261
 0.425 -1.477 4.264
 0.451 -1.478 4.264
 0.476 -1.477 4.261
 0.502 -1.478 4.261
 0.528 -1.478 4.258
 0.553 -1.479 4.255
 0.579 -1.479 4.253
 0.605 -1.481 4.255
 0.631 -1.482 4.255
 0.657 -1.484 4.256
 0.683 -1.484 4.253
 0.709 -1.486 4.255
 0.736 -1.487 4.254
 0.762 -1.489 4.257
 0.789 -1.49 4.256
 0.815 -1.492 4.257
 0.841 -1.493 4.253
 0.868 -1.494 4.252
 0.894 -1.495 4.25
 0.92 -1.496 4.248
 0.947 -1.498 4.247
 0.975 -1.5 4.249
 1.002 -1.502 4.249
 1.029 -1.504 4.25
 1.056 -1.506 4.25
 1.083 -1.508 4.249
 1.11 -1.51 4.247
 1.138 -1.511 4.246
 1.165 -1.513 4.243
 1.192 -1.515 4.241
 1.22 -1.517 4.242
 1.247 -1.518 4.238
 1.274 -1.52 4.235
 1.302 -1.521 4.233
 1.329 -1.523 4.229
 1.357 -1.525 4.227
 1.386 -1.528 4.228
 1.415 -1.531 4.228
 1.444 -1.534 4.227
 1.473 -1.537 4.228
 1.501 -1.538 4.222
 1.529 -1.54 4.219
 1.557 -1.542 4.216
 1.586 -1.544 4.212
 1.614 -1.546 4.207
 1.643 -1.548 4.203
 1.672 -1.55 4.201
 1.7 -1.552 4.195
 1.728 -1.553 4.188
 1.757 -1.555 4.183
 1.784 -1.556 4.175
 1.808 -1.553 4.158
 1.831 -1.55 4.139
 1.852 -1.545 4.115
 1.868 -1.537 4.081
 1.882 -1.527 4.043
 1.894 -1.516 4.003
 1.903 -1.502 3.956
 1.912 -1.49 3.911
 1.92 -1.476 3.864
 1.929 -1.464 3.82
 0 0 0
 0 0 0
 0 0 0
 0 0 0
 0 0 0
 0 0 0
 1.786 -1.243 3.169
 1.813 -1.248 3.17
 1.828 -1.243 3.147
 1.836 -1.234 3.114
 1.858 -1.235 3.104
 1.821 -1.197 2.996
 -2.421 -1.58 4.139
 -2.444 -1.613 4.242
 -2.389 -1.596 4.21
 -2.356 -1.593 4.216
 -2.325 -1.591 4.224
 -2.294 -1.589 4.232
 -2.265 -1.589 4.245
 -2.232 -1.586 4.248
 -2.2 -1.583 4.253
 -2.168 -1.581 4.259
 -2.137 -1.579 4.266
 -2.105 -1.575 4.269
 -2.074 -1.574 4.275
 -2.042 -1.571 4.278
 -2.009 -1.567 4.279
 -1.979 -1.565 4.285
 -1.948 -1.563 4.29
 -1.917 -1.56 4.292
 -1.886 -1.557 4.296
 -1.856 -1.556 4.302
 -1.825 -1.552 4.303
 -1.794 -1.55 4.305
 -1.764 -1.547 4.308
 -1.732 -1.544 4.309
 -1.701 -1.541 4.309
 -1.67 -1.538 4.309
 -1.64 -1.535 4.309
 -1.609 -1.531 4.308
 -1.578 -1.528 4.308
 -1.547 -1.525 4.306
 -1.517 -1.522 4.305
 -1.487 -1.518 4.304
 -1.458 -1.517 4.306
 -1.43 -1.515 4.309
 -1.4 -1.512 4.307
 -1.371 -1.509 4.307
 -1.342 -1.507 4.308
 -1.313 -1.505 4.307
 -1.284 -1.502 4.306
 -1.255 -1.5 4.307
 -1.226 -1.497 4.304
 -1.198 -1.494 4.303
 -1.169 -1.492 4.302
 -1.142 -1.49 4.303
 -1.113 -1.488 4.302
 -1.086 -1.487 4.304
 -1.058 -1.485 4.303
 -1.031 -1.483 4.303
 -1.003 -1.481 4.301
 -0.976 -1.48 4.303
 -0.948 -1.478 4.302
 -0.921 -1.476 4.299
 -0.894 -1.474 4.3
 -0.867 -1.473 4.301
 -0.839 -1.47 4.297
 -0.812 -1.468 4.295
 -0.786 -1.468 4.297
 -0.759 -1.466 4.294
 -0.731 -1.463 4.291
 -0.705 -1.462 4.29
 -0.679 -1.462 4.293
 -0.653 -1.461 4.293
 -0.627 -1.461 4.295
 -0.6 -1.46 4.295
 -0.575 -1.46 4.297
 -0.548 -1.459 4.297
 -0.522 -1.456 4.291
 -0.496 -1.455 4.291
 -0.469 -1.453 4.286
 -0.443 -1.452 4.284
 -0.417 -1.45 4.282
 -0.392 -1.452 4.289
 -0.366 -1.451 4.286
 -0.341 -1.452 4.29
 -0.315 -1.451 4.288
 -0.289 -1.45 4.287
 -0.263 -1.449 4.285
 -0.237 -1.448 4.283
 -0.212 -1.448 4.283
 -0.186 -1.448 4.285
 -0.161 -1.448 4.285
 -0.135 -1.446 4.279
 -0.11 -1.446 4.28
 -0.084 -1.444 4.275
 -0.059 -1.445 4.278
 -0.033 -1.445 4.276
 -0.008 -1.445 4.276
 0.017 -1.445 4.276
 0.042 -1.446 4.279
 0.068 -1.445 4.275
 0.093 -1.445 4.274
 0.119 -1.445 4.275
 0.144 -1.446 4.276
 0.17 -1.446 4.275
 0.195 -1.446 4.273
 0.22 -1.446 4.273
 0.246 -1.447 4.272
 0.271 -1.446 4.269
 0.297 -1.446 4.267
 0.322 -1.447 4.268
 0.348 -1.448 4.268
 0.373 -1.447 4.265
 0.399 -1.448 4.265
 0.425 -1.449 4.265
 0.45 -1.45 4.265
 0.476 -1.45 4.262
 0.502 -1.451 4.263
 0.527 -1.451 4.261
 0.553 -1.452 4.261
 0.579 -1.453 4.259
 0.605 -1.454 4.26
 0.631 -1.455 4.259
 0.657 -1.457 4.26
 0.682 -1.456 4.256
 0.709 -1.458 4.257
 0.735 -1.46 4.257
 0.762 -1.462 4.26
 0.788 -1.463 4.26
 0.815 -1.466 4.263
 0.841 -1.466 4.259
 0.867 -1.467 4.258
 0.894 -1.468 4.256
 0.92 -1.47 4.255
 0.947 -1.471 4.253
 0.974 -1.473 4.255
 1.001 -1.475 4.255
 1.028 -1.477 4.254
 1.055 -1.479 4.254
 1.083 -1.481 4.253
 1.11 -1.482 4.251
 1.137 -1.484 4.25
 1.164 -1.485 4.248
 1.192 -1.488 4.248
 1.22 -1.49 4.248
 1.247 -1.492 4.245
 1.274 -1.493 4.243
 1.302 -1.495 4.241
 1.329 -1.496 4.236
 1.357 -1.498 4.234
 1.386 -1.501 4.235
 1.415 -1.504 4.235
 1.444 -1.507 4.235
 1.473 -1.51 4.235
 1.501 -1.511 4.23
 1.529 -1.513 4.226
 1.557 -1.515 4.222
 1.585 -1.517 4.219
 1.614 -1.518 4.214
 1.643 -1.521 4.211
 1.672 -1.523 4.209
 1.7 -1.525 4.203
 1.728 -1.526 4.197
 1.757 -1.528 4.192
 1.784 -1.529 4.183
 1.81 -1.528 4.17
 1.833 -1.525 4.152
 1.854 -1.52 4.128
 1.872 -1.514 4.099
 1.887 -1.505 4.064
 1.901 -1.495 4.026
 1.911 -1.483 3.982
 1.923 -1.472 3.941
 1.929 -1.458 3.891
 0 0 0
 0 0 0
 0 0 0
 0 0 0
 0 0 0
 0 0 0
 0 0 0
 1.79 -1.225 3.184
 1.817 -1.228 3.183
 1.831 -1.223 3.158
 1.84 -1.215 3.127
 1.853 -1.21 3.103
 1.839 -1.187 3.032
 -2.507 -1.606 4.295
 -2.434 -1.578 4.233
 -2.418 -1.586 4.27
 -2.38 -1.581 4.268
 -2.347 -1.577 4.273
 -2.316 -1.576 4.283
 -2.285 -1.574 4.29
 -2.25 -1.57 4.291
 -2.217 -1.567 4.295
 -2.185 -1.564 4.301
 -2.15 -1.56 4.301
 -2.116 -1.556 4.301
 -2.084 -1.553 4.306
 -2.052 -1.55 4.309
 -2.018 -1.546 4.307
 -1.987 -1.543 4.312
 -1.956 -1.541 4.316
 -1.923 -1.537 4.317
 -1.891 -1.534 4.316
 -1.86 -1.531 4.32
 -1.827 -1.527 4.319
 -1.796 -1.524 4.319
 -1.764 -1.52 4.318
 -1.733 -1.517 4.319
 -1.701 -1.514 4.318
 -1.67 -1.511 4.318
 -1.64 -1.508 4.318
 -1.609 -1.504 4.317
 -1.578 -1.501 4.315
 -1.547 -1.497 4.312
 -1.516 -1.494 4.311
 -1.486 -1.491 4.309
 -1.457 -1.489 4.312
 -1.429 -1.487 4.315
 -1.399 -1.485 4.315
 -1.37 -1.482 4.314
 -1.342 -1.48 4.316
 -1.312 -1.478 4.314
 -1.284 -1.475 4.314
 -1.255 -1.473 4.314
 -1.226 -1.47 4.311
 -1.197 -1.468 4.31
 -1.169 -1.466 4.31
 -1.141 -1.463 4.309
 -1.113 -1.461 4.308
 -1.085 -1.46 4.31
 -1.058 -1.458 4.309
 -1.029 -1.455 4.306
 -1.002 -1.453 4.305
 -0.975 -1.452 4.306
 -0.947 -1.45 4.304
 -0.919 -1.447 4.299
 -0.892 -1.446 4.3
 -0.865 -1.444 4.3
 -0.838 -1.442 4.297
 -0.81 -1.44 4.294
 -0.784 -1.44 4.298
 -0.758 -1.438 4.297
 -0.731 -1.436 4.294
 -0.704 -1.435 4.293
 -0.679 -1.436 4.299
 -0.652 -1.435 4.299
 -0.626 -1.434 4.3
 -0.6 -1.433 4.301
 -0.574 -1.433 4.303
 -0.548 -1.432 4.3
 -0.521 -1.428 4.291
 -0.495 -1.429 4.298
 -0.469 -1.427 4.293
 -0.443 -1.426 4.292
 -0.417 -1.426 4.292
 -0.392 -1.429 4.303
 -0.366 -1.424 4.291
 -0.34 -1.425 4.294
 -0.314 -1.424 4.291
 -0.288 -1.423 4.29
 -0.263 -1.422 4.287
 -0.237 -1.42 4.284
 -0.211 -1.421 4.286
 -0.186 -1.42 4.285
 -0.16 -1.42 4.285
 -0.135 -1.418 4.281
 -0.109 -1.419 4.282
 -0.084 -1.417 4.277
 -0.058 -1.418 4.28
 -0.033 -1.418 4.279
 -0.007 -1.418 4.278
 0.017 -1.418 4.279
 0.042 -1.42 4.286
 0.068 -1.419 4.281
 0.093 -1.419 4.279
 0.119 -1.419 4.279
 0.144 -1.42 4.282
 0.17 -1.42 4.279
 0.195 -1.42 4.278
 0.221 -1.42 4.278
 0.246 -1.421 4.279
 0.271 -1.42 4.274
 0.296 -1.418 4.267
 0.322 -1.419 4.268
 0.348 -1.42 4.27
 0.373 -1.42 4.265
 0.398 -1.419 4.263
 0.424 -1.421 4.266
 0.45 -1.422 4.265
 0.475 -1.421 4.26
 0.501 -1.423 4.263
 0.527 -1.424 4.263
 0.553 -1.425 4.263
 0.578 -1.426 4.262
 0.604 -1.427 4.263
 0.63 -1.427 4.259
 0.656 -1.428 4.259
 0.681 -1.429 4.256
 0.708 -1.43 4.257
 0.734 -1.431 4.257
 0.76 -1.433 4.258
 0.787 -1.435 4.258
 0.814 -1.437 4.261
 0.84 -1.438 4.258
 0.866 -1.439 4.258
 0.893 -1.441 4.258
 0.92 -1.443 4.258
 0.946 -1.444 4.257
 0.973 -1.446 4.258
 1 -1.448 4.258
 1.027 -1.45 4.258
 1.054 -1.451 4.257
 1.081 -1.453 4.255
 1.108 -1.454 4.253
 1.136 -1.456 4.253
 1.163 -1.458 4.251
 1.19 -1.459 4.249
 1.218 -1.462 4.249
 1.245 -1.463 4.247
 1.273 -1.465 4.245
 1.301 -1.467 4.244
 1.328 -1.469 4.241
 1.356 -1.47 4.238
 1.385 -1.473 4.239
 1.413 -1.476 4.238
 1.442 -1.478 4.236
 1.471 -1.481 4.235
 1.499 -1.483 4.234
 1.527 -1.485 4.23
 1.556 -1.487 4.228
 1.585 -1.489 4.226
 1.614 -1.492 4.223
 1.643 -1.494 4.22
 1.672 -1.496 4.217
 1.7 -1.498 4.212
 1.729 -1.499 4.206
 1.757 -1.501 4.199
 1.784 -1.502 4.191
 1.81 -1.501 4.179
 1.835 -1.5 4.165
 1.857 -1.496 4.142
 1.876 -1.49 4.116
 1.892 -1.482 4.082
 1.907 -1.473 4.046
 1.923 -1.466 4.015
 1.936 -1.456 3.977
 0 0 0
 0 0 0
 0 0 0
 0 0 0
 0 0 0
 0 0 0
 0 0 0
 0 0 0
 1.781 -1.197 3.174
 1.81 -1.202 3.177
 1.826 -1.199 3.157
 1.836 -1.192 3.128
 1.857 -1.191 3.116
 1.856 -1.178 3.069
 -2.542 -1.599 4.365
 -2.509 -1.597 4.374
 -2.436 -1.569 4.312
 -2.399 -1.564 4.311
 -2.361 -1.559 4.309
 -2.328 -1.556 4.315
 -2.296 -1.554 4.321
 -2.259 -1.548 4.319
 -2.226 -1.545 4.323
 -2.193 -1.542 4.327
 -2.158 -1.537 4.325
 -2.122 -1.532 4.322
 -2.088 -1.528 4.323
 -2.055 -1.524 4.324
 -2.02 -1.519 4.32
 -1.988 -1.516 4.323
 -1.956 -1.514 4.326
 -1.924 -1.51 4.327
 -1.891 -1.506 4.326
 -1.861 -1.504 4.33
 -1.827 -1.5 4.327
 -1.795 -1.496 4.326
 -1.763 -1.492 4.325
 -1.732 -1.489 4.325
 -1.7 -1.485 4.322
 -1.669 -1.482 4.322
 -1.638 -1.479 4.323
 -1.608 -1.476 4.323
 -1.577 -1.473 4.321
 -1.546 -1.469 4.318
 -1.515 -1.466 4.317
 -1.485 -1.463 4.316
 -1.456 -1.461 4.317
 -1.428 -1.459 4.32
 -1.399 -1.457 4.321
 -1.37 -1.455 4.321
 -1.34 -1.452 4.32
 -1.311 -1.449 4.318
 -1.282 -1.446 4.315
 -1.254 -1.445 4.317
 -1.224 -1.441 4.312
 -1.195 -1.438 4.309
 -1.167 -1.437 4.312
 -1.14 -1.436 4.314
 -1.111 -1.433 4.31
 -1.085 -1.433 4.315
 -1.057 -1.431 4.316
 -1.03 -1.43 4.316
 -1.002 -1.427 4.313
 -0.975 -1.426 4.315
 -0.947 -1.424 4.314
 -0.919 -1.421 4.308
 -0.891 -1.419 4.304
 -0.864 -1.417 4.304
 -0.837 -1.415 4.301
 -0.809 -1.412 4.297
 -0.784 -1.413 4.302
 -0.757 -1.411 4.302
 -0.73 -1.409 4.298
 -0.704 -1.408 4.299
 -0.679 -1.41 4.307
 -0.652 -1.409 4.306
 -0.626 -1.408 4.305
 -0.6 -1.407 4.306
 -0.574 -1.406 4.306
 -0.547 -1.404 4.303
 -0.52 -1.401 4.294
 -0.495 -1.403 4.303
 -0.469 -1.401 4.3
 -0.443 -1.401 4.3
 -0.417 -1.401 4.302
 -0.393 -1.405 4.315
 -0.365 -1.398 4.295
 -0.339 -1.397 4.294
 -0.314 -1.396 4.293
 -0.288 -1.395 4.291
 -0.262 -1.394 4.289
 -0.237 -1.394 4.288
 -0.211 -1.395 4.291
 -0.186 -1.394 4.291
 -0.16 -1.394 4.29
 -0.135 -1.392 4.286
 -0.109 -1.393 4.288
 -0.084 -1.391 4.282
 -0.058 -1.392 4.285
 -0.033 -1.392 4.284
 -0.007 -1.392 4.284
 0.017 -1.392 4.284
 0.043 -1.394 4.291
 0.068 -1.393 4.287
 0.093 -1.392 4.282
 0.119 -1.394 4.287
 0.144 -1.395 4.289
 0.17 -1.395 4.287
 0.195 -1.394 4.286
 0.221 -1.395 4.286
 0.246 -1.396 4.288
 0.272 -1.395 4.283
 0.297 -1.393 4.274
 0.322 -1.393 4.275
 0.348 -1.395 4.276
 0.373 -1.394 4.271
 0.398 -1.394 4.269
 0.424 -1.395 4.27
 0.45 -1.396 4.27
 0.475 -1.394 4.264
 0.501 -1.396 4.267
 0.527 -1.397 4.267
 0.553 -1.399 4.269
 0.578 -1.399 4.267
 0.604 -1.401 4.268
 0.63 -1.4 4.263
 0.655 -1.401 4.263
 0.681 -1.402 4.261
 0.707 -1.403 4.261
 0.734 -1.405 4.263
 0.76 -1.407 4.264
 0.787 -1.408 4.263
 0.813 -1.41 4.265
 0.839 -1.411 4.262
 0.866 -1.412 4.261
 0.892 -1.414 4.263
 0.92 -1.416 4.265
 0.946 -1.418 4.264
 0.974 -1.42 4.266
 1.001 -1.422 4.265
 1.027 -1.423 4.263
 1.054 -1.424 4.26
 1.08 -1.424 4.256
 1.107 -1.426 4.254
 1.134 -1.427 4.253
 1.161 -1.429 4.251
 1.188 -1.431 4.25
 1.217 -1.433 4.251
 1.244 -1.436 4.251
 1.272 -1.437 4.248
 1.299 -1.439 4.246
 1.327 -1.441 4.243
 1.354 -1.442 4.24
 1.382 -1.444 4.239
 1.41 -1.446 4.237
 1.439 -1.448 4.235
 1.468 -1.451 4.235
 1.497 -1.454 4.235
 1.526 -1.456 4.233
 1.555 -1.459 4.231
 1.584 -1.461 4.23
 1.613 -1.464 4.227
 1.641 -1.466 4.224
 1.67 -1.468 4.221
 1.699 -1.47 4.216
 1.727 -1.471 4.21
 1.755 -1.473 4.204
 1.783 -1.474 4.197
 1.807 -1.471 4.179
 1.832 -1.471 4.167
 1.855 -1.467 4.147
 1.876 -1.463 4.123
 1.892 -1.455 4.091
 1.914 -1.452 4.069
 1.931 -1.445 4.039
 0 0 0
 0 0 0
 0 0 0
 0 0 0
 0 0 0
 0 0 0
 0 0 0
 0 0 0
 0 0 0
 1.775 -1.171 3.171
 1.809 -1.18 3.183
 1.827 -1.178 3.166
 1.839 -1.172 3.139
 1.853 -1.168 3.116
 1.865 -1.162 3.09
 -2.541 -1.569 4.374
 -2.497 -1.56 4.363
 -2.449 -1.549 4.345
 -2.411 -1.543 4.342
 -2.373 -1.537 4.34
 -2.338 -1.533 4.342
 -2.302 -1.529 4.343
 -2.266 -1.524 4.341
 -2.23 -1.519 4.34
 -2.195 -1.515 4.34
 -2.16 -1.51 4.338
 -2.123 -1.504 4.334
 -2.088 -1.5 4.332
 -2.055 -1.497 4.334
 -2.02 -1.491 4.33
 -1.987 -1.488 4.331
 -1.955 -1.485 4.333
 -1.923 -1.481 4.333
 -1.889 -1.477 4.331
 -1.858 -1.474 4.333
 -1.825 -1.47 4.33
 -1.792 -1.466 4.329
 -1.761 -1.463 4.329
 -1.73 -1.46 4.329
 -1.698 -1.457 4.328
 -1.667 -1.454 4.328
 -1.637 -1.451 4.329
 -1.606 -1.448 4.327
 -1.575 -1.444 4.325
 -1.544 -1.441 4.323
 -1.515 -1.438 4.323
 -1.485 -1.436 4.323
 -1.455 -1.433 4.322
 -1.426 -1.431 4.324
 -1.397 -1.429 4.324
 -1.368 -1.426 4.323
 -1.339 -1.424 4.324
 -1.31 -1.422 4.323
 -1.281 -1.42 4.322
 -1.253 -1.418 4.323
 -1.223 -1.414 4.318
 -1.194 -1.411 4.314
 -1.167 -1.41 4.317
 -1.139 -1.409 4.318
 -1.111 -1.406 4.316
 -1.084 -1.406 4.32
 -1.057 -1.405 4.323
 -1.029 -1.403 4.323
 -1.001 -1.401 4.32
 -0.974 -1.4 4.321
 -0.947 -1.398 4.32
 -0.919 -1.395 4.315
 -0.891 -1.392 4.309
 -0.864 -1.391 4.31
 -0.836 -1.388 4.307
 -0.809 -1.386 4.303
 -0.783 -1.385 4.305
 -0.757 -1.385 4.306
 -0.73 -1.383 4.304
 -0.703 -1.382 4.304
 -0.678 -1.383 4.311
 -0.652 -1.383 4.312
 -0.626 -1.381 4.311
 -0.6 -1.381 4.313
 -0.574 -1.381 4.314
 -0.547 -1.379 4.31
 -0.52 -1.374 4.299
 -0.495 -1.377 4.308
 -0.469 -1.375 4.306
 -0.443 -1.374 4.303
 -0.417 -1.374 4.305
 -0.393 -1.379 4.321
 -0.364 -1.37 4.294
 -0.339 -1.369 4.294
 -0.313 -1.368 4.293
 -0.287 -1.368 4.292
 -0.262 -1.367 4.29
 -0.236 -1.367 4.291
 -0.211 -1.367 4.293
 -0.185 -1.367 4.293
 -0.16 -1.366 4.29
 -0.134 -1.365 4.288
 -0.109 -1.365 4.288
 -0.083 -1.364 4.284
 -0.058 -1.364 4.285
 -0.033 -1.364 4.285
 -0.007 -1.364 4.284
 0.017 -1.365 4.285
 0.043 -1.367 4.292
 0.068 -1.367 4.291
 0.093 -1.366 4.287
 0.119 -1.368 4.292
 0.145 -1.369 4.294
 0.17 -1.368 4.291
 0.195 -1.367 4.288
 0.221 -1.368 4.287
 0.246 -1.369 4.289
 0.272 -1.368 4.286
 0.296 -1.366 4.277
 0.322 -1.367 4.279
 0.348 -1.369 4.281
 0.373 -1.368 4.276
 0.398 -1.367 4.273
 0.424 -1.369 4.275
 0.45 -1.369 4.274
 0.475 -1.368 4.269
 0.501 -1.371 4.273
 0.527 -1.372 4.273
 0.553 -1.373 4.274
 0.578 -1.373 4.273
 0.604 -1.375 4.274
 0.629 -1.374 4.267
 0.655 -1.374 4.266
 0.681 -1.376 4.266
 0.707 -1.377 4.265
 0.733 -1.378 4.265
 0.76 -1.38 4.267
 0.786 -1.381 4.266
 0.812 -1.383 4.266
 0.838 -1.383 4.264
 0.865 -1.385 4.264
 0.892 -1.387 4.266
 0.919 -1.389 4.268
 0.946 -1.391 4.269
 0.973 -1.394 4.271
 1 -1.395 4.269
 1.026 -1.395 4.265
 1.052 -1.396 4.262
 1.078 -1.396 4.256
 1.105 -1.397 4.253
 1.132 -1.399 4.253
 1.159 -1.401 4.252
 1.187 -1.403 4.252
 1.215 -1.405 4.253
 1.243 -1.408 4.254
 1.271 -1.41 4.252
 1.298 -1.411 4.249
 1.325 -1.412 4.245
 1.353 -1.414 4.242
 1.38 -1.415 4.238
 1.408 -1.417 4.236
 1.436 -1.419 4.235
 1.465 -1.422 4.235
 1.495 -1.425 4.236
 1.524 -1.428 4.236
 1.553 -1.431 4.235
 1.582 -1.433 4.232
 1.611 -1.435 4.23
 1.639 -1.437 4.226
 1.668 -1.439 4.221
 1.696 -1.44 4.217
 1.725 -1.443 4.213
 1.753 -1.444 4.206
 1.781 -1.445 4.2
 1.806 -1.444 4.186
 1.832 -1.444 4.175
 1.856 -1.441 4.157
 1.879 -1.438 4.138
 1.897 -1.433 4.11
 1.922 -1.431 4.094
 0 0 0
 0 0 0
 0 0 0
 0 0 0
 0 0 0
 0 0 0
 0 0 0
 0 0 0
 0 0 0
 0 0 0
 0 0 0
 1.809 -1.158 3.189
 1.828 -1.157 3.175
 1.84 -1.151 3.147
 1.867 -1.155 3.147
 1.852 -1.133 3.075
 -2.515 -1.524 4.339
 -2.501 -1.534 4.38
 -2.453 -1.522 4.361
 -2.415 -1.517 4.359
 -2.374 -1.51 4.352
 -2.339 -1.506 4.354
 -2.303 -1.501 4.353
 -2.264 -1.494 4.347
 -2.228 -1.489 4.345
 -2.193 -1.485 4.345
 -2.157 -1.48 4.343
 -2.121 -1.475 4.34
 -2.087 -1.471 4.338
 -2.054 -1.467 4.34
 -2.019 -1.463 4.337
 -1.986 -1.459 4.337
 -1.954 -1.456 4.338
 -1.921 -1.452 4.337
 -1.887 -1.448 4.335
 -1.855 -1.445 4.335
 -1.823 -1.441 4.334
 -1.791 -1.438 4.333
 -1.76 -1.435 4.334
 -1.729 -1.432 4.335
 -1.697 -1.429 4.333
 -1.666 -1.425 4.331
 -1.635 -1.422 4.331
 -1.604 -1.419 4.329
 -1.573 -1.415 4.328
 -1.543 -1.412 4.327
 -1.513 -1.41 4.326
 -1.483 -1.407 4.325
 -1.453 -1.404 4.323
 -1.422 -1.401 4.32
 -1.393 -1.398 4.32
 -1.364 -1.396 4.321
 -1.336 -1.394 4.322
 -1.308 -1.394 4.325
 -1.28 -1.392 4.326
 -1.252 -1.391 4.329
 -1.222 -1.387 4.324
 -1.193 -1.384 4.32
 -1.166 -1.383 4.323
 -1.139 -1.382 4.326
 -1.111 -1.38 4.324
 -1.084 -1.38 4.33
 -1.057 -1.379 4.332
 -1.03 -1.377 4.331
 -1.001 -1.375 4.327
 -0.974 -1.373 4.328
 -0.947 -1.371 4.327
 -0.919 -1.369 4.322
 -0.89 -1.365 4.314
 -0.863 -1.364 4.314
 -0.836 -1.363 4.315
 -0.809 -1.36 4.309
 -0.783 -1.359 4.311
 -0.756 -1.359 4.313
 -0.729 -1.357 4.31
 -0.702 -1.355 4.306
 -0.678 -1.357 4.317
 -0.652 -1.356 4.317
 -0.625 -1.355 4.316
 -0.599 -1.355 4.32
 -0.574 -1.355 4.322
 -0.546 -1.352 4.313
 -0.519 -1.347 4.3
 -0.494 -1.35 4.312
 -0.468 -1.348 4.307
 -0.442 -1.346 4.302
 -0.416 -1.346 4.305
 -0.392 -1.353 4.327
 -0.363 -1.34 4.286
 -0.337 -1.339 4.285
 -0.312 -1.339 4.287
 -0.287 -1.339 4.288
 -0.261 -1.338 4.287
 -0.236 -1.339 4.289
 -0.21 -1.339 4.292
 -0.185 -1.339 4.291
 -0.159 -1.338 4.29
 -0.134 -1.338 4.29
 -0.109 -1.338 4.289
 -0.083 -1.337 4.286
 -0.058 -1.337 4.287
 -0.032 -1.337 4.286
 -0.007 -1.337 4.285
 0.017 -1.336 4.283
 0.043 -1.337 4.285
 0.068 -1.338 4.287
 0.093 -1.337 4.284
 0.119 -1.339 4.29
 0.145 -1.343 4.299
 0.17 -1.343 4.299
 0.195 -1.341 4.292
 0.221 -1.342 4.293
 0.246 -1.343 4.295
 0.272 -1.342 4.29
 0.296 -1.338 4.276
 0.322 -1.34 4.28
 0.348 -1.342 4.283
 0.373 -1.341 4.28
 0.398 -1.341 4.276
 0.424 -1.343 4.28
 0.45 -1.343 4.28
 0.475 -1.342 4.273
 0.501 -1.345 4.278
 0.527 -1.346 4.28
 0.553 -1.348 4.282
 0.578 -1.347 4.278
 0.604 -1.349 4.279
 0.629 -1.347 4.269
 0.654 -1.347 4.267
 0.68 -1.348 4.267
 0.707 -1.35 4.269
 0.733 -1.351 4.269
 0.759 -1.353 4.27
 0.785 -1.354 4.269
 0.812 -1.356 4.27
 0.838 -1.356 4.267
 0.864 -1.357 4.266
 0.892 -1.361 4.273
 0.919 -1.364 4.276
 0.947 -1.366 4.278
 0.974 -1.368 4.279
 1 -1.368 4.275
 1.025 -1.368 4.267
 1.051 -1.368 4.264
 1.077 -1.368 4.258
 1.104 -1.37 4.256
 1.131 -1.371 4.255
 1.159 -1.374 4.256
 1.186 -1.375 4.255
 1.213 -1.377 4.254
 1.241 -1.38 4.254
 1.269 -1.381 4.253
 1.296 -1.383 4.25
 1.323 -1.384 4.247
 1.351 -1.386 4.245
 1.378 -1.387 4.24
 1.406 -1.388 4.237
 1.434 -1.391 4.236
 1.462 -1.393 4.234
 1.492 -1.396 4.236
 1.521 -1.399 4.236
 1.551 -1.402 4.235
 1.579 -1.404 4.233
 1.609 -1.407 4.232
 1.637 -1.408 4.227
 1.665 -1.41 4.223
 1.694 -1.412 4.219
 1.723 -1.414 4.216
 1.751 -1.415 4.209
 1.78 -1.417 4.204
 1.805 -1.416 4.19
 1.832 -1.416 4.18
 1.855 -1.414 4.163
 1.88 -1.413 4.149
 1.897 -1.406 4.117
 0 0 0
 0 0 0
 0 0 0
 0 0 0
 0 0 0
 0 0 0
 0 0 0
 0 0 0
 0 0 0
 0 0 0
 0 0 0
 0 0 0
 1.81 -1.137 3.198
 1.83 -1.137 3.185
 1.842 -1.131 3.158
 1.884 -1.144 3.182
 1.859 -1.116 3.092
 -2.533 -1.506 4.379
 -2.491 -1.498 4.372
 -2.451 -1.492 4.367
 -2.413 -1.487 4.365
 -2.375 -1.481 4.362
 -2.339 -1.476 4.362
 -2.302 -1.472 4.361
 -2.264 -1.466 4.355
 -2.227 -1.46 4.352
 -2.191 -1.455 4.349
 -2.154 -1.45 4.345
 -2.117 -1.444 4.34
 -2.085 -1.441 4.343
 -2.052 -1.438 4.344
 -2.018 -1.434 4.342
 -1.985 -1.43 4.343
 -1.952 -1.427 4.343
 -1.917 -1.422 4.339
 -1.884 -1.418 4.336
 -1.852 -1.415 4.336
 -1.82 -1.412 4.336
 -1.788 -1.408 4.336
 -1.758 -1.406 4.338
 -1.727 -1.403 4.339
 -1.696 -1.4 4.339
 -1.664 -1.397 4.336
 -1.634 -1.394 4.336
 -1.602 -1.39 4.332
 -1.572 -1.387 4.332
 -1.541 -1.384 4.33
 -1.511 -1.381 4.329
 -1.481 -1.378 4.327
 -1.451 -1.375 4.326
 -1.42 -1.371 4.32
 -1.391 -1.37 4.323
 -1.363 -1.368 4.323
 -1.335 -1.367 4.325
 -1.307 -1.366 4.33
 -1.28 -1.365 4.334
 -1.252 -1.364 4.335
 -1.222 -1.36 4.33
 -1.193 -1.358 4.328
 -1.165 -1.356 4.328
 -1.138 -1.355 4.33
 -1.11 -1.353 4.328
 -1.083 -1.352 4.333
 -1.055 -1.351 4.332
 -1.029 -1.35 4.334
 -1.001 -1.347 4.331
 -0.973 -1.346 4.331
 -0.947 -1.345 4.334
 -0.919 -1.343 4.332
 -0.889 -1.337 4.315
 -0.861 -1.334 4.311
 -0.834 -1.334 4.312
 -0.808 -1.332 4.31
 -0.782 -1.332 4.313
 -0.756 -1.333 4.32
 -0.73 -1.332 4.32
 -0.703 -1.331 4.32
 -0.679 -1.334 4.334
 -0.654 -1.335 4.338
 -0.627 -1.334 4.338
 -0.601 -1.333 4.339
 -0.575 -1.333 4.342
 -0.547 -1.328 4.328
 -0.518 -1.319 4.298
 -0.495 -1.325 4.322
 -0.469 -1.325 4.324
 0 0 0
 0 0 0
 0 0 0
 -0.36 -1.305 4.264
 -0.336 -1.308 4.275
 -0.311 -1.31 4.281
 -0.286 -1.311 4.286
 -0.26 -1.311 4.286
 -0.235 -1.312 4.29
 -0.21 -1.312 4.292
 -0.184 -1.311 4.29
 -0.159 -1.31 4.288
 -0.134 -1.311 4.288
 -0.108 -1.31 4.288
 -0.083 -1.309 4.285
 -0.057 -1.309 4.284
 -0.032 -1.309 4.284
 -0.007 -1.309 4.282
 0.017 -1.308 4.279
 0.043 -1.307 4.275
 0 0 0
 0 0 0
 0 0 0
 0 0 0
 0 0 0
 0 0 0
 0 0 0
 0 0 0
 0 0 0
 0 0 0
 0.321 -1.31 4.273
 0.347 -1.312 4.276
 0.372 -1.312 4.274
 0.397 -1.31 4.265
 0.423 -1.315 4.279
 0.449 -1.317 4.282
 0.474 -1.315 4.273
 0.5 -1.316 4.276
 0.526 -1.319 4.282
 0.553 -1.321 4.285
 0.577 -1.32 4.277
 0.604 -1.322 4.28
 0.627 -1.317 4.263
 0.652 -1.318 4.261
 0.68 -1.321 4.269
 0.706 -1.322 4.269
 0.732 -1.324 4.27
 0.759 -1.326 4.272
 0.784 -1.326 4.27
 0.81 -1.327 4.268
 0.836 -1.328 4.265
 0.862 -1.329 4.264
 0.89 -1.333 4.272
 0.918 -1.336 4.277
 0.946 -1.338 4.28
 0.973 -1.34 4.28
 0.999 -1.341 4.276
 1.024 -1.34 4.268
 1.05 -1.34 4.264
 1.075 -1.34 4.258
 1.102 -1.341 4.256
 1.129 -1.342 4.253
 1.156 -1.345 4.254
 1.184 -1.347 4.254
 1.211 -1.349 4.253
 1.24 -1.351 4.255
 1.268 -1.354 4.255
 1.295 -1.355 4.253
 1.322 -1.356 4.249
 1.35 -1.358 4.247
 1.376 -1.359 4.242
 1.404 -1.36 4.239
 1.432 -1.362 4.237
 1.461 -1.365 4.237
 1.49 -1.368 4.237
 1.52 -1.371 4.239
 1.549 -1.374 4.238
 1.577 -1.375 4.235
 1.607 -1.378 4.233
 1.635 -1.38 4.23
 1.663 -1.381 4.225
 1.692 -1.383 4.221
 1.721 -1.386 4.219
 1.75 -1.387 4.213
 1.778 -1.389 4.209
 1.804 -1.388 4.195
 1.83 -1.388 4.185
 1.856 -1.387 4.172
 1.88 -1.386 4.156
 0 0 0
 0 0 0
 0 0 0
 0 0 0
 0 0 0
 0 0 0
 0 0 0
 0 0 0
 0 0 0
 0 0 0
 0 0 0
 0 0 0
 0 0 0
 1.799 -1.109 3.185
 1.823 -1.111 3.179
 1.836 -1.106 3.154
 1.875 -1.117 3.174
 1.853 -1.092 3.09
 -2.506 -1.46 4.341
 -2.495 -1.471 4.388
 -2.45 -1.462 4.375
 -2.413 -1.458 4.374
 -2.375 -1.452 4.371
 -2.337 -1.447 4.368
 -2.3 -1.442 4.366
 -2.261 -1.435 4.359
 -2.224 -1.43 4.355
 -2.187 -1.425 4.351
 -2.151 -1.42 4.348
 -2.115 -1.415 4.344
 -2.081 -1.411 4.344
 -2.047 -1.407 4.343
 -2.013 -1.403 4.342
 -1.98 -1.399 4.34
 -1.948 -1.396 4.341
 -1.914 -1.392 4.338
 -1.882 -1.389 4.34
 -1.85 -1.385 4.339
 -1.818 -1.382 4.339
 -1.786 -1.379 4.337
 -1.755 -1.377 4.34
 -1.724 -1.374 4.34
 -1.694 -1.371 4.341
 -1.662 -1.368 4.338
 -1.631 -1.365 4.338
 -1.599 -1.361 4.333
 -1.569 -1.358 4.332
 -1.538 -1.355 4.33
 -1.508 -1.352 4.33
 -1.478 -1.349 4.328
 -1.448 -1.346 4.326
 -1.417 -1.342 4.32
 -1.389 -1.341 4.323
 -1.36 -1.339 4.323
 -1.332 -1.338 4.326
 -1.305 -1.337 4.331
 -1.278 -1.337 4.335
 -1.25 -1.335 4.335
 -1.22 -1.331 4.329
 -1.19 -1.328 4.324
 -1.162 -1.325 4.321
 -1.137 -1.328 4.334
 -1.109 -1.325 4.331
 -1.083 -1.326 4.338
 -1.056 -1.325 4.341
 -1.032 -1.328 4.356
 -1.003 -1.324 4.349
 0 0 0
 0 0 0
 0 0 0
 0 0 0
 0 0 0
 0 0 0
 0 0 0
 0 0 0
 0 0 0
 0 0 0
 0 0 0
 0 0 0
 0 0 0
 0 0 0
 0 0 0
 0 0 0
 0 0 0
 0 0 0
 0 0 0
 0 0 0
 0 0 0
 0 0 0
 0 0 0
 -0.36 -1.28 4.271
 -0.335 -1.28 4.273
 -0.31 -1.282 4.28
 -0.285 -1.283 4.282
 -0.26 -1.283 4.284
 -0.235 -1.284 4.29
 -0.209 -1.284 4.291
 -0.184 -1.284 4.291
 -0.159 -1.284 4.29
 -0.133 -1.284 4.29
 -0.108 -1.283 4.289
 -0.083 -1.283 4.288
 -0.057 -1.282 4.284
 -0.032 -1.282 4.284
 -0.007 -1.282 4.283
 0.018 -1.28 4.278
 0.043 -1.278 4.27
 0 0 0
 0 0 0
 0 0 0
 0 0 0
 0 0 0
 0 0 0
 0 0 0
 0 0 0
 0 0 0
 0 0 0
 0 0 0
 0 0 0
 0 0 0
 0 0 0
 0 0 0
 0 0 0
 0 0 0
 0 0 0
 0 0 0
 0 0 0
 0 0 0
 0 0 0
 0 0 0
 0 0 0
 0 0 0
 0 0 0
 0 0 0
 0 0 0
 0 0 0
 0 0 0
 0 0 0
 0 0 0
 0 0 0
 0 0 0
 0 0 0
 0.969 -1.31 4.272
 0.996 -1.311 4.269
 1.021 -1.311 4.264
 1.048 -1.311 4.261
 1.074 -1.312 4.258
 1.101 -1.314 4.258
 1.128 -1.315 4.256
 1.155 -1.318 4.257
 1.183 -1.319 4.257
 1.21 -1.321 4.255
 1.238 -1.323 4.255
 1.266 -1.325 4.256
 1.293 -1.327 4.253
 1.32 -1.328 4.249
 1.348 -1.33 4.248
 1.375 -1.331 4.243
 1.403 -1.333 4.242
 1.431 -1.335 4.242
 1.46 -1.337 4.241
 1.488 -1.34 4.239
 1.518 -1.343 4.241
 1.547 -1.345 4.239
 1.574 -1.346 4.233
 1.603 -1.348 4.231
 1.631 -1.35 4.227
 1.66 -1.352 4.223
 1.688 -1.353 4.218
 1.718 -1.356 4.217
 1.746 -1.358 4.213
 1.776 -1.36 4.21
 1.801 -1.359 4.196
 1.828 -1.36 4.187
 1.854 -1.359 4.175
 1.877 -1.357 4.157
 0 0 0
 0 0 0
 0 0 0
 0 0 0
 0 0 0
 0 0 0
 0 0 0
 0 0 0
 0 0 0
 0 0 0
 0 0 0
 0 0 0
 0 0 0
 1.797 -1.087 3.187
 1.822 -1.089 3.183
 1.835 -1.084 3.158
 1.877 -1.096 3.183
 1.875 -1.083 3.131
 -2.535 -1.448 4.401
 -2.478 -1.432 4.366
 -2.446 -1.431 4.375
 -2.408 -1.426 4.374
 -2.371 -1.421 4.372
 -2.333 -1.416 4.37
 -2.295 -1.41 4.364
 -2.256 -1.404 4.358
 -2.219 -1.399 4.354
 -2.183 -1.393 4.35
 -2.147 -1.389 4.349
 -2.112 -1.385 4.347
 -2.079 -1.382 4.348
 -2.046 -1.378 4.349
 -2.013 -1.374 4.348
 -1.978 -1.37 4.346
 -1.946 -1.367 4.347
 -1.913 -1.364 4.346
 -1.882 -1.361 4.347
 -1.848 -1.357 4.344
 -1.816 -1.353 4.341
 -1.784 -1.35 4.341
 -1.753 -1.348 4.343
 -1.723 -1.345 4.344
 -1.693 -1.343 4.346
 -1.661 -1.339 4.343
 -1.629 -1.336 4.34
 -1.597 -1.332 4.336
 -1.567 -1.329 4.334
 -1.536 -1.326 4.331
 -1.506 -1.324 4.332
 -1.476 -1.32 4.328
 -1.445 -1.317 4.325
 -1.414 -1.313 4.317
 -1.385 -1.311 4.318
 -1.357 -1.309 4.32
 -1.329 -1.308 4.322
 -1.301 -1.307 4.325
 0 0 0
 0 0 0
 0 0 0
 0 0 0
 0 0 0
 0 0 0
 0 0 0
 0 0 0
 0 0 0
 0 0 0
 0 0 0
 0 0 0
 0 0 0
 0 0 0
 0 0 0
 0 0 0
 0 0 0
 0 0 0
 0 0 0
 0 0 0
 0 0 0
 0 0 0
 0 0 0
 0 0 0
 0 0 0
 -0.606 -1.292 4.388
 -0.581 -1.295 4.402
 -0.555 -1.295 4.404
 0 0 0
 0 0 0
 0 0 0
 0 0 0
 0 0 0
 0 0 0
 -0.359 -1.252 4.268
 -0.335 -1.253 4.274
 -0.31 -1.255 4.279
 -0.284 -1.255 4.282
 -0.259 -1.255 4.284
 -0.234 -1.257 4.29
 -0.209 -1.257 4.29
 -0.184 -1.257 4.29
 -0.158 -1.256 4.288
 -0.133 -1.256 4.288
 -0.108 -1.256 4.287
 -0.082 -1.255 4.286
 -0.057 -1.254 4.281
 -0.032 -1.254 4.281
 -0.007 -1.253 4.279
 0.018 -1.252 4.272
 0.043 -1.25 4.266
 0 0 0
 0 0 0
 0 0 0
 0 0 0
 0 0 0
 0 0 0
 0 0 0
 0 0 0
 0 0 0
 0 0 0
 0 0 0
 0 0 0
 0 0 0
 0 0 0
 0 0 0
 0 0 0
 0 0 0
 0 0 0
 0 0 0
 0 0 0
 0 0 0
 0 0 0
 0 0 0
 0 0 0
 0 0 0
 0 0 0
 0 0 0
 0 0 0
 0 0 0
 0 0 0
 0 0 0
 0 0 0
 0 0 0
 0 0 0
 0 0 0
 0.967 -1.281 4.268
 0.994 -1.282 4.267
 1.02 -1.282 4.263
 1.046 -1.283 4.26
 1.072 -1.284 4.258
 1.1 -1.286 4.259
 1.126 -1.288 4.257
 1.154 -1.29 4.258
 1.181 -1.292 4.258
 1.209 -1.293 4.257
 1.236 -1.295 4.255
 1.264 -1.298 4.257
 1.292 -1.299 4.255
 1.319 -1.301 4.252
 1.347 -1.302 4.251
 1.375 -1.304 4.249
 1.402 -1.306 4.246
 1.431 -1.308 4.246
 1.459 -1.31 4.243
 1.486 -1.311 4.24
 1.515 -1.314 4.24
 1.544 -1.316 4.238
 1.571 -1.317 4.232
 1.6 -1.319 4.231
 1.629 -1.321 4.228
 1.657 -1.323 4.224
 1.685 -1.324 4.218
 1.715 -1.327 4.217
 1.744 -1.329 4.214
 1.773 -1.331 4.211
 1.801 -1.332 4.203
 1.83 -1.334 4.198
 1.857 -1.334 4.189
 1.884 -1.335 4.18
 0 0 0
 0 0 0
 0 0 0
 0 0 0
 0 0 0
 0 0 0
 0 0 0
 0 0 0
 0 0 0
 0 0 0
 0 0 0
 0 0 0
 0 0 0
 1.786 -1.059 3.174
 1.813 -1.062 3.173
 1.828 -1.059 3.153
 1.841 -1.054 3.127
 1.857 -1.051 3.108
 -2.515 -1.407 4.375
 -2.489 -1.409 4.395
 -2.442 -1.4 4.378
 -2.405 -1.395 4.377
 -2.367 -1.389 4.373
 -2.327 -1.383 4.366
 -2.29 -1.378 4.363
 -2.251 -1.372 4.356
 -2.215 -1.368 4.355
 -2.18 -1.363 4.353
 -2.145 -1.36 4.353
 -2.11 -1.355 4.349
 -2.077 -1.352 4.351
 -2.042 -1.348 4.349
 -2.009 -1.344 4.349
 -1.975 -1.34 4.347
 -1.944 -1.338 4.35
 -1.912 -1.335 4.351
 -1.88 -1.332 4.352
 -1.846 -1.328 4.347
 -1.813 -1.324 4.343
 -1.781 -1.32 4.341
 -1.75 -1.318 4.342
 -1.719 -1.315 4.342
 -1.689 -1.313 4.344
 -1.657 -1.31 4.342
 -1.626 -1.306 4.339
 -1.595 -1.303 4.336
 -1.564 -1.3 4.333
 -1.533 -1.297 4.331
 -1.503 -1.294 4.33
 -1.473 -1.291 4.328
 -1.443 -1.288 4.325
 -1.412 -1.284 4.319
 -1.383 -1.283 4.319
 -1.355 -1.281 4.32
 -1.326 -1.279 4.321
 -1.298 -1.277 4.321
 0 0 0
 0 0 0
 0 0 0
 0 0 0
 0 0 0
 0 0 0
 0 0 0
 0 0 0
 0 0 0
 0 0 0
 0 0 0
 0 0 0
 0 0 0
 0 0 0
 0 0 0
 0 0 0
 0 0 0
 0 0 0
 0 0 0
 0 0 0
 0 0 0
 0 0 0
 0 0 0
 -0.655 -1.261 4.371
 -0.629 -1.261 4.374
 -0.604 -1.263 4.383
 -0.58 -1.266 4.397
 -0.553 -1.266 4.397
 0 0 0
 0 0 0
 -0.47 -1.253 4.361
 -0.442 -1.246 4.338
 -0.416 -1.246 4.34
 0 0 0
 -0.361 -1.231 4.288
 -0.334 -1.226 4.272
 -0.309 -1.227 4.277
 -0.284 -1.228 4.28
 -0.259 -1.228 4.283
 -0.234 -1.23 4.288
 -0.208 -1.23 4.289
 -0.183 -1.23 4.291
 -0.158 -1.23 4.291
 -0.133 -1.23 4.291
 -0.107 -1.23 4.291
 -0.082 -1.228 4.286
 -0.057 -1.226 4.279
 -0.031 -1.226 4.277
 -0.006 -1.225 4.273
 0.018 -1.222 4.263
 0.043 -1.221 4.258
 0 0 0
 0 0 0
 0 0 0
 0 0 0
 0 0 0
 0 0 0
 0 0 0
 0 0 0
 0 0 0
 0 0 0
 0 0 0
 0 0 0
 0 0 0
 0 0 0
 0 0 0
 0 0 0
 0 0 0
 0 0 0
 0 0 0
 0 0 0
 0 0 0
 0 0 0
 0 0 0
 0 0 0
 0 0 0
 0 0 0
 0 0 0
 0 0 0
 0 0 0
 0 0 0
 0 0 0
 0 0 0
 0 0 0
 0 0 0
 0 0 0
 0.966 -1.254 4.27
 0.993 -1.256 4.271
 1.019 -1.255 4.265
 1.045 -1.257 4.264
 1.072 -1.258 4.261
 1.099 -1.26 4.262
 1.125 -1.26 4.257
 1.153 -1.262 4.259
 1.18 -1.264 4.257
 1.207 -1.265 4.256
 1.234 -1.266 4.253
 1.263 -1.27 4.257
 1.29 -1.271 4.255
 1.317 -1.272 4.252
 1.345 -1.274 4.251
 1.373 -1.276 4.249
 1.4 -1.278 4.247
 1.429 -1.28 4.246
 1.456 -1.281 4.243
 1.484 -1.283 4.24
 1.513 -1.285 4.239
 1.541 -1.287 4.235
 1.568 -1.288 4.231
 1.597 -1.29 4.23
 1.627 -1.293 4.229
 1.655 -1.294 4.225
 1.683 -1.296 4.22
 1.712 -1.298 4.217
 1.741 -1.3 4.213
 1.77 -1.302 4.209
 1.797 -1.302 4.2
 1.825 -1.304 4.194
 1.853 -1.305 4.187
 1.88 -1.305 4.177
 0 0 0
 0 0 0
 0 0 0
 0 0 0
 0 0 0
 0 0 0
 0 0 0
 0 0 0
 0 0 0
 0 0 0
 0 0 0
 0 0 0
 0 0 0
 1.783 -1.036 3.174
 1.811 -1.039 3.175
 1.828 -1.037 3.158
 1.858 -1.043 3.163
 1.862 -1.033 3.122
 -2.493 -1.366 4.345
 -2.456 -1.362 4.344
 -2.44 -1.369 4.382
 -2.403 -1.365 4.382
 -2.365 -1.36 4.378
 -2.323 -1.352 4.368
 -2.286 -1.348 4.365
 -2.249 -1.342 4.361
 -2.214 -1.339 4.36
 -2.177 -1.334 4.357
 -2.143 -1.33 4.356
 -2.106 -1.325 4.35
 -2.072 -1.321 4.349
 -2.037 -1.316 4.345
 -2.004 -1.313 4.346
 -1.971 -1.309 4.344
 -1.941 -1.308 4.35
 -1.91 -1.306 4.353
 -1.877 -1.302 4.351
 -1.842 -1.298 4.345
 -1.808 -1.293 4.339
 -1.776 -1.29 4.337
 -1.745 -1.287 4.338
 -1.714 -1.284 4.337
 -1.684 -1.283 4.34
 -1.654 -1.28 4.339
 -1.623 -1.277 4.338
 -1.593 -1.275 4.338
 -1.562 -1.271 4.335
 -1.531 -1.268 4.332
 -1.501 -1.266 4.331
 -1.472 -1.263 4.331
 -1.442 -1.261 4.329
 -1.411 -1.257 4.324
 -1.383 -1.256 4.326
 -1.355 -1.255 4.328
 -1.326 -1.252 4.326
 -1.295 -1.248 4.319
 0 0 0
 0 0 0
 0 0 0
 0 0 0
 0 0 0
 0 0 0
 0 0 0
 0 0 0
 0 0 0
 0 0 0
 0 0 0
 0 0 0
 0 0 0
 0 0 0
 0 0 0
 0 0 0
 0 0 0
 0 0 0
 0 0 0
 0 0 0
 0 0 0
 0 0 0
 0 0 0
 -0.656 -1.237 4.384
 -0.629 -1.235 4.382
 -0.604 -1.237 4.391
 -0.579 -1.24 4.403
 -0.552 -1.238 4.397
 -0.526 -1.238 4.402
 -0.5 -1.238 4.402
 -0.471 -1.23 4.376
 -0.443 -1.224 4.358
 -0.417 -1.224 4.358
 -0.391 -1.223 4.356
 -0.36 -1.205 4.291
 -0.333 -1.199 4.271
 -0.308 -1.2 4.278
 -0.283 -1.201 4.28
 -0.258 -1.201 4.282
 -0.233 -1.202 4.287
 -0.208 -1.202 4.288
 -0.183 -1.203 4.29
 -0.158 -1.203 4.29
 -0.132 -1.202 4.289
 -0.107 -1.202 4.29
 -0.082 -1.201 4.286
 -0.056 -1.199 4.277
 -0.031 -1.199 4.276
 -0.006 -1.198 4.273
 0.018 -1.195 4.262
 0.043 -1.193 4.254
 0 0 0
 0 0 0
 0 0 0
 0 0 0
 0 0 0
 0 0 0
 0 0 0
 0 0 0
 0 0 0
 0 0 0
 0 0 0
 0 0 0
 0 0 0
 0 0 0
 0 0 0
 0 0 0
 0 0 0
 0 0 0
 0 0 0
 0 0 0
 0 0 0
 0 0 0
 0 0 0
 0 0 0
 0 0 0
 0 0 0
 0 0 0
 0 0 0
 0 0 0
 0 0 0
 0 0 0
 0 0 0
 0 0 0
 0 0 0
 0 0 0
 0.968 -1.23 4.282
 0.994 -1.23 4.278
 1.018 -1.229 4.27
 1.044 -1.23 4.266
 1.071 -1.23 4.263
 1.097 -1.232 4.261
 1.123 -1.232 4.256
 1.15 -1.234 4.256
 1.178 -1.235 4.256
 1.205 -1.237 4.256
 1.232 -1.239 4.254
 1.261 -1.242 4.258
 1.289 -1.244 4.257
 1.316 -1.245 4.254
 1.343 -1.246 4.251
 1.371 -1.248 4.249
 1.398 -1.249 4.246
 1.426 -1.251 4.244
 1.454 -1.253 4.242
 1.481 -1.254 4.238
 1.51 -1.257 4.238
 1.538 -1.258 4.235
 1.566 -1.26 4.232
 1.596 -1.262 4.231
 1.625 -1.265 4.23
 1.653 -1.266 4.226
 1.681 -1.267 4.22
 1.709 -1.269 4.216
 1.738 -1.271 4.213
 1.767 -1.273 4.21
 1.794 -1.273 4.2
 1.822 -1.275 4.194
 1.85 -1.276 4.188
 1.876 -1.276 4.175
 0 0 0
 0 0 0
 0 0 0
 0 0 0
 0 0 0
 0 0 0
 0 0 0
 0 0 0
 0 0 0
 0 0 0
 0 0 0
 0 0 0
 0 0 0
 1.773 -1.009 3.162
 1.802 -1.013 3.166
 1.823 -1.013 3.154
 1.851 -1.017 3.156
 1.846 -1.003 3.102
 -2.496 -1.339 4.358
 -2.473 -1.342 4.384
 -2.435 -1.337 4.381
 -2.397 -1.333 4.379
 -2.357 -1.327 4.372
 -2.316 -1.32 4.362
 -2.279 -1.315 4.358
 -2.242 -1.31 4.356
 -2.209 -1.307 4.358
 -2.175 -1.304 4.359
 -2.141 -1.301 4.36
 -2.105 -1.296 4.356
 -2.07 -1.292 4.353
 -2.034 -1.287 4.346
 -2 -1.283 4.345
 -1.966 -1.279 4.342
 -1.937 -1.278 4.349
 -1.906 -1.276 4.353
 -1.871 -1.271 4.345
 -1.835 -1.266 4.336
 -1.799 -1.259 4.324
 -1.769 -1.257 4.326
 -1.739 -1.255 4.329
 -1.709 -1.253 4.332
 -1.68 -1.252 4.335
 -1.649 -1.249 4.334
 -1.618 -1.247 4.333
 -1.589 -1.245 4.335
 -1.558 -1.242 4.333
 -1.528 -1.239 4.331
 -1.499 -1.237 4.331
 -1.469 -1.235 4.332
 -1.439 -1.232 4.328
 -1.409 -1.229 4.324
 -1.38 -1.227 4.325
 -1.352 -1.226 4.327
 -1.322 -1.223 4.322
 -1.293 -1.22 4.318
 0 0 0
 0 0 0
 0 0 0
 0 0 0
 0 0 0
 0 0 0
 0 0 0
 0 0 0
 0 0 0
 0 0 0
 0 0 0
 0 0 0
 0 0 0
 0 0 0
 0 0 0
 0 0 0
 0 0 0
 0 0 0
 0 0 0
 0 0 0
 0 0 0
 0 0 0
 -0.682 -1.21 4.386
 -0.652 -1.204 4.365
 -0.625 -1.201 4.356
 -0.601 -1.204 4.371
 -0.577 -1.209 4.391
 -0.552 -1.212 4.403
 -0.526 -1.213 4.409
 -0.5 -1.212 4.409
 -0.471 -1.205 4.384
 -0.444 -1.2 4.37
 -0.418 -1.2 4.371
 -0.392 -1.2 4.372
 -0.361 -1.184 4.314
 -0.333 -1.174 4.278
 -0.308 -1.175 4.283
 -0.283 -1.175 4.284
 -0.258 -1.175 4.286
 -0.233 -1.176 4.288
 -0.208 -1.176 4.289
 -0.182 -1.176 4.291
 -0.157 -1.176 4.292
 -0.132 -1.176 4.291
 -0.107 -1.176 4.291
 -0.082 -1.175 4.288
 -0.056 -1.173 4.281
 -0.031 -1.173 4.279
 -0.006 -1.172 4.276
 0.018 -1.171 4.27
 0.043 -1.169 4.264
 0 0 0
 0 0 0
 0 0 0
 0 0 0
 0 0 0
 0 0 0
 0 0 0
 0 0 0
 0 0 0
 0 0 0
 0 0 0
 0 0 0
 0 0 0
 0 0 0
 0 0 0
 0 0 0
 0 0 0
 0 0 0
 0 0 0
 0 0 0
 0 0 0
 0 0 0
 0 0 0
 0 0 0
 0 0 0
 0 0 0
 0 0 0
 0 0 0
 0 0 0
 0 0 0
 0 0 0
 0 0 0
 0 0 0
 0 0 0
 0 0 0
 0.968 -1.204 4.29
 0.993 -1.203 4.28
 1.018 -1.202 4.272
 1.044 -1.203 4.268
 1.07 -1.203 4.264
 1.096 -1.204 4.261
 1.122 -1.205 4.257
 1.149 -1.206 4.257
 1.176 -1.208 4.256
 1.203 -1.21 4.256
 1.23 -1.211 4.253
 1.259 -1.214 4.258
 1.287 -1.216 4.257
 1.314 -1.217 4.253
 1.341 -1.218 4.251
 1.369 -1.22 4.249
 1.395 -1.221 4.244
 1.423 -1.223 4.243
 1.451 -1.224 4.241
 1.479 -1.226 4.238
 1.508 -1.228 4.237
 1.536 -1.23 4.236
 1.564 -1.232 4.233
 1.593 -1.234 4.231
 1.622 -1.236 4.23
 1.65 -1.238 4.225
 1.678 -1.239 4.22
 1.706 -1.24 4.215
 1.736 -1.243 4.214
 1.764 -1.244 4.209
 1.789 -1.244 4.196
 1.817 -1.245 4.189
 1.844 -1.245 4.18
 1.866 -1.242 4.159
 0 0 0
 0 0 0
 0 0 0
 0 0 0
 0 0 0
 0 0 0
 0 0 0
 0 0 0
 0 0 0
 0 0 0
 0 0 0
 0 0 0
 0 0 0
 0 0 0
 1.799 -0.991 3.166
 1.821 -0.991 3.158
 1.861 -1.001 3.178
 1.874 -0.997 3.154
 -2.501 -1.312 4.375
 -2.472 -1.313 4.39
 -2.428 -1.305 4.376
 -2.39 -1.3 4.375
 -2.352 -1.295 4.37
 -2.311 -1.288 4.36
 -2.275 -1.284 4.359
 -2.239 -1.28 4.358
 -2.205 -1.277 4.359
 -2.17 -1.273 4.357
 -2.136 -1.27 4.358
 -2.1 -1.265 4.353
 -2.066 -1.261 4.351
 -2.03 -1.257 4.347
 -1.997 -1.253 4.346
 -1.963 -1.249 4.342
 -1.932 -1.248 4.347
 -1.9 -1.244 4.346
 -1.863 -1.239 4.335
 -1.829 -1.234 4.327
 -1.793 -1.228 4.318
 -1.765 -1.228 4.325
 -1.736 -1.226 4.33
 -1.707 -1.225 4.333
 -1.677 -1.223 4.335
 -1.646 -1.22 4.333
 -1.616 -1.218 4.333
 -1.586 -1.216 4.335
 -1.556 -1.213 4.333
 -1.526 -1.211 4.333
 -1.497 -1.209 4.332
 -1.467 -1.207 4.333
 -1.437 -1.204 4.328
 -1.407 -1.201 4.325
 -1.378 -1.199 4.324
 -1.351 -1.198 4.328
 -1.321 -1.195 4.324
 -1.293 -1.194 4.325
 0 0 0
 0 0 0
 0 0 0
 0 0 0
 0 0 0
 0 0 0
 0 0 0
 0 0 0
 0 0 0
 0 0 0
 0 0 0
 0 0 0
 0 0 0
 0 0 0
 0 0 0
 0 0 0
 0 0 0
 0 0 0
 0 0 0
 -0.76 -1.184 4.382
 -0.736 -1.187 4.397
 -0.71 -1.187 4.401
 -0.68 -1.182 4.384
 -0.653 -1.179 4.375
 -0.627 -1.179 4.379
 -0.599 -1.175 4.365
 -0.574 -1.176 4.373
 -0.549 -1.178 4.382
 -0.522 -1.177 4.38
 -0.497 -1.178 4.387
 -0.47 -1.176 4.38
 -0.444 -1.175 4.378
 -0.418 -1.174 4.375
 -0.392 -1.174 4.375
 -0.361 -1.158 4.318
 -0.333 -1.148 4.282
 -0.308 -1.149 4.286
 -0.283 -1.149 4.286
 -0.258 -1.149 4.288
 -0.232 -1.149 4.288
 -0.207 -1.149 4.289
 -0.182 -1.149 4.291
 -0.157 -1.149 4.289
 -0.132 -1.149 4.289
 -0.106 -1.148 4.288
 -0.081 -1.148 4.285
 -0.056 -1.146 4.277
 -0.031 -1.146 4.277
 -0.006 -1.145 4.273
 0.018 -1.143 4.267
 0.043 -1.142 4.262
 0 0 0
 0 0 0
 0 0 0
 0 0 0
 0 0 0
 0 0 0
 0 0 0
 0 0 0
 0 0 0
 0 0 0
 0 0 0
 0 0 0
 0 0 0
 0 0 0
 0 0 0
 0 0 0
 0 0 0
 0 0 0
 0 0 0
 0 0 0
 0 0 0
 0 0 0
 0 0 0
 0 0 0
 0 0 0
 0 0 0
 0 0 0
 0 0 0
 0 0 0
 0 0 0
 0 0 0
 0 0 0
 0 0 0
 0 0 0
 0 0 0
 0.97 -1.181 4.305
 0.993 -1.177 4.284
 1.016 -1.175 4.272
 1.042 -1.175 4.267
 1.068 -1.176 4.263
 1.094 -1.176 4.258
 1.12 -1.177 4.255
 1.147 -1.178 4.255
 1.174 -1.18 4.255
 1.202 -1.182 4.255
 1.228 -1.183 4.252
 1.257 -1.186 4.256
 1.284 -1.187 4.254
 1.311 -1.188 4.25
 1.338 -1.189 4.247
 1.366 -1.191 4.247
 1.393 -1.192 4.242
 1.421 -1.194 4.242
 1.449 -1.196 4.241
 1.477 -1.198 4.238
 1.505 -1.2 4.237
 1.534 -1.202 4.236
 1.562 -1.204 4.233
 1.59 -1.205 4.23
 1.619 -1.208 4.229
 1.647 -1.208 4.222
 1.674 -1.21 4.217
 1.702 -1.211 4.212
 1.732 -1.214 4.212
 1.76 -1.215 4.207
 1.786 -1.215 4.196
 1.814 -1.216 4.188
 1.84 -1.216 4.178
 1.864 -1.214 4.161
 0 0 0
 0 0 0
 0 0 0
 0 0 0
 0 0 0
 0 0 0
 0 0 0
 0 0 0
 0 0 0
 0 0 0
 0 0 0
 0 0 0
 0 0 0
 0 0 0
 1.796 -0.967 3.166
 1.818 -0.968 3.158
 1.842 -0.97 3.152
 1.876 -0.977 3.162
 -2.517 -1.292 4.411
 -2.453 -1.274 4.363
 -2.424 -1.274 4.378
 -2.388 -1.27 4.379
 -2.349 -1.265 4.373
 -2.308 -1.258 4.363
 -2.273 -1.255 4.362
 -2.237 -1.251 4.361
 -2.201 -1.246 4.358
 -2.165 -1.242 4.355
 -2.132 -1.239 4.357
 -2.097 -1.235 4.353
 -2.062 -1.231 4.35
 -2.027 -1.227 4.346
 -1.994 -1.224 4.346
 -1.96 -1.22 4.342
 -1.928 -1.217 4.344
 -1.895 -1.214 4.342
 -1.86 -1.209 4.334
 -1.826 -1.205 4.328
 -1.792 -1.2 4.322
 -1.763 -1.199 4.326
 -1.733 -1.197 4.329
 -1.703 -1.195 4.331
 -1.674 -1.194 4.333
 -1.643 -1.191 4.331
 -1.613 -1.189 4.333
 -1.584 -1.187 4.335
 -1.553 -1.184 4.331
 -1.524 -1.182 4.332
 -1.494 -1.18 4.332
 -1.465 -1.178 4.332
 -1.435 -1.175 4.328
 -1.406 -1.174 4.328
 -1.377 -1.172 4.329
 -1.35 -1.171 4.334
 -1.321 -1.169 4.33
 -1.294 -1.168 4.334
 0 0 0
 0 0 0
 0 0 0
 0 0 0
 0 0 0
 0 0 0
 0 0 0
 0 0 0
 0 0 0
 0 0 0
 0 0 0
 0 0 0
 0 0 0
 0 0 0
 0 0 0
