 0.374 -1.556 4.253
 0.4 -1.557 4.252
 0.425 -1.556 4.247
 0.451 -1.557 4.247
 0.477 -1.557 4.246
 0.503 -1.559 4.247
 0.528 -1.559 4.245
 0.554 -1.56 4.245
 0.58 -1.56 4.242
 0.606 -1.56 4.239
 0.631 -1.559 4.233
 0.657 -1.561 4.234
 0.683 -1.562 4.232
 0.709 -1.564 4.233
 0.735 -1.565 4.232
 0.762 -1.567 4.234
 0.788 -1.567 4.231
 0.814 -1.569 4.229
 0.84 -1.569 4.225
 0.866 -1.57 4.223
 0.893 -1.572 4.224
 0.92 -1.574 4.223
 0.946 -1.575 4.221
 0.973 -1.577 4.222
 1.001 -1.579 4.223
 1.027 -1.58 4.22
 1.054 -1.582 4.218
 1.081 -1.583 4.216
 1.108 -1.585 4.214
 1.134 -1.586 4.21
 1.161 -1.587 4.206
 1.188 -1.588 4.203
 1.215 -1.59 4.201
 1.241 -1.59 4.194
 1.269 -1.592 4.192
 1.296 -1.594 4.189
 1.323 -1.595 4.184
 1.35 -1.597 4.182
 1.378 -1.598 4.179
 1.405 -1.6 4.174
 1.433 -1.601 4.17
 1.461 -1.604 4.168
 1.487 -1.604 4.16
 1.514 -1.605 4.154
 1.541 -1.605 4.146
 1.568 -1.606 4.14
 1.594 -1.607 4.131
 1.622 -1.608 4.125
 1.649 -1.609 4.117
 1.677 -1.611 4.112
 1.703 -1.611 4.102
 1.729 -1.61 4.092
 1.754 -1.609 4.078
 1.781 -1.609 4.069
 1.804 -1.607 4.052
 1.826 -1.603 4.032
 1.845 -1.598 4.006
 1.862 -1.59 3.975
 1.875 -1.579 3.936
 1.884 -1.565 3.892
 1.893 -1.552 3.846
 1.899 -1.536 3.796
 1.907 -1.522 3.751
 1.91 -1.506 3.698
 1.909 -1.486 3.638
 1.912 -1.47 3.587
 1.92 -1.458 3.546
 0 0 0
 0 0 0
 1.811 -1.326 3.192
 1.823 -1.319 3.164
 1.833 -1.311 3.133
 1.841 -1.302 3.1
 1.85 -1.294 3.069
 1.846 -1.276 3.015
 0 0 0
 -2.297 -1.597 3.956
 -2.29 -1.611 4.005
 -2.266 -1.614 4.024
 -2.24 -1.614 4.039
 -2.211 -1.614 4.05
 -2.183 -1.613 4.061
 -2.154 -1.612 4.07
 -2.125 -1.61 4.079
 -2.096 -1.61 4.088
 -2.067 -1.608 4.095
 -2.04 -1.608 4.108
 -2.014 -1.609 4.121
 -1.984 -1.607 4.129
 -1.958 -1.608 4.141
 -1.932 -1.609 4.155
 -1.903 -1.608 4.162
 -1.875 -1.607 4.17
 -1.848 -1.607 4.182
 -1.819 -1.606 4.188
 -1.79 -1.604 4.194
 -1.763 -1.604 4.202
 -1.732 -1.601 4.204
 -1.704 -1.599 4.21
 -1.676 -1.599 4.217
 -1.648 -1.598 4.224
 -1.618 -1.595 4.225
 -1.591 -1.595 4.233
 -1.562 -1.593 4.236
 -1.533 -1.59 4.238
 -1.505 -1.589 4.242
 -1.477 -1.589 4.249
 -1.449 -1.587 4.251
 -1.421 -1.585 4.255
 -1.392 -1.583 4.256
 -1.363 -1.58 4.256
 -1.334 -1.578 4.256
 -1.305 -1.575 4.257
 -1.277 -1.573 4.256
 -1.249 -1.572 4.259
 -1.222 -1.571 4.263
 -1.195 -1.569 4.266
 -1.167 -1.568 4.267
 -1.14 -1.567 4.27
 -1.112 -1.565 4.27
 -1.084 -1.563 4.271
 -1.058 -1.562 4.275
 -1.03 -1.561 4.277
 -1.003 -1.56 4.277
 -0.976 -1.559 4.279
 -0.949 -1.557 4.28
 -0.921 -1.555 4.278
 -0.894 -1.553 4.277
 -0.867 -1.552 4.277
 -0.84 -1.55 4.276
 -0.813 -1.548 4.276
 -0.786 -1.546 4.273
 -0.759 -1.544 4.273
 -0.733 -1.543 4.272
 -0.706 -1.542 4.272
 -0.68 -1.54 4.272
 -0.654 -1.54 4.274
 -0.627 -1.539 4.274
 -0.602 -1.539 4.276
 -0.575 -1.538 4.277
 -0.549 -1.538 4.278
 -0.523 -1.537 4.277
 -0.497 -1.536 4.276
 -0.471 -1.534 4.275
 -0.445 -1.534 4.276
 -0.419 -1.533 4.274
 -0.393 -1.533 4.275
 -0.368 -1.533 4.278
 -0.342 -1.532 4.276
 -0.316 -1.532 4.277
 -0.29 -1.531 4.277
 -0.264 -1.53 4.275
 -0.238 -1.529 4.272
 -0.213 -1.529 4.274
 -0.187 -1.528 4.272
 -0.161 -1.527 4.269
 -0.136 -1.526 4.268
 -0.11 -1.525 4.265
 -0.085 -1.524 4.261
 -0.059 -1.524 4.26
 -0.034 -1.524 4.26
 -0.008 -1.523 4.26
 0.016 -1.524 4.26
 0.042 -1.524 4.26
 0.067 -1.524 4.259
 0.093 -1.524 4.259
 0.118 -1.524 4.258
 0.144 -1.524 4.257
 0.169 -1.524 4.257
 0.195 -1.524 4.255
 0.22 -1.524 4.253
 0.246 -1.525 4.254
 0.271 -1.525 4.253
 0.297 -1.527 4.256
 0.323 -1.528 4.258
 0.349 -1.529 4.259
 0.374 -1.53 4.259
 0.4 -1.531 4.259
 0.425 -1.53 4.255
 0.451 -1.531 4.255
 0.477 -1.531 4.252
 0.503 -1.532 4.252
 0.528 -1.533 4.251
 0.554 -1.534 4.25
 0.58 -1.534 4.25
 0.606 -1.536 4.249
 0.632 -1.535 4.245
 0.658 -1.536 4.244
 0.683 -1.537 4.243
 0.71 -1.538 4.243
 0.736 -1.539 4.24
 0.762 -1.541 4.242
 0.789 -1.543 4.241
 0.815 -1.544 4.241
 0.841 -1.544 4.237
 0.867 -1.546 4.237
 0.894 -1.548 4.236
 0.921 -1.549 4.235
 0.947 -1.55 4.233
 0.975 -1.553 4.236
 1.002 -1.555 4.237
 1.029 -1.557 4.235
 1.056 -1.559 4.234
 1.083 -1.561 4.234
 1.11 -1.562 4.231
 1.137 -1.563 4.228
 1.164 -1.565 4.226
 1.191 -1.566 4.223
 1.219 -1.568 4.221
 1.245 -1.569 4.216
 1.273 -1.571 4.215
 1.3 -1.572 4.211
 1.327 -1.574 4.207
 1.355 -1.576 4.206
 1.383 -1.578 4.203
 1.411 -1.579 4.199
 1.438 -1.581 4.195
 1.467 -1.584 4.194
 1.494 -1.585 4.188
 1.522 -1.586 4.183
 1.549 -1.587 4.176
 1.577 -1.589 4.173
 1.605 -1.59 4.167
 1.633 -1.592 4.162
 1.661 -1.593 4.156
 1.689 -1.595 4.151
 1.715 -1.595 4.141
 1.742 -1.596 4.131
 1.767 -1.594 4.117
 1.794 -1.595 4.109
 1.818 -1.592 4.091
 1.839 -1.588 4.069
 1.856 -1.58 4.038
 1.871 -1.571 4.002
 1.882 -1.559 3.961
 1.893 -1.546 3.918
 1.902 -1.533 3.873
 1.909 -1.519 3.826
 1.919 -1.507 3.784
 1.923 -1.491 3.732
 1.929 -1.477 3.685
 0 0 0
 0 0 0
 0 0 0
 0 0 0
 1.81 -1.304 3.198
 1.823 -1.298 3.172
 1.833 -1.29 3.142
 1.842 -1.281 3.109
 1.852 -1.274 3.08
 1.842 -1.253 3.017
 -2.383 -1.61 4.054
 -2.351 -1.607 4.06
 -2.327 -1.609 4.079
 -2.297 -1.608 4.089
 -2.269 -1.608 4.102
 -2.241 -1.608 4.115
 -2.211 -1.606 4.123
 -2.182 -1.605 4.133
 -2.154 -1.605 4.144
 -2.125 -1.604 4.155
 -2.096 -1.603 4.164
 -2.068 -1.603 4.174
 -2.039 -1.602 4.184
 -2.008 -1.599 4.188
 -1.98 -1.599 4.199
 -1.952 -1.598 4.207
 -1.923 -1.597 4.215
 -1.893 -1.595 4.221
 -1.866 -1.595 4.231
 -1.836 -1.593 4.236
 -1.807 -1.592 4.242
 -1.778 -1.59 4.247
 -1.747 -1.587 4.25
 -1.718 -1.586 4.254
 -1.689 -1.584 4.259
 -1.659 -1.582 4.263
 -1.629 -1.579 4.264
 -1.601 -1.578 4.269
 -1.572 -1.576 4.272
 -1.541 -1.573 4.271
 -1.514 -1.572 4.277
 -1.485 -1.57 4.28
 -1.456 -1.568 4.282
 -1.427 -1.566 4.284
 -1.398 -1.564 4.286
 -1.368 -1.56 4.282
 -1.34 -1.558 4.283
 -1.31 -1.555 4.282
 -1.281 -1.551 4.279
 -1.253 -1.55 4.28
 -1.225 -1.549 4.284
 -1.198 -1.547 4.286
 -1.17 -1.545 4.286
 -1.142 -1.544 4.289
 -1.115 -1.542 4.29
 -1.087 -1.54 4.29
 -1.059 -1.539 4.29
 -1.031 -1.537 4.289
 -1.004 -1.535 4.29
 -0.977 -1.533 4.29
 -0.949 -1.532 4.29
 -0.922 -1.53 4.289
 -0.895 -1.529 4.29
 -0.868 -1.526 4.288
 -0.84 -1.524 4.285
 -0.813 -1.522 4.285
 -0.786 -1.52 4.281
 -0.759 -1.518 4.279
 -0.733 -1.517 4.28
 -0.706 -1.517 4.282
 -0.68 -1.515 4.281
 -0.654 -1.514 4.282
 -0.627 -1.514 4.283
 -0.601 -1.513 4.283
 -0.575 -1.512 4.282
 -0.549 -1.511 4.282
 -0.523 -1.509 4.281
 -0.497 -1.509 4.281
 -0.47 -1.507 4.28
 -0.445 -1.508 4.282
 -0.419 -1.507 4.282
 -0.393 -1.507 4.283
 -0.367 -1.507 4.284
 -0.341 -1.505 4.282
 -0.315 -1.504 4.281
 -0.29 -1.503 4.278
 -0.264 -1.502 4.276
 -0.238 -1.501 4.273
 -0.212 -1.501 4.276
 -0.187 -1.501 4.274
 -0.161 -1.501 4.275
 -0.136 -1.5 4.275
 -0.11 -1.5 4.272
 -0.084 -1.498 4.268
 -0.059 -1.498 4.267
 -0.033 -1.497 4.265
 -0.008 -1.497 4.266
 0.017 -1.498 4.266
 0.042 -1.497 4.265
 0.067 -1.497 4.264
 0.093 -1.498 4.264
 0.118 -1.497 4.261
 0.144 -1.497 4.262
 0.169 -1.498 4.262
 0.195 -1.498 4.262
 0.22 -1.498 4.26
 0.246 -1.499 4.262
 0.271 -1.499 4.26
 0.297 -1.5 4.262
 0.323 -1.501 4.262
 0.349 -1.503 4.264
 0.374 -1.503 4.263
 0.4 -1.504 4.264
 0.425 -1.504 4.261
 0.451 -1.505 4.262
 0.477 -1.504 4.257
 0.502 -1.505 4.257
 0.528 -1.506 4.255
 0.554 -1.506 4.254
 0.58 -1.507 4.253
 0.606 -1.509 4.254
 0.632 -1.509 4.252
 0.658 -1.511 4.254
 0.684 -1.512 4.254
 0.71 -1.514 4.254
 0.736 -1.514 4.251
 0.763 -1.516 4.251
 0.789 -1.516 4.248
 0.815 -1.518 4.249
 0.841 -1.518 4.242
 0.867 -1.519 4.242
 0.894 -1.521 4.244
 0.921 -1.523 4.242
 0.947 -1.524 4.24
 0.975 -1.527 4.245
 1.003 -1.531 4.248
 1.03 -1.532 4.246
 1.057 -1.534 4.245
 1.084 -1.535 4.244
 1.111 -1.536 4.24
 1.137 -1.537 4.236
 1.165 -1.539 4.235
 1.192 -1.54 4.232
 1.219 -1.542 4.231
 1.246 -1.543 4.226
 1.274 -1.545 4.225
 1.301 -1.547 4.221
 1.329 -1.549 4.219
 1.357 -1.551 4.219
 1.386 -1.554 4.218
 1.414 -1.556 4.216
 1.442 -1.558 4.214
 1.471 -1.561 4.213
 1.499 -1.563 4.208
 1.526 -1.564 4.204
 1.555 -1.566 4.2
 1.584 -1.569 4.199
 1.613 -1.571 4.195
 1.641 -1.573 4.192
 1.67 -1.576 4.189
 1.698 -1.577 4.181
 1.725 -1.577 4.171
 1.751 -1.577 4.161
 1.776 -1.575 4.146
 1.802 -1.575 4.135
 1.824 -1.571 4.115
 1.844 -1.566 4.089
 1.861 -1.558 4.058
 1.876 -1.548 4.022
 1.888 -1.538 3.982
 1.9 -1.527 3.943
 1.913 -1.516 3.904
 1.921 -1.503 3.859
 1.934 -1.493 3.821
 1.938 -1.477 3.769
 0 0 0
 0 0 0
 0 0 0
 0 0 0
 0 0 0
 1.803 -1.277 3.193
 1.819 -1.273 3.172
 1.831 -1.267 3.145
 1.839 -1.258 3.111
 1.867 -1.262 3.112
 1.837 -1.228 3.016
 0 0 0
 -2.389 -1.605 4.136
 -2.356 -1.602 4.141
 -2.326 -1.601 4.151
 -2.297 -1.6 4.163
 -2.27 -1.601 4.178
 -2.239 -1.599 4.186
 -2.208 -1.597 4.193
 -2.179 -1.596 4.203
 -2.15 -1.595 4.213
 -2.12 -1.594 4.222
 -2.09 -1.592 4.229
 -2.06 -1.591 4.237
 -2.028 -1.587 4.239
 -1.998 -1.586 4.247
 -1.968 -1.584 4.252
 -1.938 -1.582 4.258
 -1.907 -1.579 4.26
 -1.878 -1.578 4.268
 -1.847 -1.575 4.27
 -1.816 -1.573 4.274
 -1.786 -1.57 4.277
 -1.757 -1.569 4.283
 -1.726 -1.566 4.285
 -1.697 -1.565 4.289
 -1.667 -1.562 4.291
 -1.637 -1.56 4.294
 -1.607 -1.557 4.295
 -1.577 -1.554 4.295
 -1.546 -1.551 4.294
 -1.518 -1.549 4.297
 -1.488 -1.546 4.297
 -1.458 -1.544 4.298
 -1.43 -1.542 4.301
 -1.401 -1.54 4.302
 -1.371 -1.536 4.3
 -1.342 -1.534 4.3
 -1.313 -1.531 4.298
 -1.283 -1.528 4.296
 -1.255 -1.526 4.296
 -1.227 -1.524 4.297
 -1.199 -1.522 4.299
 -1.171 -1.52 4.299
 -1.143 -1.518 4.299
 -1.115 -1.516 4.299
 -1.087 -1.515 4.299
 -1.059 -1.513 4.3
 -1.031 -1.51 4.297
 -1.004 -1.508 4.297
 -0.976 -1.506 4.296
 -0.949 -1.504 4.295
 -0.921 -1.502 4.294
 -0.895 -1.502 4.296
 -0.867 -1.5 4.294
 -0.84 -1.498 4.293
 -0.813 -1.496 4.292
 -0.786 -1.494 4.29
 -0.759 -1.492 4.287
 -0.732 -1.491 4.288
 -0.706 -1.49 4.288
 -0.68 -1.489 4.288
 -0.653 -1.488 4.288
 -0.627 -1.487 4.288
 -0.601 -1.486 4.29
 -0.575 -1.485 4.288
 -0.548 -1.484 4.286
 -0.522 -1.483 4.286
 -0.496 -1.481 4.284
 -0.47 -1.481 4.285
 -0.444 -1.481 4.287
 -0.418 -1.481 4.288
 -0.393 -1.48 4.287
 -0.367 -1.48 4.29
 -0.341 -1.478 4.286
 -0.315 -1.477 4.284
 -0.289 -1.477 4.283
 -0.263 -1.475 4.28
 -0.238 -1.473 4.275
 -0.212 -1.474 4.278
 -0.187 -1.474 4.278
 -0.161 -1.473 4.277
 -0.135 -1.473 4.277
 -0.11 -1.473 4.276
 -0.084 -1.472 4.273
 -0.059 -1.472 4.273
 -0.033 -1.471 4.272
 -0.008 -1.471 4.272
 0.017 -1.472 4.273
 0.042 -1.472 4.272
 0.068 -1.471 4.269
 0.093 -1.471 4.269
 0.118 -1.47 4.265
 0.144 -1.47 4.265
 0.169 -1.47 4.264
 0.195 -1.47 4.262
 0.22 -1.47 4.259
 0.246 -1.472 4.264
 0.271 -1.473 4.264
 0.297 -1.474 4.266
 0.323 -1.474 4.266
 0.349 -1.477 4.271
 0.374 -1.477 4.269
 0.4 -1.477 4.268
 0.425 -1.477 4.265
 0.451 -1.478 4.265
 0.476 -1.477 4.26
 0.502 -1.478 4.259
 0.527 -1.478 4.256
 0.553 -1.478 4.255
 0.579 -1.479 4.254
 0.605 -1.481 4.256
 0.631 -1.482 4.256
 0.658 -1.484 4.258
 0.684 -1.485 4.258
 0.71 -1.487 4.258
 0.736 -1.487 4.254
 0.762 -1.488 4.254
 0.788 -1.489 4.252
 0.814 -1.491 4.252
 0.84 -1.49 4.246
 0.867 -1.492 4.248
 0.894 -1.495 4.249
 0.92 -1.496 4.248
 0.947 -1.497 4.247
 0.975 -1.502 4.253
 1.003 -1.504 4.254
 1.029 -1.504 4.25
 1.056 -1.506 4.249
 1.083 -1.508 4.249
 1.11 -1.509 4.245
 1.137 -1.51 4.242
 1.165 -1.513 4.243
 1.192 -1.514 4.241
 1.219 -1.516 4.238
 1.246 -1.517 4.235
 1.274 -1.519 4.233
 1.301 -1.521 4.23
 1.329 -1.523 4.228
 1.357 -1.525 4.227
 1.386 -1.528 4.227
 1.414 -1.53 4.226
 1.442 -1.532 4.222
 1.471 -1.534 4.221
 1.499 -1.537 4.219
 1.527 -1.538 4.214
 1.556 -1.541 4.213
 1.586 -1.544 4.212
 1.615 -1.546 4.21
 1.643 -1.548 4.205
 1.673 -1.551 4.204
 1.701 -1.553 4.197
 1.728 -1.553 4.189
 1.755 -1.554 4.18
 1.781 -1.553 4.167
 1.806 -1.552 4.154
 1.829 -1.548 4.133
 1.848 -1.542 4.107
 1.865 -1.535 4.075
 1.88 -1.526 4.04
 1.893 -1.515 4
 1.907 -1.506 3.965
 1.922 -1.497 3.931
 1.935 -1.488 3.895
 1.952 -1.481 3.866
 0 0 0
 0 0 0
 0 0 0
 0 0 0
 0 0 0
 0 0 0
 1.8 -1.253 3.195
 1.821 -1.253 3.183
 1.834 -1.247 3.157
 1.84 -1.237 3.121
 1.856 -1.233 3.1
 1.841 -1.21 3.029
 -2.481 -1.619 4.241
 -2.415 -1.594 4.191
 -2.385 -1.594 4.203
 -2.357 -1.593 4.216
 -2.326 -1.592 4.226
 -2.295 -1.59 4.234
 -2.262 -1.587 4.238
 -2.232 -1.586 4.248
 -2.201 -1.584 4.256
 -2.17 -1.582 4.262
 -2.14 -1.581 4.271
 -2.108 -1.578 4.275
 -2.077 -1.576 4.281
 -2.043 -1.571 4.279
 -2.011 -1.568 4.282
 -1.979 -1.565 4.286
 -1.948 -1.563 4.29
 -1.916 -1.559 4.29
 -1.887 -1.558 4.298
 -1.854 -1.554 4.297
 -1.823 -1.551 4.3
 -1.791 -1.548 4.3
 -1.761 -1.545 4.302
 -1.73 -1.543 4.304
 -1.701 -1.541 4.309
 -1.67 -1.538 4.309
 -1.64 -1.535 4.311
 -1.61 -1.533 4.312
 -1.579 -1.529 4.31
 -1.548 -1.525 4.308
 -1.519 -1.523 4.31
 -1.488 -1.52 4.308
 -1.459 -1.517 4.307
 -1.43 -1.515 4.309
 -1.401 -1.513 4.311
 -1.371 -1.51 4.31
 -1.342 -1.508 4.309
 -1.313 -1.505 4.307
 -1.284 -1.502 4.306
 -1.255 -1.499 4.305
 -1.226 -1.497 4.304
 -1.198 -1.495 4.305
 -1.17 -1.493 4.303
 -1.142 -1.491 4.304
 -1.113 -1.488 4.302
 -1.085 -1.486 4.301
 -1.058 -1.485 4.303
 -1.03 -1.482 4.301
 -1.002 -1.48 4.3
 -0.975 -1.479 4.301
 -0.948 -1.478 4.301
 -0.921 -1.476 4.299
 -0.894 -1.475 4.301
 -0.867 -1.473 4.299
 -0.839 -1.47 4.295
 -0.812 -1.468 4.295
 -0.785 -1.467 4.294
 -0.758 -1.465 4.292
 -0.732 -1.464 4.292
 -0.706 -1.464 4.294
 -0.679 -1.462 4.294
 -0.653 -1.461 4.293
 -0.627 -1.46 4.294
 -0.6 -1.46 4.295
 -0.574 -1.458 4.293
 -0.548 -1.457 4.29
 -0.522 -1.457 4.292
 -0.496 -1.455 4.29
 -0.47 -1.455 4.291
 -0.444 -1.455 4.293
 -0.418 -1.454 4.294
 -0.392 -1.453 4.292
 -0.366 -1.453 4.293
 -0.34 -1.451 4.29
 -0.315 -1.45 4.286
 -0.289 -1.449 4.286
 -0.263 -1.448 4.283
 -0.237 -1.447 4.279
 -0.212 -1.447 4.281
 -0.186 -1.447 4.282
 -0.161 -1.447 4.282
 -0.135 -1.446 4.281
 -0.11 -1.446 4.281
 -0.084 -1.446 4.28
 -0.059 -1.446 4.28
 -0.033 -1.445 4.278
 -0.008 -1.445 4.278
 0.017 -1.445 4.277
 0.042 -1.445 4.275
 0.068 -1.444 4.273
 0.093 -1.444 4.272
 0.118 -1.444 4.269
 0.144 -1.444 4.269
 0.169 -1.444 4.268
 0.195 -1.444 4.267
 0.22 -1.443 4.264
 0.246 -1.446 4.269
 0.271 -1.446 4.27
 0.297 -1.447 4.27
 0.322 -1.447 4.269
 0.348 -1.45 4.274
 0.374 -1.45 4.273
 0.4 -1.451 4.272
 0.425 -1.451 4.271
 0.451 -1.452 4.272
 0.476 -1.451 4.267
 0.502 -1.451 4.264
 0.527 -1.451 4.261
 0.553 -1.451 4.258
 0.578 -1.452 4.256
 0.605 -1.454 4.258
 0.63 -1.454 4.256
 0.657 -1.456 4.258
 0.683 -1.458 4.26
 0.709 -1.459 4.26
 0.735 -1.459 4.256
 0.761 -1.461 4.256
 0.787 -1.462 4.255
 0.814 -1.463 4.255
 0.839 -1.463 4.25
 0.866 -1.465 4.25
 0.893 -1.467 4.252
 0.92 -1.469 4.251
 0.946 -1.469 4.248
 0.974 -1.473 4.253
 1.001 -1.475 4.255
 1.028 -1.476 4.251
 1.055 -1.478 4.252
 1.083 -1.481 4.253
 1.109 -1.481 4.249
 1.136 -1.483 4.247
 1.164 -1.486 4.248
 1.191 -1.487 4.245
 1.218 -1.488 4.242
 1.246 -1.49 4.241
 1.273 -1.492 4.24
 1.301 -1.494 4.238
 1.329 -1.496 4.236
 1.358 -1.499 4.236
 1.386 -1.502 4.236
 1.415 -1.504 4.234
 1.442 -1.505 4.231
 1.471 -1.508 4.229
 1.5 -1.51 4.227
 1.527 -1.512 4.223
 1.556 -1.514 4.221
 1.586 -1.517 4.22
 1.615 -1.52 4.218
 1.644 -1.521 4.214
 1.673 -1.524 4.212
 1.701 -1.525 4.204
 1.728 -1.526 4.196
 1.755 -1.527 4.188
 1.782 -1.526 4.177
 1.806 -1.525 4.162
 1.829 -1.522 4.143
 1.848 -1.515 4.115
 1.866 -1.509 4.087
 1.883 -1.501 4.054
 1.898 -1.492 4.019
 1.914 -1.485 3.987
 1.933 -1.48 3.962
 1.947 -1.471 3.926
 0 0 0
 0 0 0
 0 0 0
 0 0 0
 0 0 0
 0 0 0
 0 0 0
 1.797 -1.229 3.197
 1.821 -1.231 3.19
 1.835 -1.226 3.166
 1.841 -1.216 3.129
 1.846 -1.205 3.09
 1.839 -1.187 3.033
 0 0 0
 -2.445 -1.585 4.253
 -2.418 -1.586 4.27
 -2.384 -1.583 4.275
 -2.351 -1.581 4.281
 -2.317 -1.577 4.285
 -2.283 -1.573 4.287
 -2.25 -1.57 4.293
 -2.217 -1.567 4.296
 -2.185 -1.564 4.301
 -2.153 -1.562 4.307
 -2.119 -1.558 4.307
 -2.087 -1.555 4.311
 -2.051 -1.549 4.306
 -2.017 -1.545 4.306
 -1.985 -1.542 4.308
 -1.954 -1.54 4.313
 -1.921 -1.536 4.312
 -1.891 -1.534 4.318
 -1.859 -1.531 4.318
 -1.828 -1.527 4.319
 -1.794 -1.523 4.316
 -1.764 -1.52 4.318
 -1.732 -1.517 4.317
 -1.702 -1.514 4.319
 -1.67 -1.511 4.318
 -1.641 -1.509 4.321
 -1.61 -1.506 4.321
 -1.579 -1.502 4.319
 -1.548 -1.498 4.315
 -1.517 -1.495 4.314
 -1.487 -1.491 4.312
 -1.457 -1.488 4.311
 -1.428 -1.486 4.312
 -1.4 -1.485 4.316
 -1.371 -1.483 4.317
 -1.342 -1.48 4.316
 -1.312 -1.477 4.314
 -1.283 -1.475 4.314
 -1.254 -1.472 4.312
 -1.225 -1.469 4.309
 -1.197 -1.467 4.309
 -1.168 -1.465 4.308
 -1.14 -1.462 4.306
 -1.112 -1.46 4.305
 -1.084 -1.458 4.305
 -1.057 -1.457 4.306
 -1.029 -1.454 4.303
 -1.001 -1.453 4.303
 -0.974 -1.451 4.304
 -0.946 -1.449 4.302
 -0.919 -1.447 4.301
 -0.893 -1.446 4.303
 -0.865 -1.444 4.299
 -0.837 -1.441 4.295
 -0.811 -1.44 4.296
 -0.783 -1.438 4.292
 -0.757 -1.436 4.29
 -0.73 -1.436 4.292
 -0.704 -1.434 4.292
 -0.678 -1.434 4.294
 -0.652 -1.433 4.294
 -0.626 -1.433 4.296
 -0.599 -1.432 4.296
 -0.574 -1.432 4.298
 -0.547 -1.43 4.295
 -0.521 -1.43 4.296
 -0.495 -1.428 4.293
 -0.469 -1.428 4.296
 -0.444 -1.428 4.297
 -0.418 -1.427 4.295
 -0.392 -1.427 4.297
 -0.366 -1.426 4.297
 -0.34 -1.425 4.294
 -0.314 -1.423 4.289
 -0.288 -1.422 4.288
 -0.263 -1.421 4.285
 -0.237 -1.419 4.282
 -0.211 -1.419 4.282
 -0.186 -1.42 4.283
 -0.16 -1.42 4.285
 -0.135 -1.419 4.283
 -0.109 -1.419 4.283
 -0.084 -1.419 4.282
 -0.058 -1.418 4.281
 -0.033 -1.417 4.276
 -0.007 -1.417 4.277
 0.017 -1.417 4.277
 0.042 -1.418 4.277
 0.068 -1.417 4.276
 0.093 -1.418 4.277
 0.119 -1.418 4.275
 0.144 -1.418 4.275
 0.169 -1.417 4.272
 0.195 -1.418 4.273
 0.22 -1.418 4.27
 0.246 -1.419 4.273
 0.271 -1.42 4.274
 0.297 -1.421 4.274
 0.323 -1.421 4.275
 0.348 -1.423 4.279
 0.374 -1.423 4.276
 0.4 -1.424 4.277
 0.425 -1.424 4.275
 0.451 -1.425 4.274
 0.476 -1.423 4.267
 0.501 -1.424 4.267
 0.526 -1.423 4.261
 0.552 -1.423 4.257
 0.577 -1.423 4.255
 0.604 -1.425 4.257
 0.629 -1.426 4.255
 0.656 -1.428 4.259
 0.682 -1.43 4.262
 0.709 -1.432 4.262
 0.735 -1.433 4.261
 0.761 -1.434 4.261
 0.787 -1.435 4.259
 0.813 -1.436 4.257
 0.839 -1.436 4.253
 0.865 -1.437 4.251
 0.892 -1.439 4.253
 0.918 -1.44 4.251
 0.944 -1.441 4.247
 0.972 -1.444 4.251
 0.999 -1.446 4.253
 1.025 -1.447 4.249
 1.053 -1.449 4.251
 1.081 -1.452 4.253
 1.108 -1.453 4.25
 1.135 -1.455 4.249
 1.163 -1.458 4.251
 1.19 -1.459 4.248
 1.217 -1.46 4.245
 1.245 -1.462 4.244
 1.272 -1.464 4.243
 1.3 -1.466 4.241
 1.328 -1.468 4.24
 1.357 -1.471 4.241
 1.385 -1.474 4.24
 1.413 -1.476 4.238
 1.441 -1.477 4.235
 1.47 -1.48 4.234
 1.499 -1.483 4.234
 1.527 -1.484 4.229
 1.556 -1.487 4.228
 1.586 -1.49 4.228
 1.614 -1.492 4.224
 1.643 -1.494 4.22
 1.672 -1.496 4.217
 1.699 -1.497 4.209
 1.727 -1.498 4.202
 1.755 -1.499 4.195
 1.782 -1.5 4.186
 1.808 -1.499 4.175
 1.831 -1.496 4.155
 1.85 -1.491 4.129
 1.87 -1.485 4.102
 1.886 -1.477 4.069
 1.9 -1.468 4.032
 1.918 -1.462 4.004
 1.938 -1.457 3.981
 0 0 0
 0 0 0
 0 0 0
 0 0 0
 0 0 0
 0 0 0
 0 0 0
 0 0 0
 1.79 -1.203 3.19
 1.814 -1.205 3.184
 1.831 -1.202 3.167
 1.839 -1.193 3.132
 1.871 -1.2 3.139
 1.836 -1.165 3.036
 0 0 0
 -2.495 -1.588 4.35
 -2.44 -1.572 4.319
 -2.405 -1.568 4.322
 -2.369 -1.564 4.323
 -2.332 -1.558 4.322
 -2.295 -1.553 4.32
 -2.262 -1.55 4.325
 -2.228 -1.547 4.327
 -2.193 -1.542 4.326
 -2.159 -1.538 4.329
 -2.125 -1.534 4.329
 -2.091 -1.53 4.329
 -2.055 -1.524 4.324
 -2.021 -1.52 4.323
 -1.988 -1.516 4.323
 -1.956 -1.513 4.326
 -1.923 -1.509 4.325
 -1.891 -1.506 4.327
 -1.859 -1.503 4.326
 -1.827 -1.499 4.326
 -1.794 -1.495 4.323
 -1.763 -1.492 4.325
 -1.732 -1.489 4.325
 -1.701 -1.487 4.327
 -1.67 -1.483 4.325
 -1.64 -1.481 4.328
 -1.609 -1.477 4.326
 -1.578 -1.474 4.323
 -1.546 -1.469 4.319
 -1.515 -1.466 4.317
 -1.484 -1.462 4.314
 -1.455 -1.46 4.315
 -1.426 -1.457 4.314
 -1.398 -1.456 4.318
 -1.368 -1.454 4.317
 -1.339 -1.451 4.316
 -1.31 -1.448 4.313
 -1.281 -1.446 4.315
 -1.253 -1.444 4.315
 -1.225 -1.442 4.315
 -1.196 -1.44 4.313
 -1.167 -1.437 4.312
 -1.139 -1.435 4.31
 -1.111 -1.432 4.308
 -1.083 -1.43 4.306
 -1.056 -1.429 4.309
 -1.028 -1.428 4.309
 -1 -1.425 4.307
 -0.973 -1.424 4.309
 -0.947 -1.423 4.311
 -0.919 -1.422 4.31
 -0.892 -1.42 4.309
 -0.865 -1.418 4.306
 -0.837 -1.415 4.3
 -0.81 -1.413 4.3
 -0.783 -1.411 4.297
 -0.756 -1.409 4.294
 -0.73 -1.409 4.297
 -0.704 -1.408 4.297
 -0.677 -1.408 4.299
 -0.651 -1.406 4.298
 -0.625 -1.406 4.3
 -0.599 -1.404 4.298
 -0.573 -1.404 4.3
 -0.546 -1.403 4.297
 -0.52 -1.402 4.298
 -0.494 -1.401 4.297
 -0.469 -1.402 4.301
 -0.443 -1.401 4.301
 -0.417 -1.4 4.3
 -0.392 -1.401 4.304
 -0.365 -1.399 4.298
 -0.34 -1.398 4.296
 -0.314 -1.395 4.29
 -0.288 -1.394 4.289
 -0.262 -1.393 4.285
 -0.236 -1.393 4.284
 -0.211 -1.392 4.283
 -0.185 -1.393 4.286
 -0.16 -1.393 4.288
 -0.135 -1.393 4.287
 -0.109 -1.393 4.287
 -0.084 -1.392 4.286
 -0.058 -1.391 4.283
 -0.033 -1.39 4.279
 -0.007 -1.391 4.281
 0.017 -1.391 4.281
 0.043 -1.392 4.283
 0.068 -1.392 4.282
 0.093 -1.392 4.284
 0.119 -1.392 4.281
 0.144 -1.392 4.281
 0.17 -1.392 4.279
 0.195 -1.392 4.279
 0.22 -1.392 4.277
 0.246 -1.392 4.277
 0.271 -1.393 4.278
 0.297 -1.394 4.279
 0.322 -1.395 4.279
 0.348 -1.397 4.284
 0.374 -1.398 4.283
 0.4 -1.398 4.282
 0.425 -1.399 4.281
 0.451 -1.399 4.279
 0.476 -1.397 4.272
 0.501 -1.398 4.273
 0.526 -1.397 4.265
 0.552 -1.396 4.261
 0.577 -1.396 4.258
 0.603 -1.398 4.259
 0.629 -1.398 4.257
 0.655 -1.401 4.262
 0.682 -1.404 4.266
 0.708 -1.405 4.268
 0.735 -1.407 4.268
 0.761 -1.408 4.266
 0.786 -1.408 4.263
 0.812 -1.409 4.26
 0.838 -1.409 4.256
 0.864 -1.409 4.253
 0.891 -1.412 4.257
 0.918 -1.413 4.255
 0.944 -1.414 4.252
 0.971 -1.417 4.256
 0.998 -1.419 4.256
 1.025 -1.419 4.252
 1.052 -1.422 4.254
 1.079 -1.424 4.254
 1.106 -1.425 4.251
 1.133 -1.427 4.251
 1.162 -1.43 4.254
 1.189 -1.431 4.251
 1.216 -1.432 4.248
 1.244 -1.435 4.249
 1.272 -1.437 4.248
 1.299 -1.439 4.245
 1.327 -1.441 4.243
 1.355 -1.443 4.243
 1.384 -1.446 4.243
 1.412 -1.448 4.242
 1.44 -1.45 4.239
 1.469 -1.453 4.239
 1.498 -1.455 4.239
 1.526 -1.457 4.234
 1.555 -1.459 4.232
 1.584 -1.462 4.231
 1.612 -1.463 4.226
 1.641 -1.465 4.222
 1.67 -1.468 4.22
 1.698 -1.469 4.214
 1.726 -1.47 4.207
 1.754 -1.472 4.202
 1.782 -1.473 4.194
 1.808 -1.472 4.182
 1.831 -1.47 4.164
 1.852 -1.465 4.14
 1.873 -1.461 4.116
 1.89 -1.454 4.087
 1.905 -1.445 4.051
 1.923 -1.439 4.023
 0 0 0
 0 0 0
 0 0 0
 0 0 0
 0 0 0
 0 0 0
 0 0 0
 0 0 0
 0 0 0
 1.785 -1.178 3.188
 1.811 -1.181 3.186
 1.83 -1.18 3.172
 1.839 -1.172 3.139
 1.876 -1.182 3.156
 1.829 -1.14 3.031
 -2.55 -1.575 4.39
 -2.485 -1.553 4.342
 -2.45 -1.549 4.347
 -2.414 -1.545 4.348
 -2.376 -1.54 4.346
 -2.337 -1.533 4.34
 -2.299 -1.527 4.336
 -2.266 -1.524 4.341
 -2.23 -1.519 4.34
 -2.193 -1.514 4.337
 -2.16 -1.511 4.339
 -2.125 -1.506 4.338
 -2.091 -1.502 4.337
 -2.056 -1.497 4.335
 -2.021 -1.492 4.333
 -1.988 -1.488 4.332
 -1.956 -1.485 4.334
 -1.923 -1.482 4.334
 -1.89 -1.478 4.333
 -1.859 -1.475 4.334
 -1.826 -1.471 4.333
 -1.793 -1.467 4.329
 -1.761 -1.463 4.329
 -1.73 -1.46 4.33
 -1.699 -1.457 4.329
 -1.668 -1.454 4.329
 -1.638 -1.452 4.33
 -1.607 -1.449 4.33
 -1.575 -1.445 4.326
 -1.544 -1.441 4.323
 -1.513 -1.437 4.32
 -1.483 -1.434 4.318
 -1.454 -1.432 4.318
 -1.424 -1.429 4.317
 -1.396 -1.428 4.321
 -1.367 -1.426 4.322
 -1.338 -1.424 4.322
 -1.309 -1.421 4.319
 -1.281 -1.42 4.323
 -1.253 -1.418 4.323
 -1.224 -1.415 4.322
 -1.195 -1.412 4.319
 -1.167 -1.41 4.317
 -1.138 -1.407 4.315
 -1.11 -1.405 4.312
 -1.081 -1.402 4.31
 -1.055 -1.402 4.315
 -1.028 -1.401 4.315
 -1 -1.399 4.314
 -0.973 -1.398 4.316
 -0.946 -1.397 4.318
 -0.919 -1.395 4.315
 -0.891 -1.392 4.31
 -0.864 -1.39 4.309
 -0.836 -1.387 4.303
 -0.809 -1.386 4.304
 -0.782 -1.384 4.3
 -0.756 -1.383 4.301
 -0.729 -1.382 4.301
 -0.703 -1.381 4.302
 -0.677 -1.382 4.306
 -0.651 -1.38 4.304
 -0.625 -1.38 4.308
 -0.599 -1.38 4.308
 -0.573 -1.379 4.31
 -0.547 -1.378 4.307
 -0.521 -1.377 4.308
 -0.494 -1.376 4.305
 -0.469 -1.376 4.309
 -0.443 -1.376 4.308
 -0.417 -1.375 4.307
 -0.391 -1.375 4.309
 -0.365 -1.372 4.302
 -0.339 -1.37 4.296
 -0.313 -1.368 4.291
 -0.287 -1.367 4.289
 -0.261 -1.366 4.286
 -0.236 -1.365 4.285
 -0.21 -1.364 4.283
 -0.185 -1.365 4.286
 -0.16 -1.365 4.287
 -0.134 -1.365 4.286
 -0.109 -1.365 4.286
 -0.083 -1.365 4.287
 -0.058 -1.364 4.284
 -0.033 -1.364 4.282
 -0.007 -1.364 4.284
 0.017 -1.364 4.285
 0.043 -1.365 4.286
 0.068 -1.366 4.289
 0.093 -1.366 4.288
 0.119 -1.366 4.285
 0.144 -1.366 4.285
 0.17 -1.365 4.281
 0.195 -1.365 4.281
 0.22 -1.365 4.28
 0.246 -1.365 4.279
 0.271 -1.367 4.283
 0.297 -1.368 4.284
 0.323 -1.37 4.287
 0.349 -1.372 4.292
 0.374 -1.373 4.292
 0.4 -1.373 4.289
 0.425 -1.373 4.288
 0.45 -1.372 4.283
 0.475 -1.371 4.276
 0.501 -1.372 4.277
 0.526 -1.371 4.27
 0.551 -1.37 4.265
 0.577 -1.37 4.263
 0.603 -1.372 4.264
 0.628 -1.372 4.26
 0.655 -1.374 4.263
 0.682 -1.377 4.269
 0.708 -1.378 4.27
 0.734 -1.38 4.27
 0.76 -1.381 4.27
 0.786 -1.382 4.268
 0.812 -1.382 4.263
 0.837 -1.381 4.259
 0.863 -1.382 4.256
 0.89 -1.384 4.258
 0.917 -1.386 4.257
 0.943 -1.387 4.256
 0.971 -1.39 4.259
 0.997 -1.391 4.258
 1.024 -1.392 4.255
 1.051 -1.394 4.256
 1.078 -1.395 4.254
 1.104 -1.397 4.252
 1.132 -1.399 4.252
 1.16 -1.401 4.254
 1.187 -1.402 4.25
 1.214 -1.404 4.248
 1.242 -1.407 4.251
 1.27 -1.409 4.251
 1.298 -1.411 4.25
 1.326 -1.413 4.248
 1.354 -1.416 4.247
 1.382 -1.417 4.246
 1.41 -1.419 4.243
 1.437 -1.42 4.238
 1.466 -1.423 4.238
 1.495 -1.426 4.238
 1.523 -1.427 4.233
 1.552 -1.429 4.231
 1.581 -1.432 4.231
 1.61 -1.434 4.228
 1.638 -1.436 4.224
 1.667 -1.438 4.221
 1.696 -1.44 4.216
 1.724 -1.442 4.21
 1.752 -1.443 4.204
 1.78 -1.444 4.198
 1.808 -1.445 4.19
 1.832 -1.444 4.174
 1.854 -1.44 4.152
 1.876 -1.436 4.132
 1.896 -1.431 4.106
 1.908 -1.421 4.064
 0 0 0
 0 0 0
 0 0 0
 0 0 0
 0 0 0
 0 0 0
 0 0 0
 0 0 0
 0 0 0
 0 0 0
 0 0 0
 1.808 -1.158 3.187
 1.83 -1.158 3.179
 1.839 -1.15 3.145
 1.88 -1.163 3.169
 1.847 -1.13 3.066
 -2.522 -1.528 4.35
 -2.54 -1.557 4.448
 -2.455 -1.524 4.365
 -2.417 -1.518 4.364
 -2.378 -1.512 4.358
 -2.337 -1.504 4.35
 -2.299 -1.498 4.345
 -2.265 -1.495 4.349
 -2.23 -1.491 4.349
 -2.194 -1.486 4.346
 -2.16 -1.482 4.349
 -2.125 -1.478 4.347
 -2.089 -1.473 4.344
 -2.055 -1.468 4.342
 -2.02 -1.464 4.339
 -1.986 -1.459 4.336
 -1.954 -1.456 4.339
 -1.921 -1.452 4.338
 -1.887 -1.448 4.335
 -1.856 -1.445 4.336
 -1.823 -1.442 4.336
 -1.79 -1.437 4.332
 -1.758 -1.434 4.331
 -1.728 -1.431 4.333
 -1.696 -1.428 4.331
 -1.665 -1.424 4.329
 -1.634 -1.421 4.329
 -1.604 -1.419 4.33
 -1.572 -1.415 4.325
 -1.541 -1.411 4.321
 -1.511 -1.408 4.321
 -1.481 -1.406 4.321
 -1.452 -1.403 4.321
 -1.422 -1.4 4.32
 -1.395 -1.4 4.325
 -1.366 -1.398 4.327
 -1.337 -1.396 4.326
 -1.308 -1.393 4.325
 -1.281 -1.393 4.331
 -1.252 -1.391 4.329
 -1.224 -1.389 4.33
 -1.195 -1.385 4.325
 -1.166 -1.383 4.323
 -1.137 -1.38 4.318
 -1.108 -1.377 4.315
 -1.08 -1.375 4.313
 -1.054 -1.375 4.318
 -1.027 -1.374 4.321
 -1 -1.373 4.322
 -0.974 -1.372 4.325
 -0.947 -1.371 4.326
 -0.919 -1.369 4.324
 -0.89 -1.365 4.314
 -0.863 -1.363 4.312
 -0.834 -1.359 4.304
 -0.808 -1.359 4.307
 -0.781 -1.356 4.3
 -0.755 -1.356 4.303
 -0.729 -1.355 4.305
 -0.702 -1.355 4.306
 -0.676 -1.354 4.308
 -0.65 -1.353 4.308
 -0.624 -1.353 4.311
 -0.598 -1.352 4.309
 -0.573 -1.353 4.314
 -0.547 -1.352 4.315
 -0.521 -1.351 4.314
 -0.494 -1.35 4.311
 -0.469 -1.35 4.314
 -0.442 -1.348 4.31
 -0.416 -1.347 4.306
 -0.391 -1.348 4.312
 -0.364 -1.343 4.298
 -0.338 -1.341 4.294
 -0.312 -1.34 4.291
 -0.287 -1.34 4.291
 -0.261 -1.339 4.289
 -0.236 -1.339 4.289
 -0.21 -1.338 4.288
 -0.185 -1.338 4.289
 -0.159 -1.338 4.288
 -0.134 -1.338 4.288
 -0.108 -1.337 4.287
 -0.083 -1.337 4.287
 -0.058 -1.336 4.284
 -0.032 -1.336 4.281
 -0.007 -1.336 4.283
 0.017 -1.336 4.282
 0.043 -1.336 4.282
 0.068 -1.34 4.292
 0.094 -1.341 4.297
 0.119 -1.341 4.296
 0.145 -1.343 4.299
 0.17 -1.342 4.295
 0.195 -1.342 4.295
 0.221 -1.342 4.293
 0.246 -1.34 4.285
 0.271 -1.341 4.288
 0.297 -1.343 4.29
 0.323 -1.344 4.292
 0.349 -1.345 4.295
 0.374 -1.347 4.297
 0.4 -1.347 4.297
 0.426 -1.348 4.296
 0.451 -1.347 4.291
 0.476 -1.346 4.285
 0.502 -1.348 4.288
 0.527 -1.345 4.278
 0.551 -1.344 4.271
 0.577 -1.344 4.266
 0.603 -1.345 4.267
 0.628 -1.345 4.263
 0.655 -1.348 4.268
 0.682 -1.351 4.275
 0.708 -1.353 4.279
 0.735 -1.355 4.279
 0.761 -1.356 4.279
 0.786 -1.356 4.274
 0.812 -1.355 4.269
 0.837 -1.355 4.264
 0.863 -1.356 4.26
 0.89 -1.359 4.265
 0.917 -1.36 4.264
 0.943 -1.36 4.26
 0.97 -1.363 4.264
 0.997 -1.364 4.262
 1.023 -1.365 4.258
 1.05 -1.367 4.259
 1.077 -1.368 4.258
 1.104 -1.369 4.255
 1.131 -1.371 4.255
 1.158 -1.373 4.255
 1.185 -1.374 4.252
 1.212 -1.376 4.249
 1.24 -1.378 4.251
 1.268 -1.38 4.25
 1.296 -1.382 4.249
 1.324 -1.385 4.248
 1.352 -1.387 4.248
 1.38 -1.389 4.247
 1.409 -1.391 4.246
 1.436 -1.392 4.241
 1.465 -1.395 4.24
 1.493 -1.397 4.239
 1.521 -1.399 4.235
 1.55 -1.401 4.232
 1.579 -1.404 4.233
 1.608 -1.406 4.23
 1.636 -1.408 4.226
 1.666 -1.41 4.224
 1.695 -1.412 4.22
 1.723 -1.414 4.214
 1.751 -1.415 4.21
 1.78 -1.417 4.206
 1.809 -1.419 4.199
 1.834 -1.418 4.185
 1.856 -1.415 4.166
 1.88 -1.413 4.149
 1.897 -1.405 4.116
 0 0 0
 0 0 0
 0 0 0
 0 0 0
 0 0 0
 0 0 0
 0 0 0
 0 0 0
 0 0 0
 0 0 0
 0 0 0
 0 0 0
 1.796 -1.129 3.174
 1.822 -1.132 3.171
 1.833 -1.125 3.141
 1.872 -1.137 3.162
 1.875 -1.125 3.119
 -2.538 -1.509 4.388
 -2.487 -1.496 4.365
 -2.453 -1.493 4.371
 -2.415 -1.488 4.369
 -2.375 -1.481 4.362
 -2.336 -1.475 4.357
 -2.298 -1.469 4.352
 -2.263 -1.465 4.354
 -2.227 -1.46 4.353
 -2.191 -1.456 4.35
 -2.157 -1.452 4.351
 -2.122 -1.447 4.349
 -2.086 -1.442 4.346
 -2.052 -1.438 4.345
 -2.019 -1.435 4.345
 -1.985 -1.431 4.343
 -1.952 -1.427 4.344
 -1.92 -1.424 4.344
 -1.885 -1.419 4.338
 -1.853 -1.416 4.34
 -1.821 -1.412 4.339
 -1.79 -1.409 4.339
 -1.758 -1.406 4.338
 -1.727 -1.403 4.339
 -1.694 -1.399 4.334
 -1.662 -1.395 4.33
 -1.63 -1.391 4.326
 -1.599 -1.388 4.325
 -1.568 -1.384 4.323
 -1.538 -1.381 4.32
 -1.508 -1.379 4.321
 -1.479 -1.377 4.322
 -1.45 -1.375 4.323
 -1.42 -1.372 4.321
 -1.393 -1.371 4.327
 -1.365 -1.37 4.329
 -1.336 -1.368 4.33
 -1.307 -1.366 4.329
 -1.281 -1.366 4.337
 -1.252 -1.364 4.336
 -1.224 -1.362 4.336
 -1.194 -1.359 4.331
 -1.166 -1.357 4.33
 -1.137 -1.353 4.324
 -1.108 -1.351 4.322
 -1.08 -1.349 4.321
 -1.054 -1.349 4.326
 -1.027 -1.348 4.328
 -1 -1.347 4.328
 -0.973 -1.345 4.33
 -0.946 -1.344 4.329
 -0.918 -1.342 4.326
 -0.889 -1.337 4.316
 -0.86 -1.334 4.308
 -0.833 -1.332 4.305
 -0.808 -1.332 4.312
 -0.779 -1.327 4.299
 -0.752 -1.326 4.297
 -0.727 -1.326 4.302
 -0.699 -1.323 4.293
 -0.673 -1.323 4.296
 -0.648 -1.324 4.302
 -0.623 -1.324 4.306
 -0.596 -1.322 4.302
 -0.572 -1.326 4.318
 -0.546 -1.326 4.321
 -0.519 -1.323 4.312
 -0.493 -1.321 4.306
 -0.468 -1.322 4.313
 0 0 0
 0 0 0
 0 0 0
 -0.362 -1.312 4.285
 -0.337 -1.312 4.286
 -0.311 -1.312 4.288
 -0.286 -1.312 4.289
 -0.261 -1.312 4.289
 -0.235 -1.311 4.289
 -0.21 -1.311 4.289
 -0.184 -1.31 4.287
 -0.159 -1.311 4.288
 -0.133 -1.31 4.285
 -0.108 -1.309 4.285
 -0.083 -1.309 4.283
 -0.057 -1.308 4.279
 -0.032 -1.307 4.276
 -0.007 -1.307 4.276
 0.017 -1.306 4.273
 0.043 -1.305 4.269
 0 0 0
 0 0 0
 0 0 0
 0 0 0
 0 0 0
 0 0 0
 0 0 0
 0 0 0
 0.272 -1.317 4.298
 0.298 -1.319 4.303
 0.324 -1.323 4.314
 0.35 -1.323 4.312
 0.375 -1.324 4.313
 0.401 -1.324 4.312
 0.427 -1.325 4.312
 0.451 -1.323 4.302
 0.476 -1.319 4.287
 0.502 -1.323 4.297
 0.526 -1.318 4.277
 0.55 -1.316 4.268
 0.575 -1.315 4.261
 0.601 -1.317 4.264
 0.626 -1.316 4.259
 0.654 -1.321 4.272
 0.681 -1.324 4.277
 0.708 -1.326 4.282
 0.734 -1.328 4.283
 0.76 -1.329 4.283
 0.785 -1.328 4.276
 0.81 -1.327 4.269
 0.835 -1.326 4.261
 0.862 -1.328 4.261
 0.889 -1.331 4.266
 0.915 -1.332 4.263
 0.941 -1.331 4.257
 0.97 -1.337 4.27
 0.996 -1.337 4.264
 1.022 -1.337 4.26
 1.048 -1.339 4.259
 1.075 -1.34 4.257
 1.102 -1.341 4.255
 1.129 -1.343 4.255
 1.157 -1.345 4.255
 1.184 -1.347 4.254
 1.211 -1.348 4.251
 1.238 -1.35 4.25
 1.266 -1.352 4.249
 1.294 -1.354 4.249
 1.322 -1.356 4.248
 1.35 -1.358 4.247
 1.378 -1.36 4.247
 1.406 -1.362 4.245
 1.433 -1.363 4.24
 1.462 -1.366 4.24
 1.491 -1.368 4.239
 1.519 -1.37 4.235
 1.548 -1.372 4.234
 1.577 -1.375 4.234
 1.606 -1.377 4.231
 1.634 -1.379 4.226
 1.663 -1.381 4.224
 1.692 -1.383 4.221
 1.72 -1.385 4.216
 1.749 -1.387 4.212
 1.779 -1.389 4.209
 1.808 -1.391 4.206
 1.833 -1.39 4.192
 1.861 -1.392 4.185
 1.888 -1.392 4.174
 0 0 0
 0 0 0
 0 0 0
 0 0 0
 0 0 0
 0 0 0
 0 0 0
 0 0 0
 0 0 0
 0 0 0
 0 0 0
 0 0 0
 0 0 0
 1.789 -1.103 3.166
 1.817 -1.107 3.168
 1.831 -1.103 3.146
 1.874 -1.116 3.171
 1.844 -1.086 3.074
 -2.527 -1.473 4.379
 -2.503 -1.476 4.401
 -2.449 -1.461 4.372
 -2.411 -1.456 4.37
 -2.369 -1.449 4.36
 -2.331 -1.443 4.357
 -2.292 -1.437 4.35
 -2.258 -1.433 4.352
 -2.223 -1.429 4.353
 -2.187 -1.425 4.352
 -2.153 -1.421 4.351
 -2.118 -1.416 4.35
 -2.083 -1.412 4.348
 -2.049 -1.408 4.347
 -2.017 -1.405 4.348
 -1.982 -1.401 4.346
 -1.95 -1.397 4.346
 -1.917 -1.394 4.347
 -1.883 -1.389 4.342
 -1.851 -1.386 4.342
 -1.82 -1.384 4.343
 -1.788 -1.38 4.343
 -1.755 -1.377 4.34
 -1.725 -1.374 4.34
 -1.691 -1.369 4.335
 -1.658 -1.365 4.329
 -1.627 -1.361 4.327
 -1.596 -1.358 4.325
 -1.566 -1.356 4.325
 -1.536 -1.353 4.323
 -1.506 -1.351 4.324
 -1.477 -1.348 4.325
 -1.448 -1.346 4.324
 -1.417 -1.343 4.321
 -1.39 -1.342 4.326
 -1.362 -1.341 4.328
 -1.333 -1.339 4.328
 -1.304 -1.336 4.328
 -1.278 -1.337 4.334
 -1.251 -1.336 4.339
 -1.225 -1.337 4.347
 -1.194 -1.332 4.338
 -1.167 -1.331 4.34
 -1.138 -1.329 4.338
 -1.108 -1.325 4.33
 -1.078 -1.319 4.317
 -1.053 -1.321 4.327
 -1.027 -1.321 4.333
 -0.999 -1.319 4.331
 0 0 0
 0 0 0
 0 0 0
 0 0 0
 0 0 0
 0 0 0
 0 0 0
 0 0 0
 0 0 0
 0 0 0
 0 0 0
 0 0 0
 0 0 0
 0 0 0
 0 0 0
 0 0 0
 0 0 0
 0 0 0
 0 0 0
 0 0 0
 0 0 0
 0 0 0
 0 0 0
 -0.362 -1.288 4.296
 -0.336 -1.285 4.289
 -0.311 -1.286 4.292
 -0.286 -1.285 4.291
 -0.26 -1.285 4.291
 -0.235 -1.283 4.287
 -0.209 -1.283 4.288
 -0.184 -1.283 4.286
 -0.158 -1.283 4.287
 -0.133 -1.282 4.285
 -0.108 -1.282 4.286
 -0.082 -1.282 4.283
 -0.057 -1.28 4.279
 -0.032 -1.28 4.276
 -0.007 -1.28 4.276
 0.018 -1.278 4.27
 0.043 -1.276 4.264
 0 0 0
 0 0 0
 0 0 0
 0 0 0
 0 0 0
 0 0 0
 0 0 0
 0 0 0
 0 0 0
 0 0 0
 0 0 0
 0 0 0
 0 0 0
 0 0 0
 0 0 0
 0 0 0
 0 0 0
 0 0 0
 0 0 0
 0 0 0
 0 0 0
 0 0 0
 0 0 0
 0 0 0
 0 0 0
 0 0 0
 0 0 0
 0 0 0
 0 0 0
 0 0 0
 0 0 0
 0 0 0
 0 0 0
 0 0 0
 0 0 0
 0.971 -1.311 4.277
 0.995 -1.31 4.268
 1.021 -1.31 4.264
 1.047 -1.311 4.261
 1.074 -1.312 4.257
 1.1 -1.313 4.254
 1.127 -1.315 4.254
 1.155 -1.317 4.254
 1.181 -1.318 4.251
 1.209 -1.319 4.25
 1.236 -1.321 4.249
 1.263 -1.323 4.247
 1.291 -1.325 4.247
 1.319 -1.327 4.246
 1.347 -1.329 4.245
 1.375 -1.331 4.245
 1.404 -1.333 4.244
 1.431 -1.334 4.239
 1.459 -1.337 4.238
 1.487 -1.338 4.235
 1.515 -1.34 4.232
 1.544 -1.342 4.23
 1.573 -1.345 4.23
 1.602 -1.347 4.228
 1.63 -1.349 4.223
 1.659 -1.351 4.222
 1.689 -1.354 4.22
 1.717 -1.356 4.216
 1.747 -1.358 4.213
 1.777 -1.361 4.212
 1.805 -1.362 4.206
 1.833 -1.363 4.197
 1.861 -1.365 4.192
 1.89 -1.366 4.186
 0 0 0
 0 0 0
 0 0 0
 0 0 0
 0 0 0
 0 0 0
 0 0 0
 0 0 0
 0 0 0
 0 0 0
 0 0 0
 0 0 0
 0 0 0
 1.778 -1.075 3.152
 1.813 -1.083 3.167
 1.829 -1.08 3.147
 1.851 -1.081 3.138
 1.846 -1.066 3.083
 -2.516 -1.437 4.367
 -2.481 -1.434 4.372
 -2.443 -1.429 4.371
 -2.406 -1.424 4.369
 -2.365 -1.417 4.362
 -2.328 -1.412 4.359
 -2.289 -1.406 4.354
 -2.254 -1.402 4.353
 -2.218 -1.398 4.351
 -2.183 -1.394 4.352
 -2.147 -1.389 4.349
 -2.112 -1.384 4.345
 -2.078 -1.381 4.345
 -2.045 -1.377 4.346
 -2.012 -1.374 4.346
 -1.979 -1.37 4.346
 -1.947 -1.368 4.348
 -1.915 -1.365 4.35
 -1.881 -1.36 4.345
 -1.849 -1.357 4.346
 -1.816 -1.354 4.343
 -1.785 -1.351 4.343
 -1.752 -1.347 4.34
 -1.722 -1.344 4.341
 -1.688 -1.339 4.334
 -1.655 -1.335 4.329
 -1.624 -1.332 4.326
 -1.593 -1.328 4.323
 -1.562 -1.325 4.322
 -1.533 -1.323 4.323
 -1.504 -1.321 4.323
 -1.475 -1.319 4.325
 -1.446 -1.318 4.326
 -1.416 -1.315 4.325
 -1.389 -1.315 4.331
 -1.362 -1.314 4.337
 -1.334 -1.313 4.34
 -1.307 -1.313 4.345
 0 0 0
 0 0 0
 0 0 0
 0 0 0
 0 0 0
 0 0 0
 0 0 0
 0 0 0
 0 0 0
 0 0 0
 0 0 0
 0 0 0
 0 0 0
 0 0 0
 0 0 0
 0 0 0
 0 0 0
 0 0 0
 0 0 0
 0 0 0
 0 0 0
 0 0 0
 0 0 0
 -0.658 -1.292 4.381
 -0.632 -1.292 4.385
 -0.604 -1.289 4.379
 -0.579 -1.29 4.382
 0 0 0
 0 0 0
 0 0 0
 0 0 0
 0 0 0
 0 0 0
 0 0 0
 -0.362 -1.262 4.301
 -0.336 -1.258 4.291
 -0.311 -1.259 4.294
 -0.285 -1.258 4.293
 -0.26 -1.258 4.294
 -0.234 -1.257 4.288
 -0.209 -1.257 4.29
 -0.183 -1.256 4.287
 -0.158 -1.256 4.287
 -0.133 -1.255 4.284
 -0.108 -1.255 4.287
 -0.082 -1.255 4.284
 -0.057 -1.253 4.279
 -0.032 -1.253 4.277
 -0.006 -1.252 4.275
 0.018 -1.251 4.269
 0.043 -1.249 4.261
 0 0 0
 0 0 0
 0 0 0
 0 0 0
 0 0 0
 0 0 0
 0 0 0
 0 0 0
 0 0 0
 0 0 0
 0 0 0
 0 0 0
 0 0 0
 0 0 0
 0 0 0
 0 0 0
 0 0 0
 0 0 0
 0 0 0
 0 0 0
 0 0 0
 0 0 0
 0 0 0
 0 0 0
 0 0 0
 0 0 0
 0 0 0
 0 0 0
 0 0 0
 0 0 0
 0 0 0
 0 0 0
 0 0 0
 0 0 0
 0 0 0
 0.969 -1.283 4.277
 0.994 -1.283 4.269
 1.02 -1.283 4.264
 1.046 -1.284 4.262
 1.072 -1.284 4.258
 1.099 -1.285 4.254
 1.126 -1.287 4.254
 1.153 -1.288 4.253
 1.179 -1.289 4.25
 1.207 -1.291 4.25
 1.234 -1.293 4.249
 1.261 -1.294 4.246
 1.289 -1.297 4.248
 1.318 -1.299 4.248
 1.345 -1.301 4.247
 1.373 -1.303 4.246
 1.402 -1.305 4.245
 1.428 -1.306 4.239
 1.457 -1.308 4.237
 1.485 -1.31 4.235
 1.513 -1.312 4.234
 1.542 -1.314 4.232
 1.571 -1.317 4.232
 1.6 -1.319 4.229
 1.628 -1.32 4.225
 1.656 -1.322 4.221
 1.686 -1.325 4.22
 1.715 -1.327 4.217
 1.744 -1.329 4.213
 1.774 -1.332 4.211
 1.802 -1.333 4.206
 1.829 -1.333 4.196
 1.858 -1.335 4.19
 1.886 -1.337 4.185
 0 0 0
 0 0 0
 0 0 0
 0 0 0
 0 0 0
 0 0 0
 0 0 0
 0 0 0
 0 0 0
 0 0 0
 0 0 0
 0 0 0
 0 0 0
 1.778 -1.054 3.159
 1.813 -1.062 3.174
 1.828 -1.059 3.153
 1.861 -1.065 3.161
 1.882 -1.065 3.149
 -2.496 -1.397 4.342
 -2.49 -1.41 4.397
 -2.443 -1.4 4.379
 -2.406 -1.396 4.379
 -2.366 -1.389 4.371
 -2.328 -1.384 4.369
 -2.289 -1.378 4.362
 -2.252 -1.373 4.359
 -2.215 -1.367 4.354
 -2.18 -1.364 4.354
 -2.144 -1.359 4.35
 -2.107 -1.353 4.345
 -2.073 -1.35 4.344
 -2.041 -1.347 4.346
 -2.008 -1.344 4.347
 -1.974 -1.34 4.345
 -1.943 -1.338 4.348
 -1.913 -1.336 4.353
 -1.879 -1.331 4.348
 -1.845 -1.327 4.345
 -1.813 -1.323 4.342
 -1.781 -1.321 4.343
 -1.749 -1.318 4.341
 -1.719 -1.315 4.341
 -1.685 -1.31 4.334
 -1.653 -1.306 4.33
 -1.622 -1.303 4.327
 -1.59 -1.299 4.323
 -1.56 -1.297 4.324
 -1.531 -1.295 4.324
 -1.502 -1.293 4.325
 -1.473 -1.291 4.327
 -1.444 -1.289 4.328
 -1.414 -1.286 4.325
 -1.387 -1.286 4.331
 -1.36 -1.285 4.336
 -1.331 -1.284 4.336
 -1.303 -1.282 4.337
 0 0 0
 0 0 0
 0 0 0
 0 0 0
 0 0 0
 0 0 0
 0 0 0
 0 0 0
 0 0 0
 0 0 0
 0 0 0
 0 0 0
 0 0 0
 0 0 0
 0 0 0
 0 0 0
 0 0 0
 0 0 0
 0 0 0
 0 0 0
 0 0 0
 0 0 0
 0 0 0
 -0.66 -1.269 4.4
 -0.633 -1.269 4.404
 -0.604 -1.264 4.386
 -0.579 -1.264 4.389
 0 0 0
 0 0 0
 0 0 0
 0 0 0
 0 0 0
 0 0 0
 0 0 0
 -0.362 -1.235 4.302
 -0.335 -1.232 4.292
 -0.31 -1.232 4.294
 -0.285 -1.231 4.293
 -0.259 -1.232 4.295
 -0.234 -1.23 4.29
 -0.209 -1.23 4.292
 -0.183 -1.23 4.291
 -0.158 -1.23 4.291
 -0.133 -1.229 4.288
 -0.107 -1.23 4.29
 -0.082 -1.228 4.287
 -0.057 -1.227 4.281
 -0.032 -1.226 4.279
 -0.006 -1.226 4.277
 0.018 -1.224 4.271
 0.043 -1.223 4.266
 0 0 0
 0 0 0
 0 0 0
 0 0 0
 0 0 0
 0 0 0
 0 0 0
 0 0 0
 0 0 0
 0 0 0
 0 0 0
 0 0 0
 0 0 0
 0 0 0
 0 0 0
 0 0 0
 0 0 0
 0 0 0
 0 0 0
 0 0 0
 0 0 0
 0 0 0
 0 0 0
 0 0 0
 0 0 0
 0 0 0
 0 0 0
 0 0 0
 0 0 0
 0 0 0
 0 0 0
 0 0 0
 0 0 0
 0 0 0
 0 0 0
 0.971 -1.259 4.289
 0.994 -1.257 4.275
 1.019 -1.256 4.268
 1.046 -1.257 4.266
 1.072 -1.258 4.263
 1.098 -1.258 4.258
 1.125 -1.26 4.259
 1.153 -1.262 4.259
 1.179 -1.263 4.254
 1.205 -1.264 4.251
 1.232 -1.265 4.248
 1.259 -1.266 4.244
 1.286 -1.268 4.243
 1.315 -1.27 4.244
 1.342 -1.272 4.242
 1.37 -1.274 4.242
 1.399 -1.276 4.243
 1.426 -1.278 4.239
 1.455 -1.28 4.239
 1.483 -1.282 4.238
 1.512 -1.284 4.236
 1.539 -1.286 4.232
 1.569 -1.288 4.232
 1.597 -1.29 4.228
 1.625 -1.291 4.224
 1.654 -1.293 4.221
 1.683 -1.296 4.22
 1.712 -1.298 4.216
 1.741 -1.3 4.213
 1.771 -1.303 4.213
 1.8 -1.304 4.207
 1.827 -1.305 4.198
 1.856 -1.307 4.194
 1.887 -1.31 4.193
 0 0 0
 0 0 0
 0 0 0
 0 0 0
 0 0 0
 0 0 0
 0 0 0
 0 0 0
 0 0 0
 0 0 0
 0 0 0
 0 0 0
 0 0 0
 1.776 -1.032 3.162
 1.808 -1.038 3.171
 1.827 -1.037 3.157
 1.887 -1.059 3.212
 1.855 -1.029 3.11
 -2.514 -1.378 4.381
 -2.466 -1.368 4.363
 -2.437 -1.368 4.377
 -2.401 -1.364 4.377
 -2.36 -1.357 4.37
 -2.323 -1.352 4.367
 -2.285 -1.347 4.363
 -2.248 -1.342 4.358
 -2.21 -1.336 4.352
 -2.175 -1.332 4.352
 -2.14 -1.328 4.349
 -2.104 -1.323 4.345
 -2.07 -1.32 4.345
 -2.038 -1.317 4.348
 -2.005 -1.314 4.348
 -1.972 -1.31 4.346
 -1.941 -1.308 4.35
 -1.911 -1.307 4.357
 -1.878 -1.303 4.355
 -1.845 -1.3 4.352
 -1.81 -1.294 4.344
 -1.779 -1.291 4.343
 -1.746 -1.288 4.34
 -1.715 -1.285 4.34
 -1.682 -1.28 4.333
 -1.65 -1.277 4.331
 -1.619 -1.274 4.328
 -1.588 -1.271 4.325
 -1.559 -1.269 4.328
 -1.529 -1.267 4.328
 -1.5 -1.265 4.327
 -1.471 -1.263 4.328
 -1.442 -1.261 4.33
 -1.412 -1.258 4.326
 -1.385 -1.257 4.331
 -1.357 -1.257 4.335
 -1.329 -1.255 4.335
 -1.3 -1.253 4.337
 0 0 0
 0 0 0
 0 0 0
 0 0 0
 0 0 0
 0 0 0
 0 0 0
 0 0 0
 0 0 0
 0 0 0
 0 0 0
 0 0 0
 0 0 0
 0 0 0
 0 0 0
 0 0 0
 0 0 0
 0 0 0
 0 0 0
 0 0 0
 0 0 0
 -0.708 -1.236 4.376
 -0.681 -1.235 4.374
 -0.655 -1.235 4.379
 -0.629 -1.236 4.383
 -0.601 -1.23 4.364
 -0.577 -1.234 4.381
 0 0 0
 0 0 0
 0 0 0
 0 0 0
 0 0 0
 0 0 0
 0 0 0
 -0.361 -1.208 4.303
 -0.335 -1.206 4.297
 -0.31 -1.205 4.296
 -0.284 -1.205 4.296
 -0.259 -1.205 4.296
 -0.233 -1.203 4.291
 -0.208 -1.203 4.29
 -0.183 -1.203 4.29
 -0.157 -1.202 4.289
 -0.132 -1.202 4.287
 -0.107 -1.202 4.288
 -0.082 -1.201 4.284
 -0.056 -1.2 4.28
 -0.031 -1.199 4.278
 -0.006 -1.199 4.276
 0.018 -1.197 4.27
 0.043 -1.197 4.268
 0 0 0
 0 0 0
 0 0 0
 0 0 0
 0 0 0
 0 0 0
 0 0 0
 0 0 0
 0 0 0
 0 0 0
 0 0 0
 0 0 0
 0 0 0
 0 0 0
 0 0 0
 0 0 0
 0 0 0
 0 0 0
 0 0 0
 0 0 0
 0 0 0
 0 0 0
 0 0 0
 0 0 0
 0 0 0
 0 0 0
 0 0 0
 0 0 0
 0 0 0
 0 0 0
 0 0 0
 0 0 0
 0 0 0
 0 0 0
 0 0 0
 0.97 -1.232 4.292
 0.994 -1.23 4.279
 1.019 -1.229 4.27
 1.045 -1.23 4.267
 1.071 -1.23 4.263
 1.096 -1.23 4.257
 1.123 -1.232 4.257
 1.151 -1.234 4.258
 1.177 -1.235 4.254
 1.204 -1.236 4.252
 1.231 -1.238 4.251
 1.258 -1.239 4.246
 1.285 -1.241 4.246
 1.313 -1.243 4.246
 1.341 -1.244 4.244
 1.369 -1.246 4.243
 1.398 -1.249 4.245
 1.425 -1.25 4.241
 1.453 -1.252 4.24
 1.481 -1.254 4.238
 1.51 -1.256 4.237
 1.537 -1.257 4.233
 1.566 -1.26 4.231
 1.594 -1.261 4.227
 1.623 -1.263 4.225
 1.65 -1.264 4.22
 1.679 -1.266 4.217
 1.707 -1.268 4.212
 1.737 -1.27 4.21
 1.766 -1.273 4.208
 1.795 -1.274 4.203
 1.823 -1.276 4.197
 1.852 -1.277 4.192
 1.881 -1.279 4.187
 0 0 0
 0 0 0
 0 0 0
 0 0 0
 0 0 0
 0 0 0
 0 0 0
 0 0 0
 0 0 0
 0 0 0
 0 0 0
 0 0 0
 0 0 0
 1.784 -1.015 3.182
 1.811 -1.018 3.182
 1.83 -1.017 3.167
 1.875 -1.031 3.198
 1.866 -1.014 3.135
 -2.521 -1.352 4.402
 -2.492 -1.353 4.417
 -2.432 -1.336 4.376
 -2.396 -1.332 4.377
 -2.356 -1.326 4.369
 -2.319 -1.321 4.368
 -2.282 -1.317 4.365
 -2.245 -1.312 4.36
 -2.206 -1.306 4.353
 -2.171 -1.302 4.352
 -2.136 -1.298 4.35
 -2.1 -1.293 4.346
 -2.066 -1.289 4.344
 -2.034 -1.287 4.348
 -2.002 -1.284 4.348
 -1.967 -1.28 4.345
 -1.938 -1.279 4.351
 -1.906 -1.276 4.353
 -1.871 -1.271 4.346
 -1.837 -1.267 4.34
 -1.801 -1.261 4.33
 -1.771 -1.259 4.331
 -1.741 -1.257 4.334
 -1.711 -1.255 4.336
 -1.678 -1.251 4.331
 -1.648 -1.249 4.332
 -1.618 -1.246 4.332
 -1.587 -1.243 4.33
 -1.558 -1.242 4.332
 -1.528 -1.239 4.332
 -1.498 -1.236 4.328
 -1.468 -1.234 4.328
 -1.44 -1.233 4.33
 -1.409 -1.229 4.325
 -1.382 -1.228 4.329
 -1.354 -1.228 4.334
 -1.325 -1.226 4.332
 -1.296 -1.223 4.329
 0 0 0
 0 0 0
 0 0 0
 0 0 0
 0 0 0
 0 0 0
 0 0 0
 0 0 0
 0 0 0
 0 0 0
 0 0 0
 0 0 0
 0 0 0
 0 0 0
 0 0 0
 0 0 0
 0 0 0
 0 0 0
 0 0 0
 0 0 0
 -0.734 -1.21 4.38
 -0.705 -1.205 4.365
 -0.679 -1.204 4.365
 -0.653 -1.205 4.369
 -0.628 -1.207 4.38
 -0.6 -1.202 4.364
 -0.575 -1.205 4.376
 -0.549 -1.206 4.382
 0 0 0
 0 0 0
 0 0 0
 0 0 0
 0 0 0
 0 0 0
 -0.36 -1.18 4.3
 -0.334 -1.178 4.294
 -0.309 -1.178 4.294
 -0.284 -1.178 4.295
 -0.258 -1.177 4.294
 -0.233 -1.176 4.291
 -0.208 -1.176 4.29
 -0.182 -1.176 4.289
 -0.157 -1.175 4.288
 -0.132 -1.175 4.287
 -0.107 -1.175 4.289
 -0.082 -1.175 4.288
 -0.056 -1.174 4.284
 -0.031 -1.174 4.282
 -0.006 -1.174 4.282
 0.018 -1.172 4.276
 0.043 -1.17 4.266
 0 0 0
 0 0 0
 0 0 0
 0 0 0
 0 0 0
 0 0 0
 0 0 0
 0 0 0
 0 0 0
 0 0 0
 0 0 0
 0 0 0
 0 0 0
 0 0 0
 0 0 0
 0 0 0
 0 0 0
 0 0 0
 0 0 0
 0 0 0
 0 0 0
 0 0 0
 0 0 0
 0 0 0
 0 0 0
 0 0 0
 0 0 0
 0 0 0
 0 0 0
 0 0 0
 0 0 0
 0 0 0
 0 0 0
 0 0 0
 0 0 0
 0 0 0
 0.992 -1.202 4.278
 1.017 -1.202 4.271
 1.044 -1.203 4.269
 1.07 -1.203 4.265
 1.095 -1.203 4.258
 1.122 -1.205 4.259
 1.15 -1.207 4.259
 1.176 -1.207 4.254
 1.203 -1.209 4.253
 1.23 -1.211 4.252
 1.256 -1.211 4.247
 1.283 -1.213 4.245
 1.312 -1.215 4.246
 1.339 -1.216 4.245
 1.366 -1.218 4.242
 1.395 -1.221 4.244
 1.423 -1.222 4.242
 1.451 -1.224 4.241
 1.479 -1.226 4.239
 1.508 -1.229 4.239
 1.535 -1.229 4.234
 1.564 -1.232 4.233
 1.592 -1.233 4.229
 1.62 -1.235 4.225
 1.648 -1.236 4.22
 1.677 -1.238 4.218
 1.706 -1.24 4.215
 1.735 -1.242 4.212
 1.765 -1.245 4.211
 1.793 -1.246 4.206
 1.821 -1.248 4.199
 1.849 -1.248 4.191
 1.876 -1.249 4.183
 0 0 0
 0 0 0
 0 0 0
 0 0 0
 0 0 0
 0 0 0
 0 0 0
 0 0 0
 0 0 0
 0 0 0
 0 0 0
 0 0 0
 0 0 0
 1.784 -0.994 3.188
 1.811 -0.997 3.186
 1.828 -0.995 3.169
 1.832 -0.986 3.129
 1.878 -0.999 3.16
 -2.505 -1.315 4.382
 -2.469 -1.311 4.384
 -2.428 -1.305 4.377
 -2.39 -1.3 4.373
 -2.351 -1.294 4.368
 -2.315 -1.29 4.367
 -2.278 -1.286 4.366
 -2.241 -1.281 4.361
 -2.203 -1.276 4.355
 -2.167 -1.271 4.35
 -2.132 -1.267 4.349
 -2.097 -1.263 4.346
 -2.062 -1.259 4.344
 -2.031 -1.257 4.348
 -1.999 -1.254 4.35
 -1.964 -1.25 4.346
 -1.933 -1.248 4.347
 -1.899 -1.244 4.344
 -1.862 -1.238 4.333
 -1.827 -1.232 4.323
 -1.791 -1.226 4.312
 -1.763 -1.226 4.32
 -1.736 -1.226 4.329
 -1.707 -1.225 4.335
 -1.676 -1.222 4.333
 -1.646 -1.22 4.334
 -1.616 -1.218 4.335
 -1.586 -1.216 4.333
 -1.556 -1.213 4.333
 -1.526 -1.211 4.332
 -1.496 -1.208 4.33
 -1.467 -1.206 4.33
 -1.438 -1.205 4.332
 -1.407 -1.201 4.326
 -1.38 -1.2 4.33
 -1.352 -1.199 4.333
 -1.323 -1.197 4.331
 -1.292 -1.193 4.322
 0 0 0
 0 0 0
 0 0 0
 0 0 0
 0 0 0
 0 0 0
 0 0 0
 0 0 0
 0 0 0
 0 0 0
 0 0 0
 0 0 0
 0 0 0
 0 0 0
 0 0 0
 0 0 0
 0 0 0
 0 0 0
 0 0 0
 0 0 0
 -0.734 -1.184 4.386
 -0.706 -1.181 4.376
 -0.678 -1.178 4.367
 -0.653 -1.18 4.378
 -0.628 -1.181 4.384
 -0.598 -1.174 4.361
 -0.573 -1.176 4.37
 -0.549 -1.179 4.386
 -0.521 -1.173 4.366
 -0.495 -1.175 4.373
 -0.469 -1.174 4.371
 -0.443 -1.173 4.368
 0 0 0
 0 0 0
 -0.359 -1.151 4.291
 -0.333 -1.149 4.285
 -0.308 -1.149 4.287
 -0.283 -1.15 4.291
 -0.258 -1.15 4.29
 -0.232 -1.149 4.288
 -0.207 -1.149 4.289
 -0.182 -1.149 4.288
 -0.157 -1.148 4.285
 -0.132 -1.148 4.286
 -0.106 -1.148 4.287
 -0.081 -1.148 4.287
 -0.056 -1.147 4.284
 -0.031 -1.147 4.284
 -0.006 -1.147 4.283
 0.018 -1.147 4.28
 0.043 -1.145 4.273
 0 0 0
 0 0 0
 0 0 0
 0 0 0
 0 0 0
 0 0 0
 0 0 0
 0 0 0
 0 0 0
 0 0 0
 0 0 0
 0 0 0
 0 0 0
 0 0 0
 0 0 0
 0 0 0
 0 0 0
 0 0 0
 0 0 0
 0 0 0
 0 0 0
 0 0 0
 0 0 0
 0 0 0
 0 0 0
 0 0 0
 0 0 0
 0 0 0
 0 0 0
 0 0 0
 0 0 0
 0 0 0
 0 0 0
 0 0 0
 0 0 0
 0 0 0
 0.992 -1.176 4.281
 1.017 -1.176 4.274
 1.043 -1.176 4.272
 1.069 -1.177 4.267
 1.094 -1.176 4.259
 1.121 -1.178 4.26
 1.149 -1.18 4.26
 1.174 -1.18 4.255
 1.201 -1.181 4.253
 1.228 -1.183 4.252
 1.254 -1.183 4.246
 1.281 -1.185 4.244
 1.31 -1.187 4.247
 1.338 -1.189 4.246
 1.365 -1.19 4.242
 1.394 -1.193 4.244
 1.421 -1.194 4.242
 1.449 -1.196 4.24
 1.478 -1.199 4.24
 1.508 -1.202 4.243
 1.535 -1.203 4.239
 1.564 -1.205 4.238
 1.591 -1.206 4.233
 1.619 -1.207 4.227
 1.646 -1.208 4.221
 1.675 -1.21 4.219
 1.703 -1.211 4.214
 1.732 -1.214 4.212
 1.762 -1.216 4.211
 1.791 -1.218 4.206
 1.819 -1.219 4.201
 1.847 -1.22 4.194
 1.875 -1.221 4.186
 0 0 0
 0 0 0
 0 0 0
 0 0 0
 0 0 0
 0 0 0
 0 0 0
 0 0 0
 0 0 0
 0 0 0
 0 0 0
 0 0 0
 0 0 0
 0 0 0
 1.808 -0.974 3.187
 1.826 -0.973 3.172
 1.841 -0.969 3.15
 1.859 -0.968 3.134
 -2.497 -1.282 4.377
 -2.461 -1.278 4.379
 -2.425 -1.275 4.38
 -2.387 -1.27 4.376
 -2.348 -1.264 4.371
 -2.312 -1.26 4.369
 -2.274 -1.255 4.364
 -2.236 -1.25 4.359
 -2.198 -1.245 4.352
 -2.162 -1.24 4.348
 -2.127 -1.236 4.347
 -2.094 -1.234 4.348
 -2.06 -1.23 4.347
 -2.029 -1.228 4.35
 -1.996 -1.225 4.352
