 0.693 -1.623 3.945
 0.719 -1.628 3.953
 0.744 -1.629 3.952
 0.771 -1.635 3.96
 0.788 -1.62 3.921
 0.814 -1.622 3.921
 0.842 -1.632 3.939
 0.853 -1.607 3.874
 0.89 -1.629 3.923
 0.906 -1.615 3.884
 0.944 -1.64 3.939
 0.965 -1.634 3.919
 0.986 -1.628 3.899
 1.011 -1.629 3.895
 1.027 -1.616 3.859
 1.069 -1.644 3.921
 1.087 -1.635 3.891
 1.107 -1.629 3.871
 1.155 -1.663 3.945
 1.159 -1.633 3.869
 1.196 -1.651 3.903
 1.212 -1.639 3.868
 1.236 -1.639 3.862
 1.249 -1.624 3.817
 1.283 -1.637 3.842
 1.33 -1.665 3.9
 1.331 -1.636 3.824
 1.353 -1.633 3.808
 1.394 -1.654 3.849
 1.392 -1.623 3.769
 1.423 -1.63 3.778
 1.453 -1.637 3.786
 1.479 -1.638 3.78
 1.509 -1.644 3.785
 1.544 -1.656 3.803
 1.541 -1.627 3.727
 1.557 -1.618 3.698
 1.61 -1.648 3.757
 1.629 -1.643 3.734
 1.637 -1.627 3.688
 1.679 -1.645 3.719
 1.7 -1.641 3.7
 1.717 -1.635 3.676
 1.749 -1.642 3.681
 1.801 -1.667 3.727
 1.774 -1.62 3.611
 1.784 -1.608 3.573
 1.819 -1.617 3.584
 1.774 -1.557 3.44
 1.827 -1.583 3.486
 1.801 -1.54 3.38
 1.811 -1.53 3.346
 1.817 -1.516 3.304
 1.802 -1.485 3.226
 1.788 -1.456 3.152
 1.797 -1.446 3.119
 1.747 -1.39 2.987
 1.762 -1.385 2.966
 1.762 -1.37 2.921
 1.738 -1.336 2.838
 1.741 -1.323 2.8
 -2.134 -1.615 3.563
 -2.128 -1.63 3.608
 -2.114 -1.638 3.639
 -2.082 -1.633 3.639
 -2.054 -1.63 3.646
 -2.022 -1.625 3.645
 -2.023 -1.646 3.704
 -1.985 -1.636 3.693
 -1.945 -1.623 3.675
 -1.932 -1.634 3.711
 -1.918 -1.643 3.743
 -1.878 -1.63 3.725
 -1.862 -1.638 3.754
 -1.813 -1.616 3.714
 -1.803 -1.63 3.756
 -1.777 -1.629 3.763
 -1.744 -1.622 3.757
 -1.737 -1.639 3.806
 -1.69 -1.618 3.766
 -1.664 -1.617 3.775
 -1.646 -1.623 3.798
 -1.612 -1.614 3.786
 -1.579 -1.606 3.776
 -1.573 -1.625 3.829
 -1.535 -1.612 3.805
 -1.513 -1.615 3.821
 -1.504 -1.632 3.87
 -1.459 -1.61 3.826
 -1.441 -1.617 3.851
 -1.432 -1.635 3.902
 -1.394 -1.621 3.875
 -1.352 -1.6 3.833
 -1.344 -1.62 3.888
 -1.325 -1.627 3.913
 -1.315 -1.646 3.966
 -1.25 -1.596 3.85
 -1.245 -1.62 3.917
 -1.227 -1.629 3.945
 -1.196 -1.621 3.932
 -1.176 -1.628 3.954
 -1.145 -1.619 3.939
 -1.132 -1.637 3.989
 -1.081 -1.599 3.9
 -1.073 -1.622 3.964
 -1.032 -1.598 3.909
 -1.013 -1.606 3.936
 -0.992 -1.613 3.956
 -0.958 -1.597 3.921
 -0.942 -1.612 3.964
 -0.917 -1.611 3.966
 -0.901 -1.626 4.008
 -0.866 -1.607 3.965
 -0.841 -1.607 3.969
 -0.814 -1.602 3.961
 -0.801 -1.624 4.021
 -0.771 -1.614 3.999
 -0.743 -1.607 3.985
 -0.718 -1.606 3.986
 -0.699 -1.619 4.022
 -0.678 -1.628 4.049
 -0.646 -1.609 4.004
 -0.625 -1.62 4.034
 -0.602 -1.624 4.048
 -0.573 -1.612 4.021
 -0.548 -1.609 4.015
 -0.519 -1.596 3.985
 -0.501 -1.617 4.039
 -0.474 -1.61 4.025
 -0.452 -1.618 4.047
 -0.428 -1.62 4.053
 -0.406 -1.63 4.08
 -0.378 -1.616 4.048
 -0.352 -1.613 4.04
 -0.327 -1.609 4.033
 -0.302 -1.605 4.023
 -0.276 -1.6 4.013
 -0.257 -1.634 4.098
 -0.231 -1.623 4.073
 -0.205 -1.613 4.048
 -0.179 -1.602 4.022
 -0.157 -1.624 4.078
 -0.132 -1.623 4.074
 -0.108 -1.636 4.108
 -0.082 -1.609 4.04
 -0.058 -1.629 4.091
 -0.033 -1.62 4.068
 -0.009 -1.612 4.048
 0.015 -1.623 4.075
 0.039 -1.619 4.065
 0.065 -1.649 4.138
 0.089 -1.634 4.102
 0.113 -1.613 4.046
 0.137 -1.615 4.051
 0.162 -1.613 4.044
 0.187 -1.616 4.053
 0.212 -1.62 4.06
 0.238 -1.63 4.084
 0.26 -1.618 4.051
 0.28 -1.589 3.978
 0.313 -1.634 4.088
 0.337 -1.631 4.078
 0.362 -1.633 4.082
 0.376 -1.589 3.969
 0.404 -1.605 4.007
 0.433 -1.622 4.047
 0.458 -1.622 4.044
 0.484 -1.629 4.058
 0.507 -1.622 4.04
 0.536 -1.635 4.069
 0.551 -1.608 3.998
 0.577 -1.613 4.006
 0.613 -1.642 4.076
 0.623 -1.605 3.979
 0.665 -1.649 4.087
 0.672 -1.605 3.974
 0.709 -1.635 4.042
 0.731 -1.629 4.026
 0.75 -1.616 3.988
 0.78 -1.628 4.012
 0.808 -1.635 4.027
 0.823 -1.617 3.976
 0.853 -1.627 3.997
 0.883 -1.638 4.018
 0.907 -1.635 4.007
 0.922 -1.618 3.96
 0.957 -1.637 4
 0.985 -1.642 4.008
 1.008 -1.64 3.996
 1.022 -1.622 3.948
 1.053 -1.632 3.965
 1.07 -1.621 3.932
 1.102 -1.632 3.954
 1.128 -1.634 3.951
 1.138 -1.614 3.895
 1.186 -1.646 3.966
 1.209 -1.644 3.955
 1.227 -1.634 3.925
 1.26 -1.645 3.944
 1.286 -1.647 3.942
 1.31 -1.646 3.932
 1.322 -1.63 3.886
 1.378 -1.669 3.97
 1.388 -1.651 3.918
 1.39 -1.624 3.847
 1.437 -1.649 3.898
 1.458 -1.645 3.88
 1.49 -1.653 3.891
 1.511 -1.649 3.871
 1.524 -1.636 3.834
 1.567 -1.656 3.87
 1.584 -1.648 3.841
 1.6 -1.639 3.811
 1.621 -1.635 3.793
 1.671 -1.66 3.841
 1.684 -1.648 3.804
 1.697 -1.637 3.768
 1.719 -1.634 3.751
 1.75 -1.641 3.756
 1.762 -1.629 3.718
 1.814 -1.654 3.765
 1.8 -1.619 3.675
 1.824 -1.619 3.662
 1.794 -1.571 3.543
 1.798 -1.554 3.494
 1.834 -1.565 3.508
 1.768 -1.49 3.328
 1.807 -1.504 3.348
 1.797 -1.477 3.277
 1.756 -1.426 3.153
 1.773 -1.423 3.134
 1.771 -1.404 3.082
 1.797 -1.408 3.08
 1.745 -1.352 2.946
 1.767 -1.353 2.937
 1.771 -1.34 2.899
 1.76 -1.317 2.838
 -2.182 -1.626 3.654
 -2.152 -1.622 3.658
 -2.126 -1.622 3.669
 -2.105 -1.625 3.689
 -2.081 -1.627 3.705
 -2.057 -1.628 3.719
 -2.035 -1.631 3.737
 -2.009 -1.63 3.748
 -1.979 -1.627 3.751
 -1.955 -1.628 3.765
 -1.928 -1.627 3.773
 -1.9 -1.624 3.778
 -1.877 -1.626 3.794
 -1.853 -1.627 3.807
 -1.826 -1.626 3.814
 -1.802 -1.627 3.827
 -1.776 -1.626 3.836
 -1.748 -1.624 3.84
 -1.722 -1.624 3.849
 -1.697 -1.624 3.859
 -1.669 -1.621 3.862
 -1.643 -1.621 3.87
 -1.619 -1.622 3.881
 -1.593 -1.621 3.889
 -1.567 -1.62 3.895
 -1.542 -1.621 3.906
 -1.517 -1.621 3.915
 -1.492 -1.621 3.923
 -1.467 -1.622 3.932
 -1.441 -1.621 3.937
 -1.416 -1.62 3.944
 -1.391 -1.622 3.955
 -1.365 -1.62 3.959
 -1.339 -1.619 3.963
 -1.313 -1.619 3.97
 -1.288 -1.619 3.976
 -1.263 -1.619 3.983
 -1.237 -1.618 3.988
 -1.213 -1.619 3.997
 -1.189 -1.621 4.007
 -1.163 -1.619 4.01
 -1.135 -1.616 4.007
 -1.109 -1.615 4.01
 -1.083 -1.614 4.013
 -1.057 -1.611 4.013
 -1.031 -1.61 4.014
 -1.007 -1.612 4.025
 -0.982 -1.612 4.029
 -0.958 -1.614 4.039
 -0.933 -1.613 4.043
 -0.908 -1.614 4.05
 -0.881 -1.611 4.047
 -0.856 -1.61 4.048
 -0.83 -1.609 4.048
 -0.805 -1.608 4.052
 -0.781 -1.609 4.058
 -0.756 -1.61 4.065
 -0.732 -1.612 4.073
 -0.706 -1.61 4.071
 -0.681 -1.61 4.074
 -0.656 -1.609 4.075
 -0.632 -1.611 4.083
 -0.606 -1.61 4.083
 -0.582 -1.612 4.09
 -0.557 -1.611 4.092
 -0.532 -1.611 4.095
 -0.506 -1.608 4.088
 -0.481 -1.608 4.09
 -0.456 -1.609 4.094
 -0.431 -1.609 4.096
 -0.406 -1.608 4.097
 -0.382 -1.611 4.105
 -0.357 -1.612 4.109
 -0.332 -1.612 4.112
 -0.308 -1.614 4.117
 -0.283 -1.615 4.122
 -0.258 -1.615 4.122
 -0.233 -1.614 4.12
 -0.208 -1.614 4.122
 -0.183 -1.616 4.127
 -0.158 -1.615 4.124
 -0.133 -1.616 4.127
 -0.109 -1.617 4.131
 -0.084 -1.616 4.128
 -0.058 -1.613 4.121
 -0.034 -1.613 4.122
 -0.009 -1.613 4.122
 0.015 -1.616 4.129
 0.04 -1.616 4.129
 0.065 -1.617 4.131
 0.09 -1.618 4.131
 0.115 -1.615 4.124
 0.139 -1.611 4.112
 0.164 -1.611 4.111
 0.189 -1.611 4.11
 0.214 -1.61 4.106
 0.238 -1.608 4.1
 0.264 -1.611 4.105
 0.289 -1.612 4.107
 0.313 -1.612 4.105
 0.338 -1.612 4.103
 0.364 -1.614 4.107
 0.388 -1.613 4.101
 0.412 -1.611 4.094
 0.437 -1.61 4.088
 0.462 -1.612 4.09
 0.487 -1.614 4.092
 0.512 -1.612 4.084
 0.537 -1.612 4.082
 0.562 -1.614 4.084
 0.587 -1.614 4.081
 0.613 -1.616 4.083
 0.639 -1.62 4.089
 0.665 -1.623 4.094
 0.691 -1.625 4.095
 0.716 -1.625 4.089
 0.741 -1.625 4.085
 0.766 -1.625 4.08
 0.79 -1.623 4.072
 0.814 -1.623 4.067
 0.84 -1.624 4.064
 0.864 -1.623 4.058
 0.889 -1.623 4.052
 0.915 -1.624 4.051
 0.939 -1.624 4.044
 0.965 -1.625 4.042
 0.99 -1.625 4.036
 1.016 -1.627 4.036
 1.041 -1.627 4.029
 1.067 -1.628 4.026
 1.092 -1.628 4.02
 1.118 -1.63 4.018
 1.143 -1.63 4.013
 1.17 -1.633 4.013
 1.196 -1.634 4.009
 1.223 -1.637 4.01
 1.248 -1.637 4.001
 1.273 -1.637 3.995
 1.298 -1.637 3.987
 1.325 -1.639 3.983
 1.35 -1.639 3.976
 1.376 -1.641 3.973
 1.4 -1.639 3.961
 1.425 -1.638 3.951
 1.449 -1.638 3.941
 1.476 -1.639 3.936
 1.501 -1.639 3.928
 1.527 -1.641 3.922
 1.553 -1.642 3.915
 1.576 -1.639 3.9
 1.599 -1.637 3.886
 1.624 -1.638 3.877
 1.648 -1.637 3.865
 1.674 -1.637 3.857
 1.701 -1.639 3.85
 1.724 -1.637 3.836
 1.746 -1.634 3.819
 1.773 -1.636 3.812
 1.787 -1.627 3.781
 1.802 -1.618 3.748
 1.811 -1.604 3.705
 1.814 -1.585 3.651
 1.812 -1.563 3.589
 1.814 -1.544 3.534
 1.815 -1.525 3.48
 1.818 -1.509 3.431
 1.814 -1.486 3.369
 1.79 -1.449 3.273
 1.78 -1.424 3.205
 1.773 -1.401 3.142
 1.772 -1.383 3.092
 1.773 -1.368 3.046
 1.769 -1.349 2.994
 1.763 -1.329 2.939
 1.776 -1.324 2.916
 1.735 -1.279 2.805
 -2.216 -1.626 3.721
 -2.146 -1.593 3.658
 -2.16 -1.623 3.739
 -2.137 -1.625 3.756
 -2.115 -1.627 3.774
 -2.089 -1.627 3.787
 -2.065 -1.629 3.802
 -2.039 -1.629 3.814
 -2.01 -1.626 3.819
 -1.983 -1.625 3.829
 -1.956 -1.624 3.837
 -1.926 -1.621 3.84
 -1.902 -1.622 3.854
 -1.878 -1.623 3.868
 -1.853 -1.624 3.88
 -1.829 -1.626 3.895
 -1.804 -1.626 3.906
 -1.776 -1.625 3.912
 -1.749 -1.624 3.919
 -1.722 -1.622 3.926
 -1.693 -1.619 3.927
 -1.666 -1.618 3.935
 -1.64 -1.617 3.941
 -1.614 -1.617 3.949
 -1.587 -1.616 3.955
 -1.563 -1.618 3.969
 -1.537 -1.617 3.976
 -1.512 -1.618 3.986
 -1.487 -1.618 3.994
 -1.46 -1.617 4
 -1.434 -1.617 4.007
 -1.409 -1.617 4.016
 -1.384 -1.617 4.023
 -1.356 -1.615 4.025
 -1.33 -1.614 4.029
 -1.304 -1.613 4.034
 -1.278 -1.613 4.041
 -1.252 -1.612 4.045
 -1.227 -1.613 4.053
 -1.205 -1.617 4.07
 -1.179 -1.616 4.075
 -1.151 -1.613 4.073
 -1.125 -1.612 4.076
 -1.099 -1.611 4.08
 -1.071 -1.608 4.078
 -1.045 -1.607 4.079
 -1.021 -1.609 4.089
 -0.995 -1.609 4.094
 -0.971 -1.61 4.102
 -0.945 -1.609 4.105
 -0.92 -1.61 4.112
 -0.894 -1.609 4.113
 -0.868 -1.608 4.115
 -0.842 -1.606 4.114
 -0.816 -1.606 4.118
 -0.791 -1.606 4.122
 -0.766 -1.606 4.125
 -0.741 -1.608 4.134
 -0.715 -1.606 4.134
 -0.69 -1.607 4.138
 -0.665 -1.606 4.14
 -0.64 -1.607 4.146
 -0.614 -1.606 4.146
 -0.59 -1.608 4.154
 -0.564 -1.607 4.155
 -0.539 -1.609 4.161
 -0.513 -1.606 4.157
 -0.488 -1.607 4.16
 -0.462 -1.606 4.16
 -0.437 -1.605 4.159
 -0.411 -1.603 4.158
 -0.387 -1.606 4.165
 -0.361 -1.606 4.167
 -0.337 -1.607 4.172
 -0.311 -1.608 4.176
 -0.286 -1.609 4.178
 -0.261 -1.607 4.176
 -0.235 -1.606 4.174
 -0.21 -1.606 4.174
 -0.185 -1.607 4.178
 -0.16 -1.607 4.177
 -0.135 -1.608 4.181
 -0.11 -1.609 4.184
 -0.084 -1.607 4.18
 -0.059 -1.606 4.176
 -0.034 -1.606 4.176
 -0.009 -1.605 4.173
 0.016 -1.608 4.181
 0.041 -1.608 4.181
 0.066 -1.61 4.184
 0.091 -1.609 4.183
 0.116 -1.608 4.179
 0.141 -1.604 4.167
 0.166 -1.604 4.165
 0.191 -1.604 4.164
 0.216 -1.602 4.159
 0.241 -1.6 4.152
 0.266 -1.603 4.157
 0.292 -1.604 4.157
 0.317 -1.604 4.157
 0.342 -1.605 4.157
 0.368 -1.607 4.161
 0.393 -1.606 4.156
 0.417 -1.605 4.15
 0.442 -1.605 4.147
 0.468 -1.606 4.147
 0.493 -1.607 4.148
 0.518 -1.606 4.143
 0.544 -1.607 4.142
 0.569 -1.608 4.142
 0.595 -1.609 4.141
 0.621 -1.612 4.145
 0.647 -1.614 4.146
 0.673 -1.617 4.15
 0.699 -1.618 4.149
 0.724 -1.617 4.143
 0.749 -1.617 4.138
 0.775 -1.618 4.137
 0.799 -1.617 4.13
 0.825 -1.617 4.125
 0.851 -1.619 4.125
 0.876 -1.619 4.12
 0.901 -1.619 4.116
 0.927 -1.62 4.113
 0.952 -1.62 4.106
 0.978 -1.62 4.102
 1.003 -1.621 4.098
 1.029 -1.622 4.097
 1.055 -1.622 4.09
 1.081 -1.624 4.089
 1.107 -1.625 4.085
 1.133 -1.626 4.081
 1.159 -1.626 4.075
 1.186 -1.629 4.075
 1.212 -1.63 4.071
 1.239 -1.632 4.068
 1.265 -1.633 4.063
 1.29 -1.633 4.057
 1.315 -1.633 4.048
 1.342 -1.635 4.046
 1.369 -1.636 4.04
 1.395 -1.637 4.035
 1.42 -1.636 4.025
 1.446 -1.637 4.019
 1.471 -1.636 4.008
 1.496 -1.637 4.001
 1.522 -1.637 3.992
 1.548 -1.637 3.984
 1.573 -1.637 3.975
 1.597 -1.636 3.962
 1.622 -1.635 3.951
 1.647 -1.635 3.941
 1.673 -1.635 3.932
 1.699 -1.636 3.924
 1.724 -1.635 3.912
 1.746 -1.633 3.896
 1.767 -1.629 3.875
 1.791 -1.627 3.861
 1.803 -1.616 3.823
 1.815 -1.605 3.785
 1.821 -1.588 3.736
 1.826 -1.571 3.684
 1.823 -1.548 3.618
 1.823 -1.528 3.561
 1.822 -1.508 3.502
 1.823 -1.489 3.448
 1.814 -1.464 3.379
 1.78 -1.419 3.263
 1.769 -1.393 3.193
 1.767 -1.374 3.139
 1.77 -1.36 3.096
 1.774 -1.347 3.055
 1.772 -1.33 3.007
 1.767 -1.311 2.953
 1.755 -1.288 2.889
 1.758 -1.275 2.85
 -2.22 -1.603 3.737
 -2.209 -1.614 3.776
 -2.191 -1.62 3.803
 -2.168 -1.622 3.82
 -2.144 -1.624 3.837
 -2.117 -1.623 3.848
 -2.093 -1.625 3.864
 -2.068 -1.626 3.878
 -2.037 -1.622 3.882
 -2.01 -1.622 3.892
 -1.983 -1.621 3.901
 -1.954 -1.618 3.905
 -1.929 -1.619 3.918
 -1.904 -1.62 3.932
 -1.879 -1.621 3.946
 -1.855 -1.623 3.961
 -1.829 -1.624 3.972
 -1.802 -1.622 3.979
 -1.775 -1.622 3.988
 -1.748 -1.621 3.995
 -1.718 -1.617 3.995
 -1.691 -1.617 4.004
 -1.664 -1.615 4.009
 -1.637 -1.614 4.016
 -1.609 -1.613 4.021
 -1.586 -1.615 4.036
 -1.559 -1.614 4.042
 -1.532 -1.614 4.049
 -1.506 -1.613 4.056
 -1.48 -1.613 4.065
 -1.453 -1.612 4.068
 -1.427 -1.612 4.077
 -1.401 -1.612 4.084
 -1.375 -1.611 4.089
 -1.347 -1.609 4.09
 -1.32 -1.607 4.094
 -1.294 -1.608 4.101
 -1.268 -1.608 4.108
 -1.242 -1.607 4.114
 -1.219 -1.611 4.13
 -1.194 -1.612 4.139
 -1.167 -1.609 4.138
 -1.14 -1.609 4.143
 -1.115 -1.609 4.149
 -1.087 -1.607 4.149
 -1.06 -1.604 4.147
 -1.036 -1.607 4.159
 -1.01 -1.606 4.162
 -0.984 -1.606 4.168
 -0.958 -1.605 4.17
 -0.932 -1.606 4.176
 -0.905 -1.604 4.175
 -0.878 -1.602 4.174
 -0.852 -1.601 4.175
 -0.827 -1.601 4.18
 -0.801 -1.602 4.186
 -0.775 -1.601 4.188
 -0.751 -1.603 4.196
 -0.724 -1.601 4.196
 -0.698 -1.599 4.194
 -0.671 -1.597 4.192
 -0.646 -1.598 4.198
 -0.62 -1.598 4.199
 -0.596 -1.6 4.208
 -0.57 -1.599 4.209
 -0.545 -1.601 4.217
 -0.519 -1.598 4.211
 -0.493 -1.598 4.214
 -0.467 -1.596 4.21
 -0.441 -1.595 4.209
 -0.415 -1.594 4.207
 -0.39 -1.596 4.214
 -0.365 -1.596 4.216
 -0.34 -1.598 4.224
 -0.314 -1.599 4.227
 -0.289 -1.599 4.228
 -0.263 -1.597 4.225
 -0.238 -1.596 4.223
 -0.212 -1.595 4.221
 -0.187 -1.596 4.225
 -0.161 -1.595 4.221
 -0.136 -1.596 4.224
 -0.11 -1.595 4.223
 -0.085 -1.593 4.218
 -0.059 -1.592 4.215
 -0.034 -1.593 4.218
 -0.009 -1.592 4.214
 0.016 -1.595 4.222
 0.041 -1.594 4.22
 0.067 -1.595 4.222
 0.092 -1.596 4.222
 0.117 -1.595 4.219
 0.143 -1.592 4.21
 0.168 -1.592 4.209
 0.193 -1.591 4.206
 0.218 -1.589 4.199
 0.243 -1.588 4.195
 0.269 -1.59 4.197
 0.294 -1.591 4.198
 0.32 -1.591 4.198
 0.345 -1.594 4.203
 0.371 -1.595 4.204
 0.396 -1.595 4.201
 0.422 -1.594 4.197
 0.447 -1.595 4.195
 0.472 -1.595 4.193
 0.498 -1.596 4.193
 0.523 -1.596 4.191
 0.549 -1.597 4.19
 0.575 -1.598 4.189
 0.601 -1.599 4.19
 0.627 -1.601 4.191
 0.653 -1.603 4.193
 0.679 -1.605 4.195
 0.705 -1.607 4.195
 0.73 -1.606 4.189
 0.756 -1.607 4.186
 0.782 -1.607 4.183
 0.807 -1.607 4.178
 0.833 -1.607 4.174
 0.859 -1.608 4.171
 0.884 -1.608 4.166
 0.911 -1.61 4.166
 0.936 -1.61 4.161
 0.961 -1.609 4.153
 0.987 -1.61 4.149
 1.013 -1.611 4.147
 1.039 -1.612 4.143
 1.065 -1.613 4.139
 1.093 -1.615 4.14
 1.12 -1.617 4.139
 1.146 -1.619 4.137
 1.172 -1.62 4.132
 1.2 -1.622 4.131
 1.226 -1.624 4.128
 1.253 -1.625 4.126
 1.279 -1.625 4.118
 1.305 -1.625 4.111
 1.331 -1.626 4.104
 1.357 -1.626 4.098
 1.383 -1.627 4.092
 1.411 -1.63 4.091
 1.437 -1.629 4.082
 1.463 -1.63 4.074
 1.489 -1.63 4.067
 1.515 -1.631 4.06
 1.541 -1.631 4.05
 1.567 -1.631 4.042
 1.593 -1.632 4.035
 1.617 -1.63 4.021
 1.644 -1.631 4.013
 1.667 -1.629 3.999
 1.693 -1.629 3.989
 1.719 -1.629 3.979
 1.743 -1.628 3.966
 1.763 -1.623 3.943
 1.784 -1.618 3.92
 1.804 -1.613 3.898
 1.814 -1.6 3.854
 1.824 -1.587 3.812
 1.832 -1.572 3.766
 1.837 -1.556 3.716
 1.835 -1.534 3.652
 1.839 -1.517 3.6
 1.839 -1.498 3.544
 1.834 -1.475 3.478
 1.829 -1.452 3.414
 1.78 -1.396 3.27
 1.763 -1.366 3.19
 1.762 -1.349 3.139
 1.77 -1.339 3.104
 1.774 -1.327 3.065
 1.774 -1.311 3.017
 1.768 -1.291 2.961
 1.767 -1.276 2.915
 1.768 -1.262 2.873
 -2.294 -1.629 3.872
 -2.247 -1.615 3.852
 -2.223 -1.617 3.869
 -2.198 -1.618 3.883
 -2.175 -1.621 3.903
 -2.146 -1.619 3.912
 -2.12 -1.62 3.925
 -2.096 -1.621 3.94
 -2.067 -1.619 3.948
 -2.038 -1.617 3.955
 -2.011 -1.618 3.967
 -1.983 -1.616 3.975
 -1.957 -1.616 3.986
 -1.931 -1.617 3.999
 -1.907 -1.619 4.014
 -1.881 -1.619 4.025
 -1.854 -1.619 4.035
 -1.827 -1.619 4.045
 -1.8 -1.618 4.054
 -1.771 -1.616 4.058
 -1.742 -1.614 4.062
 -1.716 -1.614 4.073
 -1.688 -1.613 4.078
 -1.662 -1.613 4.088
 -1.635 -1.612 4.095
 -1.611 -1.615 4.11
 -1.582 -1.612 4.112
 -1.554 -1.61 4.115
 -1.527 -1.609 4.121
 -1.5 -1.609 4.129
 -1.472 -1.606 4.13
 -1.446 -1.607 4.139
 -1.42 -1.608 4.149
 -1.393 -1.606 4.152
 -1.364 -1.604 4.154
 -1.338 -1.604 4.16
 -1.313 -1.604 4.169
 -1.286 -1.604 4.174
 -1.26 -1.604 4.181
 -1.236 -1.607 4.197
 -1.21 -1.607 4.203
 -1.182 -1.604 4.201
 -1.155 -1.604 4.207
 -1.129 -1.604 4.211
 -1.101 -1.601 4.209
 -1.073 -1.599 4.21
 -1.048 -1.601 4.219
 -1.021 -1.599 4.219
 -0.994 -1.597 4.221
 -0.968 -1.596 4.223
 -0.942 -1.596 4.228
 -0.914 -1.594 4.227
 -0.888 -1.594 4.229
 -0.862 -1.593 4.232
 -0.836 -1.593 4.236
 -0.81 -1.593 4.24
 -0.783 -1.591 4.238
 -0.757 -1.591 4.243
 -0.731 -1.59 4.243
 -0.704 -1.588 4.242
 -0.678 -1.587 4.24
 -0.652 -1.588 4.246
 -0.626 -1.587 4.248
 -0.601 -1.588 4.253
 -0.575 -1.587 4.254
 -0.549 -1.589 4.26
 -0.523 -1.587 4.257
 -0.497 -1.585 4.255
 -0.471 -1.584 4.253
 -0.444 -1.582 4.251
 -0.418 -1.58 4.247
 -0.393 -1.582 4.253
 -0.367 -1.58 4.251
 -0.342 -1.582 4.257
 -0.316 -1.582 4.259
 -0.29 -1.581 4.258
 -0.264 -1.579 4.253
 -0.239 -1.579 4.254
 -0.213 -1.578 4.252
 -0.187 -1.579 4.254
 -0.162 -1.577 4.251
 -0.136 -1.578 4.254
 -0.111 -1.577 4.252
 -0.085 -1.576 4.248
 -0.059 -1.576 4.249
 -0.034 -1.578 4.253
 -0.008 -1.576 4.248
 0.016 -1.578 4.254
 0.042 -1.578 4.251
 0.067 -1.577 4.25
 0.093 -1.578 4.25
 0.118 -1.578 4.25
 0.144 -1.576 4.243
 0.169 -1.576 4.243
 0.195 -1.576 4.243
 0.22 -1.576 4.239
 0.245 -1.575 4.235
 0.271 -1.576 4.237
 0.296 -1.576 4.236
 0.322 -1.576 4.234
 0.348 -1.578 4.237
 0.373 -1.578 4.235
 0.399 -1.578 4.233
 0.424 -1.579 4.231
 0.45 -1.579 4.229
 0.475 -1.578 4.224
 0.501 -1.581 4.229
 0.527 -1.582 4.228
 0.553 -1.582 4.227
 0.579 -1.583 4.227
 0.605 -1.585 4.229
 0.631 -1.586 4.226
 0.657 -1.587 4.226
 0.683 -1.589 4.227
 0.709 -1.589 4.223
 0.734 -1.589 4.219
 0.76 -1.589 4.216
 0.786 -1.591 4.215
 0.812 -1.591 4.212
 0.839 -1.593 4.212
 0.864 -1.593 4.207
 0.891 -1.595 4.207
 0.917 -1.595 4.204
 0.943 -1.596 4.2
 0.969 -1.595 4.194
 0.995 -1.597 4.193
 1.022 -1.598 4.189
 1.048 -1.599 4.185
 1.074 -1.6 4.182
 1.101 -1.602 4.182
 1.129 -1.605 4.182
 1.155 -1.606 4.178
 1.182 -1.607 4.176
 1.209 -1.608 4.172
 1.237 -1.611 4.171
 1.264 -1.612 4.168
 1.291 -1.614 4.165
 1.317 -1.614 4.158
 1.345 -1.616 4.156
 1.372 -1.618 4.153
 1.398 -1.618 4.146
 1.426 -1.62 4.142
 1.453 -1.621 4.137
 1.479 -1.622 4.13
 1.505 -1.622 4.121
 1.532 -1.623 4.114
 1.559 -1.623 4.106
 1.584 -1.623 4.095
 1.61 -1.623 4.086
 1.635 -1.622 4.075
 1.663 -1.624 4.069
 1.687 -1.622 4.055
 1.714 -1.623 4.047
 1.741 -1.623 4.038
 1.763 -1.62 4.02
 1.782 -1.614 3.994
 1.8 -1.607 3.966
 1.816 -1.598 3.933
 1.823 -1.582 3.883
 1.831 -1.568 3.836
 1.839 -1.553 3.79
 1.847 -1.539 3.743
 1.849 -1.521 3.688
 1.854 -1.505 3.639
 1.858 -1.489 3.588
 1.849 -1.463 3.514
 0 0 0
 1.759 -1.358 3.24
 1.753 -1.337 3.178
 1.759 -1.325 3.141
 1.766 -1.315 3.105
 1.775 -1.306 3.073
 1.776 -1.292 3.029
 1.771 -1.273 2.975
 1.761 -1.252 2.914
 1.773 -1.246 2.889
 -2.301 -1.608 3.895
 -2.293 -1.622 3.941
 -2.258 -1.616 3.939
 -2.23 -1.615 3.95
 -2.205 -1.616 3.966
 -2.177 -1.616 3.978
 -2.149 -1.615 3.988
 -2.123 -1.615 4.002
 -2.096 -1.615 4.013
 -2.068 -1.615 4.023
 -2.042 -1.615 4.037
 -2.014 -1.614 4.046
 -1.987 -1.614 4.057
 -1.961 -1.615 4.07
 -1.934 -1.615 4.082
 -1.906 -1.614 4.09
 -1.879 -1.614 4.101
 -1.853 -1.615 4.112
 -1.826 -1.615 4.122
 -1.797 -1.613 4.127
 -1.767 -1.61 4.129
 -1.741 -1.611 4.141
 -1.712 -1.609 4.146
 -1.685 -1.608 4.153
 -1.657 -1.607 4.158
 -1.633 -1.61 4.175
 -1.603 -1.606 4.175
 -1.574 -1.604 4.178
 -1.546 -1.603 4.184
 -1.519 -1.603 4.192
 -1.49 -1.6 4.191
 -1.464 -1.6 4.2
 -1.438 -1.602 4.212
 -1.41 -1.6 4.215
 -1.382 -1.598 4.215
 -1.356 -1.599 4.225
 -1.329 -1.598 4.231
 -1.302 -1.598 4.236
 -1.275 -1.597 4.241
 -1.251 -1.6 4.254
 -1.223 -1.599 4.258
 -1.194 -1.595 4.256
 -1.166 -1.593 4.256
 -1.139 -1.593 4.26
 -1.111 -1.589 4.257
 -1.083 -1.587 4.255
 -1.057 -1.588 4.264
 -1.03 -1.586 4.265
 -1.002 -1.584 4.265
 -0.975 -1.583 4.264
 -0.948 -1.581 4.266
 -0.921 -1.579 4.264
 -0.894 -1.578 4.265
 -0.867 -1.577 4.268
 -0.842 -1.578 4.275
 -0.815 -1.578 4.278
 -0.788 -1.576 4.277
 -0.762 -1.576 4.28
 -0.735 -1.574 4.278
 -0.708 -1.572 4.275
 -0.682 -1.57 4.274
 -0.655 -1.57 4.275
 -0.629 -1.568 4.275
 -0.603 -1.569 4.28
 -0.577 -1.569 4.281
 -0.552 -1.57 4.286
 -0.525 -1.569 4.287
 -0.5 -1.569 4.289
 -0.473 -1.567 4.287
 -0.447 -1.566 4.286
 -0.421 -1.564 4.281
 -0.395 -1.564 4.283
 -0.368 -1.562 4.279
 -0.343 -1.563 4.283
 -0.317 -1.562 4.283
 -0.291 -1.562 4.283
 -0.265 -1.561 4.281
 -0.24 -1.561 4.281
 -0.214 -1.56 4.28
 -0.188 -1.559 4.278
 -0.162 -1.557 4.274
 -0.136 -1.557 4.275
 -0.111 -1.557 4.273
 -0.085 -1.555 4.27
 -0.059 -1.556 4.271
 -0.034 -1.557 4.275
 -0.008 -1.556 4.271
 0.016 -1.557 4.274
 0.042 -1.556 4.269
 0.068 -1.556 4.271
 0.093 -1.555 4.267
 0.119 -1.555 4.265
 0.144 -1.554 4.26
 0.17 -1.554 4.261
 0.195 -1.554 4.259
 0.221 -1.554 4.258
 0.246 -1.554 4.257
 0.272 -1.556 4.259
 0.298 -1.556 4.258
 0.323 -1.555 4.255
 0.349 -1.557 4.256
 0.374 -1.556 4.253
 0.4 -1.556 4.251
 0.426 -1.558 4.253
 0.452 -1.559 4.254
 0.477 -1.558 4.248
 0.504 -1.561 4.254
 0.529 -1.562 4.253
 0.555 -1.562 4.251
 0.581 -1.563 4.25
 0.608 -1.566 4.254
 0.633 -1.566 4.25
 0.659 -1.567 4.249
 0.686 -1.568 4.249
 0.711 -1.568 4.245
 0.737 -1.568 4.242
 0.763 -1.569 4.239
 0.79 -1.571 4.241
 0.816 -1.572 4.239
 0.843 -1.574 4.239
 0.868 -1.574 4.233
 0.895 -1.576 4.234
 0.921 -1.576 4.23
 0.947 -1.577 4.226
 0.974 -1.578 4.224
 1 -1.579 4.222
 1.027 -1.58 4.22
 1.053 -1.581 4.216
 1.08 -1.582 4.213
 1.107 -1.584 4.211
 1.135 -1.586 4.212
 1.161 -1.588 4.208
 1.189 -1.59 4.207
 1.217 -1.592 4.206
 1.244 -1.594 4.204
 1.271 -1.595 4.201
 1.298 -1.597 4.197
 1.325 -1.598 4.193
 1.353 -1.6 4.19
 1.381 -1.602 4.189
 1.408 -1.603 4.182
 1.436 -1.606 4.181
 1.463 -1.606 4.175
 1.49 -1.606 4.166
 1.517 -1.608 4.161
 1.545 -1.61 4.157
 1.572 -1.61 4.149
 1.599 -1.611 4.143
 1.626 -1.612 4.136
 1.652 -1.612 4.125
 1.681 -1.614 4.122
 1.706 -1.613 4.109
 1.733 -1.614 4.1
 1.758 -1.613 4.088
 1.78 -1.609 4.067
 1.795 -1.599 4.032
 1.812 -1.591 4.001
 1.826 -1.581 3.964
 1.832 -1.564 3.911
 1.841 -1.55 3.865
 1.851 -1.538 3.824
 1.86 -1.524 3.779
 1.862 -1.506 3.722
 1.873 -1.496 3.685
 1.881 -1.482 3.641
 0 0 0
 0 0 0
 0 0 0
 1.751 -1.314 3.183
 1.759 -1.304 3.149
 1.768 -1.295 3.115
 1.777 -1.286 3.083
 1.78 -1.274 3.043
 1.775 -1.256 2.989
 1.749 -1.223 2.9
 1.771 -1.225 2.894
 -2.35 -1.615 3.987
 -2.306 -1.603 3.972
 -2.29 -1.611 4.005
 -2.26 -1.61 4.014
 -2.235 -1.611 4.03
 -2.117 -1.545 3.878
 -2.09 -1.544 3.887
 -2.066 -1.546 3.903
 -2.04 -1.546 3.916
 -2.013 -1.546 3.926
 -2.073 -1.613 4.109
 -2.045 -1.612 4.118
 -2.017 -1.611 4.128
 -1.99 -1.612 4.139
 -1.962 -1.612 4.151
 -1.934 -1.61 4.158
 -1.907 -1.611 4.17
 -1.88 -1.611 4.181
 -1.852 -1.61 4.19
 -1.821 -1.608 4.193
 -1.79 -1.604 4.194
 -1.762 -1.604 4.202
 -1.733 -1.601 4.205
 -1.705 -1.6 4.212
 -1.676 -1.599 4.217
 -1.651 -1.601 4.231
 -1.621 -1.598 4.233
 -1.593 -1.596 4.237
 -1.564 -1.595 4.242
 -1.536 -1.594 4.248
 -1.506 -1.591 4.247
 -1.478 -1.59 4.252
 -1.452 -1.59 4.26
 -1.423 -1.588 4.262
 -1.394 -1.585 4.261
 -1.368 -1.586 4.271
 -1.341 -1.586 4.277
 -1.313 -1.585 4.281
 -1.285 -1.583 4.285
 -1.26 -1.585 4.296
 -1.231 -1.582 4.295
 -1.202 -1.579 4.292
 -1.174 -1.577 4.292
 -1.146 -1.575 4.293
 -1.118 -1.573 4.292
 -1.09 -1.571 4.292
 -1.063 -1.57 4.296
 -1.035 -1.568 4.296
 -1.007 -1.566 4.295
 -0.98 -1.564 4.294
 -0.952 -1.562 4.294
 -0.925 -1.561 4.294
 -0.898 -1.559 4.294
 -0.872 -1.559 4.298
 -0.845 -1.559 4.302
 -0.818 -1.558 4.303
 -0.791 -1.556 4.302
 -0.765 -1.556 4.305
 -0.738 -1.555 4.305
 -0.711 -1.552 4.302
 -0.685 -1.551 4.302
 -0.658 -1.551 4.303
 -0.631 -1.549 4.301
 -0.605 -1.549 4.304
 -0.579 -1.547 4.302
 -0.553 -1.547 4.303
 -0.526 -1.546 4.303
 -0.5 -1.546 4.304
 -0.474 -1.544 4.303
 -0.448 -1.544 4.304
 -0.422 -1.543 4.302
 -0.396 -1.542 4.301
 -0.369 -1.54 4.298
 -0.343 -1.54 4.298
 -0.317 -1.539 4.298
 -0.291 -1.538 4.295
 -0.265 -1.536 4.293
 -0.24 -1.536 4.292
 -0.214 -1.535 4.29
 -0.188 -1.533 4.286
 -0.162 -1.533 4.286
 -0.136 -1.532 4.285
 -0.111 -1.531 4.282
 -0.085 -1.53 4.277
 -0.059 -1.53 4.28
 -0.034 -1.531 4.282
 -0.008 -1.531 4.281
 0.016 -1.531 4.281
 0.042 -1.53 4.277
 0.068 -1.529 4.275
 0.093 -1.529 4.272
 0.119 -1.529 4.272
 0.144 -1.529 4.272
 0.17 -1.53 4.273
 0.196 -1.53 4.272
 0.221 -1.531 4.273
 0.247 -1.53 4.27
 0.272 -1.531 4.27
 0.298 -1.531 4.269
 0.323 -1.531 4.266
 0.349 -1.532 4.268
 0.375 -1.532 4.266
 0.401 -1.533 4.265
 0.427 -1.535 4.269
 0.453 -1.536 4.269
 0.478 -1.535 4.262
 0.504 -1.537 4.265
 0.53 -1.538 4.265
 0.556 -1.538 4.263
 0.582 -1.539 4.262
 0.608 -1.542 4.266
 0.634 -1.542 4.263
 0.66 -1.542 4.261
 0.686 -1.543 4.258
 0.712 -1.543 4.256
 0.738 -1.544 4.253
 0.764 -1.544 4.249
 0.791 -1.546 4.252
 0.817 -1.548 4.252
 0.844 -1.549 4.251
 0.87 -1.551 4.25
 0.897 -1.553 4.251
 0.923 -1.553 4.247
 0.949 -1.554 4.243
 0.976 -1.556 4.243
 1.002 -1.556 4.238
 1.03 -1.558 4.238
 1.056 -1.559 4.235
 1.083 -1.56 4.23
 1.109 -1.561 4.228
 1.138 -1.564 4.231
 1.165 -1.566 4.228
 1.192 -1.568 4.227
 1.221 -1.571 4.228
 1.249 -1.573 4.228
 1.276 -1.574 4.223
 1.303 -1.576 4.222
 1.331 -1.578 4.217
 1.359 -1.58 4.216
 1.387 -1.583 4.215
 1.415 -1.584 4.21
 1.443 -1.586 4.208
 1.47 -1.587 4.203
 1.498 -1.589 4.199
 1.525 -1.59 4.192
 1.554 -1.592 4.189
 1.581 -1.593 4.183
 1.61 -1.595 4.18
 1.637 -1.596 4.171
 1.664 -1.596 4.163
 1.692 -1.598 4.159
 1.717 -1.597 4.145
 1.744 -1.597 4.136
 1.769 -1.596 4.121
 1.789 -1.59 4.096
 1.804 -1.58 4.06
 1.82 -1.572 4.028
 1.828 -1.557 3.978
 1.836 -1.542 3.928
 1.846 -1.529 3.885
 1.859 -1.519 3.848
 1.869 -1.507 3.806
 1.883 -1.498 3.773
 1.903 -1.494 3.752
 0 0 0
 0 0 0
 0 0 0
 0 0 0
 1.751 -1.292 3.191
 1.763 -1.285 3.163
 1.772 -1.277 3.131
 1.782 -1.269 3.1
 1.789 -1.259 3.066
 1.787 -1.243 3.015
 1.783 -1.226 2.964
 1.786 -1.215 2.925
 -2.398 -1.62 4.079
 -2.35 -1.606 4.058
 -1.851 -1.281 3.243
 -1.826 -1.279 3.249
 -1.896 -1.344 3.426
 -1.873 -1.344 3.437
 -1.937 -1.408 3.612
 -1.915 -1.409 3.626
 -1.979 -1.475 3.807
 -1.954 -1.475 3.818
 -2.015 -1.541 4.003
 -1.905 -1.476 3.844
 -1.961 -1.541 4.023
 -1.934 -1.54 4.034
 -1.908 -1.54 4.044
 -1.879 -1.539 4.05
 -1.931 -1.604 4.234
 -1.903 -1.604 4.244
 -1.875 -1.603 4.252
 -1.843 -1.6 4.253
 -1.812 -1.596 4.254
 -1.783 -1.595 4.261
 -1.753 -1.593 4.265
 -1.723 -1.59 4.267
 -1.694 -1.589 4.271
 -1.668 -1.59 4.283
 -1.637 -1.587 4.284
 -1.607 -1.584 4.285
 -1.578 -1.582 4.289
 -1.548 -1.58 4.29
 -1.518 -1.576 4.289
 -1.489 -1.574 4.292
 -1.461 -1.574 4.298
 -1.432 -1.572 4.3
 -1.404 -1.57 4.302
 -1.377 -1.57 4.309
 -1.349 -1.569 4.314
 -1.322 -1.568 4.319
 -1.294 -1.567 4.322
 -1.266 -1.566 4.327
 -1.238 -1.564 4.327
 -1.208 -1.561 4.324
 -1.179 -1.558 4.322
 -1.151 -1.556 4.322
 -1.123 -1.553 4.321
 -1.094 -1.55 4.316
 -1.066 -1.549 4.319
 -1.038 -1.547 4.319
 -1.01 -1.545 4.316
 -0.983 -1.543 4.317
 -0.955 -1.541 4.318
 -0.927 -1.538 4.313
 -0.9 -1.537 4.314
 -0.874 -1.537 4.317
 -0.847 -1.536 4.319
 -0.82 -1.535 4.319
 -0.793 -1.534 4.321
 -0.766 -1.533 4.321
 -0.739 -1.53 4.317
 -0.712 -1.528 4.315
 -0.685 -1.526 4.311
 -0.658 -1.525 4.311
 -0.631 -1.523 4.309
 -0.605 -1.522 4.31
 -0.578 -1.521 4.308
 -0.552 -1.52 4.309
 -0.526 -1.52 4.31
 -0.5 -1.519 4.31
 -0.474 -1.519 4.312
 -0.448 -1.518 4.312
 -0.422 -1.517 4.31
 -0.395 -1.515 4.307
 -0.369 -1.513 4.302
 -0.343 -1.512 4.3
 -0.317 -1.512 4.302
 -0.291 -1.511 4.3
 -0.265 -1.51 4.299
 -0.24 -1.511 4.301
 -0.214 -1.51 4.3
 -0.188 -1.508 4.296
 -0.162 -1.508 4.296
 -0.136 -1.507 4.294
 -0.11 -1.506 4.29
 -0.085 -1.505 4.287
 -0.059 -1.505 4.288
 -0.034 -1.506 4.29
 -0.008 -1.505 4.287
 0.017 -1.504 4.285
 0.042 -1.502 4.279
 0.068 -1.502 4.278
 0.093 -1.501 4.274
 0.119 -1.502 4.276
 0.144 -1.504 4.28
 0.17 -1.504 4.281
 0.196 -1.505 4.28
 0.221 -1.506 4.281
 0.247 -1.506 4.28
 0.272 -1.505 4.277
 0.298 -1.506 4.277
 0.324 -1.506 4.275
 0.349 -1.506 4.274
 0.375 -1.505 4.27
 0.401 -1.506 4.27
 0.427 -1.508 4.272
 0.452 -1.508 4.27
 0.478 -1.508 4.266
 0.504 -1.51 4.27
 0.53 -1.512 4.272
 0.556 -1.512 4.269
 0.582 -1.513 4.269
 0.608 -1.515 4.271
 0.634 -1.514 4.266
 0.659 -1.514 4.262
 0.685 -1.514 4.259
 0.712 -1.516 4.261
 0.738 -1.517 4.258
 0.764 -1.518 4.257
 0.791 -1.52 4.259
 0.818 -1.522 4.261
 0.844 -1.524 4.261
 0.871 -1.525 4.259
 0.897 -1.527 4.258
 0.923 -1.527 4.255
 0.949 -1.528 4.251
 0.976 -1.529 4.248
 1.002 -1.529 4.244
 1.03 -1.532 4.247
 1.057 -1.534 4.245
 1.083 -1.534 4.241
 1.11 -1.535 4.238
 1.138 -1.538 4.24
 1.164 -1.539 4.235
 1.192 -1.541 4.234
 1.221 -1.544 4.236
 1.249 -1.547 4.236
 1.276 -1.549 4.234
 1.305 -1.551 4.234
 1.333 -1.553 4.232
 1.361 -1.556 4.232
 1.39 -1.559 4.233
 1.417 -1.56 4.227
 1.446 -1.563 4.226
 1.474 -1.565 4.223
 1.502 -1.566 4.217
 1.529 -1.567 4.212
 1.559 -1.571 4.213
 1.588 -1.573 4.21
 1.617 -1.575 4.207
 1.645 -1.577 4.202
 1.672 -1.577 4.193
 1.699 -1.578 4.184
 1.725 -1.577 4.172
 1.751 -1.577 4.161
 1.774 -1.574 4.143
 1.795 -1.569 4.12
 1.811 -1.56 4.085
 1.829 -1.553 4.055
 1.837 -1.538 4.005
 1.846 -1.524 3.959
 1.857 -1.512 3.916
 1.872 -1.504 3.883
 1.874 -1.486 3.826
 1.892 -1.48 3.8
 0 0 0
 0 0 0
 0 0 0
 0 0 0
 0 0 0
 1.748 -1.268 3.191
 1.762 -1.263 3.169
 1.777 -1.258 3.146
 1.786 -1.25 3.115
 1.797 -1.244 3.087
 1.798 -1.23 3.042
 1.807 -1.222 3.012
 1.754 -1.173 2.879
 -2.407 -1.598 4.104
 -2.385 -1.602 4.129
 -1.41 -0.959 2.474
 -1.392 -0.959 2.479
 -1.467 -1.022 2.653
 -1.448 -1.022 2.661
 -1.516 -1.083 2.83
 -1.585 -1.147 3.007
 -1.739 -1.274 3.351
 -1.717 -1.274 3.361
 -1.866 -1.403 3.715
 -1.757 -1.339 3.553
 -1.733 -1.338 3.561
 -1.709 -1.338 3.571
 -1.765 -1.401 3.75
 -1.739 -1.399 3.755
 -1.871 -1.528 4.111
 -1.922 -1.591 4.294
 -1.892 -1.59 4.301
 -1.861 -1.587 4.303
 -1.829 -1.584 4.304
 -1.799 -1.582 4.308
 -1.769 -1.58 4.313
 -1.739 -1.577 4.315
 -1.708 -1.575 4.317
 -1.679 -1.574 4.323
 -1.649 -1.571 4.326
 -1.618 -1.568 4.324
 -1.589 -1.566 4.328
 -1.559 -1.563 4.328
 -1.528 -1.56 4.328
 -1.499 -1.557 4.329
 -1.47 -1.555 4.331
 -1.44 -1.553 4.331
 -1.411 -1.551 4.334
 -1.384 -1.551 4.341
 -1.355 -1.549 4.341
 -1.326 -1.547 4.342
 -1.297 -1.545 4.343
 -1.269 -1.543 4.344
 -1.239 -1.54 4.342
 -1.21 -1.537 4.339
 -1.181 -1.533 4.336
 -1.152 -1.531 4.334
 -1.123 -1.528 4.332
 -1.094 -1.525 4.328
 -1.067 -1.523 4.329
 -1.039 -1.522 4.33
 -1.011 -1.519 4.328
 -0.983 -1.517 4.327
 -0.956 -1.516 4.327
 -0.928 -1.513 4.325
 -0.901 -1.512 4.325
 -0.874 -1.511 4.326
 -0.847 -1.51 4.327
 -0.819 -1.507 4.325
 -0.792 -1.506 4.323
 -0.765 -1.505 4.324
 -0.738 -1.502 4.319
 -0.711 -1.5 4.318
 -0.684 -1.499 4.317
 -0.658 -1.498 4.318
 -0.631 -1.496 4.315
 -0.605 -1.496 4.317
 -0.578 -1.494 4.315
 -0.552 -1.493 4.315
 -0.526 -1.493 4.316
 -0.5 -1.492 4.315
 -0.474 -1.492 4.318
 -0.447 -1.491 4.317
 -0.421 -1.49 4.315
 -0.395 -1.488 4.312
 -0.369 -1.486 4.308
 -0.342 -1.484 4.304
 -0.317 -1.484 4.304
 -0.29 -1.483 4.301
 -0.265 -1.482 4.3
 -0.239 -1.482 4.301
 -0.213 -1.482 4.302
 -0.187 -1.481 4.3
 -0.162 -1.481 4.301
 -0.136 -1.481 4.299
 -0.11 -1.479 4.295
 -0.085 -1.479 4.296
 -0.059 -1.479 4.293
 -0.033 -1.479 4.296
 -0.008 -1.478 4.293
 0.017 -1.477 4.289
 0.042 -1.476 4.283
 0.068 -1.476 4.283
 0.093 -1.474 4.278
 0.119 -1.475 4.279
 0.145 -1.477 4.284
 0.17 -1.478 4.284
 0.196 -1.478 4.284
 0.221 -1.479 4.287
 0.247 -1.479 4.285
 0.272 -1.478 4.281
 0.298 -1.479 4.28
 0.324 -1.479 4.278
 0.349 -1.479 4.277
 0.374 -1.478 4.272
 0.4 -1.478 4.271
 0.426 -1.479 4.271
 0.451 -1.479 4.267
 0.476 -1.478 4.263
 0.503 -1.481 4.267
 0.529 -1.482 4.269
 0.555 -1.483 4.268
 0.581 -1.484 4.268
 0.607 -1.487 4.272
 0.633 -1.487 4.269
 0.659 -1.487 4.265
 0.685 -1.488 4.264
 0.711 -1.49 4.267
 0.737 -1.491 4.265
 0.763 -1.491 4.262
 0.79 -1.493 4.264
 0.817 -1.495 4.264
 0.844 -1.497 4.265
 0.87 -1.498 4.263
 0.897 -1.499 4.262
 0.922 -1.499 4.257
 0.949 -1.5 4.255
 0.975 -1.501 4.252
 1.002 -1.502 4.25
 1.03 -1.505 4.253
 1.057 -1.508 4.254
 1.084 -1.509 4.25
 1.11 -1.509 4.246
 1.138 -1.511 4.246
 1.164 -1.512 4.241
 1.192 -1.514 4.24
 1.22 -1.517 4.242
 1.248 -1.519 4.241
 1.276 -1.521 4.239
 1.305 -1.525 4.241
 1.333 -1.528 4.242
 1.362 -1.53 4.242
 1.392 -1.534 4.246
 1.42 -1.536 4.243
 1.448 -1.538 4.24
 1.476 -1.54 4.235
 1.504 -1.541 4.231
 1.531 -1.542 4.225
 1.561 -1.545 4.225
 1.59 -1.548 4.224
 1.619 -1.551 4.221
 1.647 -1.552 4.216
 1.675 -1.553 4.208
 1.702 -1.554 4.2
 1.729 -1.554 4.191
 1.756 -1.554 4.182
 1.781 -1.553 4.167
 1.803 -1.549 4.145
 1.819 -1.54 4.112
 1.837 -1.533 4.083
 1.847 -1.519 4.035
 1.857 -1.506 3.989
 1.867 -1.494 3.946
 1.882 -1.486 3.913
 1.878 -1.464 3.842
 0 0 0
 0 0 0
 0 0 0
 0 0 0
 0 0 0
 0 0 0
 1.752 -1.249 3.206
 1.767 -1.245 3.184
 1.782 -1.241 3.163
 1.795 -1.235 3.138
 1.809 -1.23 3.115
 1.812 -1.218 3.072
 1.832 -1.218 3.06
 0 0 0
 -0.047 -0.032 0.067
 -0.042 -0.029 0.061
 -0.972 -0.65 1.706
 -0.958 -0.649 1.706
 -1.035 -0.709 1.872
 -1.019 -0.707 1.872
 -1.095 -0.769 2.044
 -1.169 -0.831 2.218
 -1.327 -0.955 2.56
 -1.308 -0.954 2.563
 -1.461 -1.079 2.911
 -1.354 -1.014 2.742
 -1.416 -1.075 2.915
 -1.478 -1.137 3.093
 -1.617 -1.261 3.442
 -1.674 -1.324 3.623
 -1.885 -1.512 4.151
 -1.934 -1.574 4.331
 -1.904 -1.572 4.336
 -1.873 -1.57 4.341
 -1.839 -1.565 4.338
 -1.809 -1.562 4.341
 -1.779 -1.561 4.346
 -1.747 -1.557 4.345
 -1.715 -1.554 4.345
 -1.686 -1.552 4.349
 -1.656 -1.55 4.351
 -1.624 -1.546 4.35
 -1.595 -1.544 4.352
 -1.564 -1.541 4.352
 -1.533 -1.537 4.35
 -1.503 -1.535 4.351
 -1.473 -1.532 4.35
 -1.444 -1.53 4.352
 -1.415 -1.528 4.354
 -1.387 -1.527 4.358
 -1.356 -1.523 4.355
 -1.327 -1.521 4.354
 -1.297 -1.517 4.351
 -1.268 -1.515 4.349
 -1.238 -1.511 4.346
 -1.209 -1.508 4.344
 -1.18 -1.505 4.34
 -1.151 -1.502 4.338
 -1.122 -1.5 4.337
 -1.093 -1.496 4.331
 -1.065 -1.494 4.331
 -1.038 -1.493 4.333
 -1.01 -1.492 4.332
 -0.982 -1.489 4.33
 -0.955 -1.488 4.331
 -0.927 -1.486 4.33
 -0.9 -1.485 4.33
 -0.873 -1.483 4.33
 -0.846 -1.483 4.334
 -0.819 -1.481 4.332
 -0.792 -1.479 4.33
 -0.765 -1.478 4.329
 -0.737 -1.475 4.326
 -0.71 -1.473 4.322
 -0.683 -1.472 4.321
 -0.657 -1.47 4.321
 -0.63 -1.469 4.319
 -0.604 -1.468 4.32
 -0.577 -1.467 4.318
 -0.551 -1.466 4.317
 -0.525 -1.465 4.318
 -0.499 -1.464 4.317
 -0.473 -1.464 4.318
 -0.447 -1.463 4.318
 -0.421 -1.463 4.32
 -0.395 -1.462 4.318
 -0.369 -1.461 4.317
 -0.342 -1.459 4.313
 -0.317 -1.459 4.314
 -0.29 -1.458 4.31
 -0.264 -1.456 4.306
 -0.239 -1.456 4.306
 -0.213 -1.455 4.306
 -0.187 -1.454 4.304
 -0.162 -1.455 4.305
 -0.136 -1.454 4.305
 -0.11 -1.453 4.3
 -0.084 -1.453 4.302
 -0.059 -1.452 4.297
 -0.033 -1.452 4.299
 -0.008 -1.452 4.297
 0.017 -1.451 4.293
 0.042 -1.449 4.288
 0.068 -1.45 4.289
 0.093 -1.448 4.283
 0.119 -1.448 4.284
 0.145 -1.45 4.289
 0.17 -1.45 4.285
 0.195 -1.449 4.282
 0.221 -1.45 4.283
 0.246 -1.449 4.28
 0.272 -1.448 4.276
 0.298 -1.45 4.278
 0.323 -1.451 4.28
 0.349 -1.451 4.279
 0.374 -1.451 4.275
 0.4 -1.452 4.275
 0.426 -1.452 4.274
 0.451 -1.452 4.271
 0.477 -1.452 4.269
 0.503 -1.454 4.271
 0.528 -1.455 4.271
 0.554 -1.455 4.27
 0.58 -1.457 4.271
 0.607 -1.459 4.273
 0.633 -1.46 4.274
 0.659 -1.46 4.271
 0.685 -1.461 4.269
 0.711 -1.463 4.271
 0.737 -1.463 4.268
 0.762 -1.463 4.263
 0.789 -1.465 4.264
 0.816 -1.466 4.264
 0.842 -1.468 4.264
 0.869 -1.47 4.265
 0.895 -1.471 4.263
 0.922 -1.472 4.261
 0.948 -1.473 4.26
 0.975 -1.474 4.258
 1.001 -1.475 4.255
 1.029 -1.478 4.258
 1.057 -1.48 4.258
 1.083 -1.481 4.254
 1.109 -1.482 4.25
 1.136 -1.483 4.248
 1.163 -1.484 4.245
 1.191 -1.486 4.244
 1.22 -1.49 4.248
 1.248 -1.492 4.247
 1.276 -1.495 4.247
 1.304 -1.497 4.247
 1.333 -1.5 4.247
 1.36 -1.501 4.244
 1.389 -1.505 4.245
 1.418 -1.507 4.245
 1.447 -1.51 4.243
 1.474 -1.511 4.238
 1.502 -1.513 4.235
 1.53 -1.514 4.23
 1.56 -1.517 4.23
 1.589 -1.52 4.228
 1.619 -1.524 4.229
 1.648 -1.526 4.226
 1.676 -1.527 4.22
 1.704 -1.528 4.212
 1.731 -1.528 4.203
 1.758 -1.528 4.193
 1.782 -1.526 4.177
 1.804 -1.523 4.157
 1.822 -1.516 4.126
 1.841 -1.51 4.099
 1.85 -1.496 4.051
 1.861 -1.484 4.008
 1.876 -1.475 3.973
 1.89 -1.467 3.938
 0 0 0
 0 0 0
 0 0 0
 0 0 0
 0 0 0
 0 0 0
 0 0 0
 1.469 -1.03 2.693
 1.599 -1.108 2.888
 1.793 -1.227 3.189
 1.806 -1.221 3.164
 1.823 -1.218 3.145
 1.83 -1.209 3.111
 0 0 0
 0 0 0
 -0.031 -0.021 0.041
 -0.048 -0.033 0.071
 -0.525 -0.346 0.918
 -0.517 -0.344 0.917
 -0.599 -0.404 1.081
 -0.587 -0.4 1.075
 -0.669 -0.462 1.247
 -0.745 -0.521 1.412
 -0.906 -0.641 1.748
 -0.89 -0.638 1.745
 -1.047 -0.76 2.087
 -0.943 -0.694 1.91
 -1.093 -0.815 2.251
 -1.239 -0.937 2.597
 -1.463 -1.121 3.119
 -1.603 -1.245 3.476
 -1.893 -1.492 4.178
 -1.941 -1.552 4.357
 -1.91 -1.549 4.36
 -1.878 -1.546 4.362
 -1.843 -1.54 4.355
 -1.812 -1.537 4.357
 -1.782 -1.536 4.362
 -1.75 -1.533 4.363
 -1.719 -1.53 4.363
 -1.688 -1.527 4.365
 -1.658 -1.524 4.365
 -1.626 -1.521 4.364
 -1.596 -1.518 4.365
 -1.565 -1.515 4.363
 -1.534 -1.511 4.362
 -1.505 -1.509 4.364
 -1.473 -1.505 4.36
 -1.444 -1.503 4.362
 -1.414 -1.5 4.361
 -1.385 -1.499 4.363
 -1.354 -1.494 4.357
 -1.325 -1.492 4.357
 -1.295 -1.488 4.353
 -1.266 -1.486 4.352
 -1.238 -1.484 4.353
 -1.209 -1.482 4.352
 -1.179 -1.478 4.346
 -1.15 -1.475 4.344
 -1.121 -1.472 4.34
 -1.091 -1.467 4.331
 -1.063 -1.465 4.33
 -1.036 -1.465 4.334
 -1.008 -1.463 4.333
 -0.981 -1.461 4.332
 -0.954 -1.46 4.334
 -0.926 -1.458 4.333
 -0.898 -1.456 4.331
 -0.871 -1.454 4.33
 -0.844 -1.453 4.331
 -0.817 -1.451 4.328
 -0.79 -1.45 4.327
 -0.763 -1.448 4.326
 -0.736 -1.446 4.325
 -0.709 -1.445 4.324
 -0.683 -1.444 4.324
 -0.656 -1.443 4.323
 -0.63 -1.442 4.324
 -0.604 -1.442 4.326
 -0.577 -1.44 4.323
 -0.551 -1.439 4.321
 -0.524 -1.438 4.322
 -0.498 -1.436 4.317
 -0.471 -1.434 4.314
 -0.445 -1.433 4.311
 -0.419 -1.432 4.312
 -0.393 -1.43 4.308
 -0.367 -1.43 4.309
 -0.341 -1.429 4.307
 -0.316 -1.43 4.311
 -0.29 -1.429 4.309
 -0.264 -1.428 4.307
 -0.238 -1.428 4.307
 -0.213 -1.428 4.309
 -0.187 -1.427 4.306
 -0.161 -1.427 4.307
 -0.136 -1.427 4.306
 -0.11 -1.425 4.302
 -0.084 -1.425 4.301
 -0.059 -1.423 4.294
 -0.033 -1.423 4.294
 -0.007 -1.421 4.288
 0.017 -1.42 4.285
 0.042 -1.419 4.283
 0.068 -1.421 4.286
 0.093 -1.421 4.285
 0.119 -1.422 4.29
 0.145 -1.425 4.295
 0.17 -1.425 4.294
 0.196 -1.424 4.292
 0.221 -1.423 4.287
 0.246 -1.423 4.284
 0.272 -1.422 4.279
 0.297 -1.422 4.28
 0.323 -1.424 4.282
 0.349 -1.425 4.284
 0.374 -1.424 4.279
 0.4 -1.425 4.279
 0.425 -1.424 4.274
 0.45 -1.423 4.27
 0.476 -1.424 4.269
 0.502 -1.426 4.273
 0.528 -1.428 4.275
 0.554 -1.429 4.276
 0.581 -1.432 4.28
 0.606 -1.432 4.277
 0.632 -1.433 4.276
 0.658 -1.432 4.271
 0.684 -1.434 4.272
 0.71 -1.434 4.269
 0.736 -1.435 4.269
 0.762 -1.435 4.265
 0.788 -1.437 4.266
 0.815 -1.439 4.267
 0.842 -1.441 4.269
 0.869 -1.443 4.27
 0.895 -1.444 4.267
 0.921 -1.445 4.266
 0.948 -1.446 4.263
 0.974 -1.447 4.26
 1 -1.447 4.256
 1.028 -1.45 4.26
 1.055 -1.453 4.26
 1.082 -1.453 4.256
 1.109 -1.455 4.254
 1.136 -1.456 4.253
 1.163 -1.458 4.252
 1.19 -1.46 4.25
 1.218 -1.462 4.25
 1.247 -1.465 4.251
 1.274 -1.467 4.25
 1.303 -1.469 4.251
 1.332 -1.472 4.252
 1.36 -1.474 4.25
 1.388 -1.477 4.25
 1.418 -1.48 4.251
 1.445 -1.482 4.247
 1.473 -1.483 4.241
 1.501 -1.485 4.239
 1.529 -1.486 4.234
 1.558 -1.489 4.233
 1.587 -1.491 4.231
 1.616 -1.494 4.229
 1.646 -1.496 4.227
 1.674 -1.498 4.222
 1.701 -1.499 4.214
 1.729 -1.5 4.207
 1.757 -1.501 4.2
 1.783 -1.5 4.188
 1.807 -1.498 4.172
 1.827 -1.493 4.147
 1.847 -1.488 4.121
 1.855 -1.474 4.07
 1.867 -1.462 4.028
 1.879 -1.452 3.988
 0 0 0
 0 0 0
 0 0 0
 0 0 0
 0 0 0
 0.055 -0.043 0.099
 0.055 -0.043 0.098
 0.056 -0.043 0.098
 0.902 -0.622 1.654
 1.395 -0.949 2.523
 1.801 -1.21 3.21
 1.816 -1.206 3.188
 1.834 -1.204 3.171
 1.744 -1.132 2.971
 0 0 0
 0 0 0
 -0.108 -0.07 0.174
 -0.142 -0.092 0.236
 -0.076 -0.05 0.122
 -0.071 -0.048 0.115
 -0.156 -0.104 0.273
 -0.239 -0.161 0.43
 -0.322 -0.219 0.595
 -0.401 -0.276 0.756
 -0.565 -0.393 1.088
 -0.553 -0.39 1.081
 -0.626 -0.447 1.245
 -0.528 -0.382 1.065
 -0.765 -0.56 1.575
 -0.916 -0.68 1.919
 -1.224 -0.921 2.613
 -1.446 -1.103 3.141
 -1.817 -1.406 4.018
 -1.866 -1.465 4.196
 -1.91 -1.522 4.371
 -1.878 -1.519 4.372
 -1.844 -1.513 4.367
 -1.812 -1.51 4.367
 -1.782 -1.509 4.373
 -1.751 -1.505 4.373
 -1.72 -1.503 4.374
 -1.689 -1.5 4.376
 -1.658 -1.497 4.376
 -1.626 -1.493 4.372
 -1.595 -1.49 4.371
 -1.564 -1.486 4.369
 -1.533 -1.484 4.369
 -1.504 -1.481 4.37
 -1.472 -1.477 4.365
 -1.444 -1.476 4.369
 -1.414 -1.473 4.369
 -1.384 -1.471 4.368
 -1.353 -1.466 4.361
 -1.324 -1.464 4.362
 -1.294 -1.46 4.357
 -1.264 -1.457 4.354
 -1.236 -1.456 4.357
 -1.207 -1.453 4.354
 -1.177 -1.449 4.349
 -1.149 -1.447 4.347
 -1.12 -1.444 4.344
 -1.089 -1.439 4.333
 -1.061 -1.437 4.333
 -1.035 -1.436 4.336
 -1.007 -1.434 4.334
 -0.978 -1.432 4.331
 -0.952 -1.432 4.337
 -0.925 -1.43 4.336
 -0.898 -1.429 4.337
 -0.871 -1.428 4.338
 -0.845 -1.428 4.342
 -0.817 -1.425 4.337
 -0.79 -1.424 4.337
 -0.763 -1.423 4.336
 -0.736 -1.42 4.331
 -0.709 -1.419 4.331
 -0.682 -1.417 4.33
 -0.655 -1.416 4.327
 -0.629 -1.415 4.327
 -0.603 -1.414 4.328
 -0.576 -1.412 4.325
 -0.55 -1.411 4.324
 -0.524 -1.411 4.326
 -0.497 -1.409 4.321
 -0.471 -1.407 4.318
 -0.444 -1.405 4.314
 -0.418 -1.405 4.313
 -0.392 -1.403 4.309
 -0.366 -1.401 4.306
 -0.34 -1.399 4.301
 -0.315 -1.4 4.304
 -0.289 -1.399 4.304
 -0.263 -1.399 4.304
 -0.238 -1.4 4.307
 -0.212 -1.401 4.312
 -0.187 -1.401 4.311
 -0.161 -1.4 4.308
 -0.135 -1.399 4.306
 -0.109 -1.397 4.302
 -0.084 -1.396 4.297
 -0.058 -1.393 4.289
 -0.033 -1.394 4.291
 -0.007 -1.392 4.285
 0.017 -1.391 4.281
 0.043 -1.392 4.284
 0.068 -1.394 4.29
 0.094 -1.395 4.29
 0.119 -1.397 4.295
 0.145 -1.399 4.302
 0.17 -1.399 4.302
 0.196 -1.399 4.299
 0.221 -1.397 4.293
 0.247 -1.397 4.29
 0.272 -1.396 4.285
 0.297 -1.396 4.283
 0.323 -1.397 4.286
 0.349 -1.398 4.288
 0.374 -1.397 4.283
 0.4 -1.398 4.282
 0.425 -1.397 4.277
 0.45 -1.396 4.272
 0.476 -1.397 4.273
 0.502 -1.4 4.278
 0.528 -1.402 4.28
 0.554 -1.403 4.281
 0.581 -1.405 4.285
 0.606 -1.405 4.28
 0.632 -1.406 4.281
 0.657 -1.405 4.275
 0.684 -1.407 4.275
 0.709 -1.407 4.271
 0.736 -1.409 4.274
 0.761 -1.409 4.27
 0.788 -1.41 4.27
 0.815 -1.412 4.272
 0.842 -1.415 4.276
 0.868 -1.417 4.275
 0.894 -1.417 4.272
 0.921 -1.419 4.272
 0.947 -1.419 4.268
 0.973 -1.42 4.265
 1 -1.421 4.263
 1.027 -1.423 4.264
 1.055 -1.425 4.264
 1.081 -1.426 4.261
 1.108 -1.428 4.26
 1.135 -1.429 4.257
 1.163 -1.431 4.257
 1.19 -1.433 4.256
 1.218 -1.435 4.255
 1.245 -1.437 4.254
 1.273 -1.439 4.253
 1.301 -1.441 4.252
 1.33 -1.444 4.253
 1.358 -1.446 4.251
 1.386 -1.448 4.251
 1.416 -1.452 4.253
 1.444 -1.454 4.252
 1.472 -1.455 4.247
 1.5 -1.457 4.244
 1.528 -1.459 4.241
 1.557 -1.461 4.237
 1.585 -1.463 4.234
 1.614 -1.465 4.231
 1.643 -1.467 4.229
 1.671 -1.469 4.223
 1.699 -1.47 4.216
 1.728 -1.472 4.213
 1.757 -1.474 4.207
 1.784 -1.474 4.198
 1.81 -1.474 4.186
 1.832 -1.471 4.167
 1.854 -1.467 4.145
 1.874 -1.462 4.12
 1.891 -1.454 4.088
 0 0 0
 0 0 0
 0 0 0
 0 0 0
 0 0 0
 0 0 0
 0.063 -0.048 0.115
 0.064 -0.048 0.114
 0.064 -0.048 0.114
 0.733 -0.498 1.346
 1.289 -0.862 2.337
 1.81 -1.194 3.232
 1.824 -1.19 3.21
 1.845 -1.19 3.198
 1.582 -1.009 2.7
 0 0 0
 0 0 0
 -0.119 -0.075 0.193
 -0.062 -0.04 0.095
 -0.095 -0.061 0.155
 -0.086 -0.056 0.142
 -0.078 -0.052 0.13
 -0.069 -0.046 0.115
 -0.064 -0.044 0.109
 -0.144 -0.098 0.264
 -0.224 -0.154 0.424
 -0.213 -0.148 0.409
 -0.373 -0.262 0.739
 -0.445 -0.317 0.899
 -0.684 -0.492 1.409
 -0.917 -0.668 1.926
 -1.306 -0.965 2.795
 -1.527 -1.143 3.324
 -1.816 -1.38 4.025
 -1.865 -1.437 4.203
 -1.91 -1.493 4.378
 -1.878 -1.49 4.379
 -1.844 -1.485 4.375
 -1.812 -1.482 4.376
 -1.781 -1.48 4.379
 -1.75 -1.477 4.379
 -1.719 -1.475 4.381
 -1.688 -1.471 4.38
 -1.657 -1.468 4.381
 -1.625 -1.465 4.378
 -1.594 -1.461 4.376
 -1.562 -1.458 4.374
 -1.532 -1.455 4.374
 -1.503 -1.453 4.376
 -1.472 -1.449 4.372
 -1.443 -1.448 4.374
 -1.412 -1.444 4.371
 -1.383 -1.442 4.37
 -1.351 -1.438 4.364
 -1.321 -1.434 4.36
 -1.291 -1.431 4.357
 -1.262 -1.428 4.354
 -1.233 -1.425 4.352
 -1.204 -1.423 4.351
 -1.176 -1.421 4.352
 -1.147 -1.419 4.349
 -1.119 -1.416 4.348
 -1.089 -1.413 4.341
 -1.06 -1.409 4.336
 -1.033 -1.409 4.339
 -1.006 -1.407 4.338
 -0.977 -1.403 4.333
 -0.951 -1.404 4.338
 -0.924 -1.403 4.339
 -0.897 -1.401 4.339
 -0.87 -1.401 4.343
 -0.844 -1.401 4.347
 -0.817 -1.399 4.343
 -0.79 -1.398 4.343
 -0.763 -1.396 4.342
 -0.735 -1.393 4.337
 -0.709 -1.392 4.336
 -0.682 -1.391 4.335
 -0.655 -1.389 4.333
 -0.629 -1.389 4.334
 -0.603 -1.389 4.336
 -0.576 -1.387 4.333
 -0.55 -1.385 4.331
 -0.524 -1.385 4.332
 -0.497 -1.382 4.326
 -0.47 -1.38 4.319
 -0.444 -1.378 4.314
 -0.418 -1.378 4.316
 -0.391 -1.375 4.309
 -0.365 -1.373 4.306
 -0.339 -1.372 4.301
 -0.314 -1.373 4.307
 -0.288 -1.372 4.306
 -0.263 -1.372 4.307
 -0.237 -1.372 4.308
 -0.212 -1.374 4.313
 -0.186 -1.373 4.311
 -0.16 -1.372 4.308
 -0.135 -1.371 4.306
 -0.109 -1.37 4.304
 -0.084 -1.368 4.297
 -0.058 -1.366 4.29
 -0.033 -1.367 4.292
 -0.007 -1.365 4.286
 0.017 -1.364 4.282
 0.043 -1.366 4.29
 0.068 -1.368 4.294
 0.094 -1.369 4.295
 0.119 -1.371 4.301
 0.145 -1.373 4.308
 0.171 -1.373 4.307
 0.196 -1.373 4.305
 0.221 -1.371 4.297
 0.246 -1.37 4.293
 0.272 -1.37 4.29
 0.297 -1.369 4.288
 0.323 -1.371 4.292
 0.349 -1.373 4.295
 0.374 -1.371 4.288
 0.399 -1.371 4.285
 0.425 -1.37 4.28
 0.45 -1.369 4.275
 0.475 -1.37 4.275
 0.502 -1.374 4.283
 0.528 -1.375 4.284
 0.554 -1.377 4.287
 0.581 -1.38 4.292
 0.606 -1.379 4.287
 0.632 -1.381 4.288
 0.658 -1.38 4.284
 0.684 -1.382 4.286
 0.709 -1.381 4.279
 0.736 -1.383 4.28
 0.761 -1.382 4.274
 0.787 -1.384 4.274
 0.814 -1.385 4.273
 0.841 -1.387 4.277
 0.868 -1.389 4.278
 0.894 -1.39 4.277
 0.921 -1.392 4.277
 0.947 -1.393 4.276
 0.974 -1.394 4.273
 1.001 -1.396 4.272
 1.028 -1.398 4.272
 1.055 -1.399 4.272
 1.081 -1.399 4.267
 1.108 -1.401 4.265
 1.134 -1.401 4.26
 1.162 -1.403 4.26
 1.188 -1.404 4.256
 1.217 -1.407 4.258
 1.244 -1.409 4.256
 1.272 -1.411 4.256
 1.3 -1.413 4.254
 1.328 -1.415 4.255
 1.356 -1.417 4.252
 1.384 -1.419 4.25
 1.414 -1.423 4.255
 1.442 -1.425 4.252
 1.469 -1.426 4.246
 1.497 -1.428 4.244
 1.527 -1.43 4.243
 1.554 -1.432 4.238
 1.583 -1.433 4.234
 1.612 -1.437 4.234
 1.641 -1.439 4.231
 1.669 -1.44 4.226
 1.697 -1.441 4.219
 1.727 -1.444 4.218
 1.756 -1.446 4.213
 1.784 -1.447 4.207
 1.812 -1.448 4.198
 1.836 -1.446 4.182
 1.859 -1.444 4.164
 1.878 -1.438 4.137
 0 0 0
 0 0 0
 0 0 0
 0 0 0
 0 0 0
 0 0 0
 0 0 0
 0.063 -0.047 0.115
 0.064 -0.047 0.114
 0.064 -0.047 0.114
 0.481 -0.322 0.884
 1.099 -0.722 1.995
 1.82 -1.179 3.259
 1.841 -1.179 3.247
 1.863 -1.179 3.235
 1.472 -0.922 2.517
 0 0 0
 0.456 -0.282 0.752
 -0.125 -0.077 0.203
 -0.12 -0.075 0.198
 -0.106 -0.067 0.177
 -0.093 -0.06 0.155
 -0.083 -0.054 0.14
 -0.073 -0.048 0.123
 -0.068 -0.046 0.117
 -0.058 -0.04 0.099
 -0.052 -0.036 0.089
 -0.042 -0.03 0.07
 -0.203 -0.14 0.396
 -0.361 -0.252 0.728
 -0.683 -0.482 1.411
 -0.998 -0.714 2.102
 -1.388 -1.006 2.978
 -1.607 -1.181 3.507
 -1.816 -1.354 4.032
 -1.865 -1.41 4.21
 -1.909 -1.465 4.385
 -1.876 -1.461 4.384
 -1.843 -1.457 4.381
 -1.811 -1.453 4.381
 -1.78 -1.451 4.384
 -1.748 -1.448 4.384
 -1.717 -1.445 4.385
 -1.686 -1.442 4.384
 -1.655 -1.44 4.385
 -1.622 -1.435 4.38
 -1.591 -1.432 4.378
 -1.559 -1.428 4.373
 -1.529 -1.425 4.374
 -1.5 -1.424 4.376
 -1.469 -1.42 4.373
 -1.441 -1.419 4.376
 -1.411 -1.416 4.376
 -1.381 -1.413 4.374
 -1.351 -1.41 4.37
 -1.321 -1.407 4.368
 -1.291 -1.404 4.363
 -1.262 -1.401 4.362
 -1.232 -1.398 4.359
 -1.203 -1.395 4.356
 -1.175 -1.394 4.358
 -1.146 -1.391 4.354
 -1.118 -1.389 4.351
 -1.088 -1.385 4.345
 -1.059 -1.381 4.339
 -1.031 -1.38 4.339
 -1.004 -1.378 4.337
 -0.975 -1.375 4.332
 -0.95 -1.376 4.34
 -0.922 -1.375 4.34
 -0.896 -1.374 4.344
 -0.87 -1.374 4.348
 -0.844 -1.374 4.352
 -0.816 -1.372 4.349
 -0.79 -1.372 4.351
 -0.762 -1.37 4.348
 -0.735 -1.367 4.343
 -0.709 -1.367 4.346
 -0.682 -1.365 4.341
 -0.655 -1.363 4.338
