 1.837 -1.39 3.223
 1.837 -1.373 3.172
 1.841 -1.36 3.131
 1.845 -1.347 3.091
 1.84 -1.329 3.037
 1.845 -1.317 2.999
 -2.267 -1.611 3.827
 -2.258 -1.623 3.87
 -2.23 -1.622 3.881
 -2.205 -1.624 3.897
 -2.178 -1.623 3.908
 -2.15 -1.622 3.918
 -2.125 -1.624 3.934
 -2.097 -1.622 3.943
 -2.068 -1.621 3.951
 -2.042 -1.621 3.963
 -2.015 -1.62 3.973
 -1.986 -1.618 3.98
 -1.961 -1.62 3.995
 -1.935 -1.62 4.007
 -1.908 -1.62 4.016
 -1.881 -1.62 4.026
 -1.853 -1.618 4.034
 -1.826 -1.617 4.041
 -1.8 -1.618 4.053
 -1.773 -1.618 4.063
 -1.747 -1.618 4.072
 -1.721 -1.618 4.083
 -1.693 -1.617 4.088
 -1.664 -1.614 4.092
 -1.638 -1.615 4.102
 -1.61 -1.614 4.108
 -1.583 -1.612 4.113
 -1.556 -1.612 4.121
 -1.529 -1.611 4.127
 -1.502 -1.611 4.133
 -1.474 -1.609 4.138
 -1.449 -1.611 4.15
 -1.423 -1.611 4.157
 -1.396 -1.61 4.163
 -1.368 -1.608 4.166
 -1.343 -1.609 4.174
 -1.315 -1.608 4.178
 -1.288 -1.607 4.182
 -1.261 -1.606 4.186
 -1.235 -1.606 4.192
 -1.207 -1.604 4.193
 -1.18 -1.602 4.194
 -1.153 -1.601 4.198
 -1.128 -1.602 4.207
 -1.1 -1.6 4.207
 -1.074 -1.599 4.21
 -1.048 -1.6 4.217
 -1.022 -1.6 4.222
 -0.994 -1.597 4.221
 -0.969 -1.598 4.228
 -0.942 -1.597 4.23
 -0.914 -1.594 4.227
 -0.887 -1.593 4.226
 -0.861 -1.591 4.228
 -0.834 -1.589 4.226
 -0.807 -1.588 4.226
 -0.782 -1.589 4.233
 -0.756 -1.589 4.236
 -0.73 -1.588 4.237
 -0.704 -1.587 4.239
 -0.678 -1.588 4.244
 -0.651 -1.585 4.24
 -0.625 -1.584 4.238
 -0.599 -1.584 4.243
 -0.574 -1.585 4.246
 -0.547 -1.583 4.244
 -0.522 -1.584 4.25
 -0.496 -1.583 4.248
 -0.47 -1.582 4.249
 -0.444 -1.581 4.247
 -0.419 -1.581 4.251
 -0.393 -1.58 4.249
 -0.367 -1.582 4.255
 -0.341 -1.58 4.253
 -0.316 -1.579 4.251
 -0.29 -1.578 4.247
 -0.264 -1.577 4.247
 -0.238 -1.576 4.246
 -0.212 -1.575 4.244
 -0.187 -1.576 4.246
 -0.161 -1.576 4.246
 -0.136 -1.575 4.245
 -0.11 -1.574 4.242
 -0.085 -1.575 4.245
 -0.059 -1.574 4.242
 -0.034 -1.574 4.242
 -0.008 -1.575 4.246
 0.016 -1.575 4.244
 0.042 -1.574 4.243
 0.067 -1.575 4.244
 0.093 -1.576 4.245
 0.118 -1.573 4.237
 0.143 -1.574 4.24
 0.169 -1.576 4.242
 0.195 -1.576 4.242
 0.22 -1.577 4.241
 0.246 -1.579 4.246
 0.271 -1.579 4.244
 0.297 -1.577 4.239
 0.322 -1.577 4.235
 0.347 -1.577 4.233
 0.373 -1.575 4.228
 0.398 -1.576 4.228
 0.424 -1.577 4.227
 0.45 -1.578 4.228
 0.475 -1.578 4.226
 0.501 -1.579 4.225
 0.527 -1.58 4.224
 0.552 -1.58 4.222
 0.578 -1.582 4.222
 0.604 -1.583 4.222
 0.63 -1.584 4.221
 0.656 -1.585 4.22
 0.682 -1.586 4.22
 0.708 -1.586 4.217
 0.734 -1.588 4.216
 0.76 -1.589 4.214
 0.786 -1.589 4.211
 0.812 -1.59 4.209
 0.838 -1.592 4.209
 0.864 -1.592 4.204
 0.89 -1.592 4.201
 0.916 -1.593 4.198
 0.942 -1.594 4.196
 0.967 -1.593 4.188
 0.995 -1.597 4.191
 1.022 -1.598 4.19
 1.048 -1.599 4.186
 1.074 -1.6 4.182
 1.102 -1.603 4.184
 1.128 -1.603 4.179
 1.154 -1.604 4.175
 1.182 -1.607 4.175
 1.21 -1.609 4.174
 1.235 -1.609 4.166
 1.262 -1.61 4.162
 1.289 -1.612 4.16
 1.316 -1.613 4.156
 1.343 -1.614 4.15
 1.37 -1.616 4.147
 1.397 -1.617 4.141
 1.424 -1.618 4.136
 1.449 -1.617 4.126
 1.476 -1.618 4.12
 1.502 -1.618 4.11
 1.529 -1.619 4.105
 1.555 -1.62 4.098
 1.582 -1.621 4.09
 1.609 -1.622 4.084
 1.636 -1.623 4.077
 1.663 -1.623 4.068
 1.689 -1.624 4.059
 1.716 -1.624 4.051
 1.74 -1.623 4.037
 1.766 -1.622 4.026
 1.791 -1.621 4.013
 1.813 -1.618 3.994
 1.833 -1.613 3.97
 1.849 -1.605 3.938
 1.863 -1.594 3.902
 1.873 -1.582 3.861
 1.878 -1.565 3.808
 1.885 -1.55 3.759
 1.892 -1.536 3.714
 1.898 -1.521 3.665
 1.901 -1.504 3.613
 1.905 -1.489 3.565
 1.91 -1.474 3.519
 1.915 -1.46 3.473
 1.839 -1.385 3.283
 1.826 -1.36 3.212
 1.83 -1.346 3.169
 1.837 -1.336 3.132
 1.844 -1.325 3.097
 1.816 -1.29 3.004
 1.826 -1.283 2.976
 -2.296 -1.605 3.886
 -2.283 -1.614 3.922
 -2.261 -1.617 3.944
 -2.235 -1.619 3.959
 -2.208 -1.618 3.972
 -2.18 -1.618 3.983
 -2.155 -1.619 3.998
 -2.127 -1.618 4.009
 -2.097 -1.616 4.015
 -2.07 -1.616 4.028
 -2.043 -1.616 4.038
 -2.012 -1.613 4.043
 -1.988 -1.615 4.059
 -1.962 -1.616 4.072
 -1.933 -1.614 4.078
 -1.905 -1.613 4.087
 -1.877 -1.613 4.096
 -1.849 -1.611 4.102
 -1.822 -1.612 4.114
 -1.796 -1.612 4.125
 -1.769 -1.611 4.133
 -1.742 -1.611 4.143
 -1.713 -1.609 4.147
 -1.684 -1.607 4.151
 -1.657 -1.607 4.16
 -1.63 -1.607 4.167
 -1.602 -1.606 4.173
 -1.575 -1.605 4.181
 -1.547 -1.604 4.185
 -1.52 -1.603 4.192
 -1.492 -1.602 4.196
 -1.466 -1.602 4.206
 -1.438 -1.601 4.21
 -1.41 -1.599 4.213
 -1.381 -1.597 4.213
 -1.354 -1.596 4.219
 -1.326 -1.594 4.22
 -1.299 -1.594 4.226
 -1.271 -1.592 4.229
 -1.244 -1.591 4.233
 -1.216 -1.59 4.234
 -1.189 -1.588 4.237
 -1.161 -1.586 4.236
 -1.135 -1.587 4.244
 -1.107 -1.585 4.244
 -1.08 -1.583 4.245
 -1.054 -1.583 4.249
 -1.027 -1.583 4.255
 -1 -1.581 4.256
 -0.974 -1.582 4.262
 -0.948 -1.581 4.264
 -0.919 -1.577 4.259
 -0.892 -1.576 4.259
 -0.865 -1.574 4.258
 -0.838 -1.571 4.256
 -0.812 -1.571 4.259
 -0.786 -1.572 4.265
 -0.76 -1.571 4.266
 -0.733 -1.57 4.266
 -0.707 -1.569 4.268
 -0.681 -1.568 4.268
 -0.654 -1.566 4.264
 -0.627 -1.564 4.263
 -0.601 -1.564 4.266
 -0.575 -1.564 4.268
 -0.549 -1.562 4.266
 -0.523 -1.563 4.27
 -0.497 -1.561 4.267
 -0.471 -1.561 4.269
 -0.445 -1.559 4.267
 -0.419 -1.559 4.268
 -0.394 -1.559 4.269
 -0.368 -1.56 4.273
 -0.342 -1.558 4.269
 -0.316 -1.557 4.268
 -0.29 -1.556 4.266
 -0.264 -1.555 4.265
 -0.239 -1.554 4.263
 -0.213 -1.553 4.262
 -0.187 -1.554 4.264
 -0.162 -1.553 4.263
 -0.136 -1.552 4.26
 -0.11 -1.551 4.258
 -0.085 -1.551 4.258
 -0.059 -1.55 4.254
 -0.034 -1.55 4.254
 -0.008 -1.551 4.258
 0.016 -1.551 4.257
 0.042 -1.551 4.256
 0.067 -1.552 4.259
 0.093 -1.553 4.26
 0.118 -1.551 4.255
 0.144 -1.553 4.258
 0.17 -1.554 4.26
 0.195 -1.554 4.258
 0.221 -1.554 4.257
 0.246 -1.555 4.26
 0.272 -1.555 4.256
 0.297 -1.553 4.251
 0.322 -1.553 4.247
 0.348 -1.553 4.246
 0.373 -1.552 4.241
 0.399 -1.553 4.241
 0.425 -1.554 4.241
 0.451 -1.555 4.244
 0.476 -1.556 4.242
 0.502 -1.557 4.241
 0.528 -1.558 4.241
 0.553 -1.558 4.238
 0.579 -1.559 4.238
 0.606 -1.56 4.239
 0.632 -1.562 4.239
 0.657 -1.562 4.236
 0.684 -1.564 4.237
 0.709 -1.564 4.234
 0.735 -1.565 4.232
 0.761 -1.565 4.228
 0.787 -1.566 4.227
 0.814 -1.568 4.228
 0.841 -1.57 4.229
 0.867 -1.571 4.226
 0.893 -1.572 4.225
 0.92 -1.573 4.223
 0.946 -1.574 4.219
 0.971 -1.574 4.213
 0.999 -1.577 4.215
 1.025 -1.578 4.213
 1.052 -1.58 4.212
 1.079 -1.581 4.21
 1.108 -1.585 4.214
 1.134 -1.585 4.208
 1.161 -1.587 4.206
 1.188 -1.588 4.203
 1.215 -1.589 4.199
 1.24 -1.589 4.191
 1.268 -1.591 4.189
 1.295 -1.593 4.187
 1.323 -1.595 4.186
 1.351 -1.597 4.182
 1.379 -1.599 4.181
 1.406 -1.6 4.176
 1.433 -1.602 4.171
 1.46 -1.603 4.165
 1.487 -1.604 4.16
 1.514 -1.605 4.153
 1.541 -1.606 4.147
 1.569 -1.607 4.142
 1.597 -1.609 4.137
 1.624 -1.61 4.13
 1.651 -1.611 4.124
 1.678 -1.612 4.116
 1.705 -1.612 4.107
 1.732 -1.613 4.098
 1.757 -1.612 4.085
 1.782 -1.61 4.071
 1.807 -1.61 4.058
 1.828 -1.605 4.035
 1.845 -1.597 4.004
 1.858 -1.587 3.968
 1.87 -1.575 3.927
 1.879 -1.561 3.881
 1.885 -1.545 3.83
 1.892 -1.53 3.782
 1.9 -1.517 3.739
 1.908 -1.504 3.693
 1.909 -1.486 3.638
 1.922 -1.477 3.605
 0 0 0
 0 0 0
 0 0 0
 1.815 -1.329 3.2
 1.831 -1.325 3.178
 1.837 -1.314 3.14
 1.843 -1.304 3.104
 1.845 -1.29 3.06
 1.817 -1.256 2.968
 -2.334 -1.604 3.961
 -2.316 -1.61 3.989
 -2.289 -1.611 4.003
 -2.267 -1.615 4.027
 -2.24 -1.615 4.04
 -2.213 -1.615 4.053
 -2.186 -1.615 4.067
 -2.158 -1.615 4.077
 -2.126 -1.612 4.081
 -2.097 -1.611 4.091
 -2.069 -1.609 4.1
 -2.038 -1.607 4.105
 -2.013 -1.608 4.119
 -1.986 -1.609 4.133
 -1.957 -1.607 4.139
 -1.929 -1.606 4.148
 -1.901 -1.606 4.157
 -1.872 -1.604 4.163
 -1.845 -1.604 4.174
 -1.818 -1.605 4.185
 -1.789 -1.603 4.192
 -1.762 -1.603 4.201
 -1.732 -1.6 4.203
 -1.702 -1.598 4.205
 -1.674 -1.597 4.213
 -1.646 -1.595 4.217
 -1.616 -1.593 4.221
 -1.589 -1.593 4.228
 -1.56 -1.591 4.232
 -1.533 -1.59 4.238
 -1.504 -1.589 4.241
 -1.478 -1.589 4.249
 -1.448 -1.586 4.25
 -1.42 -1.584 4.252
 -1.391 -1.582 4.254
 -1.363 -1.581 4.258
 -1.334 -1.578 4.256
 -1.307 -1.577 4.26
 -1.279 -1.575 4.263
 -1.25 -1.573 4.263
 -1.222 -1.571 4.264
 -1.195 -1.57 4.267
 -1.167 -1.568 4.268
 -1.14 -1.567 4.272
 -1.112 -1.565 4.271
 -1.085 -1.563 4.272
 -1.058 -1.563 4.275
 -1.031 -1.562 4.278
 -1.004 -1.56 4.279
 -0.977 -1.56 4.282
 -0.95 -1.558 4.283
 -0.922 -1.555 4.279
 -0.895 -1.554 4.28
 -0.867 -1.551 4.277
 -0.84 -1.55 4.276
 -0.814 -1.549 4.279
 -0.788 -1.549 4.281
 -0.76 -1.546 4.278
 -0.734 -1.545 4.278
 -0.708 -1.545 4.281
 -0.681 -1.543 4.28
 -0.654 -1.541 4.277
 -0.628 -1.54 4.278
 -0.602 -1.54 4.278
 -0.575 -1.538 4.276
 -0.549 -1.536 4.273
 -0.523 -1.536 4.276
 -0.497 -1.535 4.274
 -0.471 -1.534 4.275
 -0.445 -1.534 4.275
 -0.419 -1.534 4.278
 -0.393 -1.534 4.278
 -0.368 -1.534 4.282
 -0.342 -1.533 4.279
 -0.316 -1.531 4.276
 -0.29 -1.529 4.272
 -0.264 -1.528 4.271
 -0.238 -1.528 4.269
 -0.213 -1.528 4.27
 -0.187 -1.528 4.271
 -0.162 -1.528 4.273
 -0.136 -1.527 4.27
 -0.11 -1.526 4.267
 -0.085 -1.526 4.266
 -0.059 -1.525 4.265
 -0.034 -1.525 4.263
 -0.008 -1.526 4.266
 0.016 -1.526 4.265
 0.042 -1.526 4.265
 0.067 -1.526 4.264
 0.093 -1.527 4.266
 0.118 -1.526 4.264
 0.144 -1.527 4.266
 0.17 -1.528 4.267
 0.195 -1.528 4.267
 0.221 -1.528 4.266
 0.246 -1.529 4.265
 0.272 -1.529 4.263
 0.297 -1.527 4.258
 0.323 -1.527 4.255
 0.348 -1.527 4.253
 0.374 -1.527 4.251
 0.399 -1.527 4.249
 0.425 -1.529 4.251
 0.451 -1.53 4.252
 0.477 -1.531 4.252
 0.503 -1.532 4.252
 0.528 -1.533 4.252
 0.554 -1.533 4.248
 0.58 -1.534 4.248
 0.606 -1.534 4.246
 0.631 -1.535 4.244
 0.657 -1.535 4.241
 0.684 -1.538 4.244
 0.71 -1.539 4.243
 0.736 -1.541 4.245
 0.763 -1.542 4.244
 0.789 -1.543 4.244
 0.816 -1.545 4.244
 0.842 -1.546 4.243
 0.868 -1.547 4.24
 0.895 -1.548 4.238
 0.921 -1.55 4.237
 0.947 -1.55 4.233
 0.973 -1.551 4.23
 1.001 -1.554 4.232
 1.028 -1.555 4.23
 1.055 -1.557 4.229
 1.082 -1.559 4.23
 1.11 -1.562 4.231
 1.137 -1.563 4.227
 1.164 -1.565 4.226
 1.191 -1.566 4.222
 1.218 -1.567 4.218
 1.244 -1.567 4.212
 1.272 -1.57 4.211
 1.299 -1.572 4.209
 1.328 -1.574 4.208
 1.355 -1.576 4.206
 1.384 -1.579 4.205
 1.411 -1.58 4.2
 1.439 -1.582 4.197
 1.467 -1.583 4.193
 1.495 -1.585 4.189
 1.522 -1.586 4.184
 1.55 -1.589 4.18
 1.579 -1.59 4.176
 1.606 -1.592 4.171
 1.634 -1.593 4.165
 1.662 -1.595 4.16
 1.689 -1.596 4.152
 1.716 -1.596 4.142
 1.744 -1.597 4.136
 1.77 -1.597 4.123
 1.794 -1.594 4.107
 1.818 -1.593 4.093
 1.839 -1.588 4.069
 1.853 -1.578 4.033
 1.866 -1.567 3.992
 1.876 -1.554 3.949
 1.886 -1.541 3.903
 1.891 -1.525 3.852
 1.899 -1.511 3.806
 1.91 -1.5 3.765
 1.919 -1.488 3.724
 1.919 -1.469 3.664
 0 0 0
 0 0 0
 0 0 0
 0 0 0
 1.813 -1.306 3.203
 1.827 -1.3 3.179
 1.833 -1.29 3.141
 1.841 -1.28 3.107
 1.843 -1.267 3.064
 1.847 -1.256 3.025
 -2.389 -1.614 4.063
 -2.342 -1.601 4.044
 -2.323 -1.607 4.074
 -2.297 -1.608 4.09
 -2.27 -1.609 4.104
 -2.242 -1.609 4.117
 -2.213 -1.608 4.127
 -2.185 -1.607 4.138
 -2.154 -1.605 4.145
 -2.125 -1.604 4.155
 -2.096 -1.603 4.164
 -2.066 -1.601 4.17
 -2.038 -1.601 4.182
 -2.011 -1.601 4.194
 -1.981 -1.6 4.2
 -1.952 -1.598 4.208
 -1.923 -1.597 4.214
 -1.892 -1.595 4.219
 -1.864 -1.593 4.226
 -1.835 -1.592 4.234
 -1.806 -1.591 4.24
 -1.777 -1.589 4.246
 -1.747 -1.587 4.249
 -1.717 -1.585 4.252
 -1.689 -1.584 4.259
 -1.66 -1.582 4.263
 -1.63 -1.58 4.265
 -1.602 -1.579 4.271
 -1.572 -1.576 4.273
 -1.543 -1.574 4.275
 -1.513 -1.571 4.276
 -1.485 -1.57 4.281
 -1.455 -1.567 4.279
 -1.426 -1.565 4.28
 -1.398 -1.563 4.283
 -1.369 -1.561 4.284
 -1.339 -1.557 4.282
 -1.311 -1.556 4.285
 -1.283 -1.554 4.285
 -1.254 -1.551 4.283
 -1.226 -1.549 4.286
 -1.198 -1.548 4.288
 -1.17 -1.546 4.288
 -1.143 -1.545 4.29
 -1.114 -1.542 4.289
 -1.086 -1.539 4.287
 -1.059 -1.538 4.288
 -1.032 -1.537 4.29
 -1.005 -1.536 4.293
 -0.977 -1.535 4.293
 -0.95 -1.533 4.294
 -0.922 -1.53 4.291
 -0.895 -1.529 4.291
 -0.868 -1.526 4.287
 -0.84 -1.524 4.285
 -0.814 -1.523 4.287
 -0.787 -1.522 4.289
 -0.76 -1.52 4.286
 -0.734 -1.519 4.286
 -0.708 -1.519 4.289
 -0.681 -1.517 4.286
 -0.654 -1.516 4.285
 -0.628 -1.515 4.286
 -0.602 -1.513 4.285
 -0.575 -1.512 4.284
 -0.549 -1.512 4.285
 -0.523 -1.511 4.286
 -0.497 -1.509 4.283
 -0.471 -1.509 4.285
 -0.445 -1.509 4.286
 -0.419 -1.508 4.284
 -0.393 -1.507 4.284
 -0.367 -1.507 4.286
 -0.341 -1.506 4.284
 -0.316 -1.505 4.281
 -0.29 -1.504 4.28
 -0.264 -1.503 4.279
 -0.238 -1.502 4.278
 -0.213 -1.502 4.277
 -0.187 -1.502 4.277
 -0.161 -1.501 4.277
 -0.136 -1.5 4.273
 -0.11 -1.499 4.271
 -0.084 -1.499 4.271
 -0.059 -1.498 4.269
 -0.033 -1.498 4.269
 -0.008 -1.5 4.273
 0.017 -1.5 4.272
 0.042 -1.499 4.27
 0.068 -1.499 4.27
 0.093 -1.5 4.272
 0.119 -1.5 4.27
 0.144 -1.501 4.272
 0.17 -1.502 4.274
 0.195 -1.503 4.274
 0.221 -1.502 4.272
 0.246 -1.502 4.269
 0.272 -1.502 4.268
 0.297 -1.501 4.263
 0.322 -1.5 4.259
 0.348 -1.501 4.258
 0.374 -1.501 4.257
 0.399 -1.501 4.256
 0.425 -1.503 4.257
 0.451 -1.504 4.258
 0.477 -1.505 4.259
 0.503 -1.506 4.26
 0.529 -1.507 4.259
 0.554 -1.507 4.255
 0.58 -1.508 4.255
 0.605 -1.508 4.251
 0.631 -1.508 4.249
 0.657 -1.508 4.246
 0.683 -1.511 4.249
 0.71 -1.512 4.25
 0.736 -1.515 4.252
 0.763 -1.516 4.252
 0.789 -1.517 4.251
 0.816 -1.519 4.251
 0.842 -1.52 4.249
 0.868 -1.52 4.246
 0.894 -1.522 4.245
 0.921 -1.523 4.244
 0.947 -1.524 4.241
 0.974 -1.526 4.242
 1.002 -1.529 4.243
 1.029 -1.53 4.241
 1.056 -1.532 4.24
 1.083 -1.534 4.24
 1.11 -1.536 4.239
 1.137 -1.537 4.236
 1.165 -1.539 4.236
 1.192 -1.541 4.234
 1.219 -1.542 4.229
 1.245 -1.543 4.224
 1.274 -1.546 4.225
 1.302 -1.548 4.224
 1.33 -1.55 4.224
 1.359 -1.553 4.223
 1.387 -1.556 4.224
 1.414 -1.557 4.218
 1.443 -1.559 4.215
 1.471 -1.561 4.213
 1.499 -1.563 4.211
 1.527 -1.565 4.206
 1.556 -1.568 4.204
 1.585 -1.57 4.201
 1.613 -1.571 4.195
 1.64 -1.572 4.189
 1.669 -1.574 4.185
 1.697 -1.575 4.178
 1.724 -1.576 4.17
 1.753 -1.578 4.165
 1.779 -1.578 4.154
 1.803 -1.576 4.138
 1.828 -1.574 4.123
 1.847 -1.568 4.096
 1.861 -1.558 4.058
 1.874 -1.547 4.018
 1.884 -1.534 3.974
 1.893 -1.521 3.927
 1.898 -1.504 3.873
 1.904 -1.49 3.824
 1.918 -1.481 3.79
 1.925 -1.468 3.744
 0 0 0
 0 0 0
 0 0 0
 0 0 0
 0 0 0
 1.812 -1.283 3.208
 1.825 -1.277 3.182
 1.835 -1.269 3.152
 1.843 -1.26 3.118
 1.857 -1.255 3.094
 1.845 -1.234 3.029
 0 0 0
 -2.391 -1.606 4.14
 -2.362 -1.606 4.151
 -2.334 -1.606 4.165
 -2.305 -1.606 4.178
 -2.276 -1.605 4.188
 -2.245 -1.603 4.197
 -2.215 -1.602 4.206
 -2.183 -1.598 4.21
 -2.151 -1.596 4.216
 -2.12 -1.594 4.221
 -2.088 -1.59 4.225
 -2.059 -1.59 4.234
 -2.029 -1.588 4.241
 -1.998 -1.585 4.245
 -1.968 -1.584 4.252
 -1.937 -1.582 4.257
 -1.907 -1.579 4.261
 -1.877 -1.578 4.267
 -1.847 -1.576 4.272
 -1.817 -1.573 4.275
 -1.788 -1.572 4.281
 -1.757 -1.569 4.283
 -1.727 -1.567 4.286
 -1.698 -1.565 4.291
 -1.668 -1.563 4.293
 -1.637 -1.56 4.293
 -1.608 -1.558 4.297
 -1.577 -1.554 4.295
 -1.547 -1.552 4.297
 -1.517 -1.549 4.296
 -1.489 -1.547 4.3
 -1.458 -1.543 4.297
 -1.43 -1.542 4.3
 -1.401 -1.539 4.301
 -1.371 -1.536 4.299
 -1.341 -1.533 4.296
 -1.313 -1.531 4.299
 -1.283 -1.528 4.296
 -1.254 -1.525 4.294
 -1.228 -1.525 4.3
 -1.199 -1.523 4.3
 -1.171 -1.521 4.3
 -1.143 -1.519 4.302
 -1.115 -1.516 4.299
 -1.086 -1.513 4.293
 -1.058 -1.511 4.295
 -1.03 -1.509 4.294
 -1.004 -1.508 4.297
 -0.976 -1.507 4.297
 -0.949 -1.506 4.298
 -0.921 -1.503 4.295
 -0.895 -1.502 4.297
 -0.867 -1.499 4.292
 -0.84 -1.497 4.291
 -0.813 -1.497 4.293
 -0.787 -1.495 4.293
 -0.76 -1.494 4.292
 -0.733 -1.493 4.293
 -0.707 -1.492 4.295
 -0.68 -1.49 4.292
 -0.654 -1.49 4.294
 -0.628 -1.489 4.294
 -0.601 -1.487 4.29
 -0.575 -1.485 4.289
 -0.548 -1.484 4.287
 -0.522 -1.483 4.286
 -0.496 -1.481 4.284
 -0.47 -1.482 4.287
 -0.444 -1.481 4.288
 -0.419 -1.481 4.288
 -0.393 -1.48 4.288
 -0.367 -1.48 4.289
 -0.341 -1.479 4.286
 -0.315 -1.477 4.284
 -0.289 -1.477 4.283
 -0.264 -1.476 4.282
 -0.238 -1.475 4.281
 -0.212 -1.475 4.281
 -0.187 -1.475 4.281
 -0.161 -1.474 4.28
 -0.135 -1.473 4.277
 -0.11 -1.472 4.274
 -0.084 -1.472 4.274
 -0.059 -1.471 4.272
 -0.033 -1.472 4.273
 -0.008 -1.473 4.276
 0.017 -1.473 4.276
 0.042 -1.472 4.273
 0.068 -1.472 4.273
 0.093 -1.473 4.275
 0.119 -1.473 4.274
 0.144 -1.474 4.274
 0.17 -1.475 4.276
 0.195 -1.476 4.278
 0.221 -1.475 4.275
 0.246 -1.475 4.272
 0.272 -1.475 4.271
 0.297 -1.474 4.267
 0.322 -1.473 4.263
 0.348 -1.473 4.261
 0.373 -1.474 4.261
 0.399 -1.475 4.263
 0.425 -1.477 4.265
 0.451 -1.478 4.265
 0.477 -1.479 4.266
 0.503 -1.48 4.266
 0.528 -1.48 4.263
 0.554 -1.48 4.26
 0.58 -1.481 4.26
 0.605 -1.481 4.256
 0.631 -1.481 4.253
 0.657 -1.482 4.251
 0.683 -1.484 4.255
 0.709 -1.486 4.255
 0.736 -1.488 4.257
 0.763 -1.489 4.257
 0.789 -1.491 4.257
 0.815 -1.492 4.255
 0.841 -1.492 4.253
 0.868 -1.494 4.253
 0.895 -1.496 4.253
 0.921 -1.497 4.252
 0.948 -1.499 4.25
 0.975 -1.5 4.25
 1.001 -1.502 4.248
 1.028 -1.503 4.246
 1.055 -1.505 4.245
 1.082 -1.507 4.244
 1.109 -1.508 4.242
 1.136 -1.509 4.24
 1.164 -1.511 4.239
 1.191 -1.513 4.237
 1.217 -1.514 4.233
 1.245 -1.516 4.23
 1.273 -1.518 4.231
 1.302 -1.521 4.231
 1.33 -1.523 4.23
 1.359 -1.527 4.233
 1.388 -1.53 4.234
 1.415 -1.531 4.229
 1.443 -1.533 4.226
 1.472 -1.536 4.224
 1.5 -1.538 4.221
 1.528 -1.539 4.217
 1.558 -1.542 4.217
 1.587 -1.545 4.214
 1.615 -1.546 4.209
 1.643 -1.548 4.204
 1.672 -1.55 4.2
 1.699 -1.551 4.192
 1.727 -1.552 4.186
 1.756 -1.555 4.182
 1.784 -1.555 4.173
 1.808 -1.553 4.157
 1.832 -1.551 4.141
 1.851 -1.545 4.114
 1.867 -1.536 4.08
 1.882 -1.527 4.043
 1.894 -1.516 4.003
 1.903 -1.503 3.957
 1.91 -1.488 3.907
 1.914 -1.472 3.852
 1.927 -1.462 3.816
 0 0 0
 0 0 0
 0 0 0
 0 0 0
 0 0 0
 0 0 0
 1.799 -1.252 3.193
 1.816 -1.249 3.174
 1.83 -1.244 3.15
 1.84 -1.237 3.12
 1.845 -1.227 3.083
 1.859 -1.222 3.06
 -2.469 -1.611 4.22
 -2.418 -1.596 4.197
 -2.394 -1.599 4.218
 -2.362 -1.597 4.226
 -2.333 -1.597 4.238
 -2.3 -1.594 4.244
 -2.268 -1.591 4.25
 -2.237 -1.589 4.258
 -2.205 -1.587 4.263
 -2.172 -1.583 4.266
 -2.139 -1.58 4.27
 -2.107 -1.577 4.273
 -2.076 -1.575 4.279
 -2.043 -1.572 4.281
 -2.011 -1.568 4.283
 -1.98 -1.566 4.288
 -1.948 -1.563 4.29
 -1.917 -1.56 4.293
 -1.886 -1.557 4.296
 -1.856 -1.555 4.3
 -1.824 -1.552 4.302
 -1.793 -1.549 4.304
 -1.762 -1.546 4.304
 -1.731 -1.544 4.307
 -1.701 -1.541 4.308
 -1.671 -1.538 4.309
 -1.64 -1.535 4.31
 -1.61 -1.532 4.31
 -1.578 -1.528 4.307
 -1.549 -1.526 4.309
 -1.518 -1.522 4.307
 -1.488 -1.52 4.308
 -1.458 -1.516 4.306
 -1.429 -1.515 4.308
 -1.4 -1.512 4.307
 -1.37 -1.509 4.306
 -1.341 -1.506 4.305
 -1.313 -1.504 4.307
 -1.283 -1.501 4.303
 -1.254 -1.498 4.302
 -1.227 -1.498 4.307
 -1.198 -1.495 4.305
 -1.17 -1.493 4.305
 -1.142 -1.491 4.306
 -1.114 -1.489 4.304
 -1.085 -1.485 4.299
 -1.058 -1.484 4.302
 -1.03 -1.482 4.3
 -1.003 -1.481 4.302
 -0.976 -1.48 4.302
 -0.949 -1.479 4.305
 -0.921 -1.476 4.301
 -0.894 -1.475 4.301
 -0.866 -1.472 4.296
 -0.838 -1.469 4.293
 -0.812 -1.468 4.293
 -0.785 -1.467 4.294
 -0.759 -1.466 4.296
 -0.733 -1.466 4.298
 -0.707 -1.466 4.301
 -0.68 -1.464 4.298
 -0.654 -1.464 4.3
 -0.627 -1.462 4.298
 -0.6 -1.459 4.293
 -0.574 -1.458 4.292
 -0.548 -1.457 4.293
 -0.521 -1.455 4.288
 -0.495 -1.454 4.286
 -0.47 -1.454 4.29
 -0.444 -1.453 4.289
 -0.418 -1.452 4.287
 -0.392 -1.452 4.288
 -0.366 -1.452 4.289
 -0.34 -1.451 4.289
 -0.315 -1.451 4.289
 -0.289 -1.451 4.29
 -0.263 -1.45 4.288
 -0.238 -1.45 4.289
 -0.212 -1.449 4.289
 -0.186 -1.448 4.286
 -0.161 -1.447 4.283
 -0.135 -1.446 4.28
 -0.109 -1.445 4.277
 -0.084 -1.444 4.274
 -0.058 -1.444 4.273
 -0.033 -1.444 4.274
 -0.008 -1.445 4.276
 0.017 -1.445 4.277
 0.042 -1.445 4.276
 0.068 -1.445 4.276
 0.093 -1.446 4.278
 0.119 -1.446 4.276
 0.144 -1.446 4.276
 0.17 -1.447 4.278
 0.195 -1.448 4.278
 0.221 -1.447 4.275
 0.246 -1.447 4.272
 0.271 -1.447 4.27
 0.297 -1.446 4.267
 0.322 -1.446 4.265
 0.348 -1.446 4.264
 0.373 -1.447 4.265
 0.399 -1.449 4.266
 0.425 -1.45 4.268
 0.451 -1.45 4.266
 0.476 -1.452 4.268
 0.502 -1.452 4.267
 0.528 -1.453 4.265
 0.553 -1.452 4.26
 0.579 -1.453 4.258
 0.604 -1.452 4.255
 0.63 -1.453 4.254
 0.656 -1.454 4.252
 0.682 -1.457 4.256
 0.709 -1.459 4.26
 0.736 -1.461 4.261
 0.762 -1.462 4.261
 0.788 -1.464 4.261
 0.815 -1.465 4.26
 0.841 -1.465 4.256
 0.868 -1.467 4.258
 0.894 -1.469 4.257
 0.921 -1.47 4.257
 0.947 -1.472 4.255
 0.974 -1.473 4.254
 1 -1.474 4.251
 1.027 -1.475 4.25
 1.054 -1.477 4.248
 1.081 -1.479 4.248
 1.109 -1.481 4.247
 1.136 -1.483 4.247
 1.164 -1.485 4.247
 1.191 -1.487 4.245
 1.217 -1.487 4.24
 1.245 -1.489 4.238
 1.273 -1.491 4.237
 1.301 -1.494 4.236
 1.329 -1.496 4.235
 1.359 -1.5 4.239
 1.388 -1.503 4.24
 1.415 -1.504 4.236
 1.443 -1.506 4.233
 1.472 -1.509 4.233
 1.5 -1.511 4.229
 1.528 -1.512 4.224
 1.557 -1.515 4.223
 1.586 -1.517 4.22
 1.614 -1.519 4.216
 1.642 -1.52 4.211
 1.671 -1.522 4.206
 1.699 -1.524 4.2
 1.728 -1.526 4.196
 1.757 -1.528 4.193
 1.785 -1.529 4.186
 1.81 -1.528 4.17
 1.835 -1.527 4.156
 1.855 -1.521 4.13
 1.872 -1.513 4.098
 1.887 -1.505 4.064
 1.901 -1.495 4.027
 1.909 -1.481 3.977
 1.924 -1.473 3.944
 1.927 -1.456 3.885
 0 0 0
 0 0 0
 0 0 0
 0 0 0
 0 0 0
 0 0 0
 0 0 0
 1.794 -1.227 3.191
 1.813 -1.226 3.176
 1.829 -1.222 3.156
 1.838 -1.214 3.124
 1.881 -1.228 3.149
 1.853 -1.197 3.057
 -2.496 -1.599 4.277
 -2.481 -1.609 4.316
 -2.421 -1.589 4.276
 -2.386 -1.584 4.278
 -2.354 -1.583 4.286
 -2.32 -1.579 4.29
 -2.286 -1.575 4.292
 -2.252 -1.572 4.296
 -2.219 -1.569 4.3
 -2.185 -1.564 4.301
 -2.152 -1.561 4.305
 -2.119 -1.558 4.308
 -2.087 -1.555 4.31
 -2.054 -1.552 4.312
 -2.021 -1.548 4.314
 -1.989 -1.545 4.316
 -1.956 -1.541 4.316
 -1.924 -1.538 4.318
 -1.892 -1.534 4.318
 -1.86 -1.531 4.32
 -1.827 -1.527 4.318
 -1.796 -1.524 4.32
 -1.765 -1.521 4.32
 -1.733 -1.518 4.32
 -1.701 -1.514 4.318
 -1.671 -1.511 4.319
 -1.639 -1.507 4.317
 -1.608 -1.504 4.316
 -1.577 -1.5 4.313
 -1.547 -1.498 4.315
 -1.517 -1.494 4.312
 -1.487 -1.492 4.313
 -1.457 -1.489 4.313
 -1.429 -1.488 4.316
 -1.399 -1.484 4.313
 -1.369 -1.481 4.311
 -1.34 -1.479 4.311
 -1.311 -1.476 4.311
 -1.282 -1.473 4.307
 -1.253 -1.471 4.307
 -1.225 -1.47 4.31
 -1.197 -1.467 4.308
 -1.168 -1.465 4.307
 -1.14 -1.463 4.307
 -1.112 -1.46 4.305
 -1.083 -1.457 4.301
 -1.056 -1.455 4.301
 -1.028 -1.453 4.299
 -1.001 -1.452 4.302
 -0.974 -1.451 4.302
 -0.947 -1.45 4.305
 -0.92 -1.449 4.305
 -0.893 -1.447 4.305
 -0.865 -1.445 4.301
 -0.838 -1.443 4.3
 -0.811 -1.441 4.299
 -0.784 -1.439 4.296
 -0.758 -1.439 4.299
 -0.732 -1.438 4.3
 -0.706 -1.438 4.302
 -0.679 -1.436 4.301
 -0.653 -1.436 4.302
 -0.626 -1.434 4.3
 -0.599 -1.431 4.294
 -0.573 -1.43 4.292
 -0.547 -1.429 4.293
 -0.521 -1.429 4.293
 -0.495 -1.427 4.292
 -0.47 -1.429 4.3
 -0.444 -1.429 4.301
 -0.418 -1.428 4.3
 -0.392 -1.428 4.299
 -0.366 -1.427 4.298
 -0.34 -1.425 4.294
 -0.314 -1.424 4.293
 -0.289 -1.424 4.293
 -0.263 -1.423 4.291
 -0.237 -1.423 4.291
 -0.212 -1.422 4.29
 -0.186 -1.421 4.288
 -0.16 -1.42 4.286
 -0.135 -1.42 4.284
 -0.109 -1.418 4.281
 -0.084 -1.417 4.278
 -0.058 -1.417 4.276
 -0.033 -1.417 4.277
 -0.007 -1.418 4.279
 0.017 -1.419 4.281
 0.042 -1.419 4.282
 0.068 -1.42 4.283
 0.093 -1.417 4.275
 0.118 -1.416 4.271
 0.144 -1.416 4.27
 0.169 -1.417 4.271
 0.195 -1.418 4.272
 0.221 -1.42 4.279
 0.246 -1.421 4.278
 0.272 -1.421 4.278
 0.297 -1.42 4.273
 0.322 -1.421 4.273
 0.348 -1.42 4.268
 0.373 -1.421 4.27
 0.399 -1.421 4.268
 0.425 -1.423 4.27
 0.45 -1.422 4.265
 0.476 -1.425 4.27
 0.502 -1.425 4.268
 0.527 -1.426 4.268
 0.553 -1.426 4.265
 0.579 -1.426 4.264
 0.604 -1.425 4.257
 0.629 -1.426 4.257
 0.656 -1.428 4.257
 0.682 -1.43 4.259
 0.709 -1.432 4.264
 0.736 -1.435 4.267
 0.762 -1.437 4.269
 0.788 -1.437 4.266
 0.815 -1.439 4.266
 0.84 -1.439 4.262
 0.867 -1.441 4.263
 0.893 -1.441 4.259
 0.92 -1.443 4.259
 0.946 -1.444 4.257
 0.973 -1.445 4.255
 0.999 -1.446 4.252
 1.026 -1.448 4.252
 1.053 -1.449 4.25
 1.08 -1.451 4.249
 1.107 -1.453 4.249
 1.134 -1.454 4.248
 1.162 -1.457 4.248
 1.19 -1.459 4.249
 1.217 -1.46 4.245
 1.245 -1.462 4.244
 1.272 -1.464 4.243
 1.3 -1.467 4.242
 1.328 -1.468 4.239
 1.357 -1.472 4.243
 1.386 -1.475 4.243
 1.414 -1.476 4.24
 1.442 -1.478 4.237
 1.47 -1.481 4.235
 1.498 -1.482 4.231
 1.527 -1.484 4.228
 1.556 -1.487 4.228
 1.585 -1.489 4.225
 1.613 -1.491 4.221
 1.642 -1.493 4.217
 1.67 -1.495 4.213
 1.698 -1.496 4.206
 1.728 -1.499 4.203
 1.757 -1.501 4.2
 1.786 -1.503 4.195
 1.811 -1.502 4.181
 1.837 -1.501 4.169
 1.859 -1.497 4.147
 1.878 -1.492 4.121
 1.897 -1.485 4.092
 1.914 -1.479 4.062
 1.924 -1.467 4.017
 1.944 -1.462 3.992
 0 0 0
 0 0 0
 0 0 0
 0 0 0
 0 0 0
 0 0 0
 0 0 0
 0 0 0
 0 0 0
 1.811 -1.203 3.179
 1.829 -1.2 3.162
 1.838 -1.193 3.131
 1.86 -1.193 3.121
 1.839 -1.167 3.04
 -2.508 -1.578 4.307
 -2.46 -1.566 4.289
 -2.439 -1.572 4.318
 -2.403 -1.567 4.32
 -2.369 -1.564 4.324
 -2.332 -1.558 4.322
 -2.296 -1.554 4.322
 -2.261 -1.549 4.322
 -2.227 -1.546 4.325
 -2.193 -1.542 4.327
 -2.16 -1.539 4.329
 -2.125 -1.534 4.33
 -2.093 -1.531 4.333
 -2.059 -1.527 4.333
 -2.025 -1.523 4.332
 -1.992 -1.519 4.332
 -1.958 -1.515 4.331
 -1.925 -1.511 4.329
 -1.892 -1.507 4.327
 -1.859 -1.503 4.328
 -1.826 -1.499 4.325
 -1.794 -1.495 4.325
 -1.763 -1.492 4.326
 -1.732 -1.489 4.326
 -1.7 -1.485 4.323
 -1.67 -1.483 4.326
 -1.639 -1.48 4.325
 -1.608 -1.476 4.322
 -1.576 -1.472 4.319
 -1.547 -1.47 4.322
 -1.516 -1.466 4.318
 -1.486 -1.464 4.318
 -1.457 -1.462 4.32
 -1.428 -1.46 4.322
 -1.398 -1.456 4.318
 -1.368 -1.453 4.315
 -1.338 -1.45 4.314
 -1.309 -1.447 4.312
 -1.279 -1.444 4.308
 -1.251 -1.442 4.309
 -1.223 -1.441 4.311
 -1.194 -1.438 4.308
 -1.166 -1.436 4.307
 -1.138 -1.434 4.307
 -1.11 -1.431 4.305
 -1.081 -1.428 4.301
 -1.053 -1.426 4.299
 -1.025 -1.424 4.297
 -0.999 -1.423 4.301
 -0.972 -1.422 4.302
 -0.946 -1.422 4.307
 -0.919 -1.422 4.31
 -0.892 -1.42 4.31
 -0.865 -1.418 4.306
 -0.838 -1.416 4.306
 -0.811 -1.415 4.304
 -0.784 -1.413 4.302
 -0.758 -1.413 4.307
 -0.732 -1.413 4.309
 -0.706 -1.412 4.31
 -0.679 -1.41 4.308
 -0.653 -1.41 4.31
 -0.626 -1.408 4.306
 -0.599 -1.405 4.298
 -0.573 -1.404 4.298
 -0.547 -1.404 4.3
 -0.521 -1.403 4.3
 -0.495 -1.402 4.299
 -0.47 -1.405 4.31
 -0.444 -1.404 4.31
 -0.418 -1.403 4.308
 -0.392 -1.402 4.308
 -0.366 -1.4 4.301
 -0.339 -1.397 4.293
 -0.314 -1.396 4.292
 -0.288 -1.395 4.291
 -0.262 -1.394 4.288
 -0.237 -1.394 4.289
 -0.211 -1.394 4.289
 -0.185 -1.393 4.286
 -0.16 -1.392 4.284
 -0.134 -1.391 4.282
 -0.109 -1.39 4.279
 -0.083 -1.389 4.277
 -0.058 -1.389 4.275
 -0.033 -1.39 4.28
 -0.007 -1.391 4.281
 0.017 -1.392 4.284
 0.043 -1.392 4.285
 0.068 -1.394 4.289
 0.093 -1.39 4.277
 0.119 -1.39 4.274
 0.144 -1.389 4.272
 0.169 -1.39 4.273
 0.195 -1.39 4.273
 0.221 -1.394 4.282
 0.246 -1.394 4.282
 0.272 -1.395 4.281
 0.297 -1.394 4.277
 0.322 -1.395 4.279
 0.348 -1.394 4.274
 0.373 -1.395 4.277
 0.399 -1.396 4.275
 0.425 -1.397 4.277
 0.45 -1.396 4.27
 0.476 -1.398 4.276
 0.501 -1.398 4.272
 0.527 -1.399 4.272
 0.553 -1.399 4.269
 0.578 -1.4 4.268
 0.603 -1.398 4.261
 0.629 -1.4 4.262
 0.655 -1.401 4.262
 0.682 -1.403 4.265
 0.709 -1.407 4.271
 0.736 -1.409 4.273
 0.762 -1.41 4.274
 0.788 -1.411 4.271
 0.814 -1.412 4.271
 0.84 -1.412 4.267
 0.867 -1.414 4.268
 0.893 -1.414 4.264
 0.92 -1.416 4.265
 0.946 -1.418 4.263
 0.972 -1.418 4.259
 0.998 -1.419 4.256
 1.025 -1.42 4.255
 1.052 -1.421 4.253
 1.078 -1.423 4.25
 1.106 -1.425 4.251
 1.133 -1.426 4.25
 1.161 -1.429 4.252
 1.189 -1.431 4.251
 1.216 -1.433 4.249
 1.243 -1.435 4.247
 1.271 -1.436 4.246
 1.298 -1.438 4.243
 1.326 -1.44 4.241
 1.355 -1.443 4.242
 1.384 -1.446 4.243
 1.412 -1.447 4.241
 1.44 -1.45 4.239
 1.469 -1.452 4.238
 1.497 -1.454 4.235
 1.525 -1.456 4.231
 1.555 -1.459 4.232
 1.583 -1.461 4.228
 1.612 -1.463 4.226
 1.64 -1.465 4.221
 1.669 -1.467 4.218
 1.697 -1.468 4.212
 1.727 -1.471 4.209
 1.755 -1.472 4.202
 1.784 -1.474 4.198
 1.81 -1.474 4.187
 1.837 -1.474 4.177
 1.86 -1.471 4.158
 1.883 -1.468 4.139
 1.904 -1.464 4.116
 1.928 -1.463 4.1
 1.941 -1.453 4.061
 0 0 0
 0 0 0
 0 0 0
 0 0 0
 0 0 0
 0 0 0
 0 0 0
 0 0 0
 0 0 0
 0 0 0
 1.813 -1.182 3.189
 1.831 -1.181 3.174
 1.839 -1.172 3.139
 1.866 -1.176 3.138
 1.835 -1.143 3.04
 -2.534 -1.565 4.362
 -2.478 -1.549 4.331
 -2.451 -1.55 4.348
 -2.414 -1.545 4.349
 -2.378 -1.541 4.349
 -2.339 -1.534 4.344
 -2.304 -1.53 4.345
 -2.267 -1.525 4.343
 -2.23 -1.52 4.341
 -2.196 -1.516 4.342
 -2.161 -1.511 4.341
 -2.126 -1.506 4.339
 -2.092 -1.502 4.34
 -2.058 -1.499 4.34
 -2.023 -1.494 4.337
 -1.991 -1.491 4.338
 -1.957 -1.486 4.337
 -1.924 -1.483 4.337
 -1.892 -1.479 4.337
 -1.86 -1.476 4.337
 -1.826 -1.471 4.333
 -1.795 -1.468 4.334
 -1.763 -1.465 4.333
 -1.731 -1.461 4.332
 -1.698 -1.456 4.327
 -1.668 -1.454 4.329
 -1.637 -1.451 4.327
 -1.606 -1.447 4.326
 -1.574 -1.443 4.322
 -1.545 -1.441 4.325
 -1.514 -1.437 4.32
 -1.484 -1.435 4.321
 -1.455 -1.433 4.322
 -1.426 -1.431 4.324
 -1.396 -1.428 4.321
 -1.367 -1.425 4.32
 -1.338 -1.423 4.32
 -1.308 -1.42 4.318
 -1.279 -1.417 4.315
 -1.25 -1.415 4.314
 -1.222 -1.413 4.316
 -1.193 -1.41 4.312
 -1.165 -1.408 4.31
 -1.137 -1.406 4.31
 -1.109 -1.404 4.309
 -1.08 -1.401 4.305
 -1.052 -1.398 4.303
 -1.024 -1.396 4.301
 -0.998 -1.396 4.305
 -0.971 -1.395 4.306
 -0.945 -1.395 4.312
 -0.919 -1.396 4.318
 -0.892 -1.394 4.316
 -0.864 -1.391 4.312
 -0.838 -1.391 4.314
 -0.81 -1.388 4.31
 -0.783 -1.386 4.306
 -0.758 -1.387 4.313
 -0.732 -1.387 4.316
 -0.705 -1.386 4.317
 -0.679 -1.385 4.316
 -0.653 -1.384 4.317
 -0.626 -1.382 4.311
 -0.598 -1.377 4.301
 -0.572 -1.376 4.299
 -0.546 -1.375 4.299
 -0.52 -1.375 4.299
 -0.494 -1.375 4.302
 -0.47 -1.378 4.314
 -0.444 -1.377 4.314
 -0.418 -1.378 4.316
 -0.392 -1.377 4.315
 -0.365 -1.373 4.303
 -0.339 -1.368 4.291
 -0.313 -1.368 4.29
 -0.287 -1.367 4.288
 -0.261 -1.366 4.286
 -0.236 -1.365 4.286
 -0.211 -1.365 4.287
 -0.185 -1.365 4.285
 -0.16 -1.365 4.285
 -0.134 -1.364 4.285
 -0.109 -1.363 4.282
 -0.083 -1.363 4.28
 -0.058 -1.361 4.276
 -0.032 -1.362 4.278
 -0.007 -1.362 4.279
 0.017 -1.364 4.283
 0.043 -1.365 4.286
 0.068 -1.368 4.296
 0.093 -1.363 4.279
 0.119 -1.362 4.275
 0.144 -1.361 4.271
 0.169 -1.362 4.272
 0.194 -1.362 4.271
 0.221 -1.367 4.286
 0.246 -1.368 4.286
 0.272 -1.369 4.287
 0.297 -1.368 4.282
 0.323 -1.369 4.285
 0.347 -1.367 4.277
 0.373 -1.369 4.281
 0.399 -1.369 4.277
 0.425 -1.37 4.28
 0.449 -1.369 4.272
 0.476 -1.372 4.28
 0.501 -1.371 4.276
 0.527 -1.373 4.278
 0.553 -1.373 4.276
 0.579 -1.374 4.275
 0.603 -1.373 4.268
 0.63 -1.375 4.27
 0.656 -1.376 4.27
 0.682 -1.377 4.271
 0.709 -1.38 4.277
 0.736 -1.383 4.28
 0.762 -1.384 4.28
 0.788 -1.385 4.278
 0.815 -1.386 4.279
 0.84 -1.387 4.275
 0.867 -1.388 4.275
 0.893 -1.388 4.271
 0.92 -1.39 4.271
 0.946 -1.391 4.27
 0.971 -1.39 4.261
 0.997 -1.391 4.257
 1.023 -1.392 4.254
 1.05 -1.393 4.253
 1.077 -1.394 4.25
 1.105 -1.397 4.253
 1.132 -1.398 4.251
 1.16 -1.401 4.253
 1.187 -1.403 4.252
 1.214 -1.405 4.25
 1.242 -1.406 4.249
 1.27 -1.409 4.248
 1.297 -1.41 4.246
 1.325 -1.412 4.243
 1.353 -1.414 4.244
 1.381 -1.416 4.242
 1.409 -1.418 4.24
 1.437 -1.42 4.238
 1.465 -1.422 4.235
 1.493 -1.424 4.232
 1.522 -1.426 4.231
 1.552 -1.429 4.231
 1.58 -1.431 4.228
 1.61 -1.434 4.228
 1.638 -1.436 4.223
 1.667 -1.438 4.221
 1.695 -1.44 4.215
 1.725 -1.442 4.212
 1.752 -1.443 4.205
 1.782 -1.446 4.202
 1.809 -1.446 4.191
 1.837 -1.447 4.184
 1.861 -1.445 4.168
 1.887 -1.445 4.157
 1.909 -1.441 4.134
 1.937 -1.443 4.127
 0 0 0
 0 0 0
 0 0 0
 0 0 0
 0 0 0
 0 0 0
 0 0 0
 0 0 0
 0 0 0
 0 0 0
 0 0 0
 1.813 -1.161 3.196
 1.83 -1.158 3.178
 1.838 -1.15 3.144
 1.875 -1.16 3.159
 1.858 -1.137 3.085
 -2.546 -1.543 4.392
 -2.482 -1.522 4.347
 -2.452 -1.522 4.359
 -2.414 -1.516 4.357
 -2.377 -1.511 4.356
 -2.339 -1.505 4.353
 -2.302 -1.5 4.352
 -2.265 -1.495 4.348
 -2.228 -1.489 4.345
 -2.193 -1.485 4.345
 -2.157 -1.48 4.343
 -2.122 -1.476 4.341
 -2.089 -1.472 4.342
 -2.055 -1.469 4.343
 -2.022 -1.465 4.344
 -1.989 -1.461 4.344
 -1.957 -1.458 4.345
 -1.923 -1.454 4.344
 -1.89 -1.45 4.342
 -1.858 -1.447 4.341
 -1.825 -1.443 4.339
 -1.792 -1.439 4.336
 -1.76 -1.435 4.335
 -1.728 -1.432 4.334
 -1.696 -1.427 4.329
 -1.665 -1.425 4.331
 -1.635 -1.422 4.33
 -1.604 -1.418 4.329
 -1.573 -1.415 4.326
 -1.544 -1.414 4.33
 -1.512 -1.41 4.326
 -1.483 -1.407 4.325
 -1.454 -1.405 4.326
 -1.424 -1.402 4.325
 -1.394 -1.399 4.323
 -1.365 -1.397 4.324
 -1.337 -1.396 4.326
 -1.308 -1.393 4.323
 -1.279 -1.39 4.322
 -1.25 -1.388 4.321
 -1.221 -1.386 4.32
 -1.192 -1.382 4.315
 -1.164 -1.38 4.314
 -1.136 -1.378 4.314
 -1.108 -1.376 4.313
 -1.079 -1.374 4.309
 -1.051 -1.371 4.306
 -1.024 -1.369 4.306
 -0.997 -1.368 4.308
 -0.97 -1.368 4.31
 -0.945 -1.369 4.317
 -0.919 -1.369 4.324
 -0.892 -1.367 4.321
 -0.864 -1.365 4.32
 -0.838 -1.364 4.32
 -0.81 -1.361 4.314
 -0.782 -1.358 4.308
 -0.757 -1.36 4.317
 -0.731 -1.36 4.32
 -0.705 -1.36 4.322
 -0.678 -1.358 4.32
 -0.652 -1.358 4.321
 -0.625 -1.355 4.317
 -0.597 -1.351 4.305
 -0.571 -1.349 4.301
 -0.546 -1.35 4.307
 -0.52 -1.35 4.31
 -0.494 -1.349 4.309
 -0.47 -1.353 4.325
 -0.444 -1.353 4.325
 -0.418 -1.352 4.323
 -0.392 -1.352 4.323
 -0.364 -1.345 4.303
 -0.338 -1.34 4.288
 -0.312 -1.339 4.288
 -0.286 -1.338 4.286
 -0.261 -1.338 4.285
 -0.235 -1.337 4.285
 -0.21 -1.337 4.286
 -0.185 -1.337 4.285
 -0.159 -1.337 4.287
 -0.134 -1.337 4.287
 -0.108 -1.337 4.285
 -0.083 -1.336 4.281
 -0.058 -1.334 4.275
 -0.032 -1.334 4.276
 -0.007 -1.334 4.274
 0.017 -1.335 4.279
 0.043 -1.338 4.286
 0.068 -1.346 4.311
 0.093 -1.336 4.278
 0.119 -1.335 4.276
 0.144 -1.333 4.268
 0.169 -1.333 4.267
 0.194 -1.333 4.265
 0.221 -1.341 4.29
 0.246 -1.342 4.291
 0.272 -1.343 4.294
 0.297 -1.342 4.287
 0.323 -1.344 4.292
 0.347 -1.341 4.281
 0.373 -1.343 4.287
 0.398 -1.341 4.278
 0.424 -1.343 4.282
 0.449 -1.341 4.272
 0.476 -1.345 4.283
 0.501 -1.344 4.276
 0.527 -1.347 4.283
 0.553 -1.347 4.28
 0.578 -1.348 4.279
 0.603 -1.346 4.27
 0.63 -1.349 4.276
 0.656 -1.35 4.276
 0.681 -1.351 4.274
 0.709 -1.354 4.281
 0.735 -1.356 4.283
 0.762 -1.357 4.283
 0.788 -1.358 4.281
 0.815 -1.361 4.287
 0.841 -1.362 4.285
 0.868 -1.363 4.284
 0.893 -1.362 4.277
 0.92 -1.364 4.277
 0.945 -1.364 4.273
 0.971 -1.364 4.266
 0.997 -1.365 4.264
 1.024 -1.366 4.262
 1.05 -1.367 4.259
 1.076 -1.368 4.255
 1.104 -1.37 4.257
 1.131 -1.371 4.254
 1.158 -1.373 4.254
 1.186 -1.375 4.254
 1.213 -1.377 4.253
 1.24 -1.378 4.25
 1.268 -1.38 4.249
 1.295 -1.382 4.248
 1.323 -1.383 4.245
 1.351 -1.386 4.245
 1.379 -1.388 4.243
 1.407 -1.39 4.241
 1.435 -1.392 4.239
 1.463 -1.393 4.235
 1.491 -1.395 4.233
 1.52 -1.398 4.232
 1.549 -1.4 4.231
 1.578 -1.403 4.23
 1.607 -1.405 4.229
 1.636 -1.408 4.226
 1.665 -1.41 4.223
 1.694 -1.411 4.218
 1.722 -1.413 4.214
 1.75 -1.415 4.208
 1.78 -1.417 4.204
 1.807 -1.418 4.196
 1.836 -1.42 4.191
 1.864 -1.42 4.183
 1.894 -1.423 4.178
 1.92 -1.423 4.167
 0 0 0
 0 0 0
 0 0 0
 0 0 0
 0 0 0
 0 0 0
 0 0 0
 0 0 0
 0 0 0
 0 0 0
 0 0 0
 0 0 0
 1.814 -1.14 3.205
 1.833 -1.138 3.189
 1.841 -1.131 3.156
 1.868 -1.134 3.154
 1.849 -1.11 3.075
 -2.549 -1.515 4.406
 -2.508 -1.508 4.401
 -2.453 -1.493 4.37
 -2.412 -1.486 4.363
 -2.374 -1.481 4.361
 -2.337 -1.476 4.359
 -2.3 -1.47 4.357
 -2.262 -1.465 4.353
 -2.227 -1.46 4.351
 -2.192 -1.456 4.351
 -2.155 -1.451 4.348
 -2.12 -1.446 4.346
 -2.086 -1.442 4.346
 -2.053 -1.439 4.346
 -2.019 -1.435 4.346
 -1.986 -1.432 4.347
 -1.955 -1.429 4.35
 -1.922 -1.425 4.348
 -1.889 -1.422 4.347
 -1.855 -1.417 4.344
 -1.822 -1.413 4.341
 -1.789 -1.409 4.337
 -1.758 -1.406 4.337
 -1.726 -1.402 4.336
 -1.694 -1.398 4.333
 -1.664 -1.396 4.335
 -1.632 -1.393 4.332
 -1.602 -1.39 4.332
 -1.571 -1.387 4.33
 -1.542 -1.385 4.333
 -1.511 -1.381 4.329
 -1.482 -1.379 4.33
 -1.452 -1.377 4.331
 -1.423 -1.375 4.33
 -1.394 -1.372 4.33
 -1.365 -1.37 4.33
 -1.336 -1.369 4.332
 -1.307 -1.366 4.328
 -1.278 -1.363 4.326
 -1.249 -1.36 4.324
 -1.22 -1.358 4.323
 -1.191 -1.356 4.321
 -1.163 -1.353 4.318
 -1.135 -1.351 4.317
 -1.106 -1.348 4.315
 -1.078 -1.346 4.311
 -1.048 -1.342 4.303
 -1.021 -1.34 4.303
 -0.995 -1.34 4.306
 -0.968 -1.338 4.307
 -0.942 -1.339 4.313
 -0.918 -1.343 4.329
 -0.892 -1.342 4.331
 -0.864 -1.339 4.327
 -0.839 -1.341 4.334
 -0.811 -1.338 4.331
 -0.782 -1.333 4.318
 -0.757 -1.335 4.325
 -0.731 -1.335 4.329
 -0.705 -1.334 4.33
 -0.678 -1.331 4.325
 -0.651 -1.33 4.322
 -0.624 -1.328 4.319
 -0.597 -1.323 4.307
 -0.569 -1.32 4.298
 -0.544 -1.32 4.3
 -0.52 -1.323 4.313
 -0.494 -1.323 4.315
 -0.471 -1.331 4.344
 -0.446 -1.335 4.356
 0 0 0
 0 0 0
 -0.363 -1.316 4.298
 -0.336 -1.307 4.272
 -0.311 -1.308 4.276
 -0.285 -1.308 4.277
 -0.26 -1.308 4.279
 -0.235 -1.308 4.279
 -0.209 -1.309 4.282
 -0.184 -1.309 4.284
 -0.159 -1.31 4.287
 -0.134 -1.31 4.287
 -0.108 -1.31 4.286
 -0.083 -1.309 4.284
 -0.057 -1.307 4.276
 -0.032 -1.307 4.276
 -0.007 -1.306 4.273
 0.017 -1.308 4.278
 0.043 -1.308 4.28
 0 0 0
 0 0 0
 0 0 0
 0 0 0
 0 0 0
 0 0 0
 0 0 0
 0 0 0
 0 0 0
 0 0 0
 0.324 -1.324 4.319
 0.348 -1.319 4.297
 0.374 -1.32 4.301
 0.399 -1.317 4.287
 0.424 -1.318 4.289
 0.448 -1.313 4.271
 0.476 -1.319 4.288
 0.5 -1.317 4.278
 0.527 -1.321 4.287
 0.553 -1.323 4.291
 0.58 -1.325 4.294
 0.603 -1.321 4.278
 0.63 -1.323 4.281
 0.655 -1.323 4.28
 0.681 -1.324 4.279
 0.708 -1.327 4.283
 0.736 -1.331 4.294
 0.763 -1.333 4.297
 0.788 -1.333 4.291
 0.816 -1.336 4.297
 0.842 -1.337 4.295
 0.868 -1.337 4.291
 0.892 -1.335 4.278
 0.919 -1.337 4.28
 0.944 -1.336 4.271
 0.97 -1.337 4.27
 0.996 -1.337 4.266
 1.023 -1.339 4.266
 1.05 -1.34 4.264
 1.076 -1.341 4.26
 1.103 -1.342 4.258
 1.13 -1.344 4.256
 1.157 -1.345 4.255
 1.184 -1.347 4.254
 1.211 -1.348 4.253
 1.238 -1.35 4.25
 1.266 -1.352 4.25
 1.294 -1.354 4.248
 1.321 -1.355 4.245
 1.349 -1.357 4.244
 1.376 -1.359 4.242
 1.404 -1.361 4.24
 1.432 -1.363 4.238
 1.461 -1.365 4.236
 1.489 -1.367 4.233
 1.518 -1.369 4.233
 1.547 -1.372 4.233
 1.576 -1.375 4.232
 1.605 -1.377 4.23
 1.634 -1.379 4.228
 1.663 -1.381 4.225
 1.692 -1.383 4.221
 1.72 -1.384 4.215
 1.748 -1.386 4.209
 1.777 -1.388 4.206
 1.804 -1.389 4.197
 1.833 -1.39 4.19
 1.862 -1.392 4.185
 1.893 -1.395 4.184
 0 0 0
 0 0 0
 0 0 0
 0 0 0
 0 0 0
 0 0 0
 0 0 0
 0 0 0
 0 0 0
 0 0 0
 0 0 0
 0 0 0
 0 0 0
 1.818 -1.12 3.217
 1.838 -1.12 3.205
 1.846 -1.112 3.17
 1.87 -1.113 3.164
 1.865 -1.098 3.11
 -2.52 -1.469 4.366
 -2.48 -1.462 4.361
 -2.448 -1.461 4.371
 -2.408 -1.455 4.365
 -2.371 -1.449 4.363
 -2.335 -1.445 4.363
 -2.297 -1.44 4.36
 -2.261 -1.435 4.358
 -2.225 -1.43 4.356
 -2.191 -1.427 4.358
 -2.154 -1.422 4.354
 -2.119 -1.417 4.352
 -2.085 -1.413 4.351
 -2.05 -1.409 4.349
 -2.016 -1.404 4.346
 -1.983 -1.401 4.347
 -1.952 -1.399 4.352
 -1.918 -1.395 4.348
 -1.887 -1.392 4.351
 -1.853 -1.388 4.348
 -1.82 -1.384 4.345
 -1.787 -1.38 4.341
 -1.756 -1.377 4.342
 -1.723 -1.373 4.337
 -1.692 -1.37 4.336
 -1.661 -1.367 4.336
 -1.63 -1.363 4.333
 -1.599 -1.361 4.333
 -1.569 -1.358 4.332
 -1.539 -1.356 4.333
 -1.508 -1.352 4.33
 -1.479 -1.35 4.33
 -1.45 -1.348 4.33
 -1.42 -1.345 4.328
 -1.391 -1.343 4.33
 -1.363 -1.342 4.333
 -1.335 -1.34 4.334
 -1.305 -1.337 4.33
 -1.277 -1.336 4.333
 -1.247 -1.332 4.327
 -1.218 -1.329 4.323
 -1.19 -1.327 4.322
 -1.163 -1.326 4.325
 -1.134 -1.324 4.321
 -1.105 -1.321 4.318
 -1.078 -1.319 4.317
 -1.047 -1.314 4.306
 -1.02 -1.313 4.307
 -0.994 -1.312 4.309
 0 0 0
 0 0 0
 0 0 0
 0 0 0
 0 0 0
 0 0 0
 0 0 0
 0 0 0
 0 0 0
 0 0 0
 0 0 0
 0 0 0
 0 0 0
 0 0 0
 0 0 0
 0 0 0
 0 0 0
 0 0 0
 0 0 0
 0 0 0
 0 0 0
 0 0 0
 0 0 0
 -0.36 -1.28 4.27
 -0.335 -1.279 4.27
 -0.31 -1.281 4.275
 -0.285 -1.281 4.276
 -0.259 -1.281 4.279
 -0.234 -1.281 4.279
 -0.209 -1.282 4.282
 -0.184 -1.282 4.285
 -0.158 -1.283 4.287
 -0.133 -1.283 4.287
 -0.108 -1.283 4.287
 -0.083 -1.283 4.286
 -0.057 -1.28 4.277
 -0.032 -1.279 4.274
 -0.007 -1.278 4.27
 0.018 -1.277 4.267
 0.043 -1.274 4.255
 0 0 0
 0 0 0
 0 0 0
 0 0 0
 0 0 0
 0 0 0
 0 0 0
 0 0 0
 0 0 0
 0 0 0
 0 0 0
 0 0 0
 0 0 0
 0 0 0
 0 0 0
 0 0 0
 0 0 0
 0 0 0
 0 0 0
 0 0 0
 0 0 0
 0 0 0
 0 0 0
 0 0 0
 0 0 0
 0 0 0
 0 0 0
 0 0 0
 0 0 0
 0 0 0
 0 0 0
 0 0 0
 0 0 0
 0 0 0
 0 0 0
 0.97 -1.311 4.275
 0.996 -1.311 4.27
 1.022 -1.312 4.268
 1.049 -1.313 4.265
 1.075 -1.313 4.261
 1.101 -1.314 4.258
 1.128 -1.315 4.256
 1.154 -1.316 4.253
 1.181 -1.318 4.25
 1.208 -1.319 4.248
 1.236 -1.321 4.248
 1.263 -1.323 4.247
 1.291 -1.325 4.247
 1.319 -1.327 4.246
 1.347 -1.329 4.245
 1.375 -1.331 4.242
 1.402 -1.332 4.24
 1.43 -1.334 4.237
 1.458 -1.336 4.235
 1.486 -1.338 4.233
 1.515 -1.34 4.233
 1.545 -1.343 4.233
 1.574 -1.346 4.232
 1.602 -1.347 4.228
 1.631 -1.35 4.227
 1.66 -1.352 4.225
 1.689 -1.354 4.22
 1.716 -1.354 4.213
 1.744 -1.356 4.208
 1.774 -1.359 4.205
 1.801 -1.359 4.196
 1.828 -1.36 4.188
 1.858 -1.362 4.185
 1.891 -1.367 4.187
 0 0 0
 0 0 0
 0 0 0
 0 0 0
 0 0 0
 0 0 0
 0 0 0
 0 0 0
 0 0 0
 0 0 0
 0 0 0
 0 0 0
 0 0 0
 1.823 -1.102 3.233
 1.838 -1.098 3.211
 1.845 -1.09 3.176
 1.884 -1.1 3.195
 1.877 -1.084 3.136
 -2.539 -1.45 4.407
 -2.485 -1.436 4.379
 -2.443 -1.429 4.371
 -2.404 -1.423 4.366
 -2.365 -1.417 4.362
 -2.33 -1.414 4.363
 -2.293 -1.409 4.361
 -2.257 -1.404 4.359
 -2.221 -1.4 4.358
 -2.187 -1.396 4.358
 -2.15 -1.391 4.353
 -2.116 -1.387 4.353
 -2.081 -1.382 4.351
 -2.046 -1.378 4.349
 -2.012 -1.374 4.347
 -1.98 -1.371 4.349
 -1.95 -1.37 4.354
 -1.917 -1.366 4.353
 -1.887 -1.365 4.359
 -1.853 -1.36 4.354
 -1.819 -1.356 4.35
 -1.785 -1.351 4.345
 -1.754 -1.348 4.343
 -1.72 -1.343 4.337
 -1.688 -1.34 4.335
 -1.657 -1.337 4.333
 -1.626 -1.333 4.331
 -1.596 -1.331 4.331
 -1.565 -1.328 4.33
 -1.536 -1.326 4.33
 -1.506 -1.323 4.329
 -1.476 -1.321 4.329
 -1.447 -1.318 4.329
 -1.417 -1.316 4.327
 -1.389 -1.314 4.329
 -1.361 -1.313 4.332
 -1.333 -1.312 4.335
 -1.303 -1.308 4.33
 0 0 0
 0 0 0
 0 0 0
 0 0 0
 0 0 0
 0 0 0
 0 0 0
 0 0 0
 0 0 0
 0 0 0
 0 0 0
 0 0 0
 0 0 0
 0 0 0
 0 0 0
 0 0 0
 0 0 0
 0 0 0
 0 0 0
 0 0 0
 0 0 0
 0 0 0
 0 0 0
 0 0 0
 0 0 0
 0 0 0
 0 0 0
 0 0 0
 0 0 0
 0 0 0
 0 0 0
 0 0 0
 0 0 0
 0 0 0
 -0.36 -1.254 4.275
 -0.335 -1.253 4.273
 -0.31 -1.254 4.277
 -0.284 -1.254 4.279
 -0.259 -1.255 4.282
 -0.234 -1.255 4.282
 -0.209 -1.255 4.284
 -0.183 -1.256 4.288
 -0.158 -1.257 4.291
 -0.133 -1.257 4.29
 -0.108 -1.257 4.29
 -0.082 -1.256 4.289
 -0.057 -1.253 4.278
 -0.032 -1.252 4.273
 -0.006 -1.25 4.268
 0.018 -1.249 4.263
 0.043 -1.245 4.248
 0 0 0
 0 0 0
 0 0 0
 0 0 0
 0 0 0
 0 0 0
 0 0 0
 0 0 0
 0 0 0
 0 0 0
 0 0 0
 0 0 0
 0 0 0
 0 0 0
 0 0 0
 0 0 0
 0 0 0
 0 0 0
 0 0 0
 0 0 0
 0 0 0
 0 0 0
 0 0 0
 0 0 0
 0 0 0
 0 0 0
 0 0 0
 0 0 0
 0 0 0
 0 0 0
 0 0 0
 0 0 0
 0 0 0
 0 0 0
 0 0 0
 0.969 -1.283 4.275
 0.994 -1.282 4.268
 1.021 -1.284 4.268
 1.047 -1.284 4.263
 1.073 -1.285 4.26
 1.099 -1.286 4.257
 1.126 -1.288 4.257
 1.153 -1.288 4.253
 1.18 -1.29 4.252
 1.206 -1.291 4.248
 1.234 -1.293 4.247
 1.261 -1.294 4.244
 1.289 -1.297 4.247
 1.317 -1.299 4.246
 1.345 -1.301 4.246
 1.373 -1.303 4.244
 1.401 -1.305 4.243
 1.428 -1.306 4.238
 1.456 -1.308 4.236
 1.485 -1.31 4.235
 1.513 -1.312 4.234
 1.542 -1.314 4.233
 1.571 -1.317 4.232
 1.599 -1.318 4.228
 1.628 -1.321 4.227
 1.657 -1.323 4.224
 1.686 -1.325 4.221
 1.714 -1.326 4.214
 1.743 -1.328 4.21
 1.772 -1.33 4.208
 1.8 -1.331 4.2
 1.827 -1.332 4.192
 1.858 -1.335 4.19
 1.889 -1.339 4.192
 0 0 0
 0 0 0
 0 0 0
 0 0 0
 0 0 0
 0 0 0
 0 0 0
 0 0 0
 0 0 0
 0 0 0
 0 0 0
 0 0 0
 0 0 0
 1.823 -1.08 3.239
 1.836 -1.076 3.214
 1.843 -1.067 3.178
 1.903 -1.09 3.233
 1.845 -1.045 3.089
 -2.511 -1.405 4.367
 -2.465 -1.396 4.352
 -2.442 -1.399 4.378
 -2.402 -1.393 4.372
 -2.363 -1.387 4.367
 -2.326 -1.383 4.364
 -2.287 -1.377 4.358
 -2.25 -1.372 4.355
 -2.217 -1.368 4.357
 -2.182 -1.365 4.358
 -2.147 -1.36 4.355
 -2.113 -1.357 4.356
 -2.079 -1.353 4.356
 -2.044 -1.349 4.352
 -2.01 -1.345 4.35
 -1.977 -1.342 4.351
 -1.948 -1.341 4.358
 -1.915 -1.337 4.357
 -1.885 -1.336 4.364
 -1.85 -1.331 4.356
 -1.814 -1.324 4.345
 -1.78 -1.32 4.34
 -1.749 -1.317 4.34
 -1.716 -1.313 4.333
 -1.685 -1.31 4.334
 -1.655 -1.308 4.334
 -1.624 -1.304 4.332
 -1.593 -1.302 4.332
 -1.564 -1.3 4.333
 -1.534 -1.297 4.332
 -1.504 -1.295 4.332
 -1.474 -1.292 4.33
 -1.445 -1.29 4.331
 -1.414 -1.287 4.326
 -1.386 -1.285 4.328
 -1.357 -1.283 4.328
 -1.33 -1.282 4.332
 -1.297 -1.277 4.319
 0 0 0
 0 0 0
 0 0 0
 0 0 0
 0 0 0
 0 0 0
 0 0 0
 0 0 0
 0 0 0
 0 0 0
 0 0 0
 0 0 0
 0 0 0
 0 0 0
 0 0 0
 0 0 0
 0 0 0
 0 0 0
 0 0 0
 0 0 0
 0 0 0
 0 0 0
 0 0 0
 0 0 0
 0 0 0
 0 0 0
 0 0 0
 0 0 0
 0 0 0
 0 0 0
 0 0 0
 0 0 0
 0 0 0
 0 0 0
 -0.359 -1.227 4.274
 -0.334 -1.226 4.274
 -0.309 -1.227 4.278
 -0.284 -1.228 4.281
 -0.259 -1.229 4.285
 -0.233 -1.229 4.285
 -0.208 -1.229 4.288
 -0.183 -1.23 4.29
 -0.158 -1.23 4.292
 -0.133 -1.229 4.289
 -0.107 -1.229 4.29
 -0.082 -1.229 4.288
 -0.057 -1.227 4.28
 -0.032 -1.226 4.277
 -0.006 -1.225 4.274
 0.018 -1.224 4.27
 0.043 -1.221 4.258
 0 0 0
 0 0 0
 0 0 0
 0 0 0
 0 0 0
 0 0 0
 0 0 0
 0 0 0
 0 0 0
 0 0 0
 0 0 0
 0 0 0
 0 0 0
 0 0 0
 0 0 0
 0 0 0
 0 0 0
 0 0 0
 0 0 0
 0 0 0
 0 0 0
 0 0 0
 0 0 0
 0 0 0
 0 0 0
 0 0 0
 0 0 0
 0 0 0
 0 0 0
 0 0 0
 0 0 0
 0 0 0
 0 0 0
 0 0 0
 0 0 0
 0.971 -1.26 4.292
 0.995 -1.258 4.278
 1.021 -1.258 4.275
 1.046 -1.258 4.267
 1.072 -1.258 4.263
 1.098 -1.258 4.257
 1.124 -1.259 4.255
 1.151 -1.26 4.252
 1.178 -1.262 4.252
 1.205 -1.263 4.249
 1.232 -1.265 4.247
 1.259 -1.266 4.244
 1.287 -1.268 4.245
 1.314 -1.27 4.243
 1.342 -1.272 4.242
 1.37 -1.274 4.242
 1.399 -1.276 4.242
 1.426 -1.277 4.238
 1.454 -1.28 4.238
 1.483 -1.282 4.236
 1.511 -1.284 4.235
 1.54 -1.286 4.233
 1.568 -1.288 4.231
 1.596 -1.29 4.227
 1.626 -1.292 4.227
 1.654 -1.294 4.224
 1.684 -1.296 4.222
 1.712 -1.298 4.216
 1.741 -1.3 4.213
 1.77 -1.302 4.21
 1.798 -1.303 4.202
 1.825 -1.304 4.194
 1.855 -1.306 4.192
 1.886 -1.309 4.191
 0 0 0
 0 0 0
 0 0 0
 0 0 0
 0 0 0
 0 0 0
 0 0 0
 0 0 0
 0 0 0
 0 0 0
 0 0 0
 0 0 0
 0 0 0
 1.825 -1.06 3.249
 1.835 -1.053 3.218
 1.841 -1.045 3.181
 1.847 -1.036 3.143
 1.854 -1.029 3.109
 -2.51 -1.375 4.374
 -2.49 -1.381 4.406
 -2.44 -1.369 4.382
 -2.4 -1.363 4.375
 -2.361 -1.357 4.371
 -2.323 -1.352 4.367
 -2.286 -1.347 4.364
 -2.249 -1.342 4.36
 -2.215 -1.339 4.362
 -2.18 -1.335 4.362
 -2.145 -1.331 4.361
 -2.111 -1.328 4.36
 -2.075 -1.323 4.356
 -2.039 -1.318 4.351
 -2.005 -1.314 4.348
 -1.973 -1.311 4.349
 -1.943 -1.309 4.354
 -1.911 -1.307 4.356
 -1.883 -1.307 4.366
 -1.847 -1.301 4.357
 -1.809 -1.294 4.342
 -1.777 -1.29 4.339
 -1.746 -1.288 4.339
 -1.713 -1.283 4.334
 -1.682 -1.281 4.334
 -1.652 -1.278 4.334
 -1.62 -1.275 4.331
 -1.59 -1.273 4.331
 -1.561 -1.27 4.332
 -1.53 -1.268 4.33
 -1.501 -1.266 4.33
 -1.471 -1.263 4.328
 -1.442 -1.261 4.329
 -1.411 -1.257 4.324
 -1.383 -1.256 4.326
 -1.354 -1.254 4.325
 -1.327 -1.253 4.329
 -1.293 -1.246 4.312
 0 0 0
 0 0 0
 0 0 0
 0 0 0
 0 0 0
 0 0 0
 0 0 0
 0 0 0
 0 0 0
 0 0 0
 0 0 0
 0 0 0
 0 0 0
 0 0 0
 0 0 0
 0 0 0
 0 0 0
 0 0 0
 0 0 0
 0 0 0
 0 0 0
 0 0 0
 0 0 0
 -0.655 -1.234 4.375
 -0.629 -1.235 4.379
 -0.603 -1.235 4.382
 0 0 0
 0 0 0
 0 0 0
 0 0 0
 0 0 0
 0 0 0
 0 0 0
 0 0 0
 -0.359 -1.2 4.273
 -0.333 -1.199 4.274
 -0.308 -1.2 4.278
 -0.283 -1.2 4.279
 -0.258 -1.202 4.284
 -0.233 -1.201 4.284
 -0.208 -1.203 4.29
 -0.183 -1.203 4.292
 -0.158 -1.204 4.294
 -0.132 -1.203 4.291
 -0.107 -1.202 4.29
 -0.082 -1.202 4.287
 -0.057 -1.2 4.282
 -0.031 -1.2 4.279
 -0.006 -1.199 4.277
 0.018 -1.2 4.28
 0.043 -1.198 4.273
 0 0 0
 0 0 0
 0 0 0
 0 0 0
 0 0 0
 0 0 0
 0 0 0
 0 0 0
 0 0 0
 0 0 0
 0 0 0
 0 0 0
 0 0 0
 0 0 0
 0 0 0
 0 0 0
 0 0 0
 0 0 0
 0 0 0
 0 0 0
 0 0 0
 0 0 0
 0 0 0
 0 0 0
 0 0 0
 0 0 0
 0 0 0
 0 0 0
 0 0 0
 0 0 0
 0 0 0
 0 0 0
 0 0 0
 0 0 0
 0 0 0
 0.968 -1.229 4.282
 0.991 -1.227 4.269
 1.018 -1.228 4.267
 1.044 -1.229 4.263
 1.07 -1.23 4.26
 1.096 -1.23 4.256
 1.123 -1.232 4.256
 1.15 -1.233 4.254
 1.177 -1.235 4.254
 1.204 -1.236 4.251
 1.231 -1.237 4.248
 1.257 -1.238 4.244
 1.284 -1.24 4.243
 1.312 -1.241 4.242
 1.34 -1.243 4.241
 1.368 -1.246 4.242
 1.397 -1.248 4.243
 1.424 -1.25 4.239
 1.452 -1.252 4.238
 1.481 -1.254 4.238
 1.509 -1.256 4.235
 1.537 -1.257 4.232
 1.566 -1.26 4.231
 1.594 -1.261 4.228
 1.624 -1.264 4.227
 1.652 -1.266 4.224
 1.681 -1.268 4.222
 1.709 -1.269 4.217
 1.738 -1.271 4.212
 1.767 -1.273 4.209
 1.796 -1.275 4.206
 1.825 -1.277 4.2
 1.855 -1.28 4.199
 1.887 -1.283 4.201
 0 0 0
 0 0 0
 0 0 0
 0 0 0
 0 0 0
 0 0 0
 0 0 0
 0 0 0
 0 0 0
 0 0 0
 0 0 0
 0 0 0
 0 0 0
 0 0 0
 1.832 -1.03 3.218
 1.837 -1.021 3.179
 1.847 -1.015 3.148
