 0.871 -1.599 4.203
 0.884 -1.601 4.205
 0.896 -1.599 4.199
 0.909 -1.598 4.194
 0.922 -1.599 4.192
 0.933 -1.597 4.185
 0.946 -1.596 4.179
 0.959 -1.597 4.18
 0.973 -1.599 4.182
 0.986 -1.599 4.18
 1.001 -1.603 4.187
 1.015 -1.605 4.19
 1.029 -1.606 4.19
 1.042 -1.607 4.189
 1.057 -1.61 4.193
 1.068 -1.607 4.184
 1.082 -1.608 4.183
 1.094 -1.608 4.179
 1.108 -1.609 4.18
 1.12 -1.608 4.173
 1.131 -1.605 4.161
 1.145 -1.607 4.164
 1.159 -1.608 4.164
 1.171 -1.607 4.159
 1.186 -1.61 4.162
 1.202 -1.615 4.171
 1.215 -1.614 4.166
 1.227 -1.613 4.16
 1.24 -1.613 4.157
 1.254 -1.614 4.156
 1.267 -1.615 4.154
 1.28 -1.615 4.15
 1.295 -1.618 4.153
 1.308 -1.618 4.15
 1.319 -1.616 4.141
 1.332 -1.615 4.135
 1.345 -1.616 4.133
 1.358 -1.616 4.129
 1.371 -1.616 4.126
 1.385 -1.617 4.126
 1.4 -1.62 4.128
 1.411 -1.617 4.116
 1.424 -1.617 4.114
 1.439 -1.619 4.115
 1.454 -1.622 4.117
 1.465 -1.62 4.107
 1.48 -1.622 4.109
 1.494 -1.623 4.107
 1.505 -1.622 4.099
 1.514 -1.617 4.084
 1.53 -1.62 4.087
 1.544 -1.621 4.084
 1.556 -1.62 4.077
 1.568 -1.62 4.072
 1.583 -1.622 4.072
 1.593 -1.619 4.06
 1.606 -1.619 4.055
 1.618 -1.618 4.049
 1.633 -1.619 4.047
 1.647 -1.621 4.046
 1.66 -1.621 4.041
 1.673 -1.621 4.036
 1.685 -1.62 4.03
 1.697 -1.62 4.023
 1.708 -1.617 4.012
 1.723 -1.62 4.013
 1.736 -1.619 4.007
 1.75 -1.62 4.004
 1.762 -1.62 3.998
 1.777 -1.621 3.997
 1.787 -1.619 3.985
 1.803 -1.622 3.986
 1.811 -1.618 3.971
 1.823 -1.616 3.962
 1.831 -1.613 3.948
 1.842 -1.611 3.938
 1.846 -1.603 3.913
 1.855 -1.599 3.899
 1.859 -1.592 3.877
 1.868 -1.589 3.863
 1.872 -1.582 3.84
 1.874 -1.573 3.813
 1.873 -1.562 3.779
 1.875 -1.553 3.752
 1.873 -1.542 3.719
 1.875 -1.533 3.692
 1.877 -1.525 3.667
 1.885 -1.521 3.653
 1.889 -1.515 3.633
 1.888 -1.505 3.602
 1.888 -1.495 3.573
 1.888 -1.486 3.546
 1.884 -1.473 3.509
 1.876 -1.458 3.467
 0 0 0
 0 0 0
 0 0 0
 0 0 0
 0 0 0
 0 0 0
 1.788 -1.333 3.13
 1.815 -1.345 3.153
 1.823 -1.342 3.142
 1.836 -1.344 3.14
 1.842 -1.341 3.128
 1.849 -1.338 3.116
 1.845 -1.328 3.086
 1.842 -1.318 3.057
 1.833 -1.304 3.02
 1.828 -1.294 2.989
 1.811 -1.275 2.939
 0 0 0
 -2.292 -1.626 3.886
 -2.268 -1.619 3.875
 -2.257 -1.62 3.885
 -2.241 -1.619 3.888
 -2.227 -1.618 3.893
 -2.21 -1.616 3.893
 -2.198 -1.617 3.902
 -2.184 -1.616 3.907
 -2.173 -1.618 3.916
 -2.163 -1.62 3.928
 -2.148 -1.619 3.933
 -2.139 -1.622 3.946
 -2.126 -1.622 3.952
 -2.114 -1.623 3.961
 -2.097 -1.621 3.962
 -2.086 -1.622 3.97
 -2.069 -1.619 3.97
 -2.056 -1.62 3.976
 -2.042 -1.619 3.98
 -2.03 -1.62 3.989
 -2.017 -1.621 3.996
 -2.007 -1.624 4.009
 -1.992 -1.622 4.01
 -1.977 -1.621 4.013
 -1.963 -1.62 4.017
 -1.948 -1.619 4.019
 -1.933 -1.617 4.021
 -1.921 -1.618 4.029
 -1.908 -1.619 4.035
 -1.893 -1.617 4.037
 -1.879 -1.617 4.041
 -1.866 -1.617 4.046
 -1.854 -1.618 4.055
 -1.844 -1.621 4.067
 -1.83 -1.62 4.071
 -1.817 -1.621 4.077
 -1.808 -1.624 4.091
 -1.791 -1.621 4.087
 -1.779 -1.622 4.096
 -1.768 -1.624 4.106
 -1.755 -1.625 4.112
 -1.735 -1.619 4.101
 -1.722 -1.619 4.107
 -1.706 -1.617 4.105
 -1.691 -1.615 4.105
 -1.678 -1.615 4.11
 -1.664 -1.615 4.114
 -1.649 -1.613 4.113
 -1.634 -1.612 4.115
 -1.621 -1.611 4.118
 -1.606 -1.61 4.119
 -1.594 -1.61 4.125
 -1.581 -1.611 4.13
 -1.566 -1.609 4.131
 -1.55 -1.606 4.128
 -1.537 -1.607 4.133
 -1.525 -1.608 4.139
 -1.513 -1.609 4.147
 -1.502 -1.611 4.155
 -1.49 -1.613 4.165
 -1.478 -1.614 4.172
 -1.465 -1.614 4.175
 -1.45 -1.613 4.176
 -1.434 -1.609 4.169
 -1.42 -1.609 4.173
 -1.405 -1.606 4.17
 -1.39 -1.604 4.167
 -1.379 -1.606 4.177
 -1.368 -1.609 4.189
 -1.353 -1.607 4.187
 -1.339 -1.606 4.187
 -1.326 -1.606 4.19
 -1.308 -1.601 4.181
 -1.295 -1.6 4.182
 -1.28 -1.598 4.181
 -1.269 -1.6 4.189
 -1.259 -1.605 4.205
 -1.246 -1.605 4.208
 -1.231 -1.603 4.206
 -1.222 -1.607 4.221
 -1.207 -1.605 4.218
 -1.189 -1.599 4.204
 -1.176 -1.599 4.208
 -1.163 -1.599 4.21
 -1.148 -1.597 4.208
 -1.134 -1.595 4.205
 -1.123 -1.598 4.217
 -1.112 -1.601 4.228
 -1.1 -1.602 4.234
 -1.086 -1.601 4.234
 -1.073 -1.601 4.236
 -1.058 -1.598 4.231
 -1.043 -1.595 4.226
 -1.029 -1.594 4.226
 -1.015 -1.593 4.225
 -1.003 -1.594 4.23
 -0.989 -1.593 4.231
 -0.977 -1.594 4.235
 -0.964 -1.594 4.237
 -0.952 -1.596 4.244
 -0.938 -1.596 4.246
 -0.927 -1.598 4.254
 -0.912 -1.595 4.249
 -0.899 -1.595 4.251
 -0.886 -1.595 4.252
 -0.872 -1.594 4.252
 -0.858 -1.591 4.248
 -0.846 -1.593 4.253
 -0.832 -1.591 4.252
 -0.818 -1.591 4.252
 -0.806 -1.591 4.255
 -0.793 -1.592 4.259
 -0.779 -1.59 4.255
 -0.766 -1.589 4.256
 -0.753 -1.589 4.257
 -0.74 -1.59 4.262
 -0.726 -1.588 4.257
 -0.713 -1.586 4.255
 -0.699 -1.585 4.254
 -0.685 -1.583 4.249
 -0.671 -1.579 4.24
 -0.659 -1.581 4.247
 -0.646 -1.582 4.252
 -0.632 -1.58 4.248
 -0.62 -1.582 4.254
 -0.607 -1.581 4.253
 -0.594 -1.581 4.253
 -0.581 -1.579 4.251
 -0.568 -1.58 4.254
 -0.554 -1.578 4.249
 -0.542 -1.58 4.258
 -0.529 -1.58 4.258
 -0.516 -1.58 4.259
 -0.504 -1.58 4.261
 -0.49 -1.58 4.26
 -0.477 -1.578 4.256
 -0.463 -1.574 4.246
 -0.45 -1.573 4.244
 -0.437 -1.572 4.243
 -0.424 -1.573 4.246
 -0.411 -1.572 4.246
 -0.399 -1.574 4.25
 -0.386 -1.572 4.246
 -0.373 -1.571 4.244
 -0.36 -1.571 4.246
 -0.347 -1.571 4.247
 -0.334 -1.571 4.247
 -0.322 -1.573 4.254
 -0.309 -1.574 4.256
 -0.296 -1.572 4.253
 -0.283 -1.573 4.254
 -0.27 -1.572 4.253
 -0.257 -1.571 4.249
 -0.244 -1.569 4.244
 -0.232 -1.569 4.245
 -0.219 -1.568 4.242
 -0.206 -1.569 4.247
 -0.193 -1.568 4.244
 -0.181 -1.568 4.246
 -0.168 -1.567 4.243
 -0.155 -1.569 4.247
 -0.142 -1.566 4.239
 -0.129 -1.566 4.24
 -0.117 -1.566 4.239
 -0.104 -1.566 4.24
 -0.091 -1.563 4.233
 -0.078 -1.563 4.231
 -0.066 -1.564 4.234
 -0.053 -1.564 4.235
 -0.04 -1.563 4.232
 -0.027 -1.563 4.232
 -0.015 -1.565 4.238
 -0.002 -1.567 4.243
 0.01 -1.568 4.244
 0.022 -1.567 4.243
 0.035 -1.568 4.245
 0.048 -1.567 4.242
 0.061 -1.565 4.236
 0.073 -1.562 4.228
 0.086 -1.565 4.235
 0.099 -1.565 4.234
 0.112 -1.566 4.238
 0.124 -1.567 4.24
 0.137 -1.57 4.248
 0.15 -1.568 4.242
 0.163 -1.568 4.241
 0.175 -1.568 4.239
 0.188 -1.567 4.236
 0.2 -1.566 4.234
 0.214 -1.569 4.241
 0.226 -1.568 4.239
 0.239 -1.569 4.238
 0.252 -1.57 4.24
 0.265 -1.57 4.24
 0.277 -1.569 4.237
 0.29 -1.569 4.235
 0.303 -1.569 4.234
 0.315 -1.568 4.23
 0.328 -1.567 4.227
 0.341 -1.568 4.229
 0.354 -1.57 4.235
 0.367 -1.571 4.235
 0.38 -1.572 4.237
 0.393 -1.573 4.238
 0.405 -1.572 4.236
 0.418 -1.572 4.234
 0.431 -1.572 4.231
 0.443 -1.572 4.231
 0.456 -1.572 4.229
 0.469 -1.571 4.227
 0.482 -1.573 4.229
 0.494 -1.572 4.226
 0.507 -1.572 4.225
 0.52 -1.573 4.224
 0.533 -1.574 4.227
 0.546 -1.574 4.225
 0.56 -1.577 4.232
 0.573 -1.578 4.233
 0.586 -1.579 4.232
 0.598 -1.577 4.228
 0.611 -1.577 4.225
 0.623 -1.577 4.222
 0.636 -1.577 4.222
 0.649 -1.578 4.221
 0.663 -1.581 4.228
 0.676 -1.58 4.225
 0.69 -1.582 4.228
 0.702 -1.582 4.225
 0.716 -1.583 4.227
 0.728 -1.581 4.22
 0.741 -1.583 4.221
 0.753 -1.581 4.213
 0.766 -1.581 4.212
 0.779 -1.583 4.215
 0.792 -1.582 4.21
 0.805 -1.582 4.21
 0.818 -1.584 4.211
 0.832 -1.585 4.213
 0.844 -1.583 4.205
 0.858 -1.586 4.209
 0.872 -1.588 4.212
 0.885 -1.589 4.212
 0.898 -1.589 4.209
 0.91 -1.588 4.206
 0.923 -1.589 4.204
 0.935 -1.587 4.197
 0.947 -1.586 4.191
 0.96 -1.586 4.189
 0.974 -1.588 4.191
 0.987 -1.588 4.189
 1.002 -1.591 4.194
 1.016 -1.594 4.198
 1.03 -1.595 4.199
 1.043 -1.595 4.196
 1.058 -1.599 4.202
 1.07 -1.597 4.196
 1.084 -1.598 4.194
 1.096 -1.597 4.189
 1.11 -1.599 4.192
 1.122 -1.597 4.183
 1.134 -1.596 4.177
 1.148 -1.598 4.18
 1.162 -1.6 4.18
 1.175 -1.599 4.176
 1.189 -1.601 4.178
 1.205 -1.605 4.185
 1.218 -1.605 4.181
 1.231 -1.605 4.178
 1.245 -1.607 4.178
 1.259 -1.608 4.178
 1.272 -1.607 4.173
 1.285 -1.608 4.17
 1.3 -1.611 4.174
 1.313 -1.61 4.169
 1.325 -1.61 4.164
 1.339 -1.611 4.164
 1.354 -1.613 4.164
 1.366 -1.611 4.157
 1.379 -1.611 4.153
 1.39 -1.61 4.145
 1.404 -1.61 4.142
 1.415 -1.608 4.133
 1.429 -1.61 4.133
 1.445 -1.613 4.137
 1.461 -1.616 4.141
 1.473 -1.615 4.134
 1.489 -1.618 4.137
 1.503 -1.62 4.136
 1.515 -1.618 4.128
 1.525 -1.616 4.117
 1.541 -1.619 4.12
 1.555 -1.619 4.118
 1.566 -1.617 4.107
 1.579 -1.618 4.105
 1.594 -1.62 4.105
 1.605 -1.618 4.095
 1.617 -1.617 4.088
 1.63 -1.617 4.083
 1.642 -1.615 4.075
 1.656 -1.616 4.071
 1.669 -1.616 4.067
 1.681 -1.615 4.06
 1.693 -1.615 4.053
 1.706 -1.615 4.048
 1.717 -1.613 4.039
 1.732 -1.614 4.037
 1.745 -1.615 4.033
 1.76 -1.616 4.032
 1.773 -1.616 4.026
 1.786 -1.616 4.021
 1.796 -1.614 4.01
 1.81 -1.615 4.007
 1.818 -1.61 3.99
 1.826 -1.606 3.975
 1.837 -1.604 3.964
 1.846 -1.601 3.95
 1.85 -1.593 3.926
 1.858 -1.59 3.911
 1.864 -1.584 3.891
 1.871 -1.579 3.874
 1.874 -1.571 3.848
 1.875 -1.562 3.82
 1.873 -1.549 3.784
 1.877 -1.542 3.761
 1.878 -1.533 3.733
 1.882 -1.526 3.71
 1.884 -1.518 3.685
 1.893 -1.516 3.673
 1.902 -1.513 3.661
 1.898 -1.5 3.624
 1.902 -1.494 3.604
 1.913 -1.493 3.596
 0 0 0
 0 0 0
 0 0 0
 0 0 0
 0 0 0
 0 0 0
 0 0 0
 0 0 0
 1.78 -1.316 3.12
 1.811 -1.331 3.15
 1.823 -1.332 3.146
 1.835 -1.333 3.144
 1.842 -1.33 3.131
 1.852 -1.33 3.125
 1.848 -1.319 3.094
 1.844 -1.309 3.064
 1.833 -1.294 3.024
 1.805 -1.267 2.955
 1.809 -1.263 2.939
 -2.304 -1.612 3.883
 -2.306 -1.623 3.915
 -2.283 -1.616 3.905
 -2.272 -1.618 3.917
 -2.257 -1.617 3.92
 -2.241 -1.615 3.922
 -2.224 -1.612 3.922
 -2.212 -1.613 3.931
 -2.196 -1.611 3.932
 -2.183 -1.612 3.939
 -2.175 -1.615 3.955
 -2.162 -1.616 3.963
 -2.152 -1.619 3.976
 -2.141 -1.621 3.987
 -2.129 -1.621 3.994
 -2.111 -1.618 3.993
 -2.098 -1.619 4
 -2.079 -1.614 3.994
 -2.065 -1.614 4
 -2.053 -1.614 4.007
 -2.042 -1.617 4.019
 -2.028 -1.616 4.023
 -2.018 -1.619 4.036
 -2.001 -1.616 4.033
 -1.986 -1.615 4.037
 -1.971 -1.614 4.039
 -1.959 -1.614 4.046
 -1.946 -1.615 4.052
 -1.936 -1.618 4.065
 -1.923 -1.618 4.071
 -1.908 -1.617 4.074
 -1.893 -1.615 4.076
 -1.879 -1.615 4.079
 -1.866 -1.615 4.085
 -1.854 -1.616 4.094
 -1.84 -1.616 4.099
 -1.828 -1.618 4.107
 -1.821 -1.623 4.125
 -1.806 -1.622 4.128
 -1.795 -1.623 4.137
 -1.783 -1.625 4.147
 -1.771 -1.626 4.155
 -1.75 -1.62 4.143
 -1.735 -1.618 4.144
 -1.719 -1.615 4.14
 -1.702 -1.612 4.136
 -1.688 -1.611 4.139
 -1.673 -1.61 4.142
 -1.66 -1.61 4.146
 -1.648 -1.611 4.153
 -1.635 -1.612 4.16
 -1.621 -1.611 4.161
 -1.608 -1.611 4.166
 -1.593 -1.61 4.167
 -1.576 -1.606 4.16
 -1.56 -1.603 4.158
 -1.545 -1.602 4.159
 -1.533 -1.603 4.165
 -1.522 -1.605 4.175
 -1.511 -1.608 4.187
 -1.5 -1.611 4.198
 -1.489 -1.613 4.208
 -1.475 -1.612 4.209
 -1.461 -1.612 4.212
 -1.444 -1.607 4.205
 -1.431 -1.607 4.208
 -1.414 -1.603 4.201
 -1.401 -1.603 4.205
 -1.389 -1.605 4.213
 -1.378 -1.608 4.224
 -1.363 -1.605 4.221
 -1.35 -1.606 4.228
 -1.335 -1.604 4.224
 -1.318 -1.599 4.215
 -1.303 -1.598 4.215
 -1.289 -1.597 4.215
 -1.276 -1.596 4.218
 -1.265 -1.6 4.23
 -1.253 -1.6 4.235
 -1.238 -1.598 4.232
 -1.225 -1.599 4.238
 -1.21 -1.597 4.236
 -1.193 -1.591 4.224
 -1.178 -1.589 4.219
 -1.166 -1.59 4.226
 -1.152 -1.589 4.226
 -1.138 -1.588 4.226
 -1.128 -1.592 4.239
 -1.117 -1.595 4.251
 -1.104 -1.595 4.253
 -1.09 -1.595 4.256
 -1.077 -1.594 4.257
 -1.061 -1.59 4.249
 -1.046 -1.588 4.246
 -1.033 -1.588 4.247
 -1.02 -1.588 4.25
 -1.006 -1.586 4.249
 -0.994 -1.588 4.256
 -0.981 -1.588 4.259
 -0.967 -1.587 4.259
 -0.954 -1.587 4.26
 -0.942 -1.589 4.267
 -0.929 -1.59 4.272
 -0.915 -1.587 4.268
 -0.902 -1.587 4.27
 -0.889 -1.587 4.272
 -0.874 -1.585 4.267
 -0.86 -1.583 4.265
 -0.848 -1.584 4.269
 -0.834 -1.583 4.269
 -0.82 -1.581 4.265
 -0.808 -1.582 4.271
 -0.794 -1.582 4.271
 -0.781 -1.58 4.269
 -0.767 -1.579 4.269
 -0.754 -1.58 4.271
 -0.741 -1.579 4.271
 -0.727 -1.576 4.265
 -0.713 -1.574 4.26
 -0.7 -1.573 4.26
 -0.686 -1.571 4.256
 -0.671 -1.568 4.248
 -0.659 -1.569 4.254
 -0.646 -1.57 4.257
 -0.633 -1.569 4.255
 -0.621 -1.57 4.261
 -0.608 -1.57 4.262
 -0.595 -1.57 4.263
 -0.581 -1.569 4.261
 -0.568 -1.569 4.262
 -0.554 -1.566 4.255
 -0.542 -1.568 4.263
 -0.529 -1.568 4.263
 -0.516 -1.567 4.264
 -0.503 -1.567 4.263
 -0.49 -1.567 4.264
 -0.477 -1.565 4.261
 -0.463 -1.562 4.254
 -0.45 -1.561 4.25
 -0.437 -1.561 4.251
 -0.425 -1.561 4.254
 -0.412 -1.561 4.254
 -0.399 -1.56 4.253
 -0.386 -1.56 4.252
 -0.373 -1.559 4.25
 -0.36 -1.559 4.253
 -0.347 -1.559 4.254
 -0.335 -1.56 4.256
 -0.322 -1.563 4.264
 -0.31 -1.563 4.266
 -0.297 -1.562 4.264
 -0.284 -1.562 4.264
 -0.271 -1.563 4.266
 -0.258 -1.56 4.26
 -0.245 -1.558 4.255
 -0.232 -1.558 4.254
 -0.219 -1.557 4.253
 -0.206 -1.557 4.253
 -0.193 -1.556 4.251
 -0.181 -1.557 4.254
 -0.168 -1.555 4.249
 -0.155 -1.554 4.247
 -0.142 -1.552 4.242
 -0.129 -1.554 4.245
 -0.116 -1.553 4.244
 -0.104 -1.555 4.25
 -0.091 -1.555 4.249
 -0.078 -1.554 4.247
 -0.066 -1.553 4.245
 -0.053 -1.553 4.243
 -0.04 -1.552 4.241
 -0.027 -1.552 4.24
 -0.015 -1.554 4.245
 -0.002 -1.555 4.248
 0.01 -1.555 4.248
 0.023 -1.555 4.248
 0.035 -1.555 4.249
 0.048 -1.555 4.249
 0.061 -1.554 4.244
 0.073 -1.552 4.238
 0.086 -1.553 4.24
 0.099 -1.553 4.24
 0.112 -1.553 4.241
 0.124 -1.555 4.245
 0.137 -1.558 4.253
 0.15 -1.557 4.25
 0.163 -1.557 4.249
 0.175 -1.556 4.246
 0.188 -1.554 4.241
 0.201 -1.554 4.24
 0.214 -1.555 4.242
 0.226 -1.555 4.241
 0.239 -1.556 4.244
 0.252 -1.558 4.248
 0.265 -1.557 4.244
 0.278 -1.558 4.246
 0.29 -1.557 4.243
 0.303 -1.558 4.243
 0.315 -1.556 4.238
 0.328 -1.556 4.237
 0.341 -1.556 4.236
 0.354 -1.559 4.243
 0.367 -1.558 4.24
 0.38 -1.559 4.241
 0.393 -1.56 4.243
 0.406 -1.56 4.242
 0.418 -1.559 4.236
 0.431 -1.559 4.235
 0.443 -1.559 4.235
 0.456 -1.559 4.232
 0.468 -1.557 4.227
 0.482 -1.56 4.233
 0.494 -1.559 4.23
 0.507 -1.56 4.231
 0.521 -1.562 4.233
 0.534 -1.563 4.235
 0.546 -1.562 4.23
 0.56 -1.565 4.237
 0.573 -1.565 4.236
 0.585 -1.564 4.233
 0.598 -1.565 4.232
 0.611 -1.564 4.229
 0.623 -1.563 4.225
 0.637 -1.565 4.227
 0.65 -1.565 4.226
 0.663 -1.567 4.23
 0.676 -1.567 4.228
 0.689 -1.569 4.231
 0.702 -1.568 4.225
 0.715 -1.569 4.228
 0.728 -1.568 4.223
 0.741 -1.569 4.223
 0.753 -1.568 4.219
 0.767 -1.57 4.221
 0.78 -1.571 4.223
 0.792 -1.57 4.216
 0.805 -1.57 4.216
 0.818 -1.571 4.215
 0.831 -1.571 4.212
 0.843 -1.569 4.206
 0.858 -1.573 4.212
 0.871 -1.574 4.214
 0.885 -1.575 4.215
 0.899 -1.577 4.217
 0.911 -1.577 4.213
 0.925 -1.578 4.213
 0.938 -1.578 4.211
 0.949 -1.576 4.204
 0.962 -1.575 4.198
 0.975 -1.577 4.2
 0.988 -1.576 4.196
 1.001 -1.577 4.196
 1.016 -1.58 4.2
 1.031 -1.582 4.204
 1.044 -1.583 4.202
 1.058 -1.585 4.206
 1.071 -1.585 4.202
 1.084 -1.586 4.201
 1.097 -1.586 4.199
 1.112 -1.588 4.201
 1.123 -1.586 4.193
 1.137 -1.587 4.192
 1.151 -1.589 4.193
 1.164 -1.589 4.19
 1.177 -1.589 4.187
 1.191 -1.591 4.189
 1.207 -1.594 4.193
 1.22 -1.595 4.192
 1.234 -1.596 4.191
 1.247 -1.596 4.189
 1.262 -1.598 4.19
 1.275 -1.599 4.188
 1.287 -1.598 4.182
 1.302 -1.6 4.185
 1.315 -1.6 4.18
 1.329 -1.601 4.18
 1.342 -1.601 4.177
 1.357 -1.603 4.177
 1.369 -1.603 4.172
 1.382 -1.602 4.168
 1.394 -1.6 4.159
 1.408 -1.602 4.158
 1.421 -1.602 4.154
 1.435 -1.604 4.155
 1.452 -1.608 4.161
 1.467 -1.61 4.163
 1.479 -1.608 4.154
 1.493 -1.61 4.154
 1.508 -1.612 4.154
 1.52 -1.61 4.146
 1.531 -1.608 4.137
 1.548 -1.612 4.142
 1.562 -1.614 4.142
 1.572 -1.611 4.129
 1.587 -1.613 4.13
 1.602 -1.614 4.129
 1.613 -1.612 4.12
 1.625 -1.611 4.112
 1.639 -1.612 4.109
 1.651 -1.611 4.101
 1.666 -1.613 4.102
 1.68 -1.614 4.099
 1.692 -1.613 4.091
 1.705 -1.613 4.086
 1.717 -1.612 4.08
 1.727 -1.609 4.066
 1.741 -1.609 4.062
 1.754 -1.61 4.059
 1.769 -1.611 4.056
 1.782 -1.612 4.053
 1.795 -1.612 4.048
 1.805 -1.609 4.034
 1.816 -1.606 4.023
 1.822 -1.601 4.003
 1.83 -1.596 3.987
 1.842 -1.595 3.979
 1.849 -1.591 3.963
 1.854 -1.584 3.94
 1.863 -1.58 3.925
 1.867 -1.574 3.903
 1.872 -1.566 3.879
 1.877 -1.56 3.858
 1.878 -1.551 3.83
 1.874 -1.537 3.79
 1.877 -1.529 3.765
 1.88 -1.522 3.742
 1.884 -1.515 3.719
 1.887 -1.508 3.696
 1.9 -1.509 3.692
 1.912 -1.509 3.686
 1.91 -1.498 3.652
 1.913 -1.49 3.628
 0 0 0
 0 0 0
 0 0 0
 0 0 0
 0 0 0
 0 0 0
 0 0 0
 0 0 0
 0 0 0
 0 0 0
 1.811 -1.32 3.154
 1.823 -1.321 3.15
 1.833 -1.32 3.143
 1.836 -1.315 3.124
 1.844 -1.313 3.115
 1.844 -1.305 3.091
 1.841 -1.296 3.063
 1.833 -1.283 3.026
 1.822 -1.268 2.986
 1.84 -1.274 2.994
 -2.335 -1.62 3.94
 -2.291 -1.599 3.895
 -2.302 -1.616 3.943
 -2.289 -1.616 3.95
 -2.275 -1.617 3.957
 -2.259 -1.614 3.958
 -2.242 -1.612 3.96
 -2.225 -1.61 3.96
 -2.21 -1.608 3.963
 -2.198 -1.61 3.972
 -2.191 -1.614 3.99
 -2.18 -1.616 4.001
 -2.171 -1.619 4.015
 -2.157 -1.619 4.021
 -2.142 -1.618 4.025
 -2.126 -1.617 4.027
 -2.111 -1.615 4.029
 -2.093 -1.612 4.026
 -2.081 -1.613 4.036
 -2.068 -1.613 4.042
 -2.058 -1.616 4.054
 -2.043 -1.615 4.058
 -2.03 -1.615 4.065
 -2.012 -1.612 4.061
 -1.999 -1.612 4.067
 -1.983 -1.61 4.068
 -1.972 -1.612 4.079
 -1.961 -1.614 4.089
 -1.95 -1.616 4.101
 -1.938 -1.617 4.108
 -1.923 -1.616 4.111
 -1.908 -1.615 4.113
 -1.894 -1.614 4.117
 -1.88 -1.614 4.121
 -1.866 -1.614 4.127
 -1.85 -1.612 4.126
 -1.836 -1.611 4.13
 -1.828 -1.616 4.146
 -1.815 -1.616 4.152
 -1.8 -1.615 4.155
 -1.79 -1.618 4.168
 -1.779 -1.62 4.179
 -1.759 -1.615 4.169
 -1.744 -1.613 4.169
 -1.731 -1.613 4.175
 -1.714 -1.61 4.17
 -1.699 -1.609 4.172
 -1.684 -1.607 4.173
 -1.671 -1.608 4.179
 -1.659 -1.609 4.185
 -1.644 -1.607 4.187
 -1.629 -1.606 4.187
 -1.616 -1.607 4.194
 -1.602 -1.606 4.196
 -1.584 -1.601 4.187
 -1.57 -1.6 4.189
 -1.555 -1.599 4.19
 -1.541 -1.598 4.193
 -1.53 -1.601 4.203
 -1.519 -1.603 4.213
 -1.507 -1.605 4.222
 -1.497 -1.608 4.233
 -1.482 -1.606 4.234
 -1.467 -1.605 4.233
 -1.451 -1.601 4.229
 -1.437 -1.601 4.23
 -1.419 -1.596 4.221
 -1.406 -1.596 4.225
 -1.392 -1.596 4.228
 -1.381 -1.598 4.237
 -1.366 -1.596 4.235
 -1.353 -1.597 4.242
 -1.34 -1.596 4.244
 -1.324 -1.594 4.242
 -1.31 -1.593 4.242
 -1.297 -1.593 4.245
 -1.284 -1.593 4.248
 -1.271 -1.593 4.253
 -1.257 -1.593 4.256
 -1.243 -1.592 4.255
 -1.23 -1.592 4.258
 -1.215 -1.59 4.258
 -1.199 -1.587 4.251
 -1.183 -1.582 4.242
 -1.17 -1.583 4.247
 -1.156 -1.582 4.247
 -1.142 -1.581 4.247
 -1.131 -1.583 4.255
 -1.12 -1.587 4.269
 -1.107 -1.587 4.271
 -1.094 -1.587 4.273
 -1.079 -1.585 4.272
 -1.064 -1.582 4.266
 -1.049 -1.58 4.263
 -1.036 -1.579 4.263
 -1.023 -1.58 4.268
 -1.009 -1.577 4.264
 -0.996 -1.579 4.27
 -0.984 -1.579 4.274
 -0.969 -1.578 4.272
 -0.955 -1.576 4.27
 -0.944 -1.579 4.28
 -0.93 -1.578 4.281
 -0.915 -1.575 4.274
 -0.902 -1.574 4.275
 -0.888 -1.572 4.271
 -0.874 -1.571 4.27
 -0.86 -1.57 4.269
 -0.848 -1.571 4.274
 -0.834 -1.57 4.273
 -0.82 -1.568 4.271
 -0.807 -1.569 4.273
 -0.794 -1.567 4.272
 -0.78 -1.566 4.27
 -0.767 -1.566 4.273
 -0.754 -1.566 4.275
 -0.741 -1.565 4.274
 -0.727 -1.563 4.27
 -0.713 -1.561 4.265
 -0.699 -1.56 4.263
 -0.686 -1.559 4.263
 -0.672 -1.556 4.256
 -0.659 -1.557 4.26
 -0.646 -1.557 4.261
 -0.633 -1.555 4.258
 -0.62 -1.555 4.26
 -0.607 -1.555 4.261
 -0.594 -1.555 4.262
 -0.581 -1.556 4.265
 -0.568 -1.555 4.265
 -0.555 -1.553 4.26
 -0.542 -1.555 4.268
 -0.529 -1.554 4.266
 -0.516 -1.553 4.264
 -0.503 -1.553 4.264
 -0.49 -1.553 4.266
 -0.477 -1.552 4.265
 -0.464 -1.55 4.261
 -0.451 -1.551 4.263
 -0.438 -1.551 4.265
 -0.425 -1.55 4.264
 -0.412 -1.55 4.263
 -0.399 -1.55 4.264
 -0.386 -1.547 4.258
 -0.373 -1.546 4.254
 -0.36 -1.547 4.259
 -0.347 -1.546 4.257
 -0.334 -1.546 4.257
 -0.322 -1.549 4.265
 -0.309 -1.549 4.267
 -0.296 -1.548 4.264
 -0.283 -1.547 4.261
 -0.27 -1.547 4.263
 -0.257 -1.546 4.259
 -0.244 -1.543 4.252
 -0.232 -1.544 4.256
 -0.219 -1.545 4.259
 -0.206 -1.545 4.259
 -0.193 -1.544 4.256
 -0.181 -1.546 4.262
 -0.168 -1.543 4.254
 -0.155 -1.543 4.255
 -0.142 -1.542 4.253
 -0.129 -1.543 4.255
 -0.116 -1.542 4.251
 -0.104 -1.543 4.254
 -0.091 -1.541 4.249
 -0.078 -1.54 4.248
 -0.065 -1.54 4.247
 -0.053 -1.54 4.246
 -0.04 -1.539 4.245
 -0.027 -1.541 4.249
 -0.015 -1.541 4.25
 -0.002 -1.542 4.253
 0.01 -1.543 4.255
 0.023 -1.543 4.254
 0.035 -1.542 4.251
 0.048 -1.542 4.252
 0.061 -1.541 4.249
 0.073 -1.541 4.247
 0.086 -1.541 4.247
 0.099 -1.541 4.248
 0.112 -1.542 4.249
 0.125 -1.543 4.253
 0.137 -1.545 4.256
 0.15 -1.544 4.254
 0.163 -1.544 4.254
 0.176 -1.545 4.254
 0.188 -1.542 4.245
 0.201 -1.542 4.246
 0.214 -1.543 4.247
 0.226 -1.542 4.244
 0.239 -1.541 4.239
 0.252 -1.544 4.247
 0.265 -1.543 4.245
 0.278 -1.546 4.252
 0.291 -1.546 4.25
 0.303 -1.546 4.25
 0.316 -1.545 4.248
 0.329 -1.545 4.245
 0.341 -1.544 4.241
 0.354 -1.547 4.248
 0.367 -1.547 4.247
 0.38 -1.547 4.246
 0.393 -1.547 4.247
 0.405 -1.546 4.241
 0.417 -1.544 4.235
 0.43 -1.545 4.236
 0.443 -1.545 4.235
 0.456 -1.545 4.232
 0.469 -1.545 4.232
 0.482 -1.546 4.235
 0.494 -1.545 4.23
 0.507 -1.546 4.232
 0.521 -1.548 4.236
 0.534 -1.55 4.239
 0.547 -1.55 4.237
 0.56 -1.552 4.241
 0.573 -1.551 4.238
 0.585 -1.551 4.237
 0.598 -1.551 4.234
 0.611 -1.551 4.233
 0.623 -1.55 4.228
 0.637 -1.552 4.231
 0.649 -1.552 4.229
 0.663 -1.553 4.232
 0.676 -1.554 4.23
 0.689 -1.555 4.232
 0.702 -1.555 4.229
 0.714 -1.554 4.226
 0.727 -1.554 4.222
 0.739 -1.553 4.219
 0.752 -1.553 4.217
 0.765 -1.553 4.216
 0.779 -1.556 4.221
 0.792 -1.556 4.218
 0.805 -1.558 4.22
 0.819 -1.559 4.223
 0.832 -1.56 4.222
 0.844 -1.558 4.215
 0.857 -1.559 4.215
 0.87 -1.559 4.213
 0.884 -1.561 4.214
 0.898 -1.562 4.216
 0.911 -1.562 4.214
 0.925 -1.565 4.218
 0.939 -1.566 4.22
 0.951 -1.565 4.214
 0.963 -1.564 4.207
 0.977 -1.565 4.209
 0.988 -1.564 4.202
 1.001 -1.564 4.199
 1.015 -1.565 4.199
 1.03 -1.568 4.205
 1.043 -1.569 4.204
 1.058 -1.572 4.208
 1.071 -1.572 4.206
 1.085 -1.574 4.209
 1.099 -1.575 4.209
 1.112 -1.576 4.207
 1.125 -1.575 4.201
 1.139 -1.577 4.203
 1.152 -1.577 4.202
 1.166 -1.578 4.201
 1.18 -1.579 4.2
 1.193 -1.58 4.2
 1.207 -1.582 4.201
 1.221 -1.583 4.2
 1.233 -1.582 4.193
 1.248 -1.584 4.195
 1.262 -1.586 4.196
 1.277 -1.587 4.198
 1.29 -1.587 4.194
 1.306 -1.592 4.202
 1.318 -1.591 4.195
 1.334 -1.594 4.2
 1.347 -1.593 4.195
 1.36 -1.594 4.191
 1.371 -1.592 4.183
 1.384 -1.592 4.178
 1.394 -1.588 4.164
 1.407 -1.588 4.161
 1.422 -1.59 4.162
 1.436 -1.592 4.162
 1.453 -1.596 4.168
 1.47 -1.6 4.176
 1.484 -1.601 4.174
 1.499 -1.603 4.174
 1.514 -1.605 4.176
 1.527 -1.605 4.171
 1.54 -1.605 4.166
 1.555 -1.606 4.166
 1.57 -1.608 4.166
 1.58 -1.605 4.154
 1.595 -1.607 4.155
 1.609 -1.608 4.152
 1.621 -1.607 4.144
 1.632 -1.605 4.135
 1.646 -1.606 4.131
 1.657 -1.604 4.121
 1.673 -1.606 4.122
 1.687 -1.607 4.121
 1.7 -1.607 4.114
 1.714 -1.608 4.112
 1.727 -1.608 4.107
 1.736 -1.604 4.092
 1.75 -1.604 4.088
 1.763 -1.605 4.083
 1.777 -1.606 4.08
 1.791 -1.606 4.077
 1.804 -1.606 4.071
 1.813 -1.603 4.057
 1.822 -1.599 4.043
 1.829 -1.594 4.023
 1.836 -1.589 4.005
 1.848 -1.588 3.997
 1.855 -1.583 3.979
 1.861 -1.577 3.96
 1.869 -1.573 3.943
 1.873 -1.565 3.919
 1.878 -1.559 3.897
 1.882 -1.551 3.873
 1.882 -1.542 3.842
 1.879 -1.529 3.805
 1.884 -1.523 3.783
 1.885 -1.514 3.756
 1.889 -1.507 3.734
 1.894 -1.501 3.712
 1.91 -1.504 3.715
 1.92 -1.502 3.704
 1.915 -1.489 3.665
 0 0 0
 0 0 0
 0 0 0
 0 0 0
 0 0 0
 0 0 0
 0 0 0
 0 0 0
 0 0 0
 0 0 0
 0 0 0
 1.807 -1.306 3.151
 1.825 -1.311 3.157
 1.834 -1.31 3.149
 1.839 -1.306 3.133
 1.847 -1.304 3.123
 1.848 -1.297 3.101
 1.844 -1.287 3.072
 1.837 -1.275 3.037
 1.854 -1.28 3.043
 1.794 -1.232 2.922
 -2.343 -1.612 3.958
 -2.327 -1.61 3.96
 -2.316 -1.612 3.972
 -2.3 -1.611 3.974
 -2.284 -1.609 3.978
 -2.268 -1.607 3.979
 -2.254 -1.607 3.986
 -2.24 -1.607 3.99
 -2.224 -1.605 3.992
 -2.213 -1.607 4.005
 -2.206 -1.611 4.022
 -2.194 -1.613 4.031
 -2.181 -1.613 4.038
 -2.168 -1.614 4.046
 -2.154 -1.614 4.053
 -2.141 -1.614 4.059
 -2.126 -1.613 4.062
 -2.111 -1.612 4.065
 -2.098 -1.612 4.073
 -2.085 -1.613 4.08
 -2.074 -1.615 4.092
 -2.059 -1.614 4.095
 -2.044 -1.613 4.098
 -2.028 -1.611 4.098
 -2.013 -1.61 4.101
 -1.995 -1.606 4.098
 -1.984 -1.608 4.109
 -1.972 -1.61 4.118
 -1.96 -1.611 4.127
 -1.949 -1.613 4.138
 -1.934 -1.612 4.141
 -1.921 -1.612 4.145
 -1.908 -1.613 4.152
 -1.894 -1.613 4.158
 -1.878 -1.611 4.158
 -1.861 -1.608 4.155
 -1.845 -1.605 4.153
 -1.835 -1.608 4.166
 -1.823 -1.61 4.175
 -1.81 -1.61 4.182
 -1.801 -1.615 4.198
 -1.791 -1.617 4.211
 -1.774 -1.614 4.208
 -1.757 -1.611 4.204
 -1.741 -1.609 4.204
 -1.726 -1.608 4.204
 -1.71 -1.606 4.204
 -1.693 -1.602 4.2
 -1.68 -1.603 4.205
 -1.67 -1.606 4.218
 -1.654 -1.604 4.218
 -1.64 -1.603 4.22
 -1.627 -1.604 4.226
 -1.612 -1.602 4.225
 -1.593 -1.597 4.215
 -1.577 -1.595 4.215
 -1.564 -1.594 4.218
 -1.549 -1.593 4.218
 -1.538 -1.596 4.231
 -1.526 -1.597 4.237
 -1.514 -1.599 4.246
 -1.502 -1.6 4.254
 -1.489 -1.6 4.258
 -1.472 -1.597 4.253
 -1.457 -1.595 4.251
 -1.442 -1.593 4.251
 -1.425 -1.589 4.244
 -1.412 -1.589 4.247
 -1.399 -1.59 4.253
 -1.386 -1.591 4.258
 -1.371 -1.588 4.256
 -1.357 -1.587 4.257
 -1.343 -1.587 4.26
 -1.327 -1.584 4.255
 -1.313 -1.583 4.255
 -1.3 -1.583 4.259
 -1.288 -1.585 4.266
 -1.274 -1.584 4.268
 -1.262 -1.586 4.277
 -1.247 -1.584 4.274
 -1.233 -1.583 4.274
 -1.218 -1.581 4.273
 -1.204 -1.579 4.271
 -1.187 -1.574 4.26
 -1.175 -1.576 4.268
 -1.161 -1.576 4.27
 -1.147 -1.574 4.268
 -1.133 -1.573 4.27
 -1.121 -1.575 4.277
 -1.107 -1.573 4.275
 -1.094 -1.573 4.278
 -1.08 -1.573 4.28
 -1.065 -1.57 4.274
 -1.051 -1.568 4.272
 -1.037 -1.568 4.275
 -1.025 -1.569 4.279
 -1.009 -1.565 4.271
 -0.997 -1.567 4.28
 -0.984 -1.567 4.281
 -0.97 -1.565 4.279
 -0.955 -1.563 4.275
 -0.944 -1.566 4.285
 -0.93 -1.565 4.285
 -0.916 -1.564 4.284
 -0.903 -1.564 4.286
 -0.889 -1.562 4.282
 -0.875 -1.56 4.279
 -0.861 -1.558 4.276
 -0.848 -1.558 4.278
 -0.834 -1.556 4.276
 -0.821 -1.556 4.277
 -0.808 -1.557 4.281
 -0.795 -1.556 4.281
 -0.781 -1.555 4.28
 -0.768 -1.555 4.28
 -0.754 -1.553 4.276
 -0.74 -1.551 4.275
 -0.726 -1.549 4.271
 -0.712 -1.548 4.268
 -0.699 -1.547 4.267
 -0.687 -1.548 4.271
 -0.672 -1.545 4.264
 -0.659 -1.543 4.262
 -0.646 -1.543 4.263
 -0.633 -1.543 4.263
 -0.619 -1.541 4.26
 -0.606 -1.541 4.261
 -0.594 -1.543 4.269
 -0.582 -1.544 4.272
 -0.568 -1.541 4.267
 -0.555 -1.541 4.268
 -0.543 -1.544 4.275
 -0.529 -1.542 4.272
 -0.516 -1.541 4.27
 -0.503 -1.54 4.27
 -0.49 -1.54 4.269
 -0.477 -1.539 4.267
 -0.464 -1.537 4.264
 -0.45 -1.537 4.263
 -0.438 -1.538 4.269
 -0.425 -1.538 4.268
 -0.412 -1.537 4.266
 -0.399 -1.536 4.266
 -0.386 -1.535 4.263
 -0.373 -1.533 4.259
 -0.36 -1.534 4.262
 -0.347 -1.533 4.26
 -0.334 -1.533 4.261
 -0.322 -1.534 4.263
 -0.309 -1.534 4.263
 -0.296 -1.533 4.263
 -0.282 -1.531 4.256
 -0.27 -1.532 4.26
 -0.257 -1.531 4.259
 -0.244 -1.529 4.252
 -0.231 -1.529 4.252
 -0.219 -1.53 4.258
 -0.206 -1.53 4.256
 -0.193 -1.53 4.256
 -0.181 -1.532 4.263
 -0.168 -1.53 4.257
 -0.155 -1.53 4.259
 -0.142 -1.53 4.258
 -0.129 -1.53 4.257
 -0.116 -1.529 4.255
 -0.104 -1.531 4.26
 -0.091 -1.529 4.256
 -0.078 -1.529 4.256
 -0.065 -1.529 4.255
 -0.053 -1.528 4.252
 -0.04 -1.527 4.25
 -0.027 -1.527 4.25
 -0.014 -1.526 4.247
 -0.002 -1.528 4.252
 0.01 -1.529 4.254
 0.023 -1.527 4.25
 0.035 -1.528 4.252
 0.048 -1.529 4.254
 0.061 -1.527 4.25
 0.074 -1.527 4.249
 0.086 -1.528 4.251
 0.099 -1.528 4.249
 0.112 -1.528 4.25
 0.125 -1.529 4.252
 0.137 -1.531 4.256
 0.15 -1.531 4.257
 0.163 -1.531 4.256
 0.176 -1.531 4.256
 0.188 -1.529 4.249
 0.201 -1.529 4.249
 0.214 -1.53 4.251
 0.226 -1.53 4.251
 0.239 -1.529 4.247
 0.252 -1.531 4.252
 0.265 -1.531 4.252
 0.278 -1.532 4.254
 0.29 -1.531 4.249
 0.303 -1.531 4.247
 0.316 -1.532 4.25
 0.328 -1.531 4.247
 0.341 -1.53 4.242
 0.354 -1.534 4.251
 0.367 -1.534 4.252
 0.38 -1.533 4.247
 0.393 -1.533 4.247
 0.405 -1.533 4.244
 0.417 -1.531 4.238
 0.43 -1.531 4.237
 0.443 -1.532 4.239
 0.455 -1.531 4.233
 0.468 -1.53 4.23
 0.481 -1.531 4.233
 0.494 -1.531 4.23
 0.507 -1.532 4.23
 0.52 -1.534 4.236
 0.533 -1.536 4.239
 0.546 -1.535 4.235
 0.559 -1.537 4.238
 0.572 -1.536 4.235
 0.585 -1.538 4.238
 0.598 -1.539 4.239
 0.611 -1.539 4.238
 0.624 -1.538 4.233
 0.637 -1.539 4.234
 0.649 -1.538 4.229
 0.662 -1.538 4.229
 0.675 -1.539 4.229
 0.688 -1.541 4.232
 0.702 -1.542 4.234
 0.714 -1.541 4.23
 0.727 -1.542 4.229
 0.74 -1.542 4.227
 0.753 -1.542 4.225
 0.765 -1.541 4.221
 0.78 -1.544 4.227
 0.792 -1.544 4.224
 0.806 -1.546 4.228
 0.82 -1.548 4.23
 0.833 -1.548 4.23
 0.845 -1.547 4.225
 0.858 -1.547 4.222
 0.87 -1.546 4.215
 0.883 -1.546 4.215
 0.897 -1.549 4.218
 0.91 -1.549 4.217
 0.925 -1.552 4.221
 0.939 -1.554 4.225
 0.952 -1.555 4.224
 0.964 -1.553 4.216
 0.977 -1.554 4.216
 0.99 -1.553 4.212
 1.002 -1.552 4.205
 1.015 -1.551 4.202
 1.029 -1.554 4.205
 1.042 -1.554 4.204
 1.056 -1.556 4.206
 1.071 -1.559 4.21
 1.086 -1.562 4.216
 1.1 -1.564 4.218
 1.114 -1.565 4.217
 1.127 -1.565 4.213
 1.14 -1.566 4.213
 1.152 -1.564 4.205
 1.166 -1.565 4.205
 1.179 -1.565 4.202
 1.192 -1.566 4.2
 1.205 -1.566 4.197
 1.22 -1.568 4.199
 1.232 -1.568 4.195
 1.248 -1.57 4.198
 1.262 -1.573 4.201
 1.277 -1.574 4.202
 1.29 -1.575 4.2
 1.306 -1.578 4.205
 1.318 -1.577 4.197
 1.334 -1.58 4.203
 1.348 -1.581 4.202
 1.362 -1.582 4.201
 1.374 -1.582 4.195
 1.388 -1.582 4.193
 1.397 -1.578 4.178
 1.411 -1.579 4.175
 1.425 -1.58 4.174
 1.438 -1.581 4.172
 1.455 -1.584 4.177
 1.471 -1.588 4.183
 1.485 -1.589 4.181
 1.5 -1.591 4.182
 1.516 -1.593 4.184
 1.528 -1.593 4.178
 1.542 -1.593 4.175
 1.557 -1.595 4.175
 1.571 -1.596 4.172
 1.581 -1.593 4.162
 1.598 -1.596 4.165
 1.611 -1.597 4.162
 1.624 -1.596 4.156
 1.637 -1.596 4.151
 1.653 -1.599 4.153
 1.665 -1.597 4.144
 1.681 -1.6 4.146
 1.695 -1.601 4.144
 1.708 -1.601 4.139
 1.721 -1.601 4.134
 1.734 -1.601 4.129
 1.743 -1.597 4.112
 1.758 -1.598 4.111
 1.77 -1.598 4.104
 1.782 -1.597 4.096
 1.795 -1.597 4.091
 1.809 -1.597 4.087
 1.817 -1.593 4.07
 1.826 -1.589 4.055
 1.833 -1.584 4.037
 1.837 -1.577 4.013
 1.849 -1.576 4.005
 1.855 -1.57 3.984
 1.862 -1.565 3.965
 1.872 -1.562 3.954
 1.878 -1.557 3.934
 1.884 -1.551 3.913
 1.888 -1.544 3.891
 1.89 -1.535 3.863
 1.888 -1.524 3.828
 1.895 -1.519 3.81
 1.895 -1.509 3.779
 1.897 -1.501 3.754
 1.898 -1.492 3.726
 1.914 -1.495 3.727
 1.916 -1.487 3.7
 0 0 0
 0 0 0
 0 0 0
 0 0 0
 0 0 0
 0 0 0
 0 0 0
 0 0 0
 0 0 0
 0 0 0
 0 0 0
 0 0 0
 1.809 -1.297 3.158
 1.825 -1.301 3.161
 1.834 -1.299 3.153
 1.84 -1.296 3.139
 1.849 -1.295 3.131
 1.849 -1.288 3.107
 1.846 -1.278 3.079
 1.838 -1.266 3.042
 1.839 -1.259 3.022
 1.806 -1.23 2.945
 -2.362 -1.612 3.996
 0 0 0
 -2.329 -1.608 4
 -2.314 -1.607 4.004
 -2.305 -1.61 4.019
 -2.289 -1.608 4.021
 -2.279 -1.611 4.034
 -2.262 -1.609 4.035
 -2.246 -1.607 4.038
 -2.233 -1.608 4.045
 -2.224 -1.611 4.06
 -2.208 -1.609 4.062
 -2.195 -1.61 4.071
 -2.181 -1.61 4.076
 -2.165 -1.609 4.079
 -2.15 -1.607 4.082
 -2.138 -1.608 4.09
 -2.122 -1.607 4.092
 -2.112 -1.609 4.105
 -2.098 -1.609 4.111
 -2.089 -1.613 4.126
 -2.072 -1.611 4.126
 -2.059 -1.611 4.132
 -2.04 -1.607 4.127
 -2.026 -1.607 4.133
 -2.009 -1.604 4.131
 -1.999 -1.607 4.145
 -1.985 -1.607 4.15
 -1.973 -1.608 4.159
 -1.961 -1.609 4.167
 -1.946 -1.609 4.171
 -1.931 -1.607 4.173
 -1.919 -1.608 4.181
 -1.906 -1.609 4.188
 -1.89 -1.607 4.188
 -1.872 -1.603 4.184
 -1.856 -1.601 4.184
 -1.844 -1.603 4.192
 -1.83 -1.603 4.198
 -1.817 -1.603 4.203
 -1.807 -1.606 4.216
 -1.798 -1.61 4.233
 -1.782 -1.608 4.231
 -1.766 -1.606 4.231
 -1.75 -1.604 4.23
 -1.734 -1.602 4.229
 -1.716 -1.598 4.224
 -1.701 -1.597 4.225
 -1.689 -1.598 4.233
 -1.678 -1.601 4.245
 -1.663 -1.6 4.246
 -1.647 -1.597 4.243
 -1.633 -1.596 4.245
 -1.616 -1.592 4.24
 -1.598 -1.588 4.233
 -1.584 -1.588 4.236
 -1.57 -1.587 4.24
 -1.554 -1.585 4.238
 -1.544 -1.588 4.25
 -1.531 -1.589 4.255
 -1.518 -1.589 4.26
 -1.506 -1.591 4.27
 -1.494 -1.592 4.276
 -1.478 -1.589 4.273
 -1.462 -1.587 4.27
 -1.447 -1.585 4.27
 -1.43 -1.581 4.262
 -1.416 -1.581 4.265
 -1.403 -1.581 4.269
 -1.39 -1.582 4.274
 -1.375 -1.58 4.273
 -1.362 -1.58 4.277
 -1.348 -1.58 4.28
 -1.333 -1.578 4.278
 -1.319 -1.577 4.279
 -1.306 -1.577 4.283
 -1.292 -1.577 4.285
 -1.277 -1.575 4.284
 -1.265 -1.576 4.291
 -1.25 -1.575 4.29
 -1.235 -1.572 4.284
 -1.221 -1.571 4.285
 -1.206 -1.57 4.285
 -1.19 -1.565 4.275
 -1.177 -1.566 4.28
 -1.163 -1.565 4.281
 -1.148 -1.562 4.277
 -1.134 -1.561 4.277
 -1.121 -1.562 4.281
 -1.107 -1.56 4.279
 -1.094 -1.56 4.283
 -1.081 -1.561 4.286
 -1.066 -1.559 4.284
 -1.051 -1.556 4.279
 -1.038 -1.556 4.28
 -1.025 -1.556 4.283
 -1.009 -1.552 4.276
 -0.997 -1.554 4.282
 -0.984 -1.554 4.285
 -0.97 -1.553 4.284
 -0.956 -1.551 4.281
 -0.945 -1.554 4.292
 -0.93 -1.552 4.288
 -0.916 -1.551 4.288
 -0.903 -1.55 4.289
 -0.888 -1.548 4.284
 -0.874 -1.546 4.28
 -0.86 -1.545 4.279
 -0.847 -1.545 4.281
 -0.834 -1.544 4.282
 -0.822 -1.545 4.286
 -0.808 -1.544 4.286
 -0.795 -1.544 4.287
 -0.782 -1.543 4.287
 -0.767 -1.541 4.283
 -0.753 -1.539 4.279
 -0.741 -1.539 4.281
 -0.727 -1.537 4.277
 -0.713 -1.536 4.275
 -0.7 -1.535 4.274
 -0.688 -1.537 4.282
 -0.673 -1.534 4.275
 -0.66 -1.532 4.272
 -0.646 -1.532 4.271
 -0.634 -1.533 4.276
 -0.62 -1.529 4.268
 -0.606 -1.529 4.266
 -0.594 -1.53 4.271
 -0.581 -1.53 4.274
 -0.567 -1.528 4.268
 -0.555 -1.528 4.27
 -0.543 -1.53 4.277
 -0.529 -1.53 4.278
 -0.516 -1.528 4.275
 -0.503 -1.528 4.276
 -0.49 -1.529 4.277
 -0.477 -1.527 4.275
 -0.464 -1.525 4.27
 -0.45 -1.524 4.267
 -0.438 -1.524 4.269
 -0.424 -1.523 4.266
 -0.411 -1.521 4.262
 -0.399 -1.522 4.266
 -0.386 -1.522 4.266
 -0.372 -1.52 4.262
 -0.36 -1.52 4.263
 -0.347 -1.52 4.263
 -0.334 -1.52 4.264
 -0.321 -1.52 4.263
 -0.308 -1.52 4.264
 -0.296 -1.52 4.266
 -0.282 -1.518 4.259
 -0.27 -1.517 4.259
 -0.257 -1.518 4.262
 -0.244 -1.517 4.258
 -0.231 -1.516 4.256
 -0.219 -1.518 4.262
 -0.206 -1.518 4.262
 -0.193 -1.516 4.258
 -0.18 -1.517 4.261
 -0.167 -1.516 4.259
 -0.155 -1.517 4.261
 -0.142 -1.518 4.263
 -0.129 -1.518 4.265
 -0.117 -1.519 4.267
 -0.104 -1.519 4.267
 -0.091 -1.519 4.266
 -0.078 -1.517 4.262
 -0.065 -1.516 4.26
 -0.053 -1.515 4.257
 -0.04 -1.515 4.256
 -0.027 -1.515 4.257
 -0.014 -1.515 4.256
 -0.002 -1.516 4.258
 0.01 -1.518 4.263
 0.023 -1.516 4.259
 0.035 -1.515 4.256
 0.048 -1.517 4.26
 0.061 -1.516 4.256
 0.074 -1.515 4.253
 0.086 -1.514 4.252
 0.099 -1.515 4.252
 0.112 -1.514 4.25
 0.125 -1.515 4.254
 0.137 -1.516 4.254
 0.15 -1.518 4.26
 0.163 -1.518 4.259
 0.176 -1.519 4.261
 0.188 -1.517 4.255
 0.201 -1.518 4.258
 0.214 -1.519 4.258
 0.227 -1.518 4.257
 0.239 -1.517 4.253
 0.252 -1.518 4.254
 0.265 -1.518 4.252
 0.278 -1.519 4.255
 0.29 -1.518 4.251
 0.303 -1.517 4.249
 0.316 -1.52 4.256
 0.329 -1.519 4.253
 0.341 -1.518 4.248
 0.355 -1.521 4.256
 0.367 -1.521 4.255
 0.38 -1.519 4.249
 0.392 -1.519 4.247
 0.405 -1.52 4.248
 0.417 -1.518 4.242
 0.431 -1.519 4.244
 0.444 -1.521 4.248
 0.456 -1.521 4.246
 0.469 -1.521 4.244
 0.482 -1.522 4.245
 0.495 -1.521 4.241
 0.507 -1.521 4.241
 0.521 -1.523 4.246
 0.534 -1.524 4.245
 0.547 -1.524 4.243
 0.56 -1.525 4.245
 0.572 -1.524 4.24
 0.585 -1.524 4.24
 0.598 -1.525 4.242
 0.612 -1.527 4.244
 0.624 -1.527 4.242
 0.637 -1.527 4.242
 0.649 -1.526 4.235
 0.662 -1.525 4.233
 0.674 -1.524 4.228
 0.688 -1.526 4.229
 0.701 -1.527 4.232
 0.714 -1.528 4.232
 0.727 -1.529 4.233
 0.74 -1.529 4.232
 0.753 -1.53 4.231
 0.766 -1.529 4.228
 0.78 -1.532 4.234
 0.793 -1.532 4.231
 0.807 -1.535 4.237
 0.821 -1.536 4.238
 0.834 -1.537 4.239
 0.847 -1.537 4.237
 0.86 -1.538 4.236
 0.872 -1.535 4.226
 0.884 -1.535 4.224
 0.898 -1.537 4.224
 0.91 -1.536 4.221
 0.923 -1.536 4.219
 0.938 -1.539 4.223
 0.951 -1.54 4.223
 0.962 -1.537 4.213
 0.976 -1.538 4.214
 0.99 -1.54 4.216
 1.002 -1.539 4.21
 1.015 -1.539 4.208
 1.03 -1.542 4.213
 1.042 -1.542 4.209
 1.056 -1.542 4.207
 1.071 -1.545 4.213
 1.085 -1.547 4.215
 1.099 -1.549 4.216
 1.113 -1.55 4.217
 1.126 -1.551 4.216
 1.141 -1.553 4.218
 1.153 -1.553 4.214
 1.168 -1.554 4.216
 1.181 -1.555 4.215
 1.194 -1.555 4.211
 1.206 -1.553 4.203
 1.22 -1.555 4.204
 1.233 -1.555 4.199
 1.248 -1.557 4.203
 1.263 -1.56 4.206
 1.278 -1.563 4.211
 1.291 -1.563 4.207
 1.306 -1.565 4.209
 1.318 -1.563 4.201
 1.333 -1.566 4.205
 1.347 -1.568 4.205
 1.362 -1.57 4.207
 1.375 -1.569 4.201
 1.388 -1.57 4.199
 1.398 -1.566 4.185
 1.41 -1.565 4.179
 1.425 -1.567 4.178
 1.439 -1.568 4.178
 1.455 -1.571 4.182
 1.473 -1.576 4.191
 1.487 -1.577 4.19
 1.502 -1.579 4.191
 1.518 -1.582 4.195
 1.531 -1.582 4.19
 1.544 -1.582 4.186
 1.559 -1.584 4.186
 1.573 -1.585 4.183
 1.583 -1.582 4.17
 1.6 -1.586 4.176
 1.614 -1.586 4.174
 1.628 -1.587 4.17
 1.64 -1.585 4.161
 1.657 -1.589 4.166
 1.669 -1.589 4.16
 1.685 -1.591 4.163
 1.702 -1.594 4.166
 1.716 -1.595 4.163
 1.729 -1.595 4.156
 1.74 -1.593 4.147
 1.749 -1.589 4.132
 1.762 -1.589 4.126
 1.775 -1.589 4.12
 1.787 -1.588 4.113
 1.802 -1.589 4.111
 1.813 -1.587 4.1
 1.821 -1.583 4.083
 1.831 -1.58 4.07
 1.839 -1.576 4.054
 1.842 -1.567 4.027
 1.855 -1.568 4.022
 1.862 -1.562 4.002
 1.868 -1.556 3.982
 1.875 -1.552 3.964
 1.882 -1.547 3.946
 1.888 -1.541 3.926
 1.89 -1.533 3.9
 1.892 -1.524 3.871
 1.893 -1.514 3.841
 1.901 -1.511 3.827
 1.9 -1.5 3.793
 1.906 -1.495 3.775
 1.921 -1.497 3.774
 0 0 0
 0 0 0
 0 0 0
 0 0 0
 0 0 0
 0 0 0
 0 0 0
 0 0 0
 0 0 0
 0 0 0
 0 0 0
 0 0 0
 0 0 0
 0 0 0
 1.805 -1.284 3.155
 1.824 -1.289 3.162
 1.829 -1.285 3.148
 1.836 -1.283 3.137
 1.847 -1.283 3.131
 1.848 -1.276 3.11
 1.847 -1.268 3.085
 1.841 -1.257 3.051
 1.864 -1.266 3.066
 1.83 -1.236 2.988
 -2.437 -1.649 4.127
 -2.364 -1.609 4.034
 -2.34 -1.602 4.024
 -2.322 -1.599 4.023
 -2.31 -1.6 4.033
 -2.298 -1.601 4.042
 -2.292 -1.607 4.063
 -2.278 -1.607 4.069
 -2.266 -1.608 4.078
 -2.255 -1.61 4.09
 -2.243 -1.611 4.099
 -2.226 -1.609 4.1
 -2.211 -1.608 4.105
 -2.196 -1.607 4.109
 -2.181 -1.607 4.114
 -2.169 -1.608 4.123
 -2.156 -1.608 4.13
 -2.139 -1.606 4.13
 -2.13 -1.609 4.144
 -2.116 -1.609 4.15
 -2.103 -1.61 4.159
 -2.086 -1.608 4.159
 -2.075 -1.61 4.169
 -2.057 -1.606 4.166
 -2.041 -1.605 4.168
 -2.024 -1.602 4.167
 -2.012 -1.603 4.176
 -1.996 -1.602 4.177
 -1.983 -1.602 4.185
 -1.971 -1.604 4.193
 -1.956 -1.603 4.197
 -1.944 -1.604 4.205
 -1.933 -1.607 4.218
 -1.918 -1.605 4.219
 -1.904 -1.605 4.225
 -1.888 -1.604 4.225
 -1.869 -1.599 4.219
 -1.854 -1.598 4.221
 -1.841 -1.599 4.228
 -1.826 -1.597 4.228
 -1.811 -1.597 4.232
 -1.804 -1.602 4.251
 -1.787 -1.6 4.25
 -1.771 -1.598 4.249
 -1.756 -1.596 4.251
 -1.743 -1.597 4.257
 -1.725 -1.593 4.25
 -1.711 -1.592 4.254
 -1.698 -1.593 4.261
 -1.688 -1.596 4.274
 -1.672 -1.594 4.272
 -1.655 -1.591 4.268
 -1.641 -1.59 4.271
 -1.624 -1.588 4.268
 -1.605 -1.582 4.258
 -1.592 -1.583 4.264
 -1.579 -1.583 4.268
 -1.562 -1.579 4.262
 -1.549 -1.58 4.27
 -1.535 -1.58 4.272
 -1.52 -1.579 4.273
 -1.509 -1.58 4.282
 -1.496 -1.581 4.288
 -1.48 -1.578 4.285
 -1.466 -1.578 4.286
 -1.451 -1.576 4.287
 -1.433 -1.572 4.277
 -1.42 -1.572 4.283
 -1.407 -1.573 4.287
 -1.393 -1.572 4.29
 -1.377 -1.569 4.284
 -1.363 -1.569 4.287
 -1.349 -1.568 4.289
 -1.336 -1.568 4.292
 -1.322 -1.567 4.293
 -1.309 -1.568 4.3
 -1.295 -1.568 4.301
 -1.279 -1.564 4.295
 -1.265 -1.563 4.296
 -1.25 -1.561 4.292
 -1.234 -1.558 4.288
 -1.22 -1.557 4.289
 -1.208 -1.558 4.295
 -1.192 -1.555 4.289
 -1.179 -1.556 4.293
 -1.165 -1.555 4.294
 -1.151 -1.554 4.293
 -1.136 -1.551 4.29
 -1.123 -1.551 4.291
 -1.108 -1.549 4.29
 -1.095 -1.55 4.293
 -1.082 -1.549 4.294
 -1.066 -1.546 4.289
 -1.051 -1.543 4.283
 -1.038 -1.543 4.285
 -1.024 -1.542 4.284
 -1.009 -1.539 4.278
 -0.997 -1.54 4.285
 -0.984 -1.541 4.289
 -0.969 -1.538 4.283
 -0.955 -1.536 4.281
 -0.943 -1.538 4.29
 -0.928 -1.535 4.283
 -0.914 -1.534 4.282
 -0.901 -1.535 4.286
 -0.888 -1.534 4.285
 -0.873 -1.531 4.281
 -0.86 -1.531 4.283
 -0.847 -1.531 4.285
 -0.834 -1.531 4.285
 -0.82 -1.53 4.284
 -0.807 -1.529 4.284
 -0.794 -1.528 4.284
 -0.78 -1.527 4.282
 -0.766 -1.526 4.28
 -0.752 -1.524 4.278
 -0.739 -1.523 4.277
 -0.726 -1.523 4.277
 -0.713 -1.523 4.278
 -0.699 -1.521 4.277
 -0.687 -1.523 4.283
 -0.673 -1.522 4.28
 -0.659 -1.519 4.275
 -0.646 -1.518 4.274
 -0.634 -1.52 4.279
 -0.62 -1.517 4.272
 -0.606 -1.516 4.27
 -0.593 -1.515 4.271
 -0.58 -1.516 4.273
 -0.567 -1.513 4.267
 -0.554 -1.513 4.269
 -0.542 -1.515 4.274
 -0.529 -1.515 4.275
 -0.515 -1.513 4.273
 -0.502 -1.513 4.272
 -0.49 -1.514 4.276
 -0.477 -1.513 4.274
 -0.464 -1.512 4.273
 -0.45 -1.512 4.273
 -0.438 -1.512 4.273
 -0.424 -1.51 4.269
 -0.411 -1.509 4.267
 -0.398 -1.508 4.266
 -0.385 -1.507 4.265
 -0.372 -1.507 4.266
 -0.36 -1.508 4.267
 -0.347 -1.509 4.271
 -0.335 -1.51 4.275
 -0.322 -1.509 4.275
 -0.309 -1.509 4.273
 -0.296 -1.509 4.276
 -0.283 -1.507 4.268
 -0.27 -1.506 4.266
 -0.257 -1.507 4.27
 -0.244 -1.506 4.267
 -0.231 -1.505 4.265
 -0.219 -1.506 4.269
 -0.206 -1.506 4.269
 -0.193 -1.504 4.265
 -0.18 -1.504 4.265
 -0.167 -1.503 4.262
 -0.155 -1.505 4.266
 -0.142 -1.505 4.267
 -0.129 -1.506 4.271
 -0.117 -1.507 4.275
 -0.104 -1.508 4.277
 -0.091 -1.506 4.271
 -0.078 -1.505 4.269
 -0.065 -1.503 4.261
 -0.052 -1.502 4.258
 -0.04 -1.501 4.257
 -0.027 -1.502 4.258
 -0.014 -1.5 4.252
 -0.002 -1.501 4.257
 0.01 -1.504 4.264
 0.023 -1.502 4.258
 0.036 -1.502 4.257
 0.048 -1.504 4.263
 0.061 -1.502 4.258
 0.074 -1.501 4.255
 0.086 -1.501 4.254
 0.099 -1.501 4.254
 0.112 -1.5 4.25
 0.125 -1.501 4.253
 0.137 -1.501 4.253
 0.15 -1.503 4.258
 0.163 -1.503 4.258
 0.176 -1.505 4.261
 0.188 -1.504 4.26
 0.201 -1.505 4.259
 0.214 -1.504 4.257
 0.226 -1.504 4.255
 0.239 -1.502 4.25
 0.252 -1.502 4.249
 0.264 -1.502 4.249
 0.277 -1.503 4.251
 0.29 -1.502 4.247
 0.303 -1.503 4.248
 0.316 -1.505 4.252
 0.328 -1.504 4.25
 0.341 -1.504 4.248
 0.354 -1.506 4.253
 0.367 -1.505 4.249
 0.379 -1.505 4.247
 0.392 -1.505 4.247
 0.405 -1.506 4.248
 0.418 -1.505 4.246
 0.431 -1.507 4.249
 0.444 -1.509 4.253
 0.457 -1.508 4.251
 0.469 -1.509 4.25
 0.482 -1.509 4.248
 0.495 -1.508 4.246
 0.507 -1.508 4.243
 0.521 -1.51 4.248
 0.534 -1.51 4.246
 0.546 -1.509 4.243
 0.559 -1.51 4.242
 0.572 -1.51 4.241
 0.584 -1.51 4.239
 0.598 -1.512 4.245
 0.612 -1.514 4.249
 0.625 -1.515 4.25
 0.638 -1.515 4.248
 0.65 -1.514 4.242
 0.663 -1.513 4.239
 0.675 -1.512 4.233
 0.688 -1.513 4.233
 0.701 -1.514 4.235
 0.714 -1.514 4.233
 0.727 -1.514 4.232
 0.74 -1.515 4.232
 0.753 -1.516 4.232
 0.766 -1.515 4.229
 0.78 -1.518 4.234
 0.793 -1.519 4.235
 0.807 -1.522 4.241
 0.821 -1.523 4.242
 0.834 -1.524 4.243
 0.848 -1.525 4.243
 0.86 -1.525 4.239
 0.872 -1.523 4.232
 0.885 -1.524 4.232
 0.899 -1.525 4.233
 0.911 -1.524 4.227
 0.924 -1.524 4.225
 0.938 -1.526 4.228
 0.952 -1.528 4.231
 0.963 -1.526 4.221
 0.978 -1.528 4.224
 0.991 -1.529 4.226
 1.003 -1.528 4.219
 1.015 -1.526 4.212
 1.029 -1.528 4.215
 1.042 -1.528 4.211
 1.056 -1.529 4.212
 1.071 -1.533 4.218
 1.085 -1.535 4.221
 1.099 -1.536 4.221
 1.113 -1.537 4.221
 1.126 -1.537 4.217
 1.14 -1.539 4.219
 1.153 -1.538 4.215
 1.167 -1.541 4.218
 1.181 -1.542 4.218
 1.195 -1.543 4.219
 1.206 -1.541 4.208
 1.22 -1.542 4.209
 1.232 -1.541 4.202
 1.247 -1.544 4.205
 1.261 -1.544 4.204
 1.277 -1.549 4.212
 1.291 -1.55 4.212
 1.307 -1.553 4.216
 1.319 -1.552 4.21
 1.335 -1.555 4.213
 1.349 -1.557 4.215
 1.363 -1.558 4.214
 1.376 -1.557 4.208
 1.389 -1.557 4.205
 1.401 -1.556 4.198
 1.414 -1.556 4.193
 1.428 -1.557 4.191
 1.442 -1.558 4.19
 1.458 -1.562 4.196
 1.475 -1.565 4.201
 1.488 -1.565 4.196
 1.503 -1.567 4.197
 1.52 -1.571 4.204
 1.533 -1.57 4.198
 1.546 -1.571 4.195
 1.562 -1.573 4.196
 1.575 -1.573 4.193
 1.585 -1.57 4.179
 1.601 -1.573 4.183
 1.615 -1.574 4.18
 1.629 -1.575 4.178
 1.643 -1.575 4.174
 1.66 -1.578 4.178
 1.672 -1.578 4.172
 1.688 -1.58 4.174
 1.703 -1.582 4.173
 1.717 -1.582 4.168
 1.731 -1.583 4.165
 1.743 -1.582 4.157
 1.753 -1.579 4.145
 1.767 -1.58 4.141
 1.78 -1.58 4.136
 1.791 -1.578 4.125
 1.803 -1.577 4.117
 1.814 -1.575 4.108
 1.822 -1.57 4.09
 1.833 -1.569 4.08
 1.842 -1.565 4.065
 1.847 -1.558 4.042
 1.859 -1.557 4.033
 1.864 -1.551 4.012
 1.869 -1.544 3.988
 1.877 -1.54 3.972
 1.884 -1.535 3.954
 1.888 -1.528 3.93
 1.892 -1.521 3.907
 1.896 -1.514 3.884
 1.9 -1.507 3.86
 1.907 -1.503 3.844
 1.908 -1.494 3.813
 1.912 -1.488 3.792
 0 0 0
 0 0 0
 0 0 0
 0 0 0
 0 0 0
 0 0 0
 0 0 0
 0 0 0
 0 0 0
 0 0 0
 0 0 0
 0 0 0
 0 0 0
 0 0 0
 0 0 0
 0 0 0
 1.828 -1.281 3.175
 1.831 -1.276 3.156
 1.838 -1.273 3.143
 1.845 -1.271 3.132
 1.848 -1.266 3.114
 1.848 -1.258 3.09
 1.842 -1.247 3.057
 1.806 -1.216 2.975
 1.784 -1.194 2.916
 0 0 0
 0 0 0
 -2.368 -1.607 4.076
 -2.34 -1.597 4.059
 -2.331 -1.601 4.073
 -2.318 -1.602 4.083
 -2.311 -1.606 4.101
 -2.3 -1.608 4.113
 -2.289 -1.61 4.125
 -2.277 -1.612 4.135
 -2.263 -1.611 4.141
 -2.245 -1.609 4.141
 -2.23 -1.608 4.145
 -2.212 -1.605 4.144
 -2.198 -1.605 4.149
 -2.189 -1.609 4.166
 -2.175 -1.608 4.171
 -2.159 -1.607 4.173
 -2.151 -1.611 4.191
 -2.136 -1.61 4.194
 -2.119 -1.608 4.195
 -2.105 -1.609 4.202
 -2.092 -1.609 4.21
 -2.073 -1.605 4.204
 -2.055 -1.602 4.203
 -2.039 -1.6 4.203
 -2.022 -1.598 4.203
 -2.005 -1.595 4.201
 -1.992 -1.596 4.208
 -1.98 -1.597 4.217
 -1.965 -1.597 4.221
 -1.954 -1.599 4.232
 -1.942 -1.6 4.242
 -1.928 -1.6 4.246
 -1.913 -1.6 4.251
 -1.897 -1.598 4.25
 -1.878 -1.593 4.244
 -1.863 -1.592 4.245
 -1.848 -1.591 4.248
 -1.833 -1.59 4.251
 -1.818 -1.589 4.252
 -1.807 -1.591 4.264
 -1.791 -1.589 4.263
 -1.775 -1.588 4.264
 -1.76 -1.586 4.265
 -1.749 -1.588 4.275
 -1.732 -1.585 4.272
 -1.719 -1.586 4.278
 -1.706 -1.587 4.286
 -1.693 -1.588 4.293
 -1.677 -1.585 4.29
 -1.66 -1.582 4.285
 -1.645 -1.58 4.286
 -1.628 -1.577 4.282
 -1.61 -1.573 4.275
 -1.597 -1.574 4.282
 -1.585 -1.575 4.289
 -1.568 -1.572 4.283
 -1.555 -1.572 4.289
 -1.54 -1.571 4.289
 -1.524 -1.568 4.286
 -1.51 -1.568 4.289
 -1.498 -1.569 4.297
 -1.481 -1.566 4.292
 -1.467 -1.565 4.294
 -1.452 -1.564 4.293
 -1.434 -1.56 4.286
 -1.42 -1.559 4.287
 -1.408 -1.56 4.293
 -1.393 -1.559 4.294
 -1.377 -1.556 4.29
 -1.362 -1.554 4.289
 -1.349 -1.554 4.292
 -1.334 -1.552 4.29
 -1.32 -1.551 4.291
 -1.307 -1.552 4.296
 -1.295 -1.553 4.303
 -1.279 -1.551 4.3
 -1.266 -1.551 4.303
 -1.251 -1.549 4.3
 -1.237 -1.548 4.301
 -1.222 -1.546 4.299
 -1.208 -1.546 4.301
 -1.193 -1.543 4.297
 -1.18 -1.543 4.3
 -1.165 -1.541 4.297
 -1.15 -1.539 4.294
 -1.135 -1.537 4.291
 -1.122 -1.536 4.292
 -1.109 -1.537 4.296
 -1.096 -1.538 4.302
 -1.082 -1.537 4.302
 -1.068 -1.535 4.298
 -1.052 -1.531 4.291
 -1.038 -1.53 4.29
 -1.023 -1.528 4.286
 -1.01 -1.527 4.286
 -0.997 -1.528 4.292
 -0.984 -1.529 4.296
 -0.969 -1.525 4.288
 -0.955 -1.524 4.287
 -0.942 -1.524 4.291
 -0.927 -1.521 4.283
 -0.913 -1.519 4.281
 -0.9 -1.52 4.285
 -0.886 -1.518 4.282
 -0.873 -1.517 4.281
 -0.859 -1.516 4.281
 -0.846 -1.517 4.285
 -0.833 -1.515 4.282
 -0.82 -1.516 4.285
 -0.806 -1.514 4.283
 -0.793 -1.514 4.284
 -0.779 -1.512 4.279
 -0.766 -1.512 4.281
 -0.752 -1.51 4.278
 -0.739 -1.509 4.278
 -0.725 -1.509 4.277
 -0.712 -1.509 4.28
 -0.699 -1.507 4.276
 -0.686 -1.508 4.28
 -0.673 -1.507 4.279
 -0.659 -1.505 4.276
 -0.646 -1.505 4.277
 -0.633 -1.506 4.281
 -0.62 -1.504 4.276
 -0.606 -1.503 4.274
 -0.593 -1.502 4.274
 -0.58 -1.502 4.276
 -0.567 -1.501 4.273
 -0.554 -1.501 4.274
 -0.542 -1.502 4.279
 -0.529 -1.502 4.28
 -0.515 -1.5 4.275
 -0.502 -1.499 4.272
 -0.489 -1.5 4.276
 -0.476 -1.499 4.275
 -0.463 -1.499 4.276
 -0.45 -1.498 4.274
 -0.437 -1.498 4.277
 -0.424 -1.496 4.271
 -0.411 -1.494 4.266
 -0.398 -1.494 4.266
 -0.385 -1.494 4.268
 -0.372 -1.494 4.269
 -0.359 -1.494 4.27
 -0.347 -1.495 4.273
 -0.334 -1.495 4.273
 -0.321 -1.494 4.272
 -0.308 -1.494 4.271
 -0.295 -1.494 4.273
 -0.282 -1.492 4.268
 -0.27 -1.492 4.268
 -0.257 -1.494 4.272
 -0.244 -1.493 4.27
 -0.231 -1.492 4.268
 -0.218 -1.492 4.27
 -0.206 -1.492 4.271
 -0.193 -1.49 4.265
 -0.18 -1.49 4.264
 -0.167 -1.489 4.263
 -0.155 -1.491 4.269
 -0.142 -1.491 4.267
 -0.129 -1.491 4.267
 -0.116 -1.491 4.268
 -0.103 -1.491 4.267
 -0.091 -1.489 4.262
 -0.078 -1.489 4.263
 -0.065 -1.488 4.259
 -0.052 -1.488 4.261
 -0.04 -1.489 4.262
 -0.027 -1.49 4.264
 -0.014 -1.487 4.257
 -0.002 -1.489 4.263
 0.01 -1.492 4.27
 0.023 -1.489 4.263
 0.036 -1.488 4.259
 0.048 -1.49 4.264
 0.061 -1.489 4.26
 0.074 -1.487 4.254
 0.086 -1.487 4.253
 0.099 -1.487 4.253
 0.112 -1.487 4.252
 0.124 -1.487 4.252
 0.137 -1.487 4.252
 0.15 -1.489 4.258
 0.163 -1.489 4.258
 0.176 -1.49 4.259
 0.188 -1.489 4.257
 0.201 -1.49 4.257
 0.214 -1.49 4.257
 0.226 -1.49 4.256
 0.239 -1.488 4.251
 0.252 -1.488 4.25
 0.264 -1.489 4.251
 0.277 -1.489 4.25
 0.29 -1.489 4.248
 0.302 -1.489 4.248
 0.316 -1.491 4.255
 0.328 -1.491 4.252
 0.341 -1.49 4.25
 0.354 -1.491 4.251
 0.366 -1.491 4.25
 0.379 -1.491 4.247
 0.392 -1.491 4.247
 0.405 -1.493 4.25
 0.418 -1.494 4.253
 0.431 -1.495 4.254
 0.444 -1.496 4.257
