 -2.168 -1.616 3.89
 -2.14 -1.614 3.899
 -2.116 -1.616 3.916
 -2.089 -1.616 3.927
 -2.063 -1.616 3.94
 -2.038 -1.618 3.956
 -2.014 -1.619 3.971
 -1.985 -1.618 3.979
 -1.96 -1.619 3.992
 -1.934 -1.619 4.005
 -1.91 -1.621 4.02
 -1.881 -1.619 4.026
 -1.855 -1.62 4.038
 -1.826 -1.618 4.043
 -1.8 -1.618 4.053
 -1.772 -1.617 4.06
 -1.744 -1.616 4.067
 -1.715 -1.613 4.069
 -1.688 -1.612 4.077
 -1.659 -1.61 4.079
 -1.629 -1.606 4.08
 -1.604 -1.607 4.091
 -1.577 -1.607 4.1
 -1.553 -1.609 4.113
 -1.527 -1.61 4.123
 -1.501 -1.609 4.13
 -1.473 -1.608 4.133
 -1.447 -1.608 4.142
 -1.419 -1.607 4.146
 -1.393 -1.606 4.153
 -1.368 -1.608 4.164
 -1.341 -1.608 4.17
 -1.314 -1.607 4.175
 -1.288 -1.606 4.18
 -1.262 -1.607 4.189
 -1.236 -1.606 4.194
 -1.21 -1.607 4.203
 -1.184 -1.607 4.209
 -1.156 -1.606 4.21
 -1.128 -1.603 4.21
 -1.102 -1.602 4.212
 -1.074 -1.6 4.211
 -1.047 -1.598 4.213
 -1.02 -1.597 4.216
 -0.994 -1.597 4.221
 -0.968 -1.597 4.224
 -0.941 -1.596 4.227
 -0.915 -1.595 4.228
 -0.889 -1.594 4.232
 -0.862 -1.594 4.234
 -0.835 -1.592 4.232
 -0.81 -1.592 4.238
 -0.783 -1.591 4.239
 -0.756 -1.59 4.238
 -0.73 -1.589 4.239
 -0.704 -1.588 4.241
 -0.677 -1.585 4.237
 -0.651 -1.586 4.241
 -0.626 -1.586 4.245
 -0.599 -1.584 4.242
 -0.574 -1.585 4.246
 -0.548 -1.585 4.25
 -0.522 -1.584 4.25
 -0.496 -1.584 4.252
 -0.471 -1.585 4.256
 -0.445 -1.584 4.256
 -0.419 -1.582 4.253
 -0.393 -1.583 4.257
 -0.367 -1.582 4.255
 -0.342 -1.582 4.256
 -0.316 -1.58 4.252
 -0.29 -1.58 4.254
 -0.264 -1.579 4.252
 -0.238 -1.578 4.251
 -0.213 -1.576 4.247
 -0.187 -1.577 4.248
 -0.162 -1.577 4.25
 -0.136 -1.576 4.249
 -0.111 -1.578 4.253
 -0.085 -1.579 4.257
 -0.06 -1.58 4.26
 -0.034 -1.58 4.259
 -0.008 -1.581 4.261
 0.016 -1.58 4.258
 0.042 -1.579 4.256
 0.067 -1.578 4.252
 0.093 -1.578 4.252
 0.118 -1.577 4.247
 0.144 -1.577 4.247
 0.169 -1.575 4.241
 0.194 -1.576 4.241
 0.22 -1.575 4.237
 0.245 -1.576 4.24
 0.271 -1.574 4.233
 0.296 -1.576 4.235
 0.322 -1.576 4.235
 0.348 -1.577 4.235
 0.373 -1.576 4.229
 0.399 -1.579 4.234
 0.425 -1.58 4.234
 0.45 -1.579 4.231
 0.476 -1.58 4.229
 0.502 -1.582 4.232
 0.527 -1.581 4.226
 0.553 -1.581 4.225
 0.579 -1.584 4.229
 0.605 -1.585 4.228
 0.631 -1.586 4.228
 0.657 -1.588 4.228
 0.683 -1.589 4.227
 0.708 -1.588 4.22
 0.734 -1.588 4.218
 0.76 -1.589 4.216
 0.786 -1.59 4.214
 0.812 -1.59 4.209
 0.838 -1.592 4.21
 0.865 -1.594 4.21
 0.891 -1.595 4.209
 0.918 -1.597 4.208
 0.945 -1.599 4.208
 0.971 -1.6 4.205
 0.997 -1.6 4.199
 1.023 -1.601 4.197
 1.049 -1.601 4.192
 1.075 -1.601 4.186
 1.102 -1.603 4.185
 1.129 -1.605 4.183
 1.155 -1.606 4.178
 1.182 -1.607 4.176
 1.209 -1.609 4.173
 1.237 -1.611 4.172
 1.264 -1.613 4.169
 1.291 -1.614 4.164
 1.317 -1.615 4.159
 1.343 -1.614 4.151
 1.37 -1.615 4.146
 1.395 -1.615 4.137
 1.421 -1.615 4.128
 1.449 -1.617 4.126
 1.478 -1.62 4.124
 1.503 -1.619 4.113
 1.531 -1.622 4.111
 1.559 -1.623 4.106
 1.584 -1.622 4.095
 1.61 -1.622 4.086
 1.635 -1.622 4.075
 1.659 -1.62 4.06
 1.685 -1.62 4.05
 1.711 -1.62 4.04
 1.737 -1.62 4.029
 1.762 -1.619 4.017
 1.785 -1.617 4.001
 1.805 -1.611 3.975
 1.819 -1.601 3.94
 1.827 -1.586 3.892
 1.834 -1.57 3.841
 1.839 -1.553 3.79
 1.844 -1.537 3.739
 1.848 -1.519 3.685
 1.853 -1.504 3.637
 1.857 -1.488 3.586
 1.848 -1.462 3.514
 0 0 0
 1.731 -1.336 3.188
 1.731 -1.32 3.139
 1.745 -1.315 3.115
 1.761 -1.311 3.095
 1.771 -1.303 3.067
 1.775 -1.291 3.027
 1.772 -1.274 2.977
 1.746 -1.241 2.888
 1.753 -1.232 2.857
 -2.303 -1.61 3.898
 -2.315 -1.637 3.979
 -2.258 -1.616 3.94
 -2.229 -1.614 3.948
 -2.199 -1.612 3.957
 -2.174 -1.613 3.971
 -2.149 -1.615 3.987
 -2.121 -1.614 3.999
 -2.093 -1.613 4.008
 -2.068 -1.615 4.023
 -2.042 -1.615 4.036
 -2.013 -1.613 4.044
 -1.985 -1.613 4.053
 -1.96 -1.615 4.069
 -1.935 -1.616 4.083
 -1.906 -1.614 4.089
 -1.879 -1.614 4.099
 -1.851 -1.613 4.108
 -1.824 -1.613 4.117
 -1.796 -1.612 4.124
 -1.768 -1.611 4.133
 -1.74 -1.609 4.138
 -1.711 -1.608 4.143
 -1.682 -1.605 4.145
 -1.652 -1.602 4.146
 -1.626 -1.603 4.157
 -1.598 -1.602 4.164
 -1.574 -1.604 4.178
 -1.548 -1.605 4.188
 -1.521 -1.604 4.195
 -1.492 -1.602 4.198
 -1.465 -1.602 4.205
 -1.437 -1.6 4.208
 -1.41 -1.599 4.213
 -1.384 -1.6 4.223
 -1.356 -1.599 4.227
 -1.329 -1.598 4.231
 -1.301 -1.597 4.234
 -1.275 -1.597 4.241
 -1.248 -1.596 4.245
 -1.222 -1.597 4.254
 -1.195 -1.596 4.258
 -1.167 -1.594 4.258
 -1.14 -1.593 4.261
 -1.111 -1.59 4.26
 -1.084 -1.588 4.259
 -1.056 -1.587 4.26
 -1.029 -1.585 4.262
 -1.002 -1.584 4.264
 -0.976 -1.584 4.268
 -0.948 -1.582 4.267
 -0.921 -1.58 4.266
 -0.894 -1.579 4.269
 -0.868 -1.578 4.271
 -0.841 -1.577 4.27
 -0.815 -1.576 4.273
 -0.788 -1.575 4.274
 -0.761 -1.573 4.273
 -0.735 -1.573 4.275
 -0.708 -1.571 4.274
 -0.681 -1.569 4.272
 -0.655 -1.57 4.276
 -0.63 -1.57 4.28
 -0.603 -1.568 4.276
 -0.577 -1.569 4.281
 -0.552 -1.57 4.286
 -0.525 -1.568 4.285
 -0.499 -1.567 4.284
 -0.473 -1.567 4.286
 -0.447 -1.567 4.287
 -0.421 -1.564 4.281
 -0.395 -1.565 4.285
 -0.369 -1.563 4.283
 -0.343 -1.563 4.283
 -0.317 -1.56 4.275
 -0.291 -1.559 4.276
 -0.265 -1.558 4.273
 -0.239 -1.557 4.271
 -0.213 -1.557 4.272
 -0.188 -1.558 4.274
 -0.162 -1.558 4.276
 -0.136 -1.557 4.275
 -0.111 -1.558 4.277
 -0.085 -1.559 4.279
 -0.06 -1.56 4.281
 -0.034 -1.559 4.28
 -0.008 -1.559 4.28
 0.016 -1.56 4.281
 0.042 -1.559 4.278
 0.068 -1.558 4.274
 0.093 -1.558 4.274
 0.119 -1.558 4.273
 0.144 -1.558 4.271
 0.17 -1.556 4.267
 0.195 -1.556 4.264
 0.221 -1.555 4.261
 0.246 -1.555 4.259
 0.272 -1.553 4.253
 0.297 -1.555 4.257
 0.323 -1.557 4.26
 0.349 -1.558 4.259
 0.374 -1.557 4.255
 0.401 -1.559 4.258
 0.426 -1.559 4.256
 0.451 -1.558 4.251
 0.477 -1.559 4.25
 0.503 -1.56 4.251
 0.529 -1.56 4.248
 0.554 -1.56 4.245
 0.581 -1.563 4.248
 0.606 -1.563 4.245
 0.633 -1.565 4.249
 0.659 -1.566 4.248
 0.685 -1.568 4.248
 0.711 -1.567 4.243
 0.737 -1.569 4.242
 0.763 -1.569 4.239
 0.789 -1.57 4.238
 0.816 -1.571 4.236
 0.843 -1.574 4.238
 0.87 -1.577 4.241
 0.896 -1.577 4.239
 0.923 -1.579 4.239
 0.95 -1.581 4.237
 0.975 -1.58 4.231
 1.001 -1.58 4.224
 1.028 -1.582 4.223
 1.054 -1.582 4.219
 1.081 -1.584 4.217
 1.108 -1.586 4.217
 1.136 -1.588 4.216
 1.162 -1.589 4.211
 1.19 -1.591 4.209
 1.216 -1.591 4.204
 1.244 -1.594 4.205
 1.271 -1.596 4.202
 1.298 -1.597 4.197
 1.325 -1.597 4.192
 1.352 -1.598 4.186
 1.378 -1.599 4.18
 1.405 -1.6 4.174
 1.432 -1.6 4.168
 1.461 -1.603 4.167
 1.489 -1.606 4.166
 1.515 -1.605 4.155
 1.544 -1.609 4.155
 1.573 -1.611 4.152
 1.599 -1.611 4.142
 1.626 -1.612 4.134
 1.653 -1.612 4.126
 1.677 -1.611 4.113
 1.703 -1.61 4.102
 1.73 -1.611 4.093
 1.755 -1.61 4.08
 1.778 -1.607 4.064
 1.799 -1.602 4.04
 1.817 -1.595 4.011
 1.829 -1.583 3.97
 1.837 -1.569 3.922
 1.845 -1.554 3.874
 1.852 -1.538 3.825
 1.86 -1.524 3.778
 1.865 -1.509 3.729
 1.871 -1.494 3.68
 1.875 -1.478 3.63
 0 0 0
 0 0 0
 1.703 -1.294 3.145
 1.729 -1.297 3.143
 1.745 -1.293 3.122
 1.761 -1.29 3.104
 1.771 -1.282 3.075
 1.777 -1.271 3.038
 1.778 -1.258 2.994
 1.757 -1.228 2.914
 1.762 -1.218 2.878
 -2.332 -1.603 3.958
 -2.329 -1.619 4.012
 -2.289 -1.611 4.004
 -2.167 -1.543 3.848
 -2.138 -1.541 3.855
 -2.112 -1.542 3.868
 -2.088 -1.543 3.883
 -2.061 -1.543 3.895
 -2.122 -1.609 4.074
 -2.095 -1.608 4.085
 -2.067 -1.608 4.097
 -2.04 -1.608 4.108
 -2.012 -1.607 4.118
 -1.985 -1.608 4.131
 -1.96 -1.61 4.146
 -1.931 -1.608 4.153
 -1.903 -1.608 4.163
 -1.875 -1.607 4.172
 -1.848 -1.607 4.181
 -1.82 -1.606 4.189
 -1.791 -1.605 4.196
 -1.762 -1.603 4.201
 -1.733 -1.601 4.206
 -1.703 -1.598 4.207
 -1.673 -1.596 4.209
 -1.645 -1.595 4.217
 -1.616 -1.593 4.219
 -1.59 -1.594 4.23
 -1.563 -1.594 4.24
 -1.536 -1.594 4.247
 -1.508 -1.593 4.252
 -1.482 -1.593 4.261
 -1.453 -1.591 4.263
 -1.425 -1.59 4.267
 -1.397 -1.589 4.272
 -1.368 -1.587 4.273
 -1.34 -1.585 4.276
 -1.313 -1.584 4.28
 -1.285 -1.584 4.285
 -1.257 -1.581 4.285
 -1.23 -1.581 4.291
 -1.203 -1.58 4.295
 -1.174 -1.577 4.293
 -1.146 -1.576 4.295
 -1.118 -1.574 4.295
 -1.091 -1.572 4.296
 -1.063 -1.57 4.297
 -1.036 -1.569 4.298
 -1.008 -1.568 4.3
 -0.981 -1.566 4.301
 -0.953 -1.564 4.299
 -0.926 -1.562 4.298
 -0.899 -1.561 4.3
 -0.872 -1.56 4.299
 -0.845 -1.558 4.3
 -0.818 -1.558 4.302
 -0.791 -1.556 4.3
 -0.764 -1.554 4.299
 -0.737 -1.553 4.3
 -0.711 -1.551 4.299
 -0.684 -1.549 4.297
 -0.658 -1.549 4.299
 -0.631 -1.549 4.301
 -0.605 -1.547 4.298
 -0.579 -1.547 4.302
 -0.553 -1.548 4.305
 -0.527 -1.547 4.306
 -0.5 -1.545 4.304
 -0.474 -1.544 4.303
 -0.448 -1.543 4.302
 -0.421 -1.541 4.298
 -0.396 -1.541 4.301
 -0.369 -1.54 4.298
 -0.343 -1.539 4.297
 -0.317 -1.536 4.288
 -0.291 -1.535 4.289
 -0.265 -1.534 4.285
 -0.239 -1.533 4.285
 -0.213 -1.533 4.285
 -0.188 -1.534 4.289
 -0.162 -1.534 4.289
 -0.136 -1.534 4.288
 -0.111 -1.533 4.287
 -0.085 -1.534 4.289
 -0.059 -1.534 4.29
 -0.034 -1.533 4.288
 -0.008 -1.532 4.284
 0.016 -1.532 4.285
 0.042 -1.532 4.283
 0.068 -1.531 4.279
 0.093 -1.53 4.275
 0.119 -1.53 4.276
 0.144 -1.531 4.276
 0.17 -1.529 4.27
 0.195 -1.529 4.269
 0.221 -1.529 4.268
 0.246 -1.528 4.264
 0.272 -1.527 4.259
 0.298 -1.53 4.264
 0.323 -1.53 4.264
 0.349 -1.531 4.265
 0.375 -1.531 4.263
 0.401 -1.533 4.266
 0.426 -1.533 4.263
 0.452 -1.533 4.261
 0.478 -1.535 4.262
 0.504 -1.535 4.262
 0.529 -1.536 4.259
 0.555 -1.536 4.258
 0.581 -1.538 4.259
 0.607 -1.538 4.256
 0.633 -1.54 4.258
 0.659 -1.54 4.254
 0.685 -1.541 4.253
 0.711 -1.541 4.25
 0.737 -1.542 4.248
 0.763 -1.543 4.248
 0.79 -1.545 4.249
 0.816 -1.546 4.247
 0.844 -1.549 4.25
 0.871 -1.552 4.252
 0.897 -1.553 4.251
 0.924 -1.555 4.251
 0.951 -1.557 4.252
 0.977 -1.557 4.245
 1.003 -1.557 4.241
 1.03 -1.559 4.239
 1.057 -1.56 4.239
 1.085 -1.563 4.238
 1.112 -1.565 4.239
 1.14 -1.567 4.239
 1.167 -1.569 4.236
 1.194 -1.569 4.232
 1.219 -1.569 4.224
 1.248 -1.572 4.226
 1.274 -1.573 4.219
 1.302 -1.575 4.217
 1.33 -1.577 4.215
 1.358 -1.579 4.212
 1.385 -1.58 4.208
 1.413 -1.582 4.207
 1.44 -1.583 4.2
 1.469 -1.586 4.2
 1.498 -1.589 4.198
 1.524 -1.588 4.188
 1.554 -1.592 4.189
 1.582 -1.594 4.185
 1.608 -1.594 4.176
 1.636 -1.595 4.171
 1.664 -1.597 4.165
 1.691 -1.597 4.155
 1.718 -1.598 4.146
 1.744 -1.597 4.135
 1.768 -1.595 4.12
 1.791 -1.592 4.102
 1.809 -1.585 4.073
 1.824 -1.576 4.037
 1.837 -1.564 3.997
 1.846 -1.55 3.95
 1.854 -1.535 3.901
 1.86 -1.52 3.851
 1.872 -1.509 3.812
 1.886 -1.5 3.779
 1.893 -1.486 3.732
 0 0 0
 0 0 0
 0 0 0
 0 0 0
 1.732 -1.278 3.156
 1.749 -1.275 3.138
 1.765 -1.271 3.118
 1.776 -1.264 3.09
 1.784 -1.255 3.056
 1.786 -1.242 3.014
 1.759 -1.209 2.924
 1.782 -1.212 2.919
 -2.4 -1.621 4.082
 -2.33 -1.593 4.024
 -1.941 -1.343 3.401
 -1.824 -1.277 3.244
 -1.8 -1.276 3.252
 -1.78 -1.277 3.265
 -1.758 -1.277 3.275
 -1.737 -1.279 3.289
 -1.802 -1.343 3.465
 -1.692 -1.277 3.305
 -1.669 -1.277 3.312
 -1.73 -1.341 3.491
 -1.705 -1.339 3.495
 -1.765 -1.405 3.678
 -1.823 -1.472 3.864
 -1.875 -1.535 4.041
 -1.848 -1.535 4.051
 -1.9 -1.601 4.235
 -1.87 -1.599 4.241
 -1.841 -1.597 4.247
 -1.813 -1.597 4.257
 -1.783 -1.595 4.261
 -1.752 -1.592 4.262
 -1.722 -1.589 4.263
 -1.691 -1.586 4.265
 -1.662 -1.585 4.27
 -1.632 -1.582 4.272
 -1.605 -1.582 4.281
 -1.578 -1.582 4.289
 -1.551 -1.583 4.298
 -1.522 -1.58 4.3
 -1.494 -1.58 4.306
 -1.465 -1.577 4.308
 -1.435 -1.575 4.309
 -1.406 -1.573 4.31
 -1.378 -1.571 4.311
 -1.349 -1.568 4.312
 -1.32 -1.567 4.314
 -1.292 -1.565 4.318
 -1.264 -1.563 4.317
 -1.236 -1.563 4.323
 -1.209 -1.561 4.325
 -1.179 -1.558 4.322
 -1.151 -1.556 4.323
 -1.123 -1.554 4.322
 -1.094 -1.55 4.317
 -1.066 -1.549 4.318
 -1.038 -1.547 4.318
 -1.011 -1.546 4.32
 -0.984 -1.544 4.321
 -0.957 -1.544 4.324
 -0.929 -1.542 4.323
 -0.902 -1.541 4.325
 -0.875 -1.539 4.323
 -0.847 -1.537 4.321
 -0.82 -1.534 4.318
 -0.792 -1.531 4.312
 -0.764 -1.528 4.309
 -0.738 -1.528 4.312
 -0.711 -1.527 4.312
 -0.684 -1.525 4.31
 -0.658 -1.526 4.314
 -0.632 -1.525 4.315
 -0.605 -1.522 4.31
 -0.579 -1.522 4.312
 -0.553 -1.522 4.315
 -0.527 -1.521 4.315
 -0.5 -1.52 4.313
 -0.474 -1.519 4.314
 -0.448 -1.517 4.31
 -0.421 -1.515 4.306
 -0.395 -1.515 4.308
 -0.369 -1.514 4.305
 -0.343 -1.513 4.303
 -0.317 -1.511 4.301
 -0.291 -1.511 4.3
 -0.265 -1.508 4.294
 -0.239 -1.508 4.295
 -0.213 -1.509 4.296
 -0.188 -1.509 4.298
 -0.162 -1.509 4.297
 -0.136 -1.508 4.296
 -0.111 -1.507 4.293
 -0.085 -1.507 4.292
 -0.059 -1.506 4.292
 -0.034 -1.506 4.291
 -0.008 -1.506 4.29
 0.017 -1.506 4.29
 0.042 -1.505 4.287
 0.068 -1.504 4.282
 0.093 -1.502 4.276
 0.119 -1.503 4.279
 0.144 -1.503 4.279
 0.17 -1.502 4.274
 0.195 -1.502 4.272
 0.221 -1.503 4.273
 0.246 -1.502 4.269
 0.272 -1.502 4.267
 0.298 -1.504 4.273
 0.323 -1.505 4.271
 0.349 -1.506 4.273
 0.375 -1.506 4.271
 0.401 -1.507 4.273
 0.426 -1.507 4.268
 0.452 -1.507 4.267
 0.478 -1.507 4.266
 0.504 -1.509 4.267
 0.529 -1.509 4.265
 0.555 -1.509 4.261
 0.581 -1.511 4.264
 0.607 -1.512 4.263
 0.633 -1.513 4.262
 0.659 -1.514 4.261
 0.685 -1.515 4.262
 0.711 -1.516 4.26
 0.738 -1.518 4.261
 0.764 -1.519 4.259
 0.791 -1.52 4.259
 0.817 -1.522 4.259
 0.844 -1.523 4.258
 0.87 -1.525 4.258
 0.897 -1.526 4.257
 0.924 -1.528 4.256
 0.95 -1.528 4.253
 0.977 -1.53 4.251
 1.003 -1.53 4.247
 1.03 -1.533 4.248
 1.058 -1.535 4.249
 1.086 -1.538 4.251
 1.113 -1.54 4.25
 1.141 -1.543 4.251
 1.169 -1.544 4.25
 1.195 -1.545 4.244
 1.222 -1.545 4.239
 1.25 -1.549 4.242
 1.277 -1.55 4.237
 1.305 -1.551 4.234
 1.334 -1.555 4.236
 1.362 -1.556 4.233
 1.389 -1.558 4.229
 1.417 -1.56 4.226
 1.445 -1.561 4.221
 1.473 -1.563 4.219
 1.502 -1.566 4.218
 1.528 -1.566 4.209
 1.558 -1.569 4.209
 1.587 -1.572 4.206
 1.613 -1.572 4.197
 1.642 -1.574 4.193
 1.671 -1.577 4.191
 1.699 -1.578 4.185
 1.727 -1.579 4.176
 1.753 -1.578 4.165
 1.777 -1.577 4.15
 1.799 -1.572 4.128
 1.816 -1.564 4.096
 1.832 -1.555 4.062
 1.845 -1.545 4.024
 1.855 -1.532 3.978
 1.866 -1.519 3.935
 1.875 -1.506 3.89
 1.882 -1.492 3.842
 1.901 -1.487 3.818
 0 0 0
 0 0 0
 0 0 0
 0 0 0
 0 0 0
 1.728 -1.254 3.156
 1.752 -1.255 3.15
 1.773 -1.256 3.139
 1.785 -1.25 3.113
 1.794 -1.241 3.082
 1.802 -1.233 3.049
 1.791 -1.211 2.985
 1.846 -1.234 3.03
 -2.403 -1.595 4.097
 -2.382 -1.6 4.124
 -1.496 -1.018 2.625
 -1.383 -0.952 2.463
 -1.367 -0.953 2.473
 -1.352 -0.954 2.483
 -1.336 -0.954 2.492
 -1.321 -0.956 2.503
 -1.39 -1.018 2.676
 -1.286 -0.954 2.514
 -1.266 -0.952 2.516
 -1.333 -1.016 2.692
 -1.313 -1.014 2.696
 -1.46 -1.143 3.048
 -1.6 -1.27 3.398
 -1.736 -1.398 3.75
 -1.79 -1.461 3.932
 -1.918 -1.589 4.287
 -1.888 -1.587 4.292
 -1.858 -1.585 4.296
 -1.829 -1.583 4.303
 -1.798 -1.581 4.306
 -1.767 -1.578 4.308
 -1.735 -1.574 4.307
 -1.705 -1.572 4.31
 -1.676 -1.57 4.313
 -1.645 -1.567 4.313
 -1.617 -1.566 4.32
 -1.59 -1.567 4.33
 -1.562 -1.566 4.337
 -1.532 -1.564 4.338
 -1.503 -1.562 4.341
 -1.473 -1.559 4.34
 -1.442 -1.555 4.338
 -1.412 -1.552 4.337
 -1.383 -1.55 4.338
 -1.354 -1.548 4.339
 -1.325 -1.546 4.34
 -1.296 -1.543 4.338
 -1.266 -1.539 4.335
 -1.238 -1.538 4.337
 -1.21 -1.537 4.339
 -1.18 -1.533 4.334
 -1.153 -1.532 4.337
 -1.125 -1.53 4.337
 -1.096 -1.527 4.335
 -1.068 -1.525 4.335
 -1.04 -1.523 4.335
 -1.013 -1.522 4.335
 -0.985 -1.52 4.334
 -0.958 -1.519 4.336
 -0.929 -1.515 4.33
 -0.902 -1.514 4.331
 -0.874 -1.511 4.327
 -0.846 -1.509 4.324
 -0.818 -1.506 4.319
 -0.791 -1.503 4.317
 -0.764 -1.501 4.313
 -0.737 -1.501 4.317
 -0.711 -1.5 4.318
 -0.684 -1.499 4.317
 -0.658 -1.499 4.319
 -0.632 -1.499 4.322
 -0.605 -1.497 4.32
 -0.579 -1.496 4.319
 -0.552 -1.494 4.317
 -0.526 -1.494 4.317
 -0.5 -1.492 4.316
 -0.473 -1.49 4.312
 -0.447 -1.488 4.309
 -0.42 -1.488 4.308
 -0.395 -1.487 4.308
 -0.368 -1.485 4.304
 -0.342 -1.484 4.302
 -0.316 -1.484 4.303
 -0.29 -1.482 4.3
 -0.264 -1.481 4.296
 -0.239 -1.481 4.298
 -0.213 -1.481 4.3
 -0.188 -1.482 4.302
 -0.162 -1.482 4.303
 -0.136 -1.481 4.3
 -0.11 -1.48 4.297
 -0.085 -1.479 4.296
 -0.059 -1.479 4.294
 -0.033 -1.479 4.293
 -0.008 -1.479 4.294
 0.017 -1.479 4.295
 0.042 -1.479 4.293
 0.068 -1.477 4.287
 0.093 -1.475 4.281
 0.119 -1.475 4.28
 0.144 -1.475 4.278
 0.17 -1.474 4.276
 0.195 -1.475 4.276
 0.221 -1.476 4.277
 0.246 -1.475 4.273
 0.272 -1.475 4.271
 0.298 -1.477 4.274
 0.323 -1.476 4.271
 0.349 -1.477 4.273
 0.374 -1.478 4.273
 0.4 -1.479 4.274
 0.426 -1.48 4.273
 0.452 -1.481 4.273
 0.478 -1.481 4.272
 0.504 -1.483 4.273
 0.529 -1.483 4.272
 0.555 -1.483 4.267
 0.581 -1.485 4.269
 0.607 -1.486 4.269
 0.633 -1.487 4.268
 0.659 -1.487 4.265
 0.685 -1.488 4.265
 0.711 -1.489 4.264
 0.737 -1.49 4.262
 0.763 -1.491 4.262
 0.79 -1.493 4.263
 0.816 -1.494 4.262
 0.843 -1.496 4.263
 0.87 -1.498 4.263
 0.896 -1.499 4.261
 0.923 -1.501 4.262
 0.949 -1.501 4.257
 0.976 -1.502 4.254
 1.002 -1.503 4.251
 1.029 -1.505 4.251
 1.057 -1.507 4.252
 1.086 -1.511 4.258
 1.113 -1.513 4.256
 1.141 -1.516 4.257
 1.168 -1.518 4.257
 1.195 -1.518 4.251
 1.221 -1.518 4.245
 1.25 -1.521 4.247
 1.277 -1.523 4.244
 1.305 -1.525 4.242
 1.334 -1.528 4.243
 1.362 -1.531 4.243
 1.39 -1.532 4.24
 1.418 -1.534 4.236
 1.445 -1.535 4.231
 1.474 -1.538 4.231
 1.502 -1.54 4.227
 1.529 -1.54 4.219
 1.559 -1.543 4.219
 1.588 -1.546 4.217
 1.615 -1.547 4.21
 1.645 -1.55 4.209
 1.675 -1.553 4.208
 1.704 -1.555 4.205
 1.732 -1.556 4.198
 1.757 -1.555 4.185
 1.782 -1.554 4.17
 1.802 -1.548 4.145
 1.818 -1.539 4.109
 1.834 -1.531 4.076
 1.849 -1.522 4.041
 1.861 -1.51 3.998
 1.874 -1.5 3.961
 1.889 -1.491 3.927
 1.896 -1.477 3.877
 0 0 0
 0 0 0
 0 0 0
 0 0 0
 0 0 0
 0 0 0
 1.734 -1.236 3.173
 1.759 -1.24 3.171
 1.779 -1.239 3.157
 1.79 -1.231 3.129
 1.8 -1.224 3.099
 1.812 -1.218 3.072
 1.816 -1.207 3.033
 0 0 0
 -0.033 -0.023 0.044
 -2.386 -1.575 4.141
 -1.055 -0.706 1.852
 -0.948 -0.642 1.688
 -0.939 -0.643 1.697
 -0.927 -0.643 1.703
 -0.915 -0.642 1.706
 -0.903 -0.642 1.711
 -0.976 -0.703 1.879
 -0.874 -0.638 1.709
 -0.858 -0.635 1.705
 -0.93 -0.696 1.878
 -0.914 -0.694 1.877
 -1.148 -0.883 2.399
 -1.373 -1.071 2.919
 -1.591 -1.259 3.443
 -1.726 -1.384 3.798
 -1.932 -1.573 4.328
 -1.901 -1.57 4.331
 -1.869 -1.567 4.333
 -1.84 -1.566 4.34
 -1.809 -1.563 4.342
 -1.778 -1.56 4.344
 -1.745 -1.556 4.341
 -1.716 -1.555 4.347
 -1.684 -1.551 4.345
 -1.653 -1.547 4.343
 -1.623 -1.545 4.345
 -1.594 -1.544 4.352
 -1.565 -1.542 4.355
 -1.535 -1.54 4.356
 -1.506 -1.538 4.358
 -1.476 -1.535 4.359
 -1.445 -1.531 4.354
 -1.414 -1.527 4.351
 -1.385 -1.525 4.352
 -1.354 -1.521 4.348
 -1.324 -1.518 4.345
 -1.295 -1.515 4.343
 -1.265 -1.511 4.34
 -1.236 -1.509 4.339
 -1.208 -1.508 4.341
 -1.179 -1.505 4.339
 -1.152 -1.504 4.341
 -1.123 -1.502 4.341
 -1.095 -1.499 4.339
 -1.067 -1.498 4.341
 -1.039 -1.495 4.339
 -1.011 -1.493 4.338
 -0.984 -1.492 4.338
 -0.957 -1.491 4.34
 -0.928 -1.488 4.335
 -0.901 -1.487 4.336
 -0.873 -1.484 4.333
 -0.846 -1.482 4.33
 -0.818 -1.479 4.326
 -0.79 -1.476 4.321
 -0.763 -1.474 4.319
 -0.737 -1.474 4.32
 -0.71 -1.473 4.322
 -0.683 -1.471 4.32
 -0.657 -1.471 4.323
 -0.631 -1.471 4.325
 -0.605 -1.47 4.324
 -0.578 -1.468 4.322
 -0.551 -1.466 4.319
 -0.525 -1.466 4.319
 -0.499 -1.464 4.317
 -0.472 -1.463 4.315
 -0.446 -1.461 4.31
 -0.42 -1.46 4.311
 -0.394 -1.46 4.311
 -0.368 -1.457 4.306
 -0.341 -1.456 4.302
 -0.316 -1.456 4.303
 -0.29 -1.455 4.301
 -0.264 -1.453 4.298
 -0.238 -1.454 4.301
 -0.213 -1.455 4.304
 -0.187 -1.455 4.305
 -0.162 -1.455 4.306
 -0.136 -1.453 4.302
 -0.11 -1.452 4.299
 -0.084 -1.452 4.297
 -0.059 -1.45 4.293
 -0.033 -1.45 4.292
 -0.008 -1.45 4.292
 0.017 -1.451 4.293
 0.042 -1.45 4.292
 0.068 -1.45 4.291
 0.093 -1.449 4.286
 0.119 -1.449 4.285
 0.144 -1.449 4.285
 0.17 -1.449 4.284
 0.195 -1.449 4.282
 0.221 -1.449 4.282
 0.246 -1.449 4.278
 0.272 -1.449 4.277
 0.297 -1.449 4.277
 0.323 -1.449 4.273
 0.349 -1.45 4.276
 0.374 -1.451 4.277
 0.4 -1.452 4.277
 0.426 -1.453 4.277
 0.452 -1.454 4.276
 0.477 -1.454 4.274
 0.503 -1.454 4.273
 0.529 -1.455 4.273
 0.554 -1.455 4.27
 0.581 -1.457 4.273
 0.606 -1.458 4.272
 0.633 -1.46 4.273
 0.658 -1.46 4.269
 0.684 -1.46 4.267
 0.71 -1.461 4.266
 0.737 -1.463 4.266
 0.763 -1.464 4.266
 0.789 -1.465 4.264
 0.816 -1.467 4.265
 0.842 -1.468 4.266
 0.869 -1.47 4.264
 0.895 -1.47 4.26
 0.922 -1.472 4.262
 0.948 -1.473 4.258
 0.974 -1.474 4.256
 1.001 -1.475 4.253
 1.029 -1.478 4.256
 1.056 -1.48 4.258
 1.085 -1.483 4.261
 1.112 -1.485 4.259
 1.14 -1.488 4.261
 1.167 -1.49 4.259
 1.193 -1.49 4.254
 1.22 -1.49 4.248
 1.248 -1.493 4.248
 1.275 -1.494 4.246
 1.304 -1.497 4.245
 1.332 -1.499 4.245
 1.361 -1.503 4.248
 1.39 -1.505 4.247
 1.418 -1.507 4.244
 1.445 -1.509 4.24
 1.475 -1.512 4.24
 1.503 -1.513 4.236
 1.53 -1.514 4.228
 1.559 -1.516 4.227
 1.588 -1.519 4.225
 1.616 -1.52 4.219
 1.646 -1.524 4.22
 1.676 -1.527 4.219
 1.706 -1.53 4.218
 1.735 -1.532 4.213
 1.761 -1.531 4.2
 1.785 -1.529 4.184
 1.804 -1.523 4.156
 1.821 -1.515 4.124
 1.838 -1.507 4.093
 1.855 -1.5 4.062
 1.87 -1.491 4.027
 1.89 -1.486 4.002
 1.908 -1.48 3.975
 0 0 0
 0 0 0
 0 0 0
 0 0 0
 0 0 0
 0 0 0
 0 0 0
 1.407 -0.987 2.58
 1.598 -1.107 2.886
 1.794 -1.227 3.191
 1.804 -1.22 3.161
 1.816 -1.213 3.133
 1.828 -1.208 3.108
 1.796 -1.173 3.006
 0 0 0
 -0.085 -0.056 0.134
 -0.024 -0.017 0.029
 -0.611 -0.402 1.069
 -0.507 -0.338 0.899
 -0.502 -0.338 0.903
 -0.493 -0.337 0.902
 -0.485 -0.335 0.901
 -0.478 -0.335 0.902
 -0.556 -0.394 1.068
 -0.456 -0.328 0.888
 -0.446 -0.325 0.882
 -0.605 -0.446 1.221
 -0.593 -0.443 1.215
 -0.83 -0.627 1.734
 -1.14 -0.874 2.427
 -1.44 -1.119 3.122
 -1.578 -1.244 3.48
 -1.865 -1.491 4.185
 -1.91 -1.549 4.361
 -1.878 -1.546 4.362
 -1.849 -1.545 4.369
 -1.816 -1.541 4.367
 -1.783 -1.537 4.366
 -1.751 -1.533 4.365
 -1.721 -1.532 4.369
 -1.689 -1.528 4.367
 -1.657 -1.524 4.365
 -1.626 -1.52 4.364
 -1.596 -1.518 4.366
 -1.566 -1.516 4.367
 -1.536 -1.513 4.366
 -1.505 -1.51 4.366
 -1.475 -1.507 4.364
 -1.444 -1.503 4.361
 -1.413 -1.499 4.356
 -1.383 -1.496 4.355
 -1.353 -1.493 4.352
 -1.323 -1.49 4.35
 -1.293 -1.487 4.347
 -1.264 -1.483 4.345
 -1.235 -1.481 4.344
 -1.207 -1.48 4.346
 -1.178 -1.477 4.344
 -1.15 -1.475 4.345
 -1.122 -1.473 4.344
 -1.094 -1.471 4.343
 -1.066 -1.469 4.343
 -1.037 -1.467 4.34
 -1.009 -1.464 4.338
 -0.982 -1.463 4.338
 -0.955 -1.462 4.34
 -0.927 -1.46 4.337
 -0.9 -1.459 4.339
 -0.873 -1.457 4.338
 -0.845 -1.455 4.335
 -0.817 -1.452 4.331
 -0.789 -1.449 4.325
 -0.762 -1.446 4.321
 -0.736 -1.446 4.323
 -0.709 -1.445 4.325
 -0.682 -1.443 4.32
 -0.656 -1.443 4.324
 -0.63 -1.443 4.328
 -0.603 -1.441 4.323
 -0.577 -1.439 4.32
 -0.55 -1.438 4.319
 -0.524 -1.436 4.316
 -0.497 -1.435 4.313
 -0.471 -1.434 4.313
 -0.445 -1.433 4.311
 -0.419 -1.433 4.314
 -0.394 -1.433 4.316
 -0.367 -1.431 4.312
 -0.341 -1.43 4.309
 -0.315 -1.429 4.308
 -0.289 -1.427 4.303
 -0.264 -1.426 4.302
 -0.238 -1.427 4.306
 -0.213 -1.428 4.308
 -0.187 -1.427 4.307
 -0.161 -1.427 4.307
 -0.135 -1.425 4.3
 -0.11 -1.423 4.296
 -0.084 -1.423 4.295
 -0.058 -1.422 4.291
 -0.033 -1.422 4.29
 -0.007 -1.423 4.294
 0.017 -1.422 4.291
 0.043 -1.422 4.291
 0.068 -1.424 4.296
 0.094 -1.423 4.293
 0.119 -1.422 4.287
 0.145 -1.423 4.291
 0.17 -1.423 4.289
 0.195 -1.422 4.285
 0.221 -1.422 4.285
 0.247 -1.424 4.287
 0.272 -1.423 4.284
 0.297 -1.423 4.283
 0.322 -1.421 4.274
 0.348 -1.422 4.275
 0.374 -1.422 4.273
 0.399 -1.423 4.274
 0.425 -1.425 4.276
 0.451 -1.427 4.28
 0.477 -1.427 4.278
 0.503 -1.427 4.276
 0.528 -1.428 4.274
 0.553 -1.427 4.269
 0.58 -1.429 4.271
 0.605 -1.43 4.27
 0.632 -1.431 4.271
 0.657 -1.432 4.27
 0.684 -1.433 4.269
 0.71 -1.434 4.269
 0.736 -1.435 4.269
 0.763 -1.437 4.27
 0.789 -1.438 4.269
 0.815 -1.44 4.269
 0.841 -1.441 4.267
 0.868 -1.442 4.265
 0.893 -1.442 4.261
 0.92 -1.443 4.261
 0.946 -1.444 4.257
 0.973 -1.445 4.256
 0.999 -1.446 4.254
 1.027 -1.45 4.258
 1.055 -1.452 4.26
 1.083 -1.455 4.263
 1.111 -1.457 4.262
 1.139 -1.46 4.265
 1.166 -1.461 4.261
 1.192 -1.462 4.256
 1.218 -1.462 4.25
 1.246 -1.464 4.25
 1.273 -1.466 4.247
 1.302 -1.468 4.247
 1.33 -1.471 4.246
 1.36 -1.474 4.25
 1.388 -1.477 4.25
 1.417 -1.479 4.248
 1.444 -1.48 4.244
 1.473 -1.483 4.244
 1.501 -1.485 4.24
 1.53 -1.487 4.236
 1.558 -1.489 4.234
 1.587 -1.492 4.232
 1.616 -1.493 4.228
 1.646 -1.497 4.227
 1.675 -1.499 4.225
 1.705 -1.502 4.223
 1.734 -1.504 4.218
 1.759 -1.502 4.204
 1.783 -1.5 4.188
 1.803 -1.495 4.163
 1.822 -1.489 4.136
 1.84 -1.482 4.105
 1.861 -1.478 4.083
 1.876 -1.469 4.047
 1.898 -1.466 4.028
 0 0 0
 0 0 0
 0 0 0
 0 0 0
 0 0 0
 0.049 -0.038 0.088
 0.05 -0.038 0.087
 0 0 0
 1.022 -0.705 1.876
 1.421 -0.967 2.571
 1.797 -1.208 3.204
 1.811 -1.203 3.18
 1.824 -1.197 3.154
 1.733 -1.125 2.951
 0 0 0
 0 0 0
 -0.057 -0.037 0.086
 -0.094 -0.061 0.152
 -0.164 -0.107 0.278
 -0.155 -0.103 0.267
 -0.153 -0.102 0.267
 -0.148 -0.1 0.262
 -0.143 -0.098 0.256
 -0.138 -0.096 0.251
 -0.131 -0.092 0.243
 -0.036 -0.027 0.058
 -0.029 -0.022 0.046
 -0.192 -0.14 0.38
 -0.267 -0.196 0.54
 -0.589 -0.438 1.23
 -0.982 -0.739 2.094
 -1.364 -1.041 2.963
 -1.581 -1.224 3.494
 -1.868 -1.466 4.201
 -1.914 -1.524 4.378
 -1.882 -1.521 4.38
 -1.851 -1.519 4.383
 -1.818 -1.515 4.382
 -1.785 -1.511 4.38
 -1.753 -1.507 4.377
 -1.723 -1.505 4.381
 -1.691 -1.502 4.381
 -1.659 -1.498 4.377
 -1.627 -1.494 4.376
 -1.597 -1.492 4.377
 -1.567 -1.489 4.377
 -1.535 -1.485 4.372
 -1.504 -1.482 4.372
 -1.474 -1.479 4.371
 -1.443 -1.475 4.368
 -1.412 -1.471 4.363
 -1.382 -1.468 4.361
 -1.352 -1.465 4.357
 -1.321 -1.461 4.353
 -1.292 -1.458 4.35
 -1.263 -1.455 4.349
 -1.234 -1.453 4.348
 -1.206 -1.451 4.349
 -1.177 -1.449 4.348
 -1.149 -1.447 4.346
 -1.12 -1.444 4.345
 -1.092 -1.442 4.344
 -1.064 -1.44 4.342
 -1.035 -1.437 4.338
 -1.008 -1.436 4.339
 -0.98 -1.434 4.339
 -0.954 -1.434 4.342
 -0.926 -1.432 4.34
 -0.898 -1.43 4.339
 -0.871 -1.428 4.337
 -0.844 -1.426 4.336
 -0.816 -1.423 4.33
 -0.789 -1.422 4.331
 -0.762 -1.421 4.332
 -0.736 -1.421 4.333
 -0.71 -1.42 4.335
 -0.682 -1.418 4.33
 -0.656 -1.416 4.329
 -0.63 -1.417 4.334
 -0.603 -1.415 4.329
 -0.576 -1.412 4.325
 -0.55 -1.412 4.325
 -0.523 -1.41 4.321
 -0.497 -1.408 4.317
 -0.471 -1.407 4.317
 -0.445 -1.406 4.317
 -0.419 -1.407 4.319
 -0.393 -1.406 4.321
 -0.367 -1.404 4.315
 -0.341 -1.402 4.309
 -0.315 -1.401 4.308
 -0.289 -1.399 4.303
 -0.263 -1.399 4.302
 -0.238 -1.399 4.305
 -0.212 -1.4 4.309
 -0.186 -1.4 4.308
 -0.161 -1.399 4.308
 -0.135 -1.397 4.301
 -0.109 -1.396 4.298
 -0.084 -1.395 4.295
 -0.058 -1.394 4.292
 -0.033 -1.395 4.293
 -0.007 -1.396 4.298
 0.017 -1.396 4.296
 0.043 -1.396 4.297
 0.068 -1.399 4.304
 0.094 -1.399 4.303
 0.119 -1.397 4.297
 0.145 -1.398 4.299
 0.17 -1.398 4.299
 0.196 -1.397 4.293
 0.221 -1.397 4.293
 0.247 -1.399 4.297
 0.272 -1.399 4.295
 0.298 -1.398 4.291
 0.323 -1.396 4.283
 0.348 -1.396 4.281
 0.373 -1.396 4.277
 0.399 -1.397 4.278
 0.425 -1.399 4.282
 0.451 -1.401 4.286
 0.477 -1.401 4.284
 0.503 -1.401 4.282
 0.528 -1.402 4.28
 0.553 -1.401 4.274
 0.579 -1.403 4.276
 0.605 -1.403 4.275
 0.632 -1.405 4.277
 0.658 -1.406 4.277
 0.684 -1.407 4.277
 0.71 -1.409 4.277
 0.736 -1.41 4.276
 0.763 -1.411 4.278
 0.788 -1.412 4.274
 0.815 -1.413 4.273
 0.841 -1.413 4.27
 0.867 -1.415 4.269
 0.893 -1.415 4.265
 0.921 -1.418 4.27
 0.947 -1.418 4.266
 0.973 -1.42 4.264
 1 -1.421 4.263
 1.028 -1.424 4.266
 1.054 -1.425 4.262
 1.082 -1.427 4.263
 1.109 -1.428 4.262
 1.136 -1.431 4.262
 1.163 -1.431 4.258
 1.19 -1.433 4.256
 1.217 -1.434 4.254
 1.244 -1.436 4.251
 1.273 -1.438 4.252
 1.301 -1.441 4.251
 1.329 -1.442 4.249
 1.358 -1.446 4.251
 1.387 -1.449 4.252
 1.414 -1.45 4.248
 1.443 -1.452 4.246
 1.472 -1.455 4.247
 1.5 -1.457 4.244
 1.529 -1.459 4.242
 1.557 -1.461 4.239
 1.586 -1.463 4.235
 1.614 -1.465 4.23
 1.643 -1.468 4.229
 1.673 -1.47 4.227
 1.703 -1.473 4.226
 1.732 -1.476 4.223
 1.759 -1.476 4.213
 1.784 -1.474 4.198
 1.805 -1.47 4.175
 1.826 -1.466 4.152
 1.845 -1.46 4.125
 1.864 -1.454 4.098
 1.879 -1.445 4.062
 0 0 0
 0 0 0
 0 0 0
 0 0 0
 0 0 0
 0.095 -0.071 0.179
 0.077 -0.057 0.142
 0.078 -0.057 0.141
 0.08 -0.058 0.142
 0.79 -0.536 1.451
 1.199 -0.802 2.172
 1.798 -1.187 3.213
 1.813 -1.182 3.189
 1.827 -1.177 3.165
 1.573 -1.003 2.684
 0 0 0
 0 0 0
 -0.125 -0.079 0.204
 -0.121 -0.077 0.2
 -0.089 -0.058 0.146
 -0.081 -0.053 0.133
 -0.077 -0.051 0.128
 -0.07 -0.047 0.117
 -0.063 -0.043 0.106
 -0.057 -0.039 0.096
 -0.049 -0.035 0.082
 -0.04 -0.029 0.065
 -0.033 -0.024 0.053
 -0.11 -0.079 0.213
 -0.186 -0.135 0.374
 -0.509 -0.372 1.063
 -0.902 -0.667 1.927
 -1.286 -0.963 2.798
 -1.582 -1.202 3.503
 -1.867 -1.439 4.208
 -1.912 -1.495 4.383
 -1.88 -1.492 4.385
 -1.848 -1.489 4.386
 -1.816 -1.486 4.386
 -1.785 -1.483 4.387
 -1.753 -1.479 4.386
 -1.723 -1.477 4.39
 -1.691 -1.474 4.389
 -1.658 -1.47 4.384
 -1.626 -1.466 4.382
 -1.596 -1.463 4.382
 -1.564 -1.46 4.379
 -1.533 -1.456 4.376
 -1.502 -1.453 4.374
 -1.472 -1.45 4.373
 -1.441 -1.446 4.369
 -1.411 -1.443 4.366
 -1.381 -1.44 4.364
 -1.351 -1.437 4.363
 -1.321 -1.434 4.359
 -1.291 -1.431 4.357
 -1.262 -1.428 4.355
 -1.232 -1.424 4.349
 -1.202 -1.421 4.344
 -1.175 -1.42 4.346
 -1.146 -1.417 4.346
 -1.118 -1.415 4.344
 -1.091 -1.415 4.35
 -1.064 -1.414 4.349
 -1.034 -1.41 4.344
 -1.007 -1.408 4.343
 -0.98 -1.407 4.344
 -0.953 -1.406 4.346
 -0.925 -1.404 4.344
 -0.897 -1.402 4.342
 -0.87 -1.401 4.341
 -0.843 -1.399 4.34
 -0.815 -1.397 4.337
 -0.789 -1.397 4.34
 -0.763 -1.396 4.342
 -0.736 -1.395 4.343
 -0.71 -1.395 4.344
 -0.682 -1.392 4.338
 -0.655 -1.39 4.335
 -0.63 -1.391 4.34
 -0.603 -1.389 4.336
 -0.576 -1.386 4.329
 -0.549 -1.384 4.326
 -0.522 -1.382 4.322
 -0.496 -1.38 4.317
 -0.47 -1.379 4.317
 -0.444 -1.38 4.321
 -0.419 -1.381 4.328
 -0.393 -1.381 4.329
 -0.367 -1.379 4.323
 -0.34 -1.375 4.314
 -0.314 -1.373 4.308
 -0.288 -1.372 4.304
 -0.263 -1.371 4.303
 -0.237 -1.372 4.306
 -0.212 -1.373 4.31
 -0.186 -1.372 4.309
 -0.16 -1.371 4.307
 -0.135 -1.369 4.3
 -0.109 -1.368 4.297
 -0.084 -1.368 4.295
 -0.058 -1.367 4.294
 -0.033 -1.368 4.295
 -0.007 -1.369 4.298
 0.017 -1.369 4.298
 0.043 -1.37 4.301
 0.068 -1.373 4.312
 0.094 -1.374 4.313
 0.119 -1.372 4.305
 0.145 -1.374 4.31
 0.171 -1.374 4.31
 0.196 -1.373 4.304
 0.221 -1.373 4.302
 0.247 -1.375 4.308
 0.273 -1.374 4.303
 0.298 -1.373 4.298
 0.323 -1.37 4.286
 0.348 -1.369 4.284
 0.373 -1.368 4.279
 0.399 -1.369 4.279
 0.425 -1.372 4.286
 0.451 -1.374 4.29
 0.477 -1.375 4.288
 0.502 -1.375 4.286
 0.528 -1.375 4.283
 0.553 -1.374 4.278
 0.579 -1.376 4.281
 0.605 -1.376 4.279
 0.632 -1.379 4.283
 0.658 -1.38 4.283
 0.684 -1.381 4.281
 0.71 -1.382 4.281
 0.735 -1.382 4.278
 0.762 -1.384 4.28
 0.788 -1.385 4.279
 0.814 -1.386 4.277
 0.841 -1.387 4.276
 0.867 -1.388 4.276
 0.893 -1.388 4.27
 0.919 -1.39 4.27
 0.945 -1.39 4.266
 0.971 -1.391 4.263
 0.998 -1.392 4.261
 1.025 -1.394 4.262
 1.052 -1.396 4.261
 1.08 -1.398 4.262
 1.106 -1.399 4.26
 1.134 -1.402 4.261
 1.161 -1.402 4.257
 1.188 -1.405 4.257
 1.215 -1.405 4.252
 1.242 -1.407 4.25
 1.27 -1.409 4.251
 1.299 -1.412 4.252
 1.326 -1.413 4.249
 1.355 -1.417 4.251
 1.384 -1.419 4.25
 1.411 -1.42 4.246
 1.44 -1.423 4.245
 1.469 -1.425 4.245
 1.498 -1.429 4.246
 1.527 -1.431 4.246
 1.556 -1.434 4.244
 1.584 -1.435 4.238
 1.613 -1.437 4.235
 1.642 -1.439 4.233
 1.67 -1.441 4.229
 1.7 -1.443 4.225
 1.73 -1.446 4.224
 1.757 -1.447 4.215
 1.782 -1.445 4.201
 1.805 -1.443 4.183
 1.827 -1.439 4.162
 1.847 -1.434 4.136
 1.862 -1.426 4.101
 0 0 0
 0 0 0
 0 0 0
 0 0 0
 0 0 0
 0 0 0
 0.095 -0.069 0.18
 0.077 -0.056 0.142
 0.078 -0.056 0.142
 0.08 -0.057 0.142
 0.634 -0.423 1.165
 1.038 -0.682 1.883
 1.797 -1.164 3.217
 1.808 -1.157 3.187
 1.828 -1.157 3.175
 1.389 -0.87 2.374
 0 0 0
 0.454 -0.281 0.749
 -0.149 -0.092 0.245
 -0.089 -0.056 0.144
 -0.099 -0.063 0.165
 -0.093 -0.06 0.156
 -0.087 -0.057 0.147
 -0.079 -0.052 0.135
 -0.07 -0.047 0.12
 -0.062 -0.042 0.106
 -0.052 -0.036 0.089
 -0.04 -0.028 0.066
 -0.033 -0.024 0.053
 -0.11 -0.078 0.213
 -0.268 -0.19 0.546
 -0.59 -0.422 1.237
 -0.983 -0.713 2.105
 -1.365 -1.003 2.977
 -1.659 -1.237 3.683
 -1.865 -1.41 4.211
 -1.909 -1.465 4.386
 -1.878 -1.462 4.388
 -1.845 -1.459 4.387
 -1.814 -1.456 4.388
 -1.783 -1.453 4.391
 -1.751 -1.45 4.391
 -1.72 -1.448 4.392
 -1.689 -1.445 4.392
 -1.656 -1.44 4.387
 -1.625 -1.437 4.385
 -1.593 -1.434 4.384
 -1.562 -1.43 4.38
 -1.53 -1.426 4.376
 -1.5 -1.423 4.374
 -1.469 -1.42 4.372
 -1.439 -1.417 4.37
 -1.409 -1.414 4.369
 -1.379 -1.412 4.368
 -1.35 -1.409 4.368
 -1.32 -1.406 4.364
 -1.291 -1.403 4.363
 -1.262 -1.401 4.361
 -1.232 -1.397 4.356
 -1.201 -1.393 4.349
 -1.174 -1.392 4.353
 -1.145 -1.39 4.349
 -1.117 -1.387 4.347
 -1.09 -1.387 4.352
 -1.063 -1.386 4.353
 -1.033 -1.382 4.346
 -1.006 -1.381 4.347
 -0.978 -1.379 4.346
 -0.952 -1.379 4.349
 -0.924 -1.377 4.347
 -0.897 -1.375 4.346
 -0.869 -1.373 4.345
 -0.843 -1.373 4.346
 -0.815 -1.371 4.344
 -0.789 -1.371 4.348
 -0.763 -1.371 4.351
 -0.736 -1.37 4.351
 -0.71 -1.369 4.352
 -0.682 -1.366 4.344
 -0.655 -1.363 4.338
 -0.629 -1.363 4.343
 -0.602 -1.36 4.335
 -0.575 -1.357 4.329
 -0.548 -1.356 4.328
 -0.522 -1.354 4.323
 -0.495 -1.352 4.318
 -0.47 -1.353 4.324
 -0.445 -1.355 4.333
 -0.419 -1.357 4.341
 -0.394 -1.358 4.344
 -0.367 -1.354 4.334
 -0.34 -1.35 4.321
 -0.314 -1.347 4.313
 -0.288 -1.346 4.309
 -0.262 -1.344 4.304
 -0.236 -1.343 4.304
 -0.211 -1.345 4.309
 -0.186 -1.344 4.308
 -0.16 -1.343 4.304
 -0.134 -1.341 4.298
 -0.109 -1.34 4.294
 -0.083 -1.339 4.293
 -0.058 -1.339 4.291
 -0.032 -1.339 4.293
 -0.007 -1.341 4.297
 0.017 -1.341 4.298
 0.043 -1.342 4.301
 0.069 -1.347 4.316
 0.094 -1.349 4.32
 0.12 -1.346 4.312
 0.145 -1.35 4.324
 0.171 -1.35 4.323
 0.196 -1.348 4.314
 0.222 -1.348 4.314
 0.248 -1.352 4.324
 0.273 -1.35 4.315
 0.298 -1.349 4.31
 0.323 -1.344 4.294
 0.348 -1.343 4.289
 0.373 -1.342 4.282
 0.399 -1.343 4.282
 0.425 -1.345 4.287
 0.451 -1.347 4.293
 0.477 -1.348 4.291
 0.502 -1.347 4.286
 0.527 -1.347 4.284
 0.552 -1.346 4.277
 0.578 -1.348 4.28
 0.603 -1.347 4.274
 0.63 -1.35 4.279
 0.657 -1.352 4.281
 0.683 -1.353 4.281
 0.709 -1.354 4.283
 0.736 -1.356 4.285
 0.762 -1.358 4.285
 0.788 -1.358 4.282
 0.814 -1.36 4.283
 0.84 -1.36 4.28
 0.867 -1.362 4.279
 0.893 -1.362 4.276
 0.919 -1.363 4.274
 0.945 -1.364 4.272
 0.971 -1.364 4.267
 0.998 -1.365 4.266
 1.025 -1.367 4.266
 1.051 -1.368 4.263
 1.078 -1.369 4.26
 1.105 -1.371 4.26
 1.132 -1.373 4.259
 1.158 -1.373 4.255
 1.186 -1.376 4.257
 1.214 -1.377 4.255
 1.241 -1.379 4.252
 1.269 -1.382 4.255
 1.298 -1.384 4.255
 1.325 -1.386 4.253
 1.354 -1.389 4.254
 1.382 -1.391 4.251
 1.409 -1.392 4.248
 1.438 -1.395 4.248
 1.466 -1.396 4.244
 1.495 -1.399 4.245
 1.525 -1.402 4.246
 1.553 -1.404 4.243
 1.581 -1.406 4.238
 1.611 -1.408 4.237
 1.64 -1.411 4.235
 1.669 -1.413 4.231
 1.698 -1.415 4.23
 1.727 -1.417 4.226
 1.755 -1.418 4.218
 1.78 -1.417 4.205
 1.805 -1.416 4.191
 1.829 -1.414 4.175
 1.852 -1.411 4.156
 0 0 0
 0 0 0
 0 0 0
 0 0 0
 0 0 0
 0 0 0
 0.109 -0.079 0.212
 0.095 -0.068 0.18
 0.077 -0.055 0.143
 0.078 -0.055 0.142
 0.08 -0.056 0.143
 0.634 -0.415 1.168
 0.916 -0.591 1.664
 1.799 -1.144 3.227
 1.82 -1.144 3.215
 1.558 -0.968 2.709
 1.023 -0.63 1.75
 0 0 0
 0.524 -0.317 0.867
 -0.138 -0.084 0.227
 -0.14 -0.086 0.233
 -0.101 -0.063 0.167
 -0.091 -0.058 0.153
 -0.084 -0.054 0.141
 -0.074 -0.048 0.126
 -0.066 -0.043 0.112
 -0.058 -0.039 0.1
 -0.048 -0.033 0.082
 -0.038 -0.027 0.063
 -0.118 -0.08 0.225
 -0.193 -0.133 0.384
 -0.434 -0.301 0.893
 -0.753 -0.529 1.586
 -1.144 -0.814 2.457
 -1.445 -1.041 3.157
 -1.737 -1.27 3.864
 -1.864 -1.382 4.217
 -1.908 -1.436 4.391
 -1.877 -1.434 4.395
 -1.843 -1.429 4.391
 -1.811 -1.426 4.391
 -1.78 -1.423 4.392
 -1.749 -1.421 4.393
 -1.717 -1.417 4.392
 -1.687 -1.415 4.394
 -1.653 -1.411 4.389
 -1.622 -1.408 4.387
 -1.591 -1.404 4.386
 -1.56 -1.401 4.383
 -1.528 -1.397 4.378
 -1.498 -1.394 4.377
 -1.467 -1.391 4.374
 -1.437 -1.388 4.372
 -1.407 -1.386 4.372
 -1.378 -1.383 4.371
 -1.35 -1.382 4.374
 -1.32 -1.379 4.372
 -1.29 -1.376 4.37
 -1.262 -1.374 4.369
 -1.231 -1.37 4.362
 -1.2 -1.366 4.353
 -1.173 -1.365 4.356
 -1.143 -1.361 4.35
 -1.114 -1.358 4.346
 -1.089 -1.359 4.354
 -1.06 -1.357 4.352
 -1.031 -1.353 4.344
 -1.005 -1.353 4.349
 -0.977 -1.351 4.347
 -0.95 -1.351 4.351
 -0.923 -1.35 4.352
 -0.896 -1.348 4.351
 -0.868 -1.345 4.345
 -0.842 -1.345 4.349
 -0.814 -1.343 4.347
 -0.79 -1.345 4.357
 -0.764 -1.346 4.364
 -0.739 -1.348 4.373
 -0.712 -1.348 4.375
 -0.684 -1.343 4.364
 -0.654 -1.336 4.343
 -0.63 -1.339 4.355
 -0.601 -1.332 4.336
 -0.573 -1.328 4.325
 -0.548 -1.33 4.332
 -0.521 -1.326 4.323
 -0.493 -1.321 4.309
 -0.468 -1.324 4.32
 -0.444 -1.329 4.337
 -0.419 -1.332 4.348
 -0.393 -1.331 4.348
 -0.366 -1.326 4.334
 -0.339 -1.322 4.32
 -0.313 -1.319 4.311
 -0.287 -1.318 4.309
 -0.261 -1.316 4.304
 -0.236 -1.316 4.305
 -0.211 -1.317 4.309
 -0.185 -1.317 4.31
 -0.16 -1.316 4.307
 -0.134 -1.314 4.301
 -0.108 -1.312 4.294
 -0.083 -1.312 4.292
 -0.058 -1.311 4.29
 -0.032 -1.31 4.287
 -0.007 -1.312 4.294
 0.018 -1.314 4.301
 0.043 -1.316 4.304
 0.069 -1.323 4.327
 0.094 -1.324 4.33
 0.119 -1.318 4.31
 0.146 -1.324 4.328
 0.171 -1.325 4.33
 0.196 -1.32 4.314
 0.222 -1.322 4.318
 0.249 -1.329 4.338
 0.273 -1.325 4.324
 0.299 -1.325 4.322
 0.323 -1.32 4.306
 0.348 -1.319 4.298
 0.373 -1.316 4.286
 0.399 -1.317 4.289
 0.425 -1.32 4.296
 0.452 -1.324 4.305
 0.477 -1.323 4.299
 0.502 -1.322 4.294
 0.527 -1.32 4.285
 0.55 -1.316 4.267
 0.577 -1.318 4.272
 0.601 -1.317 4.265
 0.628 -1.319 4.269
 0.656 -1.324 4.28
 0.682 -1.326 4.283
 0.709 -1.328 4.287
 0.735 -1.329 4.287
 0.762 -1.333 4.294
 0.789 -1.334 4.294
 0.815 -1.336 4.295
 0.841 -1.336 4.29
 0.868 -1.337 4.29
 0.893 -1.337 4.285
 0.919 -1.337 4.281
 0.946 -1.338 4.28
 0.971 -1.338 4.272
 0.997 -1.339 4.271
 1.024 -1.34 4.269
 1.05 -1.341 4.266
 1.077 -1.342 4.264
 1.104 -1.344 4.264
 1.131 -1.346 4.263
 1.158 -1.346 4.259
 1.185 -1.349 4.26
 1.213 -1.35 4.258
 1.24 -1.352 4.257
 1.268 -1.354 4.257
 1.296 -1.356 4.256
 1.324 -1.358 4.256
 1.352 -1.36 4.254
 1.379 -1.361 4.25
 1.407 -1.363 4.247
 1.435 -1.365 4.246
 1.463 -1.367 4.243
 1.493 -1.37 4.245
 1.523 -1.374 4.247
 1.551 -1.376 4.245
 1.58 -1.378 4.242
 1.609 -1.38 4.24
 1.637 -1.382 4.236
 1.666 -1.384 4.232
 1.695 -1.386 4.23
 1.724 -1.387 4.224
 1.752 -1.389 4.219
 1.778 -1.389 4.209
 1.806 -1.39 4.2
 1.831 -1.389 4.187
 1.858 -1.389 4.178
 0 0 0
 0 0 0
 0 0 0
 0 0 0
 0 0 0
 0 0 0
 0.109 -0.078 0.213
 0.095 -0.067 0.18
 0.089 -0.062 0.166
 0.09 -0.062 0.165
 0.098 -0.066 0.177
 0.502 -0.323 0.925
 0 0 0
 0 0 0
 0 0 0
 0 0 0
 0.464 -0.282 0.791
 0 0 0
 0 0 0
 -0.091 -0.054 0.145
 -0.1 -0.061 0.164
 -0.101 -0.062 0.168
 -0.092 -0.057 0.154
 -0.084 -0.053 0.141
 -0.074 -0.047 0.125
 -0.065 -0.042 0.111
 -0.055 -0.037 0.094
 -0.045 -0.031 0.076
 -0.035 -0.024 0.057
 -0.199 -0.133 0.391
 -0.273 -0.184 0.55
 -0.598 -0.406 1.238
 -0.997 -0.686 2.107
 -1.384 -0.965 2.98
 -1.602 -1.132 3.51
 -1.892 -1.356 4.217
 -1.937 -1.409 4.392
 -1.905 -1.405 4.392
 -1.875 -1.404 4.398
 -1.84 -1.399 4.392
 -1.808 -1.396 4.393
 -1.777 -1.394 4.394
 -1.746 -1.391 4.395
 -1.714 -1.387 4.392
 -1.684 -1.386 4.396
 -1.652 -1.382 4.392
 -1.621 -1.379 4.392
 -1.59 -1.376 4.391
 -1.559 -1.373 4.388
 -1.526 -1.368 4.38
 -1.495 -1.365 4.378
 -1.465 -1.362 4.375
 -1.433 -1.357 4.369
 -1.404 -1.356 4.37
 -1.376 -1.355 4.374
 -1.348 -1.354 4.377
 -1.318 -1.351 4.374
 -1.291 -1.35 4.379
 -1.262 -1.348 4.378
 -1.231 -1.343 4.369
 -1.199 -1.337 4.355
 -1.171 -1.336 4.357
 -1.141 -1.332 4.348
 -1.112 -1.329 4.345
 -1.086 -1.33 4.352
 -1.059 -1.329 4.355
 -1.03 -1.326 4.349
 -1.006 -1.329 4.363
 -0.978 -1.326 4.36
 -0.953 -1.328 4.369
 -0.925 -1.326 4.368
 -0.896 -1.323 4.361
 -0.866 -1.317 4.344
 -0.84 -1.317 4.349
 -0.813 -1.315 4.345
 -0.791 -1.322 4.374
 -0.768 -1.328 4.395
 0 0 0
 0 0 0
 0 0 0
 0 0 0
 0 0 0
 0 0 0
 0 0 0
 0 0 0
 0 0 0
 0 0 0
 0 0 0
 0 0 0
 0 0 0
 -0.392 -1.3 4.336
 -0.365 -1.297 4.327
 -0.339 -1.294 4.318
 -0.313 -1.292 4.313
 -0.287 -1.292 4.315
 -0.261 -1.29 4.309
 -0.236 -1.289 4.306
 -0.21 -1.29 4.309
 -0.185 -1.29 4.31
 -0.159 -1.289 4.308
 -0.134 -1.287 4.302
 -0.108 -1.285 4.296
 -0.083 -1.284 4.291
 -0.057 -1.283 4.288
 -0.032 -1.282 4.283
 -0.007 -1.282 4.282
 0.018 -1.283 4.288
 0 0 0
 0 0 0
 0 0 0
 0 0 0
 0 0 0
 0 0 0
 0 0 0
 0 0 0
 0 0 0
 0 0 0
 0 0 0
 0 0 0
 0 0 0
 0 0 0
 0 0 0
 0 0 0
 0 0 0
 0 0 0
 0 0 0
 0 0 0
 0 0 0
 0 0 0
 0 0 0
 0 0 0
 0 0 0
 0 0 0
 0 0 0
 0 0 0
 0 0 0
 0 0 0
 0 0 0
 0 0 0
 0 0 0
 0 0 0
 0 0 0
 0.947 -1.314 4.29
 0.971 -1.313 4.281
 0.997 -1.312 4.276
 1.024 -1.314 4.274
 1.049 -1.313 4.268
 1.075 -1.314 4.262
 1.102 -1.315 4.261
 1.129 -1.317 4.26
 1.156 -1.318 4.257
 1.183 -1.32 4.259
 1.211 -1.322 4.258
 1.238 -1.324 4.257
 1.267 -1.327 4.26
 1.294 -1.328 4.257
 1.322 -1.33 4.257
 1.351 -1.333 4.257
 1.378 -1.333 4.252
 1.405 -1.335 4.248
 1.434 -1.337 4.249
 1.461 -1.339 4.245
 1.49 -1.341 4.244
 1.52 -1.344 4.245
 1.548 -1.346 4.242
 1.576 -1.348 4.239
 1.605 -1.35 4.237
 1.634 -1.352 4.234
 1.663 -1.355 4.233
 1.692 -1.357 4.23
 1.72 -1.358 4.224
 1.75 -1.36 4.22
 1.777 -1.361 4.211
 1.803 -1.361 4.202
 1.83 -1.361 4.191
 1.859 -1.363 4.188
 0 0 0
 0 0 0
 0 0 0
 0 0 0
 0 0 0
 0 0 0
 0 0 0
 0 0 0
 0 0 0
 0 0 0
 0 0 0
 0 0 0
 0 0 0
 0 0 0
 0 0 0
 0 0 0
 0.468 -0.279 0.8
 0.434 -0.256 0.731
 0 0 0
 -0.121 -0.071 0.198
 -0.09 -0.054 0.147
 -0.1 -0.06 0.166
 -0.089 -0.054 0.15
 -0.079 -0.049 0.133
 -0.068 -0.043 0.114
 -0.058 -0.037 0.098
 -0.05 -0.032 0.083
 -0.127 -0.082 0.238
 -0.117 -0.076 0.221
 -0.367 -0.239 0.732
 -0.44 -0.289 0.895
 -0.763 -0.508 1.587
 -1.078 -0.727 2.284
 -1.464 -1 3.159
 -1.601 -1.109 3.515
 -1.892 -1.329 4.225
 -1.938 -1.381 4.401
 -1.905 -1.378 4.402
 -1.875 -1.376 4.406
 -1.838 -1.37 4.396
 -1.806 -1.367 4.396
 -1.775 -1.364 4.396
 -1.744 -1.362 4.398
 -1.712 -1.359 4.396
 -1.681 -1.356 4.397
 -1.649 -1.352 4.392
 -1.618 -1.349 4.391
 -1.586 -1.346 4.389
 -1.554 -1.342 4.383
 -1.523 -1.338 4.378
 -1.491 -1.334 4.374
 -1.461 -1.331 4.372
 -1.431 -1.329 4.371
 -1.404 -1.328 4.376
 -1.376 -1.328 4.381
 -1.35 -1.329 4.392
 -1.322 -1.327 4.393
 -1.293 -1.325 4.393
 -1.263 -1.322 4.389
 -1.23 -1.316 4.375
 -1.196 -1.308 4.352
 -1.168 -1.307 4.354
 0 0 0
 0 0 0
 0 0 0
 0 0 0
 0 0 0
 0 0 0
 0 0 0
 0 0 0
 0 0 0
 0 0 0
 0 0 0
 0 0 0
 0 0 0
 0 0 0
 0 0 0
 0 0 0
 0 0 0
 0 0 0
 0 0 0
 0 0 0
 0 0 0
 0 0 0
 0 0 0
 0 0 0
 0 0 0
 0 0 0
 0 0 0
 0 0 0
 -0.391 -1.272 4.336
 -0.365 -1.27 4.33
 -0.339 -1.268 4.324
 -0.312 -1.266 4.318
 -0.287 -1.266 4.318
 -0.261 -1.264 4.312
 -0.235 -1.262 4.309
 -0.21 -1.262 4.307
 -0.184 -1.262 4.309
 -0.159 -1.262 4.308
 -0.133 -1.26 4.302
 -0.108 -1.258 4.295
 -0.082 -1.257 4.292
 -0.057 -1.256 4.288
 -0.032 -1.254 4.282
 -0.007 -1.254 4.281
 0.018 -1.257 4.29
 0 0 0
 0 0 0
 0 0 0
 0 0 0
 0 0 0
 0 0 0
 0 0 0
 0 0 0
 0 0 0
 0 0 0
 0 0 0
 0 0 0
 0 0 0
 0 0 0
 0 0 0
 0 0 0
 0 0 0
 0 0 0
 0 0 0
 0 0 0
 0 0 0
 0 0 0
 0 0 0
 0 0 0
 0 0 0
 0 0 0
 0 0 0
 0 0 0
 0 0 0
 0 0 0
 0 0 0
 0 0 0
 0 0 0
 0 0 0
 0 0 0
 0.943 -1.283 4.279
 0.968 -1.282 4.274
 0.994 -1.283 4.27
 1.021 -1.284 4.269
 1.047 -1.285 4.265
 1.073 -1.285 4.261
 1.1 -1.287 4.26
 1.127 -1.288 4.26
 1.154 -1.29 4.257
 1.182 -1.293 4.261
 1.209 -1.293 4.257
 1.237 -1.296 4.258
 1.265 -1.298 4.26
 1.292 -1.299 4.256
 1.32 -1.301 4.255
 1.349 -1.304 4.257
 1.375 -1.304 4.25
 1.402 -1.306 4.246
 1.431 -1.309 4.248
 1.459 -1.31 4.244
 1.488 -1.312 4.244
 1.517 -1.315 4.244
 1.546 -1.317 4.242
 1.574 -1.319 4.239
 1.603 -1.321 4.237
 1.631 -1.323 4.235
 1.661 -1.326 4.234
 1.69 -1.328 4.23
 1.718 -1.329 4.224
 1.746 -1.331 4.218
 1.773 -1.331 4.209
 1.799 -1.331 4.198
 1.825 -1.33 4.187
 1.852 -1.331 4.177
 0 0 0
 0 0 0
 0 0 0
 0 0 0
 0 0 0
 0 0 0
 0 0 0
 0 0 0
 0 0 0
 0 0 0
 0 0 0
 0 0 0
 0 0 0
 0 0 0
 0 0 0
 0.445 -0.263 0.773
 0.45 -0.263 0.77
 0.473 -0.273 0.798
 0 0 0
 -0.124 -0.071 0.204
 -0.108 -0.063 0.178
 -0.095 -0.056 0.157
 -0.085 -0.051 0.142
 -0.074 -0.045 0.125
 -0.064 -0.039 0.107
 -0.055 -0.035 0.092
 -0.046 -0.03 0.077
 -0.124 -0.078 0.232
 -0.115 -0.073 0.217
 -0.365 -0.232 0.729
 -0.523 -0.337 1.068
 -0.927 -0.604 1.935
 -1.24 -0.819 2.634
 -1.624 -1.087 3.512
 -1.758 -1.193 3.867
 -1.968 -1.355 4.403
 -1.936 -1.352 4.405
 -1.904 -1.349 4.407
 -1.872 -1.347 4.408
 -1.835 -1.34 4.396
 -1.803 -1.337 4.395
 -1.771 -1.334 4.394
 -1.739 -1.33 4.392
 -1.707 -1.327 4.39
 -1.677 -1.325 4.394
 -1.644 -1.321 4.387
 -1.613 -1.318 4.387
 -1.583 -1.316 4.386
 -1.552 -1.312 4.383
 -1.52 -1.308 4.377
 -1.489 -1.305 4.375
 -1.459 -1.303 4.373
 -1.429 -1.3 4.371
 -1.401 -1.299 4.375
 -1.374 -1.299 4.381
 -1.348 -1.3 4.391
 -1.321 -1.3 4.399
 0 0 0
 0 0 0
 0 0 0
 0 0 0
 0 0 0
 0 0 0
 0 0 0
 0 0 0
 0 0 0
 0 0 0
 0 0 0
 0 0 0
 0 0 0
 0 0 0
 0 0 0
 0 0 0
 0 0 0
 0 0 0
 0 0 0
 0 0 0
 0 0 0
 0 0 0
 0 0 0
 0 0 0
 0 0 0
 0 0 0
 0 0 0
 0 0 0
 0 0 0
 0 0 0
 0 0 0
 0 0 0
 0 0 0
 -0.39 -1.243 4.331
 -0.364 -1.243 4.33
 -0.338 -1.24 4.322
 -0.312 -1.238 4.316
 -0.286 -1.237 4.314
 -0.26 -1.235 4.308
 -0.235 -1.234 4.304
 -0.209 -1.234 4.304
 -0.184 -1.234 4.307
 -0.158 -1.234 4.307
 -0.133 -1.234 4.304
 -0.107 -1.231 4.296
 -0.082 -1.23 4.29
 -0.057 -1.228 4.285
 -0.032 -1.226 4.279
 -0.006 -1.225 4.272
 0.018 -1.226 4.276
 0 0 0
 0 0 0
 0 0 0
 0 0 0
 0 0 0
 0 0 0
 0 0 0
 0 0 0
 0 0 0
 0 0 0
 0 0 0
 0 0 0
 0 0 0
 0 0 0
 0 0 0
 0 0 0
 0 0 0
 0 0 0
 0 0 0
 0 0 0
 0 0 0
 0 0 0
 0 0 0
 0 0 0
 0 0 0
 0 0 0
 0 0 0
 0 0 0
 0 0 0
 0 0 0
 0 0 0
 0 0 0
 0 0 0
 0 0 0
 0 0 0
 0.948 -1.263 4.307
 0.97 -1.258 4.286
 0.994 -1.257 4.276
 1.02 -1.257 4.272
 1.046 -1.257 4.265
 1.071 -1.257 4.258
 1.098 -1.259 4.259
 1.126 -1.261 4.26
 1.153 -1.263 4.26
 1.181 -1.265 4.263
 1.208 -1.266 4.259
 1.235 -1.268 4.258
 1.262 -1.269 4.256
 1.289 -1.27 4.251
 1.316 -1.271 4.249
 1.345 -1.274 4.252
 1.372 -1.276 4.248
 1.401 -1.278 4.248
 1.43 -1.281 4.249
 1.458 -1.283 4.248
 1.487 -1.285 4.247
 1.515 -1.287 4.244
 1.542 -1.288 4.24
 1.571 -1.29 4.238
 1.599 -1.291 4.233
 1.627 -1.293 4.229
 1.658 -1.297 4.232
 1.687 -1.299 4.229
 1.715 -1.3 4.225
 1.745 -1.303 4.222
 1.772 -1.304 4.215
 1.798 -1.303 4.203
 1.826 -1.304 4.196
 1.854 -1.305 4.189
 0 0 0
 0 0 0
 0 0 0
 0 0 0
 0 0 0
 0 0 0
 0 0 0
 0 0 0
 0 0 0
 0 0 0
 0 0 0
 0 0 0
 0 0 0
 0 0 0
 0 0 0
 0.445 -0.258 0.776
 0.45 -0.258 0.773
 0.468 -0.265 0.792
 0 0 0
 -0.147 -0.082 0.244
 -0.125 -0.071 0.208
 -0.094 -0.054 0.156
 -0.081 -0.048 0.136
 -0.07 -0.042 0.116
 -0.061 -0.037 0.102
 -0.051 -0.031 0.084
 -0.041 -0.026 0.066
 -0.12 -0.074 0.223
 -0.198 -0.123 0.384
 -0.532 -0.331 1.072
 -0.774 -0.488 1.591
 -1.176 -0.75 2.462
 -1.485 -0.96 3.165
 -1.785 -1.17 3.868
 -1.836 -1.22 4.046
 -1.965 -1.325 4.405
 -1.933 -1.322 4.408
 -1.9 -1.319 4.406
 -1.867 -1.315 4.405
 -1.832 -1.31 4.396
 -1.799 -1.306 4.393
 -1.767 -1.303 4.393
 -1.735 -1.3 4.391
 -1.703 -1.297 4.388
 -1.672 -1.294 4.388
 -1.64 -1.29 4.384
 -1.608 -1.287 4.381
 -1.578 -1.285 4.381
 -1.548 -1.282 4.38
 -1.517 -1.279 4.377
 -1.486 -1.275 4.372
 -1.456 -1.273 4.372
 -1.427 -1.271 4.372
 -1.399 -1.27 4.376
 -1.371 -1.269 4.379
 -1.346 -1.271 4.392
 -1.321 -1.273 4.406
 0 0 0
 0 0 0
 0 0 0
 0 0 0
 0 0 0
 0 0 0
 0 0 0
 0 0 0
 0 0 0
 0 0 0
 0 0 0
 0 0 0
 0 0 0
 0 0 0
 0 0 0
 0 0 0
 0 0 0
 0 0 0
 0 0 0
 0 0 0
 0 0 0
 0 0 0
 0 0 0
 0 0 0
 -0.185 -0.364 1.277
 -0.179 -0.367 1.289
 -0.172 -0.367 1.29
 -0.164 -0.367 1.29
 -0.155 -0.364 1.282
 0 0 0
 0 0 0
 0 0 0
 0 0 0
 -0.388 -1.212 4.317
 -0.363 -1.214 4.323
 -0.337 -1.212 4.318
 -0.311 -1.21 4.312
 -0.285 -1.209 4.311
 -0.26 -1.209 4.309
 -0.234 -1.207 4.305
 -0.209 -1.207 4.303
 -0.184 -1.208 4.308
 -0.158 -1.207 4.307
 -0.133 -1.206 4.303
 -0.107 -1.204 4.295
 -0.082 -1.203 4.293
 -0.057 -1.202 4.287
 -0.031 -1.201 4.284
 -0.006 -1.2 4.279
 0.018 -1.202 4.288
 0 0 0
 0 0 0
 0 0 0
 0 0 0
 0 0 0
 0 0 0
 0 0 0
 0 0 0
 0 0 0
 0 0 0
 0 0 0
 0 0 0
 0 0 0
 0 0 0
 0 0 0
 0 0 0
 0 0 0
 0 0 0
 0 0 0
 0 0 0
 0 0 0
 0 0 0
 0 0 0
 0 0 0
 0 0 0
 0 0 0
 0 0 0
 0 0 0
 0 0 0
 0 0 0
 0 0 0
 0 0 0
 0 0 0
 0 0 0
 0 0 0
 0.945 -1.234 4.302
 0.969 -1.231 4.286
 0.993 -1.229 4.275
 1.018 -1.229 4.269
 1.044 -1.229 4.263
 1.069 -1.229 4.258
 1.096 -1.23 4.257
 1.124 -1.233 4.26
 1.151 -1.234 4.259
 1.179 -1.237 4.26
 1.205 -1.237 4.255
 1.232 -1.239 4.255
 1.259 -1.24 4.251
 1.286 -1.241 4.248
 1.313 -1.242 4.246
 1.342 -1.246 4.249
 1.37 -1.247 4.247
 1.398 -1.249 4.246
 1.427 -1.252 4.247
 1.456 -1.255 4.249
 1.485 -1.257 4.248
 1.512 -1.258 4.244
 1.541 -1.26 4.243
 1.569 -1.262 4.24
 1.596 -1.263 4.234
 1.624 -1.264 4.229
 1.655 -1.268 4.231
