 -1.753 -1.625 4.027
 -1.739 -1.625 4.03
 -1.725 -1.623 4.031
 -1.714 -1.625 4.042
 -1.7 -1.624 4.044
 -1.686 -1.624 4.048
 -1.67 -1.621 4.044
 -1.654 -1.618 4.041
 -1.639 -1.616 4.041
 -1.627 -1.617 4.048
 -1.613 -1.617 4.052
 -1.602 -1.619 4.061
 -1.592 -1.622 4.073
 -1.579 -1.621 4.077
 -1.564 -1.619 4.076
 -1.553 -1.622 4.086
 -1.541 -1.623 4.092
 -1.525 -1.62 4.089
 -1.509 -1.617 4.087
 -1.497 -1.618 4.093
 -1.481 -1.614 4.088
 -1.465 -1.612 4.085
 -1.455 -1.615 4.096
 -1.443 -1.616 4.104
 -1.428 -1.614 4.102
 -1.416 -1.615 4.107
 -1.406 -1.618 4.12
 -1.39 -1.615 4.116
 -1.376 -1.614 4.117
 -1.363 -1.613 4.12
 -1.349 -1.613 4.122
 -1.335 -1.611 4.121
 -1.322 -1.611 4.124
 -1.309 -1.611 4.128
 -1.3 -1.616 4.143
 -1.286 -1.616 4.146
 -1.271 -1.613 4.143
 -1.259 -1.614 4.147
 -1.246 -1.614 4.151
 -1.228 -1.608 4.138
 -1.216 -1.609 4.146
 -1.206 -1.613 4.158
 -1.194 -1.614 4.165
 -1.182 -1.615 4.17
 -1.17 -1.617 4.177
 -1.155 -1.614 4.173
 -1.141 -1.613 4.174
 -1.125 -1.609 4.165
 -1.114 -1.611 4.173
 -1.101 -1.61 4.175
 -1.087 -1.61 4.176
 -1.072 -1.606 4.169
 -1.061 -1.609 4.179
 -1.046 -1.607 4.177
 -1.033 -1.607 4.179
 -1.021 -1.608 4.185
 -1.01 -1.611 4.194
 -0.996 -1.609 4.192
 -0.982 -1.608 4.192
 -0.969 -1.608 4.195
 -0.955 -1.606 4.191
 -0.94 -1.602 4.183
 -0.927 -1.601 4.183
 -0.913 -1.599 4.181
 -0.899 -1.597 4.178
 -0.887 -1.599 4.185
 -0.875 -1.602 4.194
 -0.863 -1.602 4.198
 -0.849 -1.6 4.194
 -0.836 -1.6 4.196
 -0.821 -1.597 4.19
 -0.809 -1.598 4.194
 -0.797 -1.599 4.2
 -0.786 -1.603 4.211
 -0.774 -1.605 4.218
 -0.763 -1.608 4.229
 -0.749 -1.607 4.227
 -0.736 -1.606 4.227
 -0.723 -1.606 4.227
 -0.71 -1.606 4.23
 -0.696 -1.604 4.226
 -0.683 -1.604 4.228
 -0.67 -1.603 4.227
 -0.657 -1.602 4.226
 -0.644 -1.603 4.229
 -0.631 -1.602 4.23
 -0.618 -1.602 4.23
 -0.605 -1.602 4.231
 -0.592 -1.6 4.229
 -0.577 -1.596 4.218
 -0.565 -1.596 4.219
 -0.551 -1.595 4.217
 -0.538 -1.593 4.215
 -0.526 -1.594 4.219
 -0.513 -1.596 4.224
 -0.501 -1.596 4.226
 -0.488 -1.596 4.227
 -0.474 -1.594 4.222
 -0.462 -1.594 4.225
 -0.449 -1.595 4.228
 -0.436 -1.594 4.227
 -0.424 -1.596 4.231
 -0.412 -1.598 4.239
 -0.398 -1.596 4.234
 -0.385 -1.595 4.231
 -0.372 -1.593 4.227
 -0.359 -1.593 4.228
 -0.346 -1.591 4.224
 -0.333 -1.589 4.219
 -0.32 -1.588 4.216
 -0.307 -1.588 4.218
 -0.294 -1.587 4.214
 -0.281 -1.584 4.209
 -0.269 -1.588 4.218
 -0.257 -1.591 4.227
 -0.244 -1.592 4.23
 -0.231 -1.591 4.228
 -0.219 -1.595 4.24
 -0.206 -1.593 4.234
 -0.193 -1.591 4.229
 -0.18 -1.592 4.233
 -0.168 -1.591 4.231
 -0.155 -1.59 4.226
 -0.142 -1.591 4.23
 -0.129 -1.589 4.226
 -0.116 -1.588 4.223
 -0.104 -1.589 4.227
 -0.091 -1.59 4.227
 -0.078 -1.59 4.229
 -0.066 -1.591 4.232
 -0.053 -1.591 4.231
 -0.04 -1.591 4.23
 -0.028 -1.59 4.229
 -0.015 -1.589 4.227
 -0.002 -1.591 4.23
 0.01 -1.591 4.23
 0.022 -1.592 4.233
 0.035 -1.592 4.232
 0.048 -1.593 4.234
 0.06 -1.59 4.227
 0.073 -1.589 4.224
 0.086 -1.587 4.217
 0.098 -1.586 4.214
 0.111 -1.585 4.212
 0.123 -1.584 4.209
 0.136 -1.584 4.207
 0.149 -1.586 4.214
 0.162 -1.588 4.217
 0.175 -1.59 4.222
 0.187 -1.59 4.222
 0.2 -1.591 4.225
 0.213 -1.591 4.222
 0.226 -1.591 4.223
 0.238 -1.592 4.224
 0.251 -1.593 4.227
 0.264 -1.595 4.231
 0.277 -1.594 4.228
 0.29 -1.595 4.228
 0.302 -1.592 4.221
 0.315 -1.591 4.218
 0.326 -1.587 4.206
 0.339 -1.587 4.204
 0.351 -1.585 4.198
 0.364 -1.586 4.198
 0.377 -1.588 4.202
 0.39 -1.59 4.207
 0.403 -1.591 4.21
 0.416 -1.591 4.208
 0.429 -1.592 4.209
 0.441 -1.591 4.204
 0.454 -1.592 4.208
 0.467 -1.591 4.203
 0.48 -1.593 4.207
 0.493 -1.593 4.206
 0.506 -1.595 4.209
 0.519 -1.596 4.21
 0.533 -1.599 4.216
 0.545 -1.598 4.213
 0.558 -1.597 4.208
 0.57 -1.597 4.207
 0.582 -1.595 4.199
 0.595 -1.594 4.197
 0.608 -1.595 4.196
 0.621 -1.596 4.197
 0.634 -1.597 4.199
 0.648 -1.599 4.203
 0.66 -1.599 4.198
 0.672 -1.598 4.195
 0.686 -1.6 4.199
 0.699 -1.6 4.198
 0.711 -1.599 4.193
 0.724 -1.601 4.194
 0.738 -1.603 4.199
 0.751 -1.603 4.196
 0.763 -1.601 4.189
 0.776 -1.603 4.191
 0.789 -1.602 4.187
 0.802 -1.603 4.188
 0.815 -1.603 4.184
 0.828 -1.605 4.187
 0.84 -1.603 4.18
 0.853 -1.603 4.177
 0.865 -1.601 4.171
 0.877 -1.6 4.166
 0.891 -1.603 4.171
 0.904 -1.602 4.167
 0.918 -1.604 4.17
 0.93 -1.604 4.165
 0.944 -1.607 4.17
 0.957 -1.607 4.168
 0.971 -1.609 4.17
 0.984 -1.609 4.169
 0.996 -1.608 4.162
 1.007 -1.605 4.153
 1.019 -1.604 4.147
 1.031 -1.603 4.141
 1.045 -1.604 4.141
 1.06 -1.607 4.146
 1.074 -1.609 4.148
 1.088 -1.611 4.15
 1.101 -1.612 4.15
 1.114 -1.613 4.148
 1.126 -1.612 4.141
 1.138 -1.61 4.135
 1.15 -1.609 4.13
 1.165 -1.611 4.131
 1.177 -1.611 4.127
 1.19 -1.611 4.124
 1.205 -1.614 4.128
 1.219 -1.616 4.128
 1.231 -1.615 4.124
 1.244 -1.614 4.118
 1.257 -1.615 4.117
 1.27 -1.616 4.114
 1.282 -1.615 4.108
 1.297 -1.617 4.109
 1.312 -1.62 4.113
 1.328 -1.624 4.121
 1.342 -1.625 4.119
 1.356 -1.626 4.118
 1.368 -1.625 4.111
 1.38 -1.625 4.107
 1.391 -1.622 4.096
 1.404 -1.622 4.093
 1.417 -1.622 4.089
 1.432 -1.624 4.089
 1.444 -1.624 4.085
 1.459 -1.626 4.086
 1.469 -1.624 4.075
 1.482 -1.623 4.069
 1.493 -1.621 4.061
 1.508 -1.623 4.061
 1.52 -1.623 4.056
 1.535 -1.625 4.058
 1.548 -1.625 4.052
 1.56 -1.624 4.045
 1.571 -1.622 4.035
 1.583 -1.622 4.03
 1.595 -1.621 4.024
 1.609 -1.622 4.021
 1.625 -1.625 4.023
 1.637 -1.624 4.016
 1.649 -1.623 4.009
 1.661 -1.622 4.003
 1.675 -1.624 4.001
 1.687 -1.623 3.994
 1.702 -1.625 3.995
 1.714 -1.624 3.988
 1.73 -1.627 3.99
 1.742 -1.626 3.983
 1.755 -1.626 3.977
 1.763 -1.622 3.961
 1.776 -1.622 3.956
 1.788 -1.621 3.949
 1.799 -1.62 3.941
 1.808 -1.617 3.927
 1.824 -1.619 3.928
 1.835 -1.617 3.917
 1.844 -1.615 3.906
 1.851 -1.609 3.886
 1.859 -1.605 3.872
 1.863 -1.598 3.849
 1.865 -1.589 3.82
 1.863 -1.576 3.785
 1.87 -1.572 3.768
 1.871 -1.563 3.741
 1.871 -1.552 3.711
 1.874 -1.545 3.687
 1.879 -1.538 3.666
 1.878 -1.528 3.635
 1.88 -1.52 3.61
 1.886 -1.515 3.593
 1.887 -1.506 3.566
 1.885 -1.495 3.535
 1.877 -1.48 3.493
 1.88 -1.473 3.47
 1.889 -1.471 3.459
 0 0 0
 0 0 0
 0 0 0
 0 0 0
 0 0 0
 1.794 -1.348 3.137
 1.808 -1.35 3.137
 1.813 -1.346 3.122
 1.823 -1.346 3.116
 1.832 -1.344 3.106
 1.833 -1.338 3.085
 1.832 -1.329 3.06
 1.831 -1.321 3.036
 1.823 -1.308 2.999
 1.8 -1.284 2.939
 1.823 -1.293 2.954
 -2.223 -1.581 3.735
 -2.249 -1.609 3.808
 -2.259 -1.626 3.855
 -2.247 -1.627 3.863
 -2.235 -1.627 3.871
 -2.211 -1.62 3.859
 -2.198 -1.62 3.866
 -2.183 -1.619 3.87
 -2.17 -1.619 3.876
 -2.154 -1.617 3.878
 -2.151 -1.624 3.901
 -2.135 -1.622 3.904
 -2.128 -1.627 3.921
 -2.116 -1.628 3.93
 -2.105 -1.63 3.94
 -2.086 -1.625 3.934
 -2.075 -1.627 3.946
 -2.059 -1.625 3.946
 -2.046 -1.625 3.952
 -2.031 -1.624 3.955
 -2.016 -1.623 3.957
 -2.002 -1.622 3.961
 -1.987 -1.62 3.963
 -1.972 -1.619 3.965
 -1.955 -1.616 3.964
 -1.942 -1.616 3.97
 -1.927 -1.614 3.97
 -1.911 -1.612 3.97
 -1.9 -1.614 3.981
 -1.89 -1.616 3.992
 -1.879 -1.619 4.003
 -1.868 -1.621 4.013
 -1.856 -1.621 4.02
 -1.843 -1.622 4.027
 -1.832 -1.624 4.037
 -1.821 -1.626 4.046
 -1.809 -1.626 4.053
 -1.798 -1.629 4.063
 -1.782 -1.626 4.063
 -1.767 -1.625 4.064
 -1.753 -1.624 4.067
 -1.737 -1.622 4.066
 -1.725 -1.623 4.074
 -1.712 -1.623 4.078
 -1.7 -1.624 4.085
 -1.683 -1.621 4.082
 -1.668 -1.618 4.08
 -1.651 -1.615 4.077
 -1.638 -1.615 4.082
 -1.624 -1.614 4.083
 -1.611 -1.615 4.089
 -1.601 -1.617 4.1
 -1.589 -1.619 4.109
 -1.575 -1.617 4.109
 -1.563 -1.619 4.117
 -1.551 -1.62 4.124
 -1.534 -1.617 4.12
 -1.518 -1.613 4.114
 -1.504 -1.613 4.117
 -1.489 -1.61 4.114
 -1.473 -1.608 4.112
 -1.462 -1.61 4.121
 -1.451 -1.611 4.13
 -1.436 -1.609 4.128
 -1.422 -1.609 4.131
 -1.412 -1.613 4.144
 -1.398 -1.611 4.145
 -1.384 -1.61 4.145
 -1.371 -1.61 4.15
 -1.359 -1.611 4.155
 -1.344 -1.609 4.153
 -1.331 -1.61 4.159
 -1.318 -1.609 4.161
 -1.308 -1.614 4.176
 -1.295 -1.614 4.179
 -1.282 -1.613 4.182
 -1.269 -1.614 4.186
 -1.257 -1.615 4.193
 -1.239 -1.609 4.181
 -1.226 -1.609 4.183
 -1.214 -1.61 4.19
 -1.201 -1.61 4.192
 -1.188 -1.61 4.195
 -1.176 -1.612 4.204
 -1.162 -1.611 4.203
 -1.149 -1.611 4.206
 -1.134 -1.609 4.203
 -1.121 -1.608 4.205
 -1.107 -1.607 4.205
 -1.092 -1.605 4.202
 -1.077 -1.601 4.193
 -1.065 -1.602 4.201
 -1.051 -1.601 4.2
 -1.037 -1.6 4.201
 -1.026 -1.602 4.207
 -1.014 -1.605 4.217
 -1 -1.602 4.213
 -0.987 -1.603 4.216
 -0.974 -1.602 4.218
 -0.96 -1.602 4.219
 -0.945 -1.598 4.21
 -0.931 -1.596 4.208
 -0.916 -1.593 4.203
 -0.904 -1.593 4.205
 -0.891 -1.593 4.207
 -0.879 -1.595 4.214
 -0.866 -1.596 4.219
 -0.852 -1.594 4.216
 -0.839 -1.592 4.214
 -0.825 -1.591 4.211
 -0.812 -1.59 4.212
 -0.799 -1.592 4.218
 -0.788 -1.594 4.226
 -0.775 -1.594 4.227
 -0.763 -1.597 4.237
 -0.75 -1.596 4.238
 -0.737 -1.596 4.239
 -0.724 -1.596 4.239
 -0.712 -1.597 4.246
 -0.698 -1.595 4.24
 -0.685 -1.594 4.241
 -0.671 -1.594 4.24
 -0.659 -1.594 4.244
 -0.646 -1.595 4.246
 -0.633 -1.595 4.25
 -0.62 -1.594 4.247
 -0.607 -1.594 4.248
 -0.593 -1.591 4.243
 -0.579 -1.588 4.236
 -0.565 -1.585 4.229
 -0.553 -1.586 4.232
 -0.539 -1.585 4.23
 -0.527 -1.586 4.235
 -0.515 -1.587 4.24
 -0.502 -1.589 4.246
 -0.489 -1.588 4.244
 -0.476 -1.587 4.242
 -0.463 -1.587 4.244
 -0.451 -1.587 4.245
 -0.437 -1.586 4.243
 -0.425 -1.587 4.246
 -0.412 -1.588 4.249
 -0.399 -1.586 4.244
 -0.386 -1.586 4.246
 -0.373 -1.584 4.242
 -0.36 -1.586 4.247
 -0.347 -1.585 4.244
 -0.334 -1.584 4.243
 -0.321 -1.582 4.238
 -0.308 -1.582 4.239
 -0.295 -1.58 4.233
 -0.282 -1.578 4.23
 -0.269 -1.578 4.23
 -0.257 -1.579 4.233
 -0.244 -1.581 4.239
 -0.232 -1.581 4.239
 -0.219 -1.584 4.247
 -0.206 -1.584 4.248
 -0.194 -1.584 4.248
 -0.181 -1.583 4.248
 -0.168 -1.583 4.246
 -0.155 -1.581 4.241
 -0.142 -1.58 4.239
 -0.129 -1.578 4.234
 -0.116 -1.577 4.231
 -0.104 -1.576 4.23
 -0.091 -1.577 4.233
 -0.078 -1.578 4.235
 -0.066 -1.579 4.236
 -0.053 -1.579 4.237
 -0.04 -1.58 4.239
 -0.028 -1.578 4.234
 -0.015 -1.578 4.234
 -0.002 -1.58 4.239
 0.01 -1.58 4.239
 0.022 -1.581 4.243
 0.035 -1.58 4.239
 0.048 -1.58 4.237
 0.061 -1.579 4.235
 0.073 -1.579 4.234
 0.086 -1.577 4.228
 0.099 -1.577 4.229
 0.111 -1.577 4.229
 0.124 -1.575 4.222
 0.136 -1.574 4.218
 0.149 -1.576 4.225
 0.162 -1.579 4.231
 0.175 -1.58 4.235
 0.188 -1.581 4.236
 0.201 -1.583 4.239
 0.213 -1.582 4.237
 0.226 -1.581 4.233
 0.239 -1.58 4.231
 0.252 -1.581 4.232
 0.264 -1.582 4.233
 0.277 -1.578 4.224
 0.289 -1.58 4.227
 0.302 -1.579 4.223
 0.315 -1.579 4.222
 0.327 -1.575 4.212
 0.34 -1.578 4.218
 0.352 -1.576 4.213
 0.365 -1.577 4.213
 0.378 -1.578 4.214
 0.391 -1.58 4.218
 0.404 -1.579 4.216
 0.417 -1.58 4.216
 0.429 -1.581 4.217
 0.442 -1.58 4.215
 0.455 -1.581 4.217
 0.468 -1.583 4.22
 0.481 -1.584 4.22
 0.494 -1.583 4.217
 0.507 -1.584 4.219
 0.52 -1.586 4.223
 0.533 -1.587 4.223
 0.546 -1.587 4.222
 0.559 -1.588 4.222
 0.572 -1.588 4.221
 0.584 -1.587 4.217
 0.597 -1.587 4.216
 0.61 -1.589 4.218
 0.623 -1.589 4.217
 0.636 -1.589 4.216
 0.649 -1.59 4.215
 0.661 -1.589 4.21
 0.674 -1.588 4.206
 0.687 -1.589 4.208
 0.7 -1.591 4.21
 0.713 -1.591 4.209
 0.726 -1.591 4.208
 0.74 -1.594 4.212
 0.754 -1.595 4.214
 0.765 -1.593 4.207
 0.779 -1.595 4.209
 0.792 -1.595 4.207
 0.805 -1.596 4.206
 0.817 -1.595 4.202
 0.831 -1.596 4.204
 0.843 -1.596 4.199
 0.856 -1.596 4.199
 0.869 -1.595 4.194
 0.88 -1.593 4.185
 0.895 -1.597 4.192
 0.907 -1.596 4.187
 0.92 -1.596 4.185
 0.932 -1.595 4.18
 0.947 -1.598 4.186
 0.96 -1.598 4.184
 0.974 -1.6 4.185
 0.987 -1.601 4.185
 1 -1.601 4.183
 1.012 -1.6 4.177
 1.023 -1.597 4.167
 1.036 -1.598 4.165
 1.05 -1.599 4.165
 1.065 -1.602 4.169
 1.079 -1.604 4.172
 1.094 -1.607 4.177
 1.107 -1.608 4.177
 1.12 -1.608 4.173
 1.133 -1.608 4.169
 1.145 -1.607 4.163
 1.157 -1.605 4.156
 1.169 -1.605 4.152
 1.183 -1.606 4.152
 1.196 -1.606 4.148
 1.21 -1.608 4.15
 1.224 -1.609 4.149
 1.238 -1.611 4.15
 1.251 -1.61 4.145
 1.264 -1.611 4.144
 1.277 -1.611 4.14
 1.29 -1.612 4.138
 1.304 -1.613 4.137
 1.319 -1.616 4.141
 1.335 -1.619 4.146
 1.349 -1.62 4.144
 1.363 -1.621 4.143
 1.376 -1.621 4.14
 1.388 -1.62 4.133
 1.399 -1.618 4.123
 1.412 -1.619 4.121
 1.425 -1.618 4.116
 1.44 -1.621 4.118
 1.453 -1.621 4.113
 1.467 -1.622 4.113
 1.478 -1.62 4.104
 1.491 -1.62 4.1
 1.501 -1.617 4.087
 1.517 -1.62 4.09
 1.529 -1.62 4.085
 1.545 -1.622 4.086
 1.558 -1.622 4.082
 1.57 -1.622 4.077
 1.581 -1.619 4.066
 1.596 -1.621 4.066
 1.608 -1.621 4.061
 1.622 -1.622 4.059
 1.637 -1.624 4.059
 1.651 -1.624 4.055
 1.66 -1.621 4.042
 1.67 -1.618 4.03
 1.683 -1.619 4.026
 1.696 -1.618 4.019
 1.71 -1.619 4.017
 1.723 -1.62 4.013
 1.74 -1.623 4.017
 1.752 -1.622 4.01
 1.765 -1.623 4.006
 1.773 -1.618 3.988
 1.787 -1.619 3.985
 1.798 -1.617 3.976
 1.81 -1.617 3.969
 1.819 -1.613 3.955
 1.834 -1.615 3.954
 1.844 -1.612 3.942
 1.855 -1.611 3.933
 1.859 -1.603 3.908
 1.865 -1.597 3.888
 1.868 -1.589 3.863
 1.868 -1.579 3.832
 1.865 -1.566 3.795
 1.872 -1.561 3.778
 1.875 -1.553 3.752
 1.875 -1.543 3.723
 1.878 -1.536 3.699
 1.882 -1.529 3.678
 1.881 -1.518 3.646
 1.885 -1.512 3.624
 1.89 -1.506 3.604
 1.892 -1.499 3.581
 1.893 -1.49 3.554
 1.894 -1.482 3.529
 1.9 -1.476 3.511
 0 0 0
 0 0 0
 0 0 0
 0 0 0
 0 0 0
 0 0 0
 1.816 -1.353 3.178
 1.813 -1.343 3.149
 1.819 -1.34 3.136
 1.827 -1.338 3.126
 1.833 -1.334 3.112
 1.831 -1.325 3.085
 1.835 -1.32 3.068
 1.831 -1.311 3.04
 1.824 -1.298 3.005
 1.815 -1.284 2.967
 1.821 -1.281 2.955
 -2.317 -1.634 3.899
 0 0 0
 -2.278 -1.626 3.892
 -2.265 -1.627 3.9
 -2.247 -1.623 3.898
 -2.224 -1.616 3.888
 -2.208 -1.614 3.89
 -2.197 -1.615 3.899
 -2.182 -1.614 3.902
 -2.166 -1.613 3.904
 -2.16 -1.618 3.924
 -2.146 -1.617 3.928
 -2.136 -1.62 3.941
 -2.126 -1.623 3.953
 -2.117 -1.626 3.967
 -2.099 -1.622 3.964
 -2.089 -1.625 3.976
 -2.074 -1.624 3.98
 -2.059 -1.622 3.983
 -2.045 -1.622 3.987
 -2.031 -1.621 3.992
 -2.014 -1.619 3.991
 -1.998 -1.616 3.991
 -1.985 -1.617 3.997
 -1.971 -1.616 4
 -1.957 -1.615 4.005
 -1.944 -1.615 4.011
 -1.93 -1.615 4.015
 -1.92 -1.618 4.027
 -1.905 -1.617 4.03
 -1.895 -1.619 4.041
 -1.883 -1.62 4.049
 -1.87 -1.62 4.055
 -1.856 -1.62 4.06
 -1.846 -1.623 4.071
 -1.835 -1.625 4.081
 -1.822 -1.625 4.087
 -1.808 -1.625 4.092
 -1.79 -1.621 4.087
 -1.776 -1.62 4.09
 -1.76 -1.617 4.087
 -1.743 -1.614 4.083
 -1.731 -1.615 4.092
 -1.72 -1.617 4.101
 -1.708 -1.618 4.109
 -1.693 -1.616 4.109
 -1.679 -1.616 4.113
 -1.665 -1.615 4.116
 -1.652 -1.616 4.121
 -1.639 -1.616 4.125
 -1.626 -1.616 4.131
 -1.614 -1.618 4.139
 -1.6 -1.617 4.141
 -1.586 -1.616 4.144
 -1.573 -1.616 4.148
 -1.56 -1.617 4.155
 -1.545 -1.614 4.152
 -1.529 -1.612 4.151
 -1.514 -1.61 4.15
 -1.497 -1.606 4.144
 -1.482 -1.604 4.142
 -1.47 -1.605 4.149
 -1.459 -1.608 4.158
 -1.444 -1.606 4.157
 -1.43 -1.605 4.16
 -1.42 -1.609 4.173
 -1.407 -1.609 4.177
 -1.392 -1.607 4.175
 -1.378 -1.606 4.177
 -1.366 -1.607 4.183
 -1.351 -1.604 4.179
 -1.336 -1.603 4.18
 -1.323 -1.602 4.181
 -1.313 -1.606 4.195
 -1.299 -1.606 4.197
 -1.286 -1.606 4.2
 -1.274 -1.607 4.207
 -1.261 -1.607 4.212
 -1.247 -1.606 4.211
 -1.234 -1.607 4.215
 -1.221 -1.607 4.219
 -1.206 -1.604 4.216
 -1.192 -1.604 4.217
 -1.178 -1.602 4.216
 -1.165 -1.602 4.219
 -1.152 -1.602 4.223
 -1.14 -1.603 4.227
 -1.127 -1.604 4.231
 -1.113 -1.602 4.231
 -1.097 -1.598 4.224
 -1.081 -1.594 4.215
 -1.068 -1.595 4.219
 -1.054 -1.593 4.217
 -1.04 -1.592 4.217
 -1.028 -1.592 4.22
 -1.016 -1.594 4.229
 -1.002 -1.592 4.225
 -0.989 -1.593 4.229
 -0.976 -1.594 4.234
 -0.964 -1.595 4.241
 -0.95 -1.593 4.236
 -0.936 -1.592 4.236
 -0.922 -1.589 4.231
 -0.908 -1.588 4.23
 -0.895 -1.588 4.232
 -0.882 -1.588 4.236
 -0.87 -1.589 4.241
 -0.856 -1.589 4.241
 -0.842 -1.586 4.236
 -0.828 -1.584 4.233
 -0.815 -1.584 4.235
 -0.802 -1.584 4.236
 -0.79 -1.585 4.24
 -0.776 -1.584 4.24
 -0.764 -1.585 4.245
 -0.75 -1.584 4.244
 -0.737 -1.584 4.246
 -0.724 -1.584 4.246
 -0.713 -1.587 4.258
 -0.698 -1.584 4.249
 -0.686 -1.584 4.251
 -0.672 -1.583 4.251
 -0.66 -1.585 4.256
 -0.647 -1.584 4.256
 -0.635 -1.586 4.262
 -0.621 -1.584 4.258
 -0.608 -1.583 4.258
 -0.594 -1.581 4.255
 -0.581 -1.579 4.251
 -0.567 -1.577 4.246
 -0.554 -1.578 4.249
 -0.541 -1.577 4.248
 -0.528 -1.577 4.25
 -0.516 -1.577 4.251
 -0.503 -1.578 4.256
 -0.49 -1.578 4.256
 -0.477 -1.577 4.253
 -0.464 -1.577 4.255
 -0.451 -1.577 4.255
 -0.438 -1.575 4.252
 -0.425 -1.575 4.253
 -0.412 -1.574 4.251
 -0.398 -1.572 4.246
 -0.386 -1.572 4.248
 -0.373 -1.572 4.249
 -0.36 -1.573 4.252
 -0.348 -1.573 4.253
 -0.335 -1.573 4.253
 -0.322 -1.573 4.253
 -0.309 -1.572 4.251
 -0.296 -1.571 4.25
 -0.283 -1.571 4.249
 -0.27 -1.569 4.245
 -0.257 -1.568 4.244
 -0.245 -1.57 4.249
 -0.232 -1.57 4.25
 -0.219 -1.572 4.253
 -0.207 -1.574 4.26
 -0.194 -1.572 4.256
 -0.181 -1.572 4.256
 -0.168 -1.57 4.25
 -0.155 -1.569 4.247
 -0.142 -1.565 4.239
 -0.129 -1.565 4.237
 -0.116 -1.563 4.233
 -0.104 -1.563 4.233
 -0.091 -1.565 4.238
 -0.078 -1.566 4.241
 -0.066 -1.567 4.243
 -0.053 -1.568 4.246
 -0.04 -1.568 4.246
 -0.027 -1.566 4.241
 -0.015 -1.566 4.241
 -0.002 -1.568 4.245
 0.01 -1.567 4.244
 0.023 -1.57 4.25
 0.035 -1.57 4.25
 0.048 -1.569 4.247
 0.061 -1.568 4.245
 0.073 -1.566 4.238
 0.086 -1.563 4.231
 0.099 -1.563 4.229
 0.111 -1.563 4.228
 0.124 -1.562 4.225
 0.137 -1.562 4.225
 0.149 -1.565 4.232
 0.162 -1.566 4.235
 0.175 -1.569 4.242
 0.188 -1.569 4.243
 0.201 -1.571 4.247
 0.214 -1.57 4.243
 0.226 -1.57 4.242
 0.239 -1.568 4.237
 0.252 -1.568 4.235
 0.265 -1.569 4.238
 0.277 -1.567 4.232
 0.29 -1.569 4.235
 0.303 -1.569 4.234
 0.315 -1.569 4.234
 0.328 -1.566 4.226
 0.341 -1.568 4.23
 0.353 -1.566 4.224
 0.366 -1.567 4.225
 0.379 -1.568 4.227
 0.392 -1.57 4.23
 0.405 -1.57 4.23
 0.417 -1.57 4.228
 0.43 -1.57 4.228
 0.443 -1.57 4.227
 0.456 -1.571 4.227
 0.469 -1.571 4.226
 0.482 -1.572 4.228
 0.494 -1.571 4.224
 0.507 -1.571 4.222
 0.52 -1.572 4.224
 0.533 -1.574 4.226
 0.546 -1.574 4.225
 0.559 -1.574 4.224
 0.572 -1.575 4.226
 0.585 -1.576 4.225
 0.597 -1.575 4.22
 0.61 -1.576 4.222
 0.623 -1.576 4.221
 0.636 -1.577 4.221
 0.649 -1.576 4.218
 0.661 -1.576 4.215
 0.674 -1.577 4.215
 0.688 -1.578 4.217
 0.701 -1.579 4.217
 0.714 -1.58 4.217
 0.727 -1.58 4.217
 0.741 -1.582 4.219
 0.754 -1.584 4.222
 0.766 -1.582 4.216
 0.779 -1.583 4.215
 0.793 -1.584 4.215
 0.805 -1.583 4.211
 0.818 -1.583 4.209
 0.832 -1.585 4.211
 0.844 -1.584 4.207
 0.857 -1.585 4.207
 0.87 -1.586 4.206
 0.882 -1.583 4.196
 0.896 -1.585 4.2
 0.909 -1.585 4.198
 0.922 -1.586 4.198
 0.934 -1.585 4.193
 0.95 -1.59 4.202
 0.962 -1.589 4.198
 0.976 -1.591 4.199
 0.99 -1.592 4.2
 1.003 -1.592 4.197
 1.014 -1.59 4.189
 1.027 -1.589 4.184
 1.04 -1.59 4.182
 1.052 -1.59 4.179
 1.067 -1.592 4.183
 1.081 -1.594 4.185
 1.096 -1.597 4.19
 1.11 -1.599 4.19
 1.123 -1.599 4.187
 1.136 -1.599 4.185
 1.148 -1.598 4.179
 1.161 -1.598 4.176
 1.173 -1.597 4.17
 1.187 -1.599 4.171
 1.2 -1.598 4.167
 1.215 -1.601 4.17
 1.228 -1.601 4.166
 1.242 -1.603 4.169
 1.255 -1.603 4.166
 1.269 -1.605 4.166
 1.283 -1.605 4.164
 1.296 -1.606 4.161
 1.311 -1.608 4.164
 1.325 -1.61 4.164
 1.34 -1.612 4.167
 1.354 -1.613 4.164
 1.368 -1.614 4.164
 1.38 -1.613 4.157
 1.393 -1.613 4.153
 1.404 -1.611 4.144
 1.418 -1.612 4.141
 1.431 -1.612 4.138
 1.446 -1.615 4.14
 1.459 -1.615 4.137
 1.474 -1.616 4.137
 1.486 -1.616 4.13
 1.499 -1.615 4.125
 1.51 -1.614 4.117
 1.525 -1.615 4.116
 1.538 -1.615 4.112
 1.553 -1.617 4.112
 1.566 -1.617 4.107
 1.577 -1.616 4.1
 1.588 -1.614 4.089
 1.602 -1.615 4.087
 1.615 -1.615 4.082
 1.63 -1.616 4.082
 1.645 -1.618 4.082
 1.659 -1.619 4.08
 1.67 -1.618 4.071
 1.68 -1.615 4.058
 1.693 -1.614 4.053
 1.705 -1.614 4.047
 1.72 -1.616 4.047
 1.734 -1.616 4.042
 1.751 -1.62 4.047
 1.763 -1.62 4.04
 1.776 -1.619 4.034
 1.784 -1.615 4.018
 1.797 -1.615 4.012
 1.807 -1.613 4.001
 1.818 -1.61 3.99
 1.828 -1.608 3.978
 1.841 -1.608 3.974
 1.85 -1.604 3.959
 1.861 -1.603 3.951
 1.867 -1.597 3.929
 1.871 -1.59 3.907
 1.873 -1.58 3.877
 1.876 -1.572 3.852
 1.873 -1.559 3.814
 1.878 -1.553 3.793
 1.88 -1.544 3.766
 1.881 -1.536 3.739
 1.883 -1.527 3.713
 1.888 -1.521 3.693
 1.886 -1.51 3.659
 1.89 -1.503 3.638
 1.895 -1.498 3.62
 1.897 -1.49 3.595
 1.897 -1.481 3.567
 0 0 0
 0 0 0
 0 0 0
 0 0 0
 0 0 0
 0 0 0
 0 0 0
 0 0 0
 1.815 -1.341 3.18
 1.811 -1.331 3.15
 1.817 -1.328 3.137
 1.825 -1.326 3.127
 1.834 -1.325 3.118
 1.833 -1.316 3.092
 1.838 -1.312 3.077
 1.834 -1.302 3.049
 1.828 -1.29 3.015
 1.807 -1.269 2.958
 1.781 -1.243 2.894
 -2.301 -1.61 3.878
 -2.337 -1.645 3.969
 -2.294 -1.624 3.924
 -2.281 -1.624 3.932
 -2.26 -1.619 3.926
 -2.241 -1.615 3.923
 -2.224 -1.612 3.922
 -2.213 -1.614 3.933
 -2.198 -1.613 3.937
 -2.186 -1.614 3.945
 -2.175 -1.616 3.956
 -2.162 -1.616 3.963
 -2.151 -1.618 3.974
 -2.141 -1.621 3.986
 -2.129 -1.622 3.996
 -2.112 -1.619 3.995
 -2.1 -1.62 4.002
 -2.085 -1.619 4.006
 -2.071 -1.618 4.01
 -2.059 -1.619 4.019
 -2.047 -1.62 4.027
 -2.032 -1.619 4.03
 -2.016 -1.617 4.031
 -2.003 -1.618 4.039
 -1.986 -1.615 4.036
 -1.972 -1.614 4.04
 -1.959 -1.614 4.046
 -1.946 -1.615 4.053
 -1.934 -1.616 4.062
 -1.92 -1.616 4.066
 -1.908 -1.617 4.074
 -1.895 -1.617 4.081
 -1.881 -1.617 4.085
 -1.865 -1.614 4.084
 -1.853 -1.615 4.091
 -1.842 -1.617 4.102
 -1.828 -1.617 4.105
 -1.814 -1.617 4.11
 -1.798 -1.615 4.11
 -1.787 -1.616 4.119
 -1.77 -1.613 4.116
 -1.754 -1.611 4.116
 -1.743 -1.613 4.125
 -1.731 -1.614 4.132
 -1.721 -1.617 4.145
 -1.706 -1.616 4.146
 -1.693 -1.616 4.152
 -1.678 -1.614 4.152
 -1.666 -1.616 4.16
 -1.649 -1.612 4.155
 -1.637 -1.614 4.164
 -1.625 -1.615 4.171
 -1.609 -1.613 4.171
 -1.596 -1.613 4.174
 -1.583 -1.613 4.18
 -1.57 -1.614 4.186
 -1.553 -1.61 4.18
 -1.54 -1.61 4.184
 -1.523 -1.607 4.179
 -1.506 -1.603 4.173
 -1.49 -1.6 4.169
 -1.479 -1.602 4.178
 -1.467 -1.603 4.186
 -1.454 -1.604 4.191
 -1.441 -1.604 4.195
 -1.43 -1.606 4.205
 -1.416 -1.606 4.209
 -1.4 -1.603 4.203
 -1.386 -1.602 4.205
 -1.374 -1.603 4.211
 -1.36 -1.602 4.212
 -1.345 -1.6 4.211
 -1.331 -1.599 4.212
 -1.318 -1.6 4.217
 -1.305 -1.599 4.219
 -1.291 -1.599 4.223
 -1.279 -1.6 4.228
 -1.266 -1.6 4.231
 -1.252 -1.6 4.235
 -1.24 -1.602 4.241
 -1.226 -1.6 4.24
 -1.211 -1.597 4.236
 -1.197 -1.596 4.237
 -1.182 -1.594 4.235
 -1.168 -1.593 4.233
 -1.155 -1.593 4.238
 -1.142 -1.594 4.242
 -1.131 -1.596 4.251
 -1.116 -1.594 4.247
 -1.1 -1.59 4.241
 -1.084 -1.585 4.229
 -1.072 -1.587 4.236
 -1.057 -1.584 4.232
 -1.043 -1.584 4.234
 -1.031 -1.585 4.24
 -1.02 -1.587 4.249
 -1.004 -1.584 4.242
 -0.992 -1.584 4.246
 -0.979 -1.586 4.252
 -0.967 -1.587 4.257
 -0.953 -1.585 4.255
 -0.94 -1.585 4.256
 -0.925 -1.582 4.251
 -0.911 -1.581 4.25
 -0.897 -1.58 4.249
 -0.885 -1.58 4.252
 -0.871 -1.58 4.254
 -0.858 -1.579 4.254
 -0.844 -1.577 4.249
 -0.83 -1.575 4.247
 -0.817 -1.574 4.247
 -0.804 -1.574 4.249
 -0.791 -1.574 4.25
 -0.777 -1.573 4.25
 -0.764 -1.572 4.25
 -0.751 -1.573 4.252
 -0.738 -1.572 4.252
 -0.724 -1.57 4.249
 -0.713 -1.574 4.261
 -0.699 -1.571 4.255
 -0.685 -1.57 4.254
 -0.673 -1.571 4.257
 -0.661 -1.573 4.265
 -0.647 -1.572 4.263
 -0.635 -1.574 4.27
 -0.622 -1.574 4.271
 -0.609 -1.573 4.27
 -0.595 -1.572 4.268
 -0.582 -1.57 4.266
 -0.568 -1.568 4.261
 -0.555 -1.568 4.26
 -0.542 -1.568 4.263
 -0.53 -1.568 4.265
 -0.516 -1.567 4.262
 -0.504 -1.567 4.264
 -0.491 -1.568 4.267
 -0.477 -1.565 4.26
 -0.464 -1.563 4.256
 -0.451 -1.563 4.258
 -0.438 -1.563 4.258
 -0.425 -1.562 4.255
 -0.412 -1.561 4.255
 -0.399 -1.562 4.257
 -0.387 -1.563 4.261
 -0.374 -1.562 4.26
 -0.361 -1.563 4.264
 -0.348 -1.564 4.266
 -0.335 -1.563 4.265
 -0.322 -1.561 4.26
 -0.309 -1.561 4.259
 -0.296 -1.561 4.259
 -0.283 -1.559 4.257
 -0.27 -1.559 4.256
 -0.258 -1.559 4.257
 -0.245 -1.56 4.261
 -0.232 -1.56 4.259
 -0.22 -1.561 4.265
 -0.207 -1.562 4.265
 -0.194 -1.559 4.26
 -0.181 -1.558 4.256
 -0.168 -1.556 4.252
 -0.155 -1.554 4.245
 -0.142 -1.551 4.237
 -0.129 -1.552 4.239
 -0.116 -1.551 4.238
 -0.104 -1.55 4.237
 -0.091 -1.552 4.241
 -0.078 -1.555 4.249
 -0.066 -1.555 4.248
 -0.053 -1.554 4.247
 -0.04 -1.554 4.247
 -0.027 -1.554 4.245
 -0.015 -1.552 4.24
 -0.002 -1.553 4.243
 0.01 -1.554 4.247
 0.023 -1.555 4.25
 0.035 -1.555 4.248
 0.048 -1.556 4.251
 0.061 -1.554 4.246
 0.073 -1.551 4.236
 0.086 -1.55 4.234
 0.099 -1.549 4.231
 0.111 -1.549 4.228
 0.124 -1.549 4.229
 0.137 -1.55 4.232
 0.15 -1.552 4.237
 0.162 -1.553 4.24
 0.175 -1.555 4.243
 0.188 -1.556 4.245
 0.201 -1.556 4.244
 0.214 -1.555 4.243
 0.226 -1.555 4.241
 0.239 -1.555 4.24
 0.251 -1.554 4.236
 0.264 -1.555 4.239
 0.277 -1.553 4.232
 0.29 -1.555 4.237
 0.302 -1.555 4.235
 0.315 -1.555 4.234
 0.327 -1.553 4.227
 0.34 -1.552 4.225
 0.352 -1.55 4.218
 0.365 -1.551 4.219
 0.378 -1.552 4.222
 0.391 -1.554 4.225
 0.404 -1.555 4.227
 0.417 -1.556 4.229
 0.43 -1.556 4.228
 0.443 -1.556 4.226
 0.456 -1.557 4.228
 0.469 -1.559 4.232
 0.481 -1.558 4.227
 0.494 -1.557 4.225
 0.506 -1.557 4.222
 0.519 -1.558 4.224
 0.533 -1.56 4.227
 0.546 -1.56 4.227
 0.559 -1.561 4.227
 0.571 -1.561 4.226
 0.585 -1.562 4.227
 0.597 -1.562 4.224
 0.61 -1.563 4.225
 0.623 -1.563 4.224
 0.637 -1.565 4.229
 0.65 -1.566 4.227
 0.662 -1.564 4.221
 0.675 -1.565 4.222
 0.689 -1.567 4.225
 0.701 -1.566 4.221
 0.714 -1.566 4.219
 0.727 -1.567 4.22
 0.74 -1.568 4.22
 0.754 -1.569 4.221
 0.767 -1.57 4.221
 0.78 -1.571 4.221
 0.794 -1.572 4.224
 0.806 -1.572 4.221
 0.82 -1.573 4.221
 0.833 -1.574 4.221
 0.845 -1.573 4.215
 0.858 -1.574 4.216
 0.871 -1.573 4.212
 0.882 -1.571 4.203
 0.896 -1.573 4.206
 0.91 -1.574 4.206
 0.922 -1.574 4.203
 0.935 -1.573 4.199
 0.95 -1.577 4.207
 0.962 -1.576 4.201
 0.976 -1.577 4.201
 0.99 -1.579 4.203
 1.003 -1.58 4.204
 1.015 -1.579 4.197
 1.028 -1.578 4.193
 1.042 -1.581 4.197
 1.055 -1.581 4.194
 1.069 -1.583 4.196
 1.084 -1.585 4.198
 1.099 -1.588 4.204
 1.112 -1.589 4.203
 1.124 -1.587 4.196
 1.138 -1.588 4.195
 1.15 -1.587 4.189
 1.163 -1.587 4.187
 1.174 -1.585 4.177
 1.19 -1.589 4.184
 1.203 -1.589 4.181
 1.218 -1.591 4.184
 1.231 -1.591 4.18
 1.247 -1.596 4.189
 1.26 -1.595 4.183
 1.274 -1.597 4.184
 1.288 -1.599 4.185
 1.302 -1.599 4.183
 1.316 -1.601 4.184
 1.331 -1.604 4.187
 1.345 -1.605 4.185
 1.358 -1.605 4.181
 1.373 -1.607 4.183
 1.384 -1.604 4.173
 1.397 -1.604 4.168
 1.409 -1.604 4.163
 1.423 -1.604 4.159
 1.436 -1.604 4.155
 1.452 -1.607 4.16
 1.465 -1.608 4.157
 1.479 -1.609 4.155
 1.492 -1.608 4.15
 1.504 -1.608 4.144
 1.516 -1.606 4.135
 1.53 -1.607 4.134
 1.544 -1.608 4.132
 1.559 -1.611 4.133
 1.574 -1.612 4.133
 1.586 -1.612 4.127
 1.597 -1.609 4.117
 1.611 -1.61 4.113
 1.624 -1.61 4.109
 1.638 -1.612 4.108
 1.652 -1.612 4.103
 1.666 -1.613 4.103
 1.678 -1.612 4.094
 1.688 -1.609 4.083
 1.702 -1.61 4.079
 1.716 -1.61 4.075
 1.729 -1.611 4.072
 1.743 -1.612 4.068
 1.758 -1.613 4.067
 1.77 -1.613 4.061
 1.783 -1.612 4.054
 1.794 -1.61 4.044
 1.808 -1.611 4.04
 1.819 -1.61 4.032
 1.828 -1.606 4.017
 1.838 -1.603 4.004
 1.85 -1.602 3.996
 1.856 -1.597 3.978
 1.867 -1.595 3.968
 1.874 -1.59 3.949
 1.877 -1.582 3.924
 1.876 -1.57 3.889
 1.878 -1.561 3.86
 1.873 -1.547 3.82
 1.876 -1.539 3.794
 1.88 -1.533 3.773
 1.885 -1.527 3.752
 1.889 -1.52 3.73
 1.897 -1.516 3.714
 1.897 -1.506 3.685
 1.9 -1.499 3.663
 1.902 -1.491 3.637
 1.904 -1.483 3.612
 0 0 0
 0 0 0
 0 0 0
 0 0 0
 0 0 0
 0 0 0
 0 0 0
 0 0 0
 0 0 0
 0 0 0
 1.816 -1.323 3.162
 1.821 -1.32 3.148
 1.831 -1.319 3.14
 1.84 -1.318 3.132
 1.839 -1.31 3.107
 1.843 -1.305 3.09
 1.841 -1.296 3.063
 1.831 -1.282 3.024
 1.836 -1.278 3.009
 1.8 -1.246 2.927
 -2.332 -1.618 3.934
 -2.36 -1.647 4.012
 -2.305 -1.618 3.949
 -2.292 -1.619 3.956
 -2.272 -1.614 3.951
 -2.257 -1.613 3.955
 -2.241 -1.612 3.958
 -2.231 -1.614 3.97
 -2.215 -1.612 3.972
 -2.204 -1.614 3.982
 -2.193 -1.616 3.993
 -2.181 -1.617 4.003
 -2.168 -1.617 4.01
 -2.157 -1.619 4.021
 -2.144 -1.619 4.028
 -2.126 -1.616 4.025
 -2.112 -1.616 4.03
 -2.099 -1.616 4.037
 -2.086 -1.617 4.045
 -2.072 -1.617 4.05
 -2.062 -1.619 4.063
 -2.046 -1.617 4.064
 -2.033 -1.617 4.07
 -2.019 -1.617 4.075
 -2.003 -1.615 4.076
 -1.986 -1.612 4.074
 -1.973 -1.613 4.082
 -1.961 -1.614 4.09
 -1.95 -1.616 4.101
 -1.936 -1.616 4.104
 -1.926 -1.619 4.118
 -1.912 -1.618 4.122
 -1.897 -1.617 4.123
 -1.88 -1.614 4.122
 -1.865 -1.613 4.124
 -1.853 -1.614 4.131
 -1.839 -1.614 4.136
 -1.824 -1.613 4.138
 -1.809 -1.611 4.139
 -1.799 -1.614 4.152
 -1.783 -1.611 4.15
 -1.768 -1.611 4.153
 -1.757 -1.613 4.163
 -1.744 -1.613 4.169
 -1.734 -1.616 4.183
 -1.718 -1.613 4.18
 -1.704 -1.613 4.184
 -1.687 -1.61 4.181
 -1.673 -1.609 4.183
 -1.655 -1.605 4.175
 -1.643 -1.606 4.183
 -1.628 -1.605 4.185
 -1.616 -1.607 4.193
 -1.606 -1.609 4.205
 -1.592 -1.609 4.209
 -1.58 -1.611 4.218
 -1.564 -1.608 4.215
 -1.548 -1.605 4.211
 -1.53 -1.6 4.202
 -1.515 -1.599 4.202
 -1.5 -1.597 4.202
 -1.488 -1.598 4.209
 -1.476 -1.6 4.216
 -1.463 -1.601 4.223
 -1.449 -1.599 4.223
 -1.435 -1.599 4.227
 -1.422 -1.599 4.229
 -1.406 -1.596 4.226
 -1.392 -1.596 4.228
 -1.38 -1.597 4.234
 -1.366 -1.596 4.236
 -1.351 -1.594 4.235
 -1.337 -1.593 4.236
 -1.325 -1.594 4.242
 -1.311 -1.593 4.243
 -1.297 -1.593 4.245
 -1.284 -1.594 4.251
 -1.272 -1.594 4.256
 -1.257 -1.593 4.254
 -1.244 -1.593 4.258
 -1.228 -1.59 4.254
 -1.214 -1.588 4.252
 -1.2 -1.587 4.252
 -1.185 -1.586 4.251
 -1.171 -1.585 4.251
 -1.159 -1.586 4.258
 -1.146 -1.586 4.259
 -1.133 -1.586 4.263
 -1.119 -1.585 4.263
 -1.103 -1.582 4.257
 -1.088 -1.578 4.25
 -1.075 -1.579 4.255
 -1.062 -1.578 4.256
 -1.048 -1.578 4.257
 -1.035 -1.578 4.261
 -1.023 -1.579 4.265
 -1.008 -1.576 4.26
 -0.994 -1.575 4.261
 -0.981 -1.575 4.263
 -0.969 -1.577 4.269
 -0.956 -1.577 4.272
 -0.942 -1.576 4.271
 -0.927 -1.572 4.265
 -0.913 -1.572 4.265
 -0.899 -1.569 4.26
 -0.886 -1.569 4.261
 -0.872 -1.568 4.262
 -0.859 -1.568 4.264
 -0.845 -1.566 4.261
 -0.832 -1.565 4.259
 -0.818 -1.564 4.257
 -0.805 -1.564 4.259
 -0.792 -1.564 4.264
 -0.779 -1.564 4.263
 -0.765 -1.562 4.261
 -0.752 -1.563 4.264
 -0.739 -1.562 4.263
 -0.725 -1.559 4.256
 -0.713 -1.561 4.265
 -0.699 -1.56 4.264
 -0.686 -1.558 4.26
 -0.673 -1.558 4.263
 -0.661 -1.56 4.269
 -0.647 -1.558 4.265
 -0.634 -1.559 4.268
 -0.621 -1.559 4.271
 -0.608 -1.559 4.27
 -0.595 -1.557 4.268
 -0.582 -1.558 4.272
 -0.569 -1.556 4.268
 -0.556 -1.557 4.271
 -0.542 -1.555 4.268
 -0.53 -1.555 4.269
 -0.516 -1.554 4.265
 -0.504 -1.555 4.269
 -0.491 -1.554 4.27
 -0.477 -1.553 4.267
 -0.464 -1.552 4.265
 -0.451 -1.55 4.26
 -0.438 -1.55 4.261
 -0.424 -1.547 4.255
 -0.412 -1.548 4.258
 -0.399 -1.549 4.26
 -0.387 -1.552 4.27
 -0.374 -1.551 4.269
 -0.361 -1.552 4.272
 -0.348 -1.55 4.267
 -0.335 -1.55 4.269
 -0.322 -1.549 4.264
 -0.309 -1.548 4.262
 -0.296 -1.548 4.265
 -0.283 -1.548 4.265
 -0.271 -1.547 4.264
 -0.258 -1.547 4.263
 -0.245 -1.547 4.264
 -0.232 -1.547 4.263
 -0.219 -1.548 4.267
 -0.207 -1.548 4.268
 -0.194 -1.546 4.262
 -0.181 -1.544 4.257
 -0.168 -1.542 4.253
 -0.155 -1.541 4.25
 -0.142 -1.538 4.24
 -0.129 -1.539 4.244
 -0.116 -1.539 4.244
 -0.104 -1.539 4.244
 -0.091 -1.539 4.245
 -0.078 -1.542 4.253
 -0.066 -1.542 4.252
 -0.053 -1.543 4.255
 -0.04 -1.542 4.253
 -0.027 -1.541 4.249
 -0.015 -1.539 4.245
 -0.002 -1.541 4.248
 0.01 -1.541 4.249
 0.023 -1.542 4.252
 0.035 -1.542 4.252
 0.048 -1.543 4.255
 0.061 -1.541 4.248
 0.073 -1.538 4.241
 0.086 -1.537 4.237
 0.099 -1.537 4.236
 0.111 -1.535 4.229
 0.124 -1.534 4.226
 0.137 -1.535 4.228
 0.149 -1.537 4.233
 0.162 -1.537 4.233
 0.175 -1.538 4.237
 0.188 -1.541 4.242
 0.201 -1.54 4.241
 0.213 -1.541 4.241
 0.226 -1.542 4.243
 0.239 -1.543 4.245
 0.252 -1.541 4.24
 0.265 -1.543 4.244
 0.277 -1.541 4.239
 0.29 -1.542 4.24
 0.303 -1.542 4.239
 0.315 -1.543 4.24
 0.328 -1.542 4.236
 0.34 -1.54 4.23
 0.353 -1.539 4.226
 0.365 -1.538 4.224
 0.378 -1.539 4.224
 0.391 -1.54 4.226
 0.404 -1.542 4.231
 0.417 -1.544 4.233
 0.43 -1.543 4.231
 0.443 -1.544 4.231
 0.456 -1.544 4.232
 0.469 -1.545 4.234
 0.481 -1.545 4.231
 0.494 -1.546 4.234
 0.507 -1.545 4.229
 0.52 -1.546 4.229
 0.533 -1.547 4.231
 0.546 -1.547 4.23
 0.558 -1.547 4.228
 0.572 -1.549 4.231
 0.585 -1.551 4.235
 0.598 -1.55 4.232
 0.611 -1.551 4.233
 0.624 -1.551 4.23
 0.637 -1.552 4.231
 0.649 -1.551 4.227
 0.661 -1.549 4.22
 0.674 -1.549 4.218
 0.687 -1.551 4.222
 0.7 -1.551 4.218
 0.713 -1.551 4.216
 0.727 -1.553 4.221
 0.74 -1.555 4.223
 0.754 -1.556 4.226
 0.767 -1.557 4.225
 0.78 -1.557 4.224
 0.793 -1.559 4.225
 0.806 -1.559 4.225
 0.82 -1.56 4.225
 0.834 -1.562 4.228
 0.846 -1.562 4.226
 0.86 -1.564 4.227
 0.872 -1.562 4.221
 0.884 -1.56 4.213
 0.897 -1.562 4.215
 0.912 -1.564 4.218
 0.924 -1.564 4.214
 0.937 -1.564 4.213
 0.951 -1.566 4.217
 0.964 -1.565 4.211
 0.976 -1.565 4.208
 0.991 -1.568 4.212
 1.005 -1.569 4.214
 1.018 -1.569 4.211
 1.03 -1.569 4.207
 1.044 -1.571 4.209
 1.057 -1.571 4.206
 1.071 -1.572 4.205
 1.085 -1.574 4.208
 1.1 -1.576 4.212
 1.114 -1.578 4.212
 1.125 -1.576 4.205
 1.14 -1.578 4.206
 1.152 -1.576 4.2
 1.165 -1.577 4.196
 1.175 -1.573 4.184
 1.19 -1.577 4.19
 1.203 -1.577 4.186
 1.218 -1.579 4.188
 1.231 -1.579 4.187
 1.248 -1.584 4.196
 1.26 -1.583 4.191
 1.275 -1.585 4.192
 1.289 -1.587 4.192
 1.303 -1.588 4.191
 1.318 -1.59 4.194
 1.334 -1.593 4.198
 1.347 -1.593 4.194
 1.36 -1.594 4.193
 1.376 -1.597 4.195
 1.386 -1.593 4.183
 1.398 -1.593 4.177
 1.412 -1.594 4.175
 1.425 -1.593 4.171
 1.438 -1.593 4.166
 1.454 -1.597 4.171
 1.468 -1.598 4.17
 1.482 -1.599 4.168
 1.496 -1.6 4.166
 1.509 -1.6 4.162
 1.521 -1.598 4.153
 1.535 -1.599 4.151
 1.549 -1.6 4.149
 1.563 -1.601 4.149
 1.579 -1.604 4.15
 1.592 -1.604 4.145
 1.604 -1.603 4.138
 1.618 -1.604 4.137
 1.633 -1.605 4.136
 1.647 -1.606 4.133
 1.66 -1.607 4.129
 1.676 -1.609 4.129
 1.687 -1.607 4.121
 1.697 -1.605 4.109
 1.711 -1.605 4.104
 1.725 -1.606 4.103
 1.738 -1.606 4.097
 1.753 -1.608 4.097
 1.766 -1.607 4.09
 1.779 -1.608 4.086
 1.79 -1.605 4.075
 1.802 -1.604 4.067
 1.812 -1.601 4.054
 1.824 -1.601 4.048
 1.831 -1.595 4.027
 1.84 -1.592 4.014
 1.853 -1.592 4.009
 1.862 -1.588 3.993
 1.872 -1.586 3.982
 1.88 -1.582 3.967
 1.885 -1.575 3.943
 1.882 -1.562 3.905
 1.883 -1.552 3.874
 1.881 -1.541 3.84
 1.88 -1.529 3.806
 1.884 -1.523 3.785
 1.889 -1.517 3.763
 1.893 -1.51 3.741
 1.898 -1.504 3.721
 1.904 -1.499 3.703
 1.905 -1.49 3.675
 1.904 -1.48 3.645
 0 0 0
 0 0 0
 0 0 0
 0 0 0
 0 0 0
 0 0 0
 0 0 0
 0 0 0
 0 0 0
 0 0 0
 0 0 0
 1.814 -1.312 3.163
 1.824 -1.311 3.156
 1.832 -1.309 3.145
 1.841 -1.308 3.137
 1.842 -1.301 3.115
 1.846 -1.297 3.099
 1.844 -1.288 3.072
 1.835 -1.274 3.034
 1.819 -1.256 2.985
 1.813 -1.245 2.953
 -2.333 -1.605 3.941
 -2.362 -1.635 4.021
 -2.317 -1.613 3.974
 -2.309 -1.617 3.99
 -2.293 -1.615 3.993
 -2.281 -1.617 4.003
 -2.265 -1.615 4.005
 -2.257 -1.619 4.021
 -2.239 -1.616 4.02
 -2.226 -1.616 4.028
 -2.213 -1.617 4.035
 -2.2 -1.617 4.042
 -2.186 -1.617 4.048
 -2.176 -1.619 4.06
 -2.16 -1.618 4.063
 -2.144 -1.616 4.065
 -2.129 -1.615 4.069
 -2.113 -1.614 4.07
 -2.1 -1.614 4.076
 -2.086 -1.614 4.082
 -2.074 -1.615 4.091
 -2.058 -1.613 4.092
 -2.046 -1.614 4.102
 -2.031 -1.613 4.104
 -2.017 -1.613 4.108
 -2.001 -1.611 4.11
 -1.991 -1.614 4.123
 -1.978 -1.614 4.13
 -1.967 -1.617 4.141
 -1.951 -1.614 4.141
 -1.939 -1.616 4.15
 -1.924 -1.615 4.152
 -1.908 -1.613 4.153
 -1.892 -1.611 4.153
 -1.879 -1.611 4.159
 -1.866 -1.612 4.167
 -1.851 -1.61 4.167
 -1.837 -1.61 4.172
 -1.822 -1.609 4.174
 -1.812 -1.612 4.188
 -1.796 -1.61 4.186
 -1.783 -1.611 4.193
 -1.77 -1.611 4.198
 -1.756 -1.611 4.203
 -1.744 -1.612 4.211
 -1.728 -1.61 4.211
 -1.713 -1.608 4.21
 -1.697 -1.606 4.21
 -1.68 -1.602 4.204
 -1.663 -1.6 4.202
 -1.651 -1.601 4.21
 -1.638 -1.601 4.214
 -1.624 -1.601 4.219
 -1.614 -1.604 4.232
 -1.6 -1.604 4.235
 -1.587 -1.604 4.24
 -1.571 -1.602 4.237
 -1.557 -1.601 4.239
 -1.539 -1.597 4.232
 -1.524 -1.595 4.233
 -1.51 -1.595 4.235
 -1.497 -1.595 4.24
 -1.483 -1.595 4.243
 -1.47 -1.595 4.248
 -1.456 -1.594 4.248
 -1.441 -1.592 4.246
 -1.428 -1.593 4.254
 -1.413 -1.591 4.251
 -1.401 -1.592 4.258
 -1.387 -1.592 4.261
 -1.373 -1.591 4.264
 -1.357 -1.588 4.26
 -1.343 -1.587 4.26
 -1.328 -1.585 4.256
 -1.313 -1.583 4.254
 -1.299 -1.582 4.256
 -1.287 -1.584 4.264
 -1.274 -1.584 4.268
 -1.26 -1.584 4.27
 -1.248 -1.584 4.276
 -1.233 -1.582 4.273
 -1.217 -1.58 4.268
 -1.203 -1.578 4.267
 -1.188 -1.576 4.265
 -1.174 -1.575 4.265
 -1.16 -1.574 4.264
 -1.146 -1.573 4.266
 -1.133 -1.573 4.267
 -1.118 -1.571 4.265
 -1.103 -1.568 4.26
 -1.088 -1.565 4.256
 -1.075 -1.566 4.26
 -1.061 -1.564 4.257
 -1.048 -1.564 4.261
 -1.035 -1.565 4.265
 -1.022 -1.565 4.267
 -1.007 -1.562 4.262
 -0.994 -1.563 4.266
 -0.98 -1.561 4.266
 -0.968 -1.562 4.27
 -0.956 -1.564 4.276
 -0.942 -1.563 4.276
 -0.928 -1.561 4.274
 -0.914 -1.56 4.273
 -0.9 -1.558 4.27
 -0.886 -1.557 4.268
 -0.873 -1.556 4.268
 -0.859 -1.555 4.269
 -0.846 -1.554 4.267
 -0.832 -1.553 4.267
 -0.819 -1.553 4.267
 -0.805 -1.552 4.267
 -0.793 -1.553 4.272
 -0.78 -1.553 4.274
 -0.767 -1.552 4.274
 -0.753 -1.552 4.274
 -0.74 -1.551 4.273
 -0.725 -1.548 4.266
 -0.713 -1.549 4.272
 -0.7 -1.548 4.269
 -0.686 -1.547 4.269
 -0.673 -1.547 4.271
 -0.661 -1.549 4.278
 -0.648 -1.547 4.274
 -0.635 -1.548 4.279
 -0.622 -1.547 4.277
 -0.608 -1.546 4.276
 -0.595 -1.545 4.273
 -0.582 -1.545 4.276
 -0.568 -1.543 4.27
 -0.556 -1.543 4.273
 -0.542 -1.542 4.271
 -0.529 -1.541 4.269
 -0.516 -1.54 4.267
 -0.503 -1.541 4.272
 -0.49 -1.541 4.272
 -0.477 -1.541 4.272
 -0.464 -1.54 4.271
 -0.451 -1.538 4.268
 -0.438 -1.537 4.266
 -0.424 -1.535 4.26
 -0.411 -1.534 4.259
 -0.399 -1.535 4.263
 -0.386 -1.537 4.269
 -0.374 -1.537 4.27
 -0.361 -1.538 4.272
 -0.348 -1.536 4.269
 -0.335 -1.537 4.27
 -0.322 -1.535 4.267
 -0.309 -1.535 4.267
 -0.296 -1.535 4.267
 -0.283 -1.535 4.269
 -0.27 -1.534 4.265
 -0.257 -1.534 4.265
 -0.245 -1.534 4.265
 -0.232 -1.533 4.264
 -0.219 -1.534 4.267
 -0.206 -1.534 4.268
 -0.193 -1.532 4.262
 -0.18 -1.531 4.26
 -0.168 -1.531 4.261
 -0.155 -1.531 4.26
 -0.142 -1.528 4.253
 -0.129 -1.529 4.257
 -0.116 -1.529 4.256
 -0.104 -1.528 4.254
 -0.091 -1.527 4.251
 -0.078 -1.529 4.255
 -0.065 -1.529 4.255
 -0.053 -1.529 4.256
 -0.04 -1.528 4.253
 -0.027 -1.526 4.248
 -0.014 -1.526 4.248
 -0.002 -1.527 4.249
 0.01 -1.526 4.245
 0.023 -1.527 4.249
 0.035 -1.528 4.251
 0.048 -1.528 4.252
 0.061 -1.527 4.249
 0.074 -1.528 4.25
 0.086 -1.526 4.245
 0.099 -1.527 4.247
 0.112 -1.525 4.242
 0.124 -1.524 4.238
 0.137 -1.524 4.236
 0.15 -1.525 4.241
 0.162 -1.526 4.241
 0.175 -1.527 4.244
 0.188 -1.529 4.25
 0.201 -1.528 4.247
 0.214 -1.53 4.251
 0.227 -1.531 4.253
 0.239 -1.532 4.254
 0.252 -1.531 4.251
 0.265 -1.533 4.256
 0.277 -1.53 4.246
 0.29 -1.529 4.243
 0.303 -1.53 4.245
 0.315 -1.53 4.244
 0.328 -1.529 4.24
 0.34 -1.528 4.235
 0.353 -1.526 4.231
 0.365 -1.526 4.229
 0.378 -1.527 4.229
 0.391 -1.527 4.23
 0.405 -1.53 4.238
 0.418 -1.533 4.242
 0.43 -1.531 4.236
 0.443 -1.531 4.234
 0.456 -1.531 4.236
 0.469 -1.533 4.238
 0.481 -1.531 4.232
 0.495 -1.534 4.239
 0.507 -1.534 4.238
 0.52 -1.534 4.237
 0.533 -1.534 4.235
 0.546 -1.536 4.238
 0.559 -1.535 4.234
 0.572 -1.535 4.234
 0.586 -1.539 4.241
 0.598 -1.539 4.24
 0.611 -1.539 4.239
 0.624 -1.539 4.237
 0.637 -1.541 4.24
 0.649 -1.539 4.233
 0.662 -1.538 4.227
 0.675 -1.538 4.227
 0.688 -1.54 4.23
 0.701 -1.541 4.23
 0.714 -1.54 4.227
 0.727 -1.541 4.228
 0.74 -1.542 4.227
 0.754 -1.544 4.23
 0.767 -1.543 4.227
 0.78 -1.544 4.227
 0.793 -1.545 4.227
 0.806 -1.545 4.225
 0.819 -1.546 4.224
 0.832 -1.547 4.225
 0.845 -1.547 4.223
 0.859 -1.549 4.226
 0.872 -1.548 4.223
 0.884 -1.547 4.216
 0.897 -1.549 4.218
 0.912 -1.552 4.225
 0.925 -1.551 4.221
 0.937 -1.551 4.217
 0.952 -1.553 4.221
 0.964 -1.552 4.215
 0.976 -1.551 4.21
 0.991 -1.554 4.216
 1.006 -1.558 4.223
 1.019 -1.558 4.22
 1.033 -1.56 4.222
 1.047 -1.562 4.224
 1.06 -1.562 4.221
 1.073 -1.561 4.217
 1.087 -1.564 4.22
 1.1 -1.564 4.217
 1.114 -1.564 4.216
 1.126 -1.563 4.21
 1.139 -1.564 4.208
 1.152 -1.563 4.203
 1.165 -1.565 4.204
 1.177 -1.562 4.194
 1.192 -1.565 4.198
 1.206 -1.567 4.199
 1.22 -1.568 4.199
 1.232 -1.567 4.194
 1.249 -1.571 4.202
 1.262 -1.572 4.198
 1.276 -1.573 4.199
 1.29 -1.575 4.2
 1.306 -1.578 4.204
 1.321 -1.581 4.209
 1.337 -1.584 4.214
 1.349 -1.583 4.207
 1.363 -1.583 4.203
 1.376 -1.584 4.201
 1.387 -1.581 4.189
 1.399 -1.581 4.184
 1.414 -1.582 4.184
 1.427 -1.582 4.18
 1.44 -1.582 4.175
 1.456 -1.586 4.182
 1.47 -1.587 4.18
 1.484 -1.588 4.179
 1.5 -1.591 4.182
 1.515 -1.592 4.181
 1.527 -1.591 4.174
 1.541 -1.592 4.172
 1.555 -1.593 4.169
 1.569 -1.594 4.167
 1.583 -1.595 4.166
 1.596 -1.595 4.162
 1.609 -1.594 4.155
 1.623 -1.596 4.154
 1.637 -1.597 4.152
 1.651 -1.597 4.148
 1.665 -1.598 4.146
 1.68 -1.6 4.146
 1.692 -1.598 4.137
 1.702 -1.595 4.124
 1.716 -1.597 4.122
 1.73 -1.597 4.119
 1.744 -1.598 4.116
 1.759 -1.599 4.114
 1.773 -1.6 4.111
 1.786 -1.6 4.106
 1.795 -1.597 4.091
 1.807 -1.595 4.082
 1.817 -1.592 4.07
 1.828 -1.591 4.059
 1.835 -1.586 4.041
 1.845 -1.583 4.03
 1.858 -1.583 4.024
 1.866 -1.578 4.006
 1.871 -1.572 3.985
 1.877 -1.566 3.963
 1.882 -1.56 3.941
 1.877 -1.545 3.9
 1.879 -1.536 3.871
 1.885 -1.531 3.852
 1.885 -1.521 3.821
 1.888 -1.514 3.797
 1.895 -1.509 3.78
 1.9 -1.503 3.76
 1.901 -1.494 3.731
 1.913 -1.494 3.725
 1.916 -1.487 3.701
 0 0 0
 0 0 0
 0 0 0
 0 0 0
 0 0 0
 0 0 0
 0 0 0
 0 0 0
 0 0 0
 0 0 0
 0 0 0
 0 0 0
 1.823 -1.307 3.182
 1.825 -1.301 3.162
 1.834 -1.3 3.153
 1.844 -1.299 3.146
 1.845 -1.293 3.125
 1.848 -1.287 3.106
 1.849 -1.281 3.085
 1.842 -1.268 3.049
 1.837 -1.258 3.018
 1.793 -1.221 2.925
 0 0 0
 -2.31 -1.585 3.936
 -2.337 -1.613 4.013
 -2.327 -1.616 4.027
 -2.309 -1.613 4.026
 -2.298 -1.615 4.037
 -2.282 -1.613 4.04
 -2.274 -1.617 4.056
 -2.256 -1.615 4.056
 -2.245 -1.617 4.067
 -2.231 -1.617 4.074
 -2.219 -1.618 4.083
 -2.198 -1.612 4.076
 -2.188 -1.615 4.09
 -2.174 -1.615 4.095
 -2.157 -1.612 4.094
 -2.141 -1.61 4.095
 -2.127 -1.611 4.102
 -2.112 -1.61 4.106
 -2.1 -1.611 4.114
 -2.088 -1.612 4.124
 -2.071 -1.609 4.122
 -2.061 -1.613 4.137
 -2.046 -1.611 4.139
 -2.031 -1.61 4.142
 -2.018 -1.611 4.149
 -2.008 -1.614 4.163
 -1.993 -1.613 4.166
 -1.981 -1.615 4.176
 -1.964 -1.611 4.173
 -1.95 -1.612 4.179
 -1.935 -1.611 4.181
 -1.92 -1.61 4.185
 -1.903 -1.607 4.183
 -1.89 -1.607 4.189
 -1.876 -1.607 4.194
 -1.86 -1.605 4.194
 -1.845 -1.604 4.196
 -1.832 -1.604 4.201
 -1.82 -1.606 4.211
 -1.805 -1.605 4.212
 -1.793 -1.606 4.22
 -1.78 -1.606 4.227
 -1.767 -1.607 4.234
 -1.757 -1.61 4.246
 -1.739 -1.607 4.243
 -1.724 -1.605 4.242
 -1.708 -1.603 4.242
 -1.689 -1.598 4.233
 -1.672 -1.595 4.229
 -1.661 -1.597 4.24
 -1.647 -1.597 4.244
 -1.633 -1.597 4.247
 -1.622 -1.599 4.258
 -1.609 -1.599 4.262
 -1.594 -1.598 4.264
 -1.579 -1.597 4.265
 -1.566 -1.597 4.268
 -1.548 -1.593 4.263
 -1.533 -1.591 4.26
 -1.518 -1.59 4.262
 -1.504 -1.589 4.263
 -1.49 -1.588 4.267
 -1.478 -1.59 4.274
 -1.463 -1.589 4.275
 -1.448 -1.586 4.273
 -1.434 -1.586 4.276
 -1.418 -1.583 4.27
 -1.404 -1.582 4.273
 -1.39 -1.581 4.274
 -1.376 -1.581 4.276
 -1.36 -1.578 4.271
 -1.346 -1.577 4.273
 -1.331 -1.575 4.27
 -1.316 -1.573 4.268
 -1.301 -1.572 4.269
 -1.29 -1.574 4.278
 -1.276 -1.573 4.279
 -1.262 -1.572 4.28
 -1.249 -1.573 4.284
 -1.233 -1.57 4.28
 -1.217 -1.567 4.274
 -1.203 -1.565 4.273
 -1.188 -1.563 4.269
 -1.174 -1.561 4.268
 -1.159 -1.56 4.267
 -1.145 -1.559 4.266
 -1.132 -1.559 4.27
 -1.119 -1.558 4.271
 -1.104 -1.556 4.268
 -1.089 -1.554 4.266
 -1.077 -1.555 4.27
 -1.062 -1.553 4.268
 -1.05 -1.554 4.273
 -1.037 -1.554 4.277
 -1.024 -1.555 4.279
 -1.009 -1.553 4.277
 -0.996 -1.552 4.279
 -0.982 -1.551 4.276
 -0.968 -1.55 4.277
 -0.956 -1.551 4.281
 -0.943 -1.551 4.284
 -0.929 -1.55 4.284
 -0.915 -1.548 4.28
 -0.902 -1.548 4.282
 -0.888 -1.546 4.279
 -0.873 -1.544 4.275
 -0.859 -1.542 4.272
 -0.846 -1.543 4.276
 -0.833 -1.542 4.275
 -0.819 -1.54 4.273
 -0.806 -1.54 4.273
 -0.794 -1.541 4.28
 -0.781 -1.542 4.284
 -0.767 -1.541 4.282
 -0.755 -1.542 4.287
 -0.742 -1.542 4.287
 -0.727 -1.538 4.279
 -0.714 -1.538 4.28
 -0.7 -1.536 4.278
 -0.686 -1.535 4.275
 -0.673 -1.534 4.275
 -0.661 -1.536 4.281
 -0.647 -1.534 4.277
 -0.634 -1.534 4.278
 -0.621 -1.533 4.277
 -0.608 -1.532 4.277
 -0.595 -1.532 4.276
 -0.582 -1.532 4.279
 -0.568 -1.53 4.275
 -0.556 -1.531 4.278
 -0.542 -1.53 4.277
 -0.529 -1.528 4.273
 -0.516 -1.527 4.271
 -0.503 -1.528 4.274
 -0.49 -1.527 4.272
 -0.477 -1.527 4.273
 -0.464 -1.526 4.272
 -0.45 -1.524 4.266
 -0.437 -1.522 4.262
 -0.424 -1.521 4.26
 -0.411 -1.52 4.258
 -0.398 -1.521 4.262
 -0.386 -1.522 4.267
 -0.373 -1.523 4.271
 -0.36 -1.523 4.27
 -0.347 -1.522 4.268
 -0.334 -1.522 4.269
 -0.321 -1.521 4.267
 -0.309 -1.52 4.266
 -0.296 -1.52 4.267
 -0.283 -1.521 4.268
 -0.27 -1.519 4.265
 -0.257 -1.52 4.267
 -0.244 -1.52 4.267
 -0.232 -1.519 4.266
 -0.219 -1.52 4.267
 -0.206 -1.52 4.268
 -0.193 -1.517 4.262
 -0.18 -1.516 4.259
 -0.167 -1.517 4.26
 -0.155 -1.516 4.259
 -0.142 -1.515 4.255
 -0.129 -1.516 4.258
 -0.116 -1.516 4.258
 -0.104 -1.515 4.257
 -0.091 -1.515 4.257
 -0.078 -1.516 4.258
 -0.065 -1.516 4.259
 -0.053 -1.517 4.261
 -0.04 -1.516 4.259
 -0.027 -1.514 4.253
 -0.014 -1.514 4.252
 -0.002 -1.514 4.252
 0.01 -1.513 4.249
 0.023 -1.513 4.25
 0.035 -1.514 4.254
 0.048 -1.515 4.255
 0.061 -1.514 4.252
 0.074 -1.513 4.249
 0.086 -1.513 4.248
 0.099 -1.514 4.25
 0.112 -1.512 4.246
 0.124 -1.512 4.244
 0.137 -1.513 4.245
 0.15 -1.513 4.247
 0.162 -1.513 4.246
 0.175 -1.515 4.249
 0.188 -1.516 4.253
 0.201 -1.515 4.25
 0.214 -1.517 4.254
 0.227 -1.518 4.255
 0.239 -1.519 4.258
 0.252 -1.519 4.256
 0.265 -1.52 4.259
 0.277 -1.517 4.251
 0.29 -1.517 4.249
 0.303 -1.516 4.245
 0.315 -1.516 4.244
 0.328 -1.516 4.244
 0.34 -1.514 4.236
 0.353 -1.513 4.233
 0.365 -1.513 4.233
 0.378 -1.514 4.234
 0.391 -1.515 4.234
 0.405 -1.519 4.246
 0.418 -1.521 4.25
 0.431 -1.519 4.244
 0.443 -1.519 4.242
 0.456 -1.52 4.243
 0.469 -1.52 4.242
 0.481 -1.518 4.236
 0.495 -1.521 4.243
 0.508 -1.521 4.241
 0.52 -1.52 4.236
 0.532 -1.519 4.232
 0.546 -1.522 4.238
 0.558 -1.521 4.235
 0.571 -1.521 4.234
 0.586 -1.526 4.244
 0.599 -1.527 4.245
 0.611 -1.526 4.243
 0.624 -1.526 4.241
 0.637 -1.528 4.243
 0.65 -1.527 4.238
 0.662 -1.526 4.235
 0.675 -1.527 4.234
 0.688 -1.527 4.235
 0.701 -1.528 4.234
 0.713 -1.526 4.227
 0.726 -1.527 4.227
 0.739 -1.527 4.225
 0.753 -1.529 4.229
 0.766 -1.529 4.226
 0.779 -1.529 4.225
 0.792 -1.53 4.225
 0.805 -1.531 4.225
 0.818 -1.531 4.224
 0.832 -1.533 4.226
 0.845 -1.534 4.227
 0.859 -1.536 4.231
 0.872 -1.537 4.23
 0.884 -1.535 4.223
 0.898 -1.536 4.223
 0.912 -1.539 4.229
 0.925 -1.539 4.227
 0.938 -1.539 4.225
 0.953 -1.542 4.23
 0.965 -1.541 4.225
 0.977 -1.54 4.219
 0.992 -1.543 4.223
 1.006 -1.544 4.225
 1.019 -1.544 4.222
 1.033 -1.547 4.226
 1.047 -1.548 4.226
 1.06 -1.548 4.223
 1.074 -1.55 4.226
 1.088 -1.551 4.226
 1.1 -1.551 4.221
 1.113 -1.551 4.219
 1.126 -1.551 4.215
 1.139 -1.55 4.211
 1.152 -1.551 4.209
 1.167 -1.554 4.214
 1.179 -1.553 4.208
 1.193 -1.554 4.207
 1.207 -1.555 4.206
 1.22 -1.555 4.204
 1.232 -1.554 4.198
 1.247 -1.556 4.2
 1.26 -1.557 4.198
 1.275 -1.559 4.2
 1.289 -1.56 4.2
 1.303 -1.562 4.2
 1.32 -1.566 4.209
 1.337 -1.57 4.216
 1.349 -1.57 4.21
 1.364 -1.572 4.212
 1.377 -1.572 4.209
 1.388 -1.569 4.197
 1.4 -1.569 4.192
 1.414 -1.569 4.189
 1.427 -1.569 4.184
 1.441 -1.57 4.184
 1.457 -1.574 4.188
 1.472 -1.575 4.188
 1.488 -1.578 4.192
 1.503 -1.58 4.194
 1.518 -1.582 4.194
 1.531 -1.582 4.189
 1.543 -1.581 4.181
 1.557 -1.581 4.179
 1.569 -1.581 4.173
 1.583 -1.581 4.17
 1.596 -1.582 4.166
 1.61 -1.582 4.162
 1.623 -1.582 4.158
 1.639 -1.585 4.161
 1.653 -1.586 4.158
 1.667 -1.587 4.156
 1.683 -1.589 4.157
 1.697 -1.59 4.153
 1.707 -1.587 4.14
 1.722 -1.589 4.141
 1.737 -1.59 4.14
 1.752 -1.591 4.138
 1.765 -1.592 4.133
 1.779 -1.592 4.13
 1.792 -1.592 4.123
 1.8 -1.587 4.106
 1.81 -1.585 4.094
 1.82 -1.582 4.082
 1.832 -1.581 4.073
 1.837 -1.574 4.051
 1.847 -1.572 4.039
 1.86 -1.571 4.032
 1.866 -1.566 4.012
 1.869 -1.557 3.984
 1.877 -1.553 3.968
 1.884 -1.549 3.951
 1.881 -1.536 3.912
 1.881 -1.526 3.881
 1.89 -1.522 3.866
 1.89 -1.512 3.836
 1.89 -1.502 3.804
 1.896 -1.497 3.786
 1.904 -1.493 3.771
 1.903 -1.483 3.74
 1.915 -1.483 3.734
 0 0 0
 0 0 0
 0 0 0
 0 0 0
 0 0 0
 0 0 0
 0 0 0
 0 0 0
 0 0 0
 0 0 0
 0 0 0
 0 0 0
 0 0 0
 0 0 0
 1.828 -1.292 3.17
 1.837 -1.291 3.162
 1.849 -1.291 3.158
 1.85 -1.285 3.137
 1.851 -1.278 3.114
 1.849 -1.27 3.088
 1.842 -1.258 3.053
 1.863 -1.265 3.065
 1.813 -1.224 2.96
 0 0 0
 -2.352 -1.601 4.014
