 1.317 -1.613 4.134
 1.332 -1.615 4.136
 1.345 -1.615 4.131
 1.357 -1.614 4.126
 1.37 -1.615 4.123
 1.386 -1.618 4.128
 1.398 -1.618 4.122
 1.412 -1.619 4.121
 1.427 -1.62 4.122
 1.439 -1.62 4.116
 1.451 -1.619 4.11
 1.463 -1.618 4.103
 1.474 -1.616 4.093
 1.486 -1.614 4.085
 1.5 -1.615 4.083
 1.509 -1.612 4.07
 1.525 -1.615 4.073
 1.539 -1.616 4.072
 1.556 -1.62 4.077
 1.57 -1.621 4.075
 1.587 -1.626 4.082
 1.599 -1.625 4.075
 1.612 -1.625 4.071
 1.626 -1.626 4.068
 1.637 -1.623 4.057
 1.648 -1.621 4.048
 1.661 -1.621 4.043
 1.674 -1.622 4.038
 1.686 -1.621 4.031
 1.7 -1.622 4.03
 1.712 -1.621 4.021
 1.726 -1.623 4.02
 1.739 -1.622 4.013
 1.751 -1.622 4.008
 1.764 -1.621 4.002
 1.782 -1.626 4.008
 1.794 -1.625 4
 1.808 -1.627 3.999
 1.818 -1.623 3.986
 1.828 -1.621 3.974
 1.833 -1.614 3.951
 1.84 -1.609 3.934
 1.844 -1.601 3.91
 1.853 -1.598 3.896
 1.86 -1.593 3.877
 1.864 -1.586 3.855
 1.867 -1.578 3.829
 1.872 -1.572 3.809
 1.87 -1.559 3.774
 1.871 -1.55 3.745
 1.873 -1.542 3.719
 1.876 -1.534 3.695
 1.875 -1.524 3.664
 1.884 -1.52 3.651
 1.887 -1.513 3.627
 1.886 -1.503 3.598
 1.886 -1.494 3.57
 1.893 -1.49 3.554
 1.891 -1.479 3.523
 0 0 0
 0 0 0
 0 0 0
 0 0 0
 0 0 0
 0 0 0
 0 0 0
 1.814 -1.351 3.175
 1.82 -1.348 3.161
 1.818 -1.339 3.135
 1.829 -1.339 3.129
 1.836 -1.337 3.118
 1.84 -1.332 3.101
 1.839 -1.324 3.076
 1.839 -1.316 3.052
 1.832 -1.304 3.018
 1.842 -1.303 3.011
 1.827 -1.286 2.965
 -2.282 -1.61 3.84
 -2.296 -1.629 3.893
 -2.269 -1.62 3.877
 -2.257 -1.62 3.885
 -2.245 -1.621 3.894
 -2.23 -1.62 3.898
 -2.22 -1.623 3.911
 -2.205 -1.622 3.914
 -2.188 -1.619 3.914
 -2.174 -1.618 3.918
 -2.16 -1.618 3.924
 -2.147 -1.618 3.931
 -2.135 -1.619 3.938
 -2.122 -1.619 3.946
 -2.107 -1.618 3.948
 -2.097 -1.62 3.96
 -2.084 -1.621 3.968
 -2.066 -1.617 3.965
 -2.054 -1.618 3.973
 -2.044 -1.621 3.985
 -2.032 -1.622 3.994
 -2.015 -1.619 3.993
 -2.002 -1.62 3.999
 -1.988 -1.619 4.004
 -1.977 -1.621 4.013
 -1.961 -1.619 4.014
 -1.949 -1.62 4.022
 -1.938 -1.621 4.031
 -1.925 -1.622 4.038
 -1.908 -1.619 4.036
 -1.897 -1.621 4.045
 -1.883 -1.62 4.049
 -1.869 -1.619 4.053
 -1.856 -1.619 4.058
 -1.844 -1.621 4.067
 -1.83 -1.621 4.072
 -1.817 -1.621 4.077
 -1.804 -1.621 4.083
 -1.792 -1.622 4.09
 -1.778 -1.622 4.094
 -1.764 -1.621 4.097
 -1.75 -1.62 4.099
 -1.739 -1.623 4.111
 -1.725 -1.622 4.113
 -1.711 -1.621 4.117
 -1.693 -1.617 4.111
 -1.682 -1.619 4.12
 -1.664 -1.614 4.112
 -1.648 -1.612 4.111
 -1.632 -1.609 4.108
 -1.623 -1.613 4.123
 -1.608 -1.611 4.123
 -1.595 -1.612 4.129
 -1.585 -1.615 4.141
 -1.57 -1.613 4.141
 -1.558 -1.614 4.147
 -1.544 -1.614 4.15
 -1.53 -1.612 4.151
 -1.514 -1.61 4.149
 -1.503 -1.612 4.159
 -1.489 -1.612 4.161
 -1.476 -1.612 4.165
 -1.463 -1.612 4.17
 -1.45 -1.612 4.174
 -1.435 -1.611 4.174
 -1.418 -1.606 4.166
 -1.403 -1.604 4.165
 -1.388 -1.602 4.163
 -1.376 -1.603 4.169
 -1.365 -1.606 4.179
 -1.354 -1.608 4.189
 -1.343 -1.611 4.2
 -1.332 -1.613 4.21
 -1.317 -1.611 4.208
 -1.301 -1.608 4.202
 -1.286 -1.606 4.2
 -1.273 -1.606 4.204
 -1.259 -1.604 4.203
 -1.246 -1.605 4.209
 -1.234 -1.607 4.216
 -1.221 -1.606 4.218
 -1.204 -1.602 4.21
 -1.191 -1.602 4.213
 -1.175 -1.598 4.206
 -1.161 -1.596 4.203
 -1.147 -1.595 4.203
 -1.133 -1.594 4.204
 -1.119 -1.593 4.203
 -1.105 -1.592 4.203
 -1.093 -1.592 4.207
 -1.08 -1.593 4.211
 -1.066 -1.592 4.211
 -1.053 -1.591 4.211
 -1.041 -1.593 4.219
 -1.029 -1.595 4.228
 -1.017 -1.596 4.232
 -1.005 -1.597 4.238
 -0.993 -1.599 4.245
 -0.98 -1.599 4.248
 -0.965 -1.596 4.243
 -0.951 -1.594 4.241
 -0.938 -1.595 4.246
 -0.925 -1.595 4.247
 -0.911 -1.593 4.243
 -0.898 -1.594 4.249
 -0.884 -1.591 4.243
 -0.87 -1.59 4.242
 -0.857 -1.59 4.244
 -0.845 -1.591 4.25
 -0.832 -1.592 4.254
 -0.821 -1.595 4.263
 -0.808 -1.596 4.267
 -0.793 -1.592 4.26
 -0.779 -1.59 4.256
 -0.764 -1.586 4.247
 -0.751 -1.585 4.246
 -0.736 -1.582 4.239
 -0.724 -1.583 4.244
 -0.711 -1.583 4.246
 -0.698 -1.583 4.247
 -0.686 -1.584 4.252
 -0.673 -1.584 4.253
 -0.659 -1.582 4.25
 -0.645 -1.58 4.246
 -0.633 -1.581 4.25
 -0.618 -1.577 4.24
 -0.605 -1.576 4.24
 -0.593 -1.577 4.244
 -0.58 -1.578 4.247
 -0.567 -1.576 4.244
 -0.555 -1.579 4.253
 -0.542 -1.579 4.254
 -0.529 -1.579 4.254
 -0.516 -1.579 4.256
 -0.503 -1.579 4.257
 -0.49 -1.578 4.256
 -0.477 -1.579 4.259
 -0.464 -1.577 4.254
 -0.451 -1.576 4.254
 -0.438 -1.576 4.253
 -0.424 -1.573 4.246
 -0.411 -1.572 4.246
 -0.399 -1.573 4.248
 -0.385 -1.57 4.242
 -0.372 -1.569 4.241
 -0.36 -1.57 4.243
 -0.347 -1.571 4.246
 -0.334 -1.571 4.247
 -0.322 -1.573 4.254
 -0.309 -1.573 4.253
 -0.296 -1.573 4.255
 -0.283 -1.569 4.244
 -0.27 -1.567 4.24
 -0.257 -1.567 4.239
 -0.244 -1.566 4.238
 -0.231 -1.566 4.238
 -0.219 -1.568 4.243
 -0.206 -1.567 4.242
 -0.193 -1.566 4.239
 -0.18 -1.565 4.238
 -0.167 -1.566 4.238
 -0.155 -1.566 4.24
 -0.142 -1.566 4.24
 -0.129 -1.567 4.242
 -0.117 -1.568 4.245
 -0.104 -1.566 4.239
 -0.091 -1.565 4.239
 -0.078 -1.567 4.243
 -0.066 -1.569 4.248
 -0.053 -1.568 4.247
 -0.04 -1.569 4.248
 -0.027 -1.569 4.248
 -0.015 -1.568 4.246
 -0.002 -1.566 4.239
 0.01 -1.566 4.24
 0.022 -1.568 4.245
 0.035 -1.567 4.243
 0.048 -1.567 4.242
 0.061 -1.568 4.244
 0.073 -1.567 4.243
 0.086 -1.567 4.24
 0.099 -1.566 4.239
 0.111 -1.565 4.233
 0.124 -1.563 4.23
 0.137 -1.564 4.232
 0.149 -1.561 4.223
 0.162 -1.563 4.226
 0.175 -1.565 4.232
 0.188 -1.566 4.235
 0.201 -1.568 4.239
 0.214 -1.57 4.244
 0.226 -1.57 4.242
 0.239 -1.57 4.243
 0.252 -1.568 4.235
 0.264 -1.565 4.226
 0.277 -1.566 4.229
 0.289 -1.564 4.222
 0.302 -1.566 4.226
 0.315 -1.569 4.234
 0.329 -1.572 4.242
 0.341 -1.57 4.235
 0.355 -1.574 4.245
 0.367 -1.574 4.244
 0.38 -1.574 4.243
 0.393 -1.573 4.239
 0.406 -1.576 4.245
 0.419 -1.575 4.242
 0.431 -1.572 4.232
 0.443 -1.571 4.228
 0.456 -1.57 4.224
 0.468 -1.57 4.223
 0.481 -1.571 4.225
 0.494 -1.572 4.226
 0.508 -1.574 4.229
 0.521 -1.574 4.229
 0.533 -1.575 4.228
 0.546 -1.575 4.227
 0.558 -1.573 4.221
 0.571 -1.572 4.216
 0.583 -1.571 4.213
 0.596 -1.572 4.213
 0.608 -1.571 4.208
 0.622 -1.573 4.212
 0.636 -1.576 4.218
 0.649 -1.577 4.22
 0.661 -1.575 4.213
 0.675 -1.578 4.218
 0.688 -1.578 4.217
 0.701 -1.579 4.217
 0.713 -1.578 4.214
 0.727 -1.581 4.218
 0.74 -1.58 4.215
 0.754 -1.582 4.217
 0.766 -1.582 4.214
 0.779 -1.583 4.214
 0.792 -1.583 4.214
 0.806 -1.584 4.214
 0.818 -1.583 4.208
 0.831 -1.584 4.208
 0.843 -1.583 4.204
 0.857 -1.585 4.206
 0.871 -1.586 4.208
 0.884 -1.587 4.208
 0.897 -1.588 4.206
 0.912 -1.591 4.212
 0.924 -1.589 4.205
 0.935 -1.587 4.196
 0.948 -1.586 4.192
 0.962 -1.589 4.197
 0.975 -1.589 4.195
 0.989 -1.59 4.195
 1.003 -1.593 4.2
 1.017 -1.594 4.2
 1.028 -1.591 4.189
 1.041 -1.592 4.188
 1.055 -1.593 4.187
 1.067 -1.593 4.184
 1.082 -1.595 4.187
 1.095 -1.595 4.184
 1.107 -1.594 4.179
 1.12 -1.594 4.176
 1.133 -1.595 4.174
 1.146 -1.594 4.17
 1.16 -1.596 4.172
 1.174 -1.598 4.172
 1.187 -1.598 4.169
 1.201 -1.6 4.172
 1.216 -1.602 4.173
 1.23 -1.604 4.175
 1.244 -1.605 4.173
 1.259 -1.607 4.176
 1.27 -1.606 4.169
 1.283 -1.606 4.165
 1.296 -1.606 4.16
 1.311 -1.608 4.162
 1.324 -1.608 4.159
 1.339 -1.611 4.163
 1.353 -1.612 4.162
 1.365 -1.611 4.156
 1.378 -1.611 4.152
 1.393 -1.613 4.154
 1.405 -1.612 4.146
 1.418 -1.612 4.143
 1.432 -1.613 4.14
 1.445 -1.613 4.136
 1.457 -1.612 4.13
 1.471 -1.613 4.129
 1.483 -1.612 4.121
 1.496 -1.612 4.116
 1.51 -1.614 4.117
 1.52 -1.611 4.104
 1.535 -1.612 4.104
 1.551 -1.615 4.107
 1.566 -1.618 4.109
 1.578 -1.617 4.101
 1.596 -1.621 4.109
 1.608 -1.62 4.101
 1.62 -1.62 4.095
 1.634 -1.621 4.093
 1.647 -1.62 4.086
 1.657 -1.618 4.076
 1.671 -1.618 4.073
 1.685 -1.619 4.069
 1.699 -1.62 4.067
 1.712 -1.62 4.062
 1.724 -1.619 4.055
 1.738 -1.62 4.051
 1.749 -1.618 4.042
 1.759 -1.615 4.03
 1.771 -1.615 4.024
 1.788 -1.618 4.026
 1.8 -1.617 4.018
 1.813 -1.618 4.014
 1.822 -1.614 4
 1.832 -1.612 3.988
 1.838 -1.606 3.968
 1.847 -1.602 3.953
 1.851 -1.594 3.928
 1.859 -1.59 3.912
 1.865 -1.585 3.893
 1.869 -1.577 3.869
 1.868 -1.566 3.836
 1.875 -1.561 3.819
 1.875 -1.551 3.788
 1.875 -1.54 3.757
 1.875 -1.531 3.727
 1.881 -1.525 3.709
 1.88 -1.515 3.677
 1.888 -1.511 3.663
 1.894 -1.506 3.645
 1.9 -1.502 3.629
 1.894 -1.487 3.588
 0 0 0
 0 0 0
 0 0 0
 0 0 0
 0 0 0
 0 0 0
 0 0 0
 0 0 0
 0 0 0
 0 0 0
 1.819 -1.337 3.164
 1.82 -1.33 3.142
 1.832 -1.33 3.138
 1.838 -1.327 3.124
 1.844 -1.324 3.111
 1.843 -1.316 3.086
 1.842 -1.307 3.061
 1.836 -1.296 3.028
 1.812 -1.272 2.965
 1.824 -1.273 2.964
 -2.303 -1.612 3.881
 -2.306 -1.623 3.916
 -2.284 -1.617 3.908
 -2.276 -1.621 3.924
 -2.262 -1.62 3.928
 -2.246 -1.618 3.931
 -2.236 -1.621 3.943
 -2.223 -1.621 3.951
 -2.206 -1.619 3.951
 -2.195 -1.62 3.961
 -2.181 -1.62 3.967
 -2.168 -1.621 3.975
 -2.153 -1.619 3.977
 -2.141 -1.621 3.986
 -2.124 -1.618 3.986
 -2.11 -1.617 3.99
 -2.096 -1.617 3.995
 -2.08 -1.615 3.997
 -2.067 -1.615 4.003
 -2.056 -1.617 4.013
 -2.046 -1.62 4.027
 -2.031 -1.619 4.03
 -2.017 -1.619 4.034
 -2.002 -1.617 4.037
 -1.993 -1.621 4.051
 -1.975 -1.617 4.046
 -1.962 -1.617 4.052
 -1.947 -1.616 4.056
 -1.936 -1.618 4.067
 -1.921 -1.617 4.068
 -1.91 -1.619 4.079
 -1.895 -1.617 4.081
 -1.882 -1.617 4.086
 -1.868 -1.617 4.09
 -1.854 -1.617 4.095
 -1.841 -1.617 4.1
 -1.829 -1.618 4.108
 -1.817 -1.619 4.116
 -1.803 -1.619 4.12
 -1.789 -1.619 4.125
 -1.775 -1.618 4.127
 -1.76 -1.616 4.129
 -1.748 -1.618 4.137
 -1.733 -1.617 4.139
 -1.72 -1.616 4.142
 -1.702 -1.612 4.137
 -1.689 -1.613 4.143
 -1.673 -1.609 4.139
 -1.659 -1.609 4.143
 -1.643 -1.607 4.142
 -1.634 -1.611 4.156
 -1.621 -1.611 4.161
 -1.608 -1.612 4.168
 -1.596 -1.613 4.175
 -1.58 -1.611 4.173
 -1.566 -1.61 4.175
 -1.551 -1.608 4.175
 -1.537 -1.607 4.176
 -1.521 -1.604 4.173
 -1.509 -1.606 4.18
 -1.496 -1.606 4.185
 -1.483 -1.607 4.191
 -1.471 -1.607 4.197
 -1.459 -1.609 4.205
 -1.446 -1.61 4.211
 -1.43 -1.606 4.205
 -1.414 -1.604 4.202
 -1.399 -1.601 4.2
 -1.386 -1.601 4.204
 -1.373 -1.602 4.21
 -1.362 -1.605 4.219
 -1.351 -1.608 4.231
 -1.34 -1.609 4.239
 -1.325 -1.608 4.238
 -1.309 -1.605 4.234
 -1.295 -1.604 4.234
 -1.28 -1.602 4.233
 -1.266 -1.6 4.232
 -1.254 -1.602 4.239
 -1.242 -1.604 4.249
 -1.228 -1.602 4.247
 -1.212 -1.599 4.242
 -1.198 -1.598 4.243
 -1.182 -1.594 4.233
 -1.164 -1.588 4.221
 -1.152 -1.589 4.225
 -1.138 -1.588 4.226
 -1.125 -1.588 4.229
 -1.111 -1.587 4.231
 -1.1 -1.59 4.24
 -1.088 -1.591 4.246
 -1.074 -1.59 4.244
 -1.06 -1.588 4.244
 -1.048 -1.59 4.251
 -1.035 -1.591 4.257
 -1.022 -1.591 4.259
 -1.01 -1.592 4.265
 -0.997 -1.593 4.27
 -0.984 -1.593 4.272
 -0.969 -1.59 4.266
 -0.955 -1.588 4.263
 -0.942 -1.589 4.268
 -0.928 -1.588 4.267
 -0.914 -1.585 4.262
 -0.901 -1.586 4.265
 -0.886 -1.583 4.26
 -0.872 -1.581 4.256
 -0.859 -1.581 4.259
 -0.847 -1.583 4.265
 -0.835 -1.584 4.27
 -0.822 -1.585 4.276
 -0.809 -1.585 4.278
 -0.795 -1.582 4.272
 -0.781 -1.581 4.27
 -0.767 -1.578 4.264
 -0.753 -1.576 4.261
 -0.739 -1.574 4.257
 -0.726 -1.574 4.258
 -0.712 -1.573 4.257
 -0.699 -1.572 4.256
 -0.686 -1.573 4.261
 -0.674 -1.573 4.263
 -0.66 -1.571 4.26
 -0.646 -1.568 4.252
 -0.633 -1.569 4.256
 -0.619 -1.566 4.251
 -0.606 -1.567 4.253
 -0.594 -1.567 4.257
 -0.581 -1.569 4.261
 -0.568 -1.567 4.257
 -0.555 -1.568 4.262
 -0.542 -1.566 4.258
 -0.529 -1.565 4.256
 -0.516 -1.566 4.26
 -0.503 -1.567 4.263
 -0.49 -1.565 4.259
 -0.477 -1.566 4.262
 -0.464 -1.565 4.261
 -0.451 -1.564 4.258
 -0.438 -1.562 4.256
 -0.424 -1.56 4.251
 -0.411 -1.56 4.251
 -0.398 -1.559 4.251
 -0.385 -1.557 4.246
 -0.372 -1.556 4.244
 -0.36 -1.557 4.247
 -0.347 -1.558 4.25
 -0.334 -1.558 4.251
 -0.322 -1.56 4.258
 -0.309 -1.561 4.259
 -0.297 -1.563 4.265
 -0.283 -1.559 4.255
 -0.27 -1.558 4.254
 -0.257 -1.558 4.253
 -0.244 -1.557 4.252
 -0.232 -1.556 4.25
 -0.219 -1.558 4.256
 -0.206 -1.556 4.25
 -0.193 -1.555 4.248
 -0.18 -1.553 4.243
 -0.167 -1.553 4.243
 -0.155 -1.554 4.244
 -0.142 -1.554 4.246
 -0.129 -1.553 4.245
 -0.117 -1.555 4.249
 -0.104 -1.553 4.244
 -0.091 -1.553 4.243
 -0.078 -1.554 4.247
 -0.066 -1.556 4.252
 -0.053 -1.555 4.25
 -0.04 -1.557 4.254
 -0.027 -1.555 4.249
 -0.015 -1.555 4.248
 -0.002 -1.552 4.24
 0.01 -1.552 4.241
 0.023 -1.553 4.242
 0.035 -1.554 4.246
 0.048 -1.553 4.244
 0.061 -1.555 4.249
 0.073 -1.555 4.246
 0.086 -1.554 4.243
 0.099 -1.552 4.239
 0.112 -1.553 4.24
 0.124 -1.552 4.237
 0.137 -1.553 4.24
 0.15 -1.552 4.236
 0.162 -1.552 4.237
 0.175 -1.553 4.239
 0.188 -1.554 4.24
 0.201 -1.556 4.244
 0.214 -1.557 4.247
 0.226 -1.557 4.246
 0.239 -1.556 4.242
 0.251 -1.554 4.236
 0.264 -1.551 4.226
 0.277 -1.552 4.229
 0.289 -1.552 4.227
 0.302 -1.555 4.235
 0.316 -1.558 4.243
 0.329 -1.561 4.251
 0.342 -1.56 4.245
 0.355 -1.561 4.249
 0.367 -1.561 4.246
 0.38 -1.56 4.243
 0.392 -1.559 4.238
 0.406 -1.56 4.241
 0.418 -1.56 4.239
 0.43 -1.558 4.232
 0.443 -1.558 4.231
 0.456 -1.558 4.229
 0.469 -1.559 4.232
 0.482 -1.561 4.235
 0.495 -1.562 4.238
 0.508 -1.563 4.238
 0.522 -1.565 4.242
 0.534 -1.564 4.239
 0.547 -1.565 4.239
 0.56 -1.564 4.235
 0.572 -1.564 4.233
 0.585 -1.563 4.23
 0.598 -1.563 4.228
 0.61 -1.563 4.225
 0.623 -1.563 4.225
 0.637 -1.565 4.228
 0.65 -1.565 4.226
 0.662 -1.564 4.221
 0.675 -1.566 4.224
 0.688 -1.566 4.222
 0.701 -1.567 4.223
 0.714 -1.567 4.222
 0.728 -1.57 4.227
 0.741 -1.569 4.223
 0.755 -1.571 4.227
 0.767 -1.571 4.223
 0.781 -1.573 4.226
 0.794 -1.573 4.224
 0.807 -1.573 4.223
 0.819 -1.572 4.217
 0.831 -1.571 4.213
 0.844 -1.57 4.208
 0.858 -1.572 4.212
 0.872 -1.574 4.215
 0.885 -1.576 4.217
 0.899 -1.577 4.216
 0.913 -1.58 4.223
 0.925 -1.578 4.216
 0.937 -1.577 4.209
 0.95 -1.576 4.204
 0.964 -1.579 4.209
 0.977 -1.579 4.207
 0.991 -1.58 4.207
 1.004 -1.582 4.209
 1.018 -1.583 4.208
 1.029 -1.58 4.198
 1.042 -1.58 4.195
 1.055 -1.58 4.191
 1.068 -1.58 4.19
 1.083 -1.584 4.196
 1.097 -1.585 4.197
 1.11 -1.585 4.193
 1.124 -1.586 4.194
 1.137 -1.587 4.191
 1.149 -1.586 4.186
 1.163 -1.587 4.186
 1.176 -1.588 4.185
 1.189 -1.588 4.181
 1.203 -1.59 4.183
 1.217 -1.591 4.183
 1.232 -1.593 4.185
 1.246 -1.595 4.185
 1.261 -1.597 4.188
 1.275 -1.598 4.187
 1.287 -1.597 4.182
 1.301 -1.598 4.18
 1.316 -1.601 4.182
 1.329 -1.601 4.18
 1.343 -1.603 4.18
 1.357 -1.604 4.179
 1.37 -1.603 4.174
 1.384 -1.604 4.172
 1.399 -1.607 4.176
 1.411 -1.606 4.168
 1.425 -1.606 4.166
 1.438 -1.606 4.161
 1.451 -1.606 4.157
 1.463 -1.606 4.152
 1.477 -1.606 4.149
 1.49 -1.606 4.145
 1.505 -1.608 4.146
 1.518 -1.609 4.143
 1.528 -1.605 4.129
 1.543 -1.607 4.13
 1.557 -1.608 4.127
 1.57 -1.608 4.123
 1.583 -1.609 4.119
 1.601 -1.613 4.127
 1.613 -1.612 4.118
 1.626 -1.612 4.114
 1.641 -1.614 4.114
 1.653 -1.613 4.107
 1.665 -1.612 4.098
 1.679 -1.613 4.097
 1.693 -1.613 4.093
 1.707 -1.615 4.092
 1.72 -1.615 4.086
 1.731 -1.613 4.076
 1.745 -1.614 4.073
 1.76 -1.615 4.071
 1.769 -1.612 4.058
 1.783 -1.612 4.054
 1.801 -1.617 4.06
 1.813 -1.616 4.053
 1.824 -1.614 4.042
 1.833 -1.61 4.028
 1.842 -1.607 4.013
 1.846 -1.599 3.989
 1.852 -1.593 3.969
 1.855 -1.585 3.942
 1.861 -1.579 3.922
 1.868 -1.574 3.904
 1.871 -1.566 3.877
 1.871 -1.556 3.847
 1.88 -1.553 3.834
 1.88 -1.543 3.803
 1.879 -1.531 3.769
 1.879 -1.521 3.739
 1.883 -1.515 3.718
 1.88 -1.503 3.682
 1.888 -1.499 3.667
 1.894 -1.494 3.65
 1.91 -1.498 3.652
 0 0 0
 0 0 0
 0 0 0
 0 0 0
 0 0 0
 0 0 0
 0 0 0
 0 0 0
 0 0 0
 0 0 0
 0 0 0
 1.813 -1.322 3.157
 1.817 -1.317 3.14
 1.829 -1.318 3.137
 1.836 -1.315 3.124
 1.846 -1.314 3.118
 1.846 -1.307 3.095
 1.846 -1.3 3.072
 1.842 -1.29 3.042
 1.824 -1.27 2.99
 1.848 -1.279 3.006
 -2.332 -1.618 3.935
 -2.284 -1.594 3.883
 -2.3 -1.615 3.94
 -2.29 -1.617 3.953
 -2.276 -1.617 3.958
 -2.264 -1.618 3.968
 -2.256 -1.622 3.983
 -2.241 -1.621 3.987
 -2.226 -1.62 3.992
 -2.212 -1.62 3.998
 -2.196 -1.618 3.999
 -2.183 -1.618 4.006
 -2.166 -1.616 4.007
 -2.153 -1.616 4.014
 -2.138 -1.615 4.016
 -2.125 -1.615 4.023
 -2.111 -1.615 4.028
 -2.096 -1.614 4.032
 -2.081 -1.613 4.036
 -2.07 -1.615 4.047
 -2.059 -1.616 4.056
 -2.045 -1.617 4.062
 -2.032 -1.617 4.068
 -2.019 -1.617 4.075
 -2.008 -1.619 4.085
 -1.99 -1.616 4.082
 -1.976 -1.615 4.087
 -1.963 -1.616 4.094
 -1.951 -1.617 4.103
 -1.936 -1.615 4.104
 -1.925 -1.618 4.116
 -1.91 -1.616 4.117
 -1.895 -1.616 4.12
 -1.88 -1.614 4.123
 -1.866 -1.613 4.125
 -1.853 -1.614 4.131
 -1.84 -1.614 4.137
 -1.826 -1.614 4.142
 -1.813 -1.614 4.148
 -1.801 -1.616 4.156
 -1.786 -1.614 4.158
 -1.773 -1.615 4.164
 -1.761 -1.616 4.172
 -1.746 -1.615 4.175
 -1.731 -1.613 4.174
 -1.713 -1.609 4.168
 -1.698 -1.608 4.169
 -1.681 -1.604 4.166
 -1.667 -1.604 4.168
 -1.652 -1.602 4.168
 -1.643 -1.607 4.185
 -1.631 -1.608 4.192
 -1.618 -1.608 4.197
 -1.604 -1.607 4.2
 -1.589 -1.606 4.201
 -1.575 -1.605 4.202
 -1.56 -1.604 4.202
 -1.548 -1.605 4.21
 -1.533 -1.604 4.211
 -1.52 -1.604 4.217
 -1.507 -1.604 4.221
 -1.494 -1.604 4.225
 -1.48 -1.604 4.227
 -1.467 -1.605 4.234
 -1.454 -1.605 4.239
 -1.439 -1.603 4.237
 -1.425 -1.602 4.239
 -1.408 -1.599 4.233
 -1.394 -1.598 4.234
 -1.382 -1.599 4.24
 -1.369 -1.6 4.246
 -1.356 -1.601 4.252
 -1.345 -1.602 4.26
 -1.33 -1.601 4.26
 -1.315 -1.599 4.259
 -1.301 -1.598 4.258
 -1.285 -1.595 4.253
 -1.271 -1.594 4.253
 -1.258 -1.595 4.26
 -1.245 -1.594 4.262
 -1.23 -1.592 4.26
 -1.215 -1.59 4.257
 -1.201 -1.589 4.257
 -1.184 -1.584 4.246
 -1.169 -1.581 4.242
 -1.156 -1.582 4.246
 -1.143 -1.582 4.249
 -1.13 -1.582 4.252
 -1.118 -1.583 4.259
 -1.106 -1.585 4.267
 -1.092 -1.584 4.265
 -1.077 -1.582 4.264
 -1.064 -1.581 4.265
 -1.05 -1.581 4.267
 -1.037 -1.581 4.268
 -1.025 -1.582 4.275
 -1.012 -1.582 4.277
 -0.998 -1.582 4.28
 -0.986 -1.583 4.285
 -0.971 -1.58 4.28
 -0.956 -1.577 4.274
 -0.944 -1.579 4.281
 -0.93 -1.578 4.279
 -0.915 -1.575 4.274
 -0.902 -1.575 4.276
 -0.889 -1.574 4.276
 -0.874 -1.571 4.27
 -0.861 -1.571 4.272
 -0.848 -1.572 4.276
 -0.836 -1.573 4.28
 -0.823 -1.573 4.282
 -0.809 -1.573 4.284
 -0.795 -1.57 4.279
 -0.781 -1.569 4.277
 -0.767 -1.565 4.269
 -0.752 -1.562 4.262
 -0.738 -1.56 4.26
 -0.725 -1.56 4.26
 -0.711 -1.558 4.256
 -0.698 -1.557 4.257
 -0.686 -1.559 4.262
 -0.673 -1.558 4.262
 -0.659 -1.557 4.26
 -0.645 -1.555 4.256
 -0.633 -1.556 4.26
 -0.619 -1.554 4.257
 -0.607 -1.555 4.259
 -0.594 -1.554 4.259
 -0.581 -1.554 4.262
 -0.567 -1.552 4.255
 -0.554 -1.553 4.259
 -0.541 -1.551 4.255
 -0.528 -1.551 4.256
 -0.515 -1.55 4.257
 -0.503 -1.552 4.263
 -0.489 -1.55 4.258
 -0.476 -1.55 4.258
 -0.463 -1.55 4.259
 -0.451 -1.55 4.261
 -0.437 -1.549 4.258
 -0.425 -1.548 4.258
 -0.412 -1.548 4.259
 -0.399 -1.548 4.258
 -0.386 -1.547 4.256
 -0.372 -1.545 4.252
 -0.36 -1.545 4.252
 -0.347 -1.545 4.252
 -0.334 -1.545 4.253
 -0.321 -1.545 4.255
 -0.309 -1.546 4.257
 -0.296 -1.546 4.259
 -0.283 -1.544 4.253
 -0.27 -1.543 4.252
 -0.257 -1.544 4.254
 -0.244 -1.544 4.254
 -0.232 -1.544 4.256
 -0.219 -1.547 4.264
 -0.206 -1.546 4.261
 -0.193 -1.544 4.258
 -0.18 -1.543 4.253
 -0.167 -1.542 4.251
 -0.155 -1.542 4.251
 -0.142 -1.541 4.25
 -0.129 -1.541 4.249
 -0.117 -1.542 4.253
 -0.104 -1.54 4.246
 -0.091 -1.54 4.247
 -0.078 -1.541 4.251
 -0.066 -1.543 4.254
 -0.053 -1.543 4.255
 -0.04 -1.545 4.261
 -0.027 -1.543 4.254
 -0.015 -1.543 4.255
 -0.002 -1.54 4.247
 0.01 -1.541 4.248
 0.023 -1.541 4.249
 0.035 -1.542 4.253
 0.048 -1.543 4.253
 0.061 -1.544 4.255
 0.074 -1.543 4.252
 0.086 -1.542 4.25
 0.099 -1.54 4.243
 0.112 -1.54 4.243
 0.124 -1.541 4.245
 0.137 -1.542 4.248
 0.15 -1.54 4.242
 0.163 -1.541 4.245
 0.175 -1.542 4.246
 0.188 -1.542 4.246
 0.201 -1.542 4.246
 0.214 -1.542 4.246
 0.226 -1.543 4.246
 0.239 -1.542 4.242
 0.251 -1.54 4.237
 0.264 -1.538 4.23
 0.277 -1.54 4.236
 0.29 -1.54 4.236
 0.303 -1.544 4.245
 0.316 -1.546 4.25
 0.33 -1.55 4.258
 0.342 -1.549 4.255
 0.355 -1.55 4.258
 0.367 -1.547 4.249
 0.38 -1.547 4.246
 0.393 -1.546 4.243
 0.405 -1.546 4.243
 0.418 -1.546 4.242
 0.431 -1.546 4.24
 0.444 -1.547 4.24
 0.456 -1.545 4.235
 0.469 -1.548 4.24
 0.482 -1.547 4.236
 0.495 -1.547 4.236
 0.508 -1.549 4.239
 0.521 -1.55 4.24
 0.533 -1.549 4.236
 0.547 -1.551 4.241
 0.56 -1.552 4.24
 0.573 -1.551 4.238
 0.586 -1.552 4.237
 0.598 -1.552 4.236
 0.611 -1.551 4.231
 0.623 -1.55 4.228
 0.636 -1.551 4.23
 0.649 -1.551 4.226
 0.662 -1.551 4.223
 0.675 -1.552 4.224
 0.688 -1.552 4.224
 0.701 -1.552 4.223
 0.713 -1.552 4.221
 0.727 -1.555 4.225
 0.74 -1.555 4.224
 0.755 -1.559 4.232
 0.768 -1.559 4.23
 0.782 -1.561 4.235
 0.794 -1.561 4.231
 0.807 -1.561 4.229
 0.819 -1.559 4.223
 0.832 -1.559 4.218
 0.844 -1.557 4.213
 0.858 -1.56 4.216
 0.872 -1.561 4.219
 0.885 -1.562 4.217
 0.898 -1.563 4.219
 0.913 -1.567 4.226
 0.926 -1.566 4.222
 0.939 -1.566 4.219
 0.952 -1.567 4.22
 0.966 -1.57 4.223
 0.979 -1.569 4.22
 0.992 -1.57 4.218
 1.006 -1.571 4.219
 1.019 -1.572 4.218
 1.031 -1.57 4.209
 1.044 -1.57 4.207
 1.057 -1.57 4.204
 1.069 -1.57 4.2
 1.084 -1.572 4.202
 1.098 -1.574 4.206
 1.112 -1.575 4.206
 1.125 -1.576 4.204
 1.139 -1.577 4.205
 1.152 -1.577 4.201
 1.166 -1.578 4.201
 1.179 -1.578 4.198
 1.192 -1.579 4.197
 1.206 -1.58 4.196
 1.221 -1.583 4.199
 1.234 -1.583 4.196
 1.248 -1.584 4.196
 1.263 -1.587 4.199
 1.277 -1.587 4.197
 1.288 -1.585 4.188
 1.302 -1.587 4.189
 1.317 -1.589 4.19
 1.33 -1.59 4.188
 1.346 -1.593 4.194
 1.361 -1.595 4.195
 1.374 -1.595 4.192
 1.39 -1.598 4.195
 1.405 -1.6 4.196
 1.415 -1.597 4.185
 1.43 -1.599 4.184
 1.442 -1.598 4.178
 1.453 -1.596 4.169
 1.467 -1.596 4.166
 1.482 -1.598 4.167
 1.496 -1.599 4.165
 1.51 -1.601 4.165
 1.525 -1.602 4.164
 1.536 -1.6 4.154
 1.55 -1.601 4.151
 1.564 -1.602 4.149
 1.577 -1.602 4.146
 1.59 -1.603 4.142
 1.606 -1.605 4.144
 1.619 -1.605 4.139
 1.631 -1.604 4.131
 1.646 -1.606 4.132
 1.659 -1.605 4.125
 1.672 -1.605 4.12
 1.686 -1.606 4.117
 1.7 -1.607 4.116
 1.714 -1.608 4.112
 1.728 -1.609 4.109
 1.74 -1.608 4.102
 1.755 -1.609 4.1
 1.77 -1.611 4.099
 1.779 -1.607 4.085
 1.792 -1.607 4.078
 1.808 -1.61 4.082
 1.821 -1.61 4.075
 1.83 -1.606 4.061
 1.841 -1.604 4.049
 1.847 -1.598 4.028
 1.85 -1.59 4.003
 1.854 -1.581 3.976
 1.858 -1.574 3.952
 1.863 -1.568 3.931
 1.87 -1.563 3.913
 1.873 -1.555 3.887
 1.877 -1.548 3.864
 1.884 -1.543 3.847
 1.885 -1.533 3.816
 1.884 -1.523 3.784
 1.884 -1.513 3.753
 1.885 -1.504 3.726
 1.885 -1.494 3.695
 1.891 -1.489 3.678
 1.895 -1.483 3.657
 1.915 -1.489 3.666
 0 0 0
 0 0 0
 0 0 0
 0 0 0
 0 0 0
 0 0 0
 0 0 0
 0 0 0
 0 0 0
 0 0 0
 0 0 0
 1.808 -1.307 3.153
 1.816 -1.305 3.141
 1.832 -1.309 3.146
 1.837 -1.305 3.13
 1.848 -1.305 3.125
 1.851 -1.3 3.107
 1.85 -1.292 3.082
 1.843 -1.28 3.047
 1.838 -1.269 3.016
 1.809 -1.242 2.947
 -2.277 -1.567 3.846
 -2.305 -1.595 3.923
 -2.318 -1.614 3.975
 -2.311 -1.618 3.993
 -2.294 -1.616 3.995
 -2.284 -1.619 4.007
 -2.27 -1.619 4.014
 -2.253 -1.616 4.014
 -2.239 -1.616 4.02
 -2.226 -1.617 4.029
 -2.213 -1.617 4.035
 -2.201 -1.618 4.044
 -2.186 -1.617 4.049
 -2.173 -1.618 4.056
 -2.158 -1.617 4.06
 -2.142 -1.615 4.061
 -2.128 -1.615 4.067
 -2.114 -1.614 4.071
 -2.097 -1.611 4.071
 -2.085 -1.613 4.079
 -2.071 -1.613 4.085
 -2.057 -1.613 4.091
 -2.044 -1.613 4.097
 -2.031 -1.613 4.104
 -2.019 -1.614 4.113
 -2.003 -1.613 4.115
 -1.989 -1.612 4.119
 -1.976 -1.613 4.126
 -1.962 -1.613 4.131
 -1.947 -1.611 4.133
 -1.934 -1.611 4.139
 -1.918 -1.609 4.139
 -1.904 -1.609 4.144
 -1.889 -1.608 4.146
 -1.873 -1.606 4.147
 -1.861 -1.608 4.155
 -1.848 -1.608 4.161
 -1.834 -1.608 4.166
 -1.823 -1.61 4.177
 -1.813 -1.613 4.188
 -1.799 -1.613 4.194
 -1.789 -1.616 4.207
 -1.775 -1.616 4.211
 -1.763 -1.617 4.22
 -1.748 -1.616 4.22
 -1.728 -1.61 4.211
 -1.711 -1.607 4.206
 -1.694 -1.603 4.202
 -1.676 -1.599 4.197
 -1.661 -1.597 4.195
 -1.651 -1.601 4.209
 -1.638 -1.601 4.215
 -1.624 -1.601 4.218
 -1.61 -1.6 4.221
 -1.595 -1.599 4.222
 -1.582 -1.6 4.227
 -1.568 -1.599 4.229
 -1.555 -1.599 4.235
 -1.54 -1.598 4.235
 -1.527 -1.598 4.241
 -1.511 -1.596 4.238
 -1.498 -1.596 4.242
 -1.485 -1.597 4.249
 -1.473 -1.598 4.256
 -1.459 -1.598 4.258
 -1.446 -1.598 4.264
 -1.432 -1.597 4.266
 -1.416 -1.594 4.26
 -1.401 -1.592 4.26
 -1.388 -1.593 4.265
 -1.375 -1.593 4.268
 -1.361 -1.593 4.271
 -1.348 -1.594 4.277
 -1.335 -1.593 4.279
 -1.32 -1.592 4.278
 -1.306 -1.59 4.278
 -1.29 -1.587 4.273
 -1.275 -1.586 4.273
 -1.262 -1.586 4.277
 -1.249 -1.586 4.28
 -1.234 -1.584 4.277
 -1.218 -1.581 4.272
 -1.203 -1.578 4.268
 -1.186 -1.574 4.259
 -1.171 -1.571 4.254
 -1.158 -1.572 4.26
 -1.147 -1.574 4.268
 -1.134 -1.575 4.274
 -1.122 -1.576 4.28
 -1.109 -1.576 4.282
 -1.094 -1.574 4.278
 -1.078 -1.57 4.272
 -1.064 -1.569 4.271
 -1.05 -1.568 4.272
 -1.038 -1.569 4.275
 -1.026 -1.57 4.283
 -1.013 -1.571 4.288
 -0.999 -1.57 4.286
 -0.985 -1.569 4.287
 -0.97 -1.566 4.28
 -0.955 -1.563 4.275
 -0.942 -1.563 4.278
 -0.929 -1.563 4.278
 -0.914 -1.56 4.274
 -0.901 -1.56 4.276
 -0.888 -1.56 4.277
 -0.874 -1.559 4.275
 -0.861 -1.559 4.278
 -0.849 -1.56 4.283
 -0.836 -1.561 4.288
 -0.823 -1.561 4.29
 -0.81 -1.56 4.29
 -0.795 -1.556 4.281
 -0.781 -1.554 4.277
 -0.766 -1.551 4.269
 -0.752 -1.548 4.265
 -0.738 -1.547 4.263
 -0.726 -1.548 4.267
 -0.712 -1.547 4.266
 -0.7 -1.548 4.27
 -0.687 -1.548 4.272
 -0.674 -1.548 4.273
 -0.66 -1.546 4.271
 -0.647 -1.546 4.27
 -0.634 -1.545 4.271
 -0.621 -1.544 4.269
 -0.608 -1.546 4.275
 -0.595 -1.545 4.274
 -0.582 -1.544 4.271
 -0.568 -1.542 4.269
 -0.555 -1.542 4.269
 -0.541 -1.539 4.263
 -0.528 -1.539 4.262
 -0.515 -1.538 4.263
 -0.503 -1.539 4.266
 -0.489 -1.538 4.265
 -0.476 -1.537 4.262
 -0.463 -1.537 4.262
 -0.451 -1.537 4.265
 -0.437 -1.536 4.262
 -0.424 -1.535 4.261
 -0.412 -1.536 4.264
 -0.399 -1.536 4.266
 -0.386 -1.536 4.265
 -0.373 -1.535 4.263
 -0.36 -1.535 4.263
 -0.347 -1.535 4.264
 -0.334 -1.534 4.263
 -0.322 -1.534 4.263
 -0.309 -1.534 4.263
 -0.296 -1.533 4.262
 -0.282 -1.529 4.252
 -0.269 -1.529 4.251
 -0.257 -1.528 4.251
 -0.244 -1.528 4.25
 -0.231 -1.529 4.254
 -0.219 -1.532 4.263
 -0.206 -1.532 4.261
 -0.193 -1.532 4.263
 -0.18 -1.53 4.259
 -0.167 -1.529 4.255
 -0.155 -1.53 4.257
 -0.142 -1.529 4.255
 -0.129 -1.526 4.248
 -0.116 -1.528 4.254
 -0.104 -1.527 4.25
 -0.091 -1.526 4.248
 -0.078 -1.527 4.251
 -0.065 -1.528 4.253
 -0.053 -1.528 4.252
 -0.04 -1.53 4.257
 -0.027 -1.528 4.252
 -0.015 -1.529 4.256
 -0.002 -1.529 4.254
 0.01 -1.531 4.26
 0.023 -1.53 4.259
 0.035 -1.531 4.261
 0.048 -1.53 4.258
 0.061 -1.53 4.257
 0.074 -1.528 4.251
 0.086 -1.527 4.249
 0.099 -1.525 4.243
 0.112 -1.527 4.248
 0.125 -1.529 4.251
 0.137 -1.53 4.253
 0.15 -1.529 4.251
 0.163 -1.531 4.256
 0.176 -1.53 4.253
 0.188 -1.531 4.255
 0.201 -1.531 4.253
 0.214 -1.532 4.255
 0.227 -1.531 4.254
 0.239 -1.53 4.248
 0.251 -1.528 4.242
 0.264 -1.527 4.239
 0.277 -1.527 4.238
 0.29 -1.528 4.24
 0.303 -1.531 4.248
 0.316 -1.533 4.252
 0.329 -1.536 4.259
 0.342 -1.535 4.257
 0.355 -1.536 4.258
 0.367 -1.534 4.25
 0.38 -1.533 4.247
 0.392 -1.531 4.241
 0.405 -1.531 4.239
 0.417 -1.531 4.237
 0.43 -1.531 4.237
 0.443 -1.533 4.24
 0.456 -1.533 4.24
 0.47 -1.537 4.248
 0.482 -1.536 4.244
 0.495 -1.536 4.244
 0.508 -1.536 4.243
 0.521 -1.537 4.244
 0.533 -1.534 4.235
 0.546 -1.536 4.238
 0.559 -1.537 4.24
 0.572 -1.537 4.239
 0.585 -1.538 4.24
 0.599 -1.54 4.242
 0.612 -1.54 4.241
 0.624 -1.539 4.237
 0.637 -1.539 4.234
 0.649 -1.538 4.23
 0.662 -1.538 4.228
 0.675 -1.539 4.23
 0.688 -1.54 4.23
 0.701 -1.54 4.228
 0.714 -1.54 4.225
 0.728 -1.542 4.231
 0.74 -1.542 4.226
 0.754 -1.545 4.233
 0.768 -1.547 4.236
 0.782 -1.549 4.241
 0.794 -1.548 4.235
 0.808 -1.55 4.239
 0.821 -1.549 4.234
 0.833 -1.548 4.228
 0.845 -1.547 4.223
 0.859 -1.549 4.226
 0.872 -1.548 4.223
 0.884 -1.547 4.218
 0.897 -1.548 4.218
 0.911 -1.551 4.221
 0.924 -1.551 4.219
 0.938 -1.553 4.221
 0.952 -1.555 4.224
 0.967 -1.557 4.228
 0.98 -1.557 4.226
 0.993 -1.559 4.227
 1.007 -1.559 4.225
 1.02 -1.559 4.222
 1.032 -1.558 4.216
 1.045 -1.559 4.217
 1.058 -1.559 4.213
 1.071 -1.559 4.211
 1.085 -1.56 4.212
 1.099 -1.563 4.214
 1.113 -1.563 4.213
 1.126 -1.564 4.213
 1.14 -1.564 4.21
 1.153 -1.565 4.207
 1.167 -1.566 4.208
 1.18 -1.567 4.207
 1.193 -1.567 4.203
 1.207 -1.569 4.204
 1.223 -1.572 4.209
 1.236 -1.572 4.205
 1.25 -1.573 4.206
 1.264 -1.575 4.206
 1.277 -1.574 4.202
 1.289 -1.573 4.196
 1.304 -1.576 4.199
 1.318 -1.577 4.197
 1.332 -1.578 4.196
 1.349 -1.582 4.204
 1.363 -1.584 4.204
 1.377 -1.584 4.202
 1.393 -1.588 4.208
 1.408 -1.59 4.21
 1.419 -1.588 4.199
 1.432 -1.588 4.196
 1.444 -1.587 4.188
 1.456 -1.585 4.18
 1.47 -1.586 4.178
 1.485 -1.588 4.18
 1.499 -1.59 4.18
 1.514 -1.592 4.18
 1.528 -1.593 4.178
 1.541 -1.592 4.172
 1.555 -1.593 4.17
 1.568 -1.593 4.166
 1.582 -1.594 4.163
 1.595 -1.593 4.158
 1.609 -1.595 4.157
 1.622 -1.595 4.151
 1.634 -1.594 4.144
 1.65 -1.597 4.147
 1.663 -1.596 4.141
 1.676 -1.596 4.134
 1.69 -1.596 4.131
 1.706 -1.599 4.134
 1.718 -1.598 4.126
 1.733 -1.6 4.125
 1.746 -1.6 4.119
 1.762 -1.602 4.121
 1.777 -1.604 4.12
 1.788 -1.602 4.11
 1.8 -1.601 4.102
 1.814 -1.602 4.099
 1.827 -1.601 4.092
 1.834 -1.596 4.072
 1.844 -1.593 4.06
 1.851 -1.588 4.043
 1.856 -1.582 4.02
 1.856 -1.571 3.987
 1.863 -1.566 3.968
 1.869 -1.56 3.947
 1.872 -1.552 3.921
 1.877 -1.546 3.9
 1.884 -1.54 3.882
 1.889 -1.534 3.861
 1.89 -1.525 3.831
 1.892 -1.516 3.804
 1.89 -1.505 3.769
 1.891 -1.496 3.741
 1.892 -1.487 3.714
 1.893 -1.478 3.685
 1.893 -1.469 3.657
 0 0 0
 0 0 0
 0 0 0
 0 0 0
 0 0 0
 0 0 0
 0 0 0
 0 0 0
 0 0 0
 0 0 0
 0 0 0
 0 0 0
 1.806 -1.295 3.152
 1.821 -1.298 3.155
 1.833 -1.299 3.152
 1.836 -1.293 3.132
 1.85 -1.296 3.132
 1.856 -1.292 3.118
 1.852 -1.283 3.089
 1.848 -1.272 3.059
 1.835 -1.257 3.015
 1.856 -1.264 3.027
 -2.368 -1.616 4.005
 -2.393 -1.643 4.08
 -2.329 -1.608 3.999
 -2.325 -1.614 4.023
 -2.307 -1.612 4.022
 -2.296 -1.613 4.033
 -2.284 -1.615 4.043
 -2.268 -1.613 4.045
 -2.252 -1.612 4.049
 -2.24 -1.613 4.058
 -2.229 -1.615 4.069
 -2.216 -1.616 4.078
 -2.202 -1.615 4.083
 -2.189 -1.616 4.09
 -2.177 -1.617 4.1
 -2.158 -1.613 4.096
 -2.143 -1.612 4.099
 -2.13 -1.613 4.107
 -2.114 -1.611 4.109
 -2.099 -1.61 4.113
 -2.086 -1.611 4.121
 -2.076 -1.613 4.132
 -2.06 -1.612 4.134
 -2.046 -1.611 4.139
 -2.032 -1.611 4.144
 -2.017 -1.61 4.147
 -1.999 -1.607 4.145
 -1.985 -1.607 4.15
 -1.97 -1.606 4.153
 -1.956 -1.605 4.157
 -1.944 -1.606 4.165
 -1.929 -1.605 4.167
 -1.915 -1.605 4.173
 -1.9 -1.604 4.176
 -1.884 -1.603 4.176
 -1.87 -1.602 4.181
 -1.858 -1.603 4.188
 -1.843 -1.602 4.19
 -1.832 -1.604 4.201
 -1.819 -1.605 4.208
 -1.807 -1.606 4.216
 -1.798 -1.61 4.232
 -1.785 -1.611 4.24
 -1.772 -1.612 4.246
 -1.757 -1.611 4.249
 -1.739 -1.606 4.241
 -1.72 -1.602 4.234
 -1.703 -1.599 4.23
 -1.686 -1.595 4.224
 -1.67 -1.593 4.224
 -1.658 -1.594 4.232
 -1.646 -1.596 4.241
 -1.632 -1.595 4.244
 -1.618 -1.595 4.246
 -1.605 -1.595 4.252
 -1.592 -1.596 4.259
 -1.577 -1.594 4.258
 -1.564 -1.595 4.264
 -1.549 -1.594 4.265
 -1.536 -1.594 4.27
 -1.52 -1.591 4.266
 -1.504 -1.589 4.265
 -1.491 -1.589 4.268
 -1.478 -1.59 4.274
 -1.462 -1.588 4.272
 -1.451 -1.59 4.281
 -1.437 -1.59 4.285
 -1.422 -1.587 4.282
 -1.407 -1.586 4.282
 -1.393 -1.586 4.285
 -1.378 -1.584 4.283
 -1.364 -1.583 4.285
 -1.349 -1.581 4.284
 -1.335 -1.581 4.286
 -1.321 -1.579 4.285
 -1.307 -1.578 4.286
 -1.291 -1.575 4.281
 -1.278 -1.576 4.286
 -1.264 -1.576 4.289
 -1.252 -1.576 4.294
 -1.236 -1.574 4.29
 -1.221 -1.572 4.288
 -1.207 -1.57 4.286
 -1.19 -1.566 4.277
 -1.174 -1.562 4.271
 -1.161 -1.562 4.274
 -1.149 -1.564 4.281
 -1.135 -1.563 4.282
 -1.123 -1.564 4.287
 -1.109 -1.563 4.287
 -1.094 -1.561 4.285
 -1.078 -1.557 4.277
 -1.064 -1.556 4.276
 -1.05 -1.554 4.273
 -1.038 -1.556 4.28
 -1.025 -1.557 4.286
 -1.013 -1.558 4.292
 -0.999 -1.556 4.289
 -0.986 -1.557 4.293
 -0.971 -1.554 4.287
 -0.957 -1.552 4.286
 -0.943 -1.551 4.285
 -0.93 -1.551 4.286
 -0.915 -1.549 4.283
 -0.901 -1.548 4.281
 -0.888 -1.547 4.281
 -0.874 -1.546 4.28
 -0.861 -1.545 4.279
 -0.848 -1.545 4.283
 -0.835 -1.546 4.288
 -0.821 -1.544 4.284
 -0.808 -1.544 4.285
 -0.794 -1.542 4.283
 -0.78 -1.54 4.278
 -0.766 -1.538 4.274
 -0.753 -1.538 4.276
 -0.739 -1.537 4.274
 -0.726 -1.537 4.275
 -0.713 -1.536 4.275
 -0.7 -1.535 4.275
 -0.687 -1.535 4.276
 -0.674 -1.536 4.279
 -0.661 -1.535 4.279
 -0.648 -1.536 4.283
 -0.635 -1.536 4.286
 -0.622 -1.535 4.284
 -0.609 -1.536 4.288
 -0.596 -1.535 4.285
 -0.582 -1.531 4.277
 -0.568 -1.53 4.275
 -0.555 -1.529 4.272
 -0.541 -1.527 4.268
 -0.528 -1.527 4.268
 -0.516 -1.527 4.27
 -0.503 -1.527 4.272
 -0.49 -1.526 4.271
 -0.476 -1.524 4.265
 -0.463 -1.523 4.264
 -0.45 -1.524 4.267
 -0.437 -1.522 4.264
 -0.424 -1.522 4.264
 -0.411 -1.522 4.266
 -0.399 -1.523 4.269
 -0.386 -1.523 4.268
 -0.373 -1.522 4.266
 -0.36 -1.522 4.266
 -0.347 -1.522 4.269
 -0.334 -1.521 4.266
 -0.321 -1.521 4.268
 -0.309 -1.522 4.27
 -0.296 -1.521 4.267
 -0.282 -1.517 4.258
 -0.269 -1.517 4.257
 -0.257 -1.516 4.255
 -0.244 -1.515 4.253
 -0.231 -1.517 4.259
 -0.219 -1.519 4.266
 -0.206 -1.519 4.265
 -0.193 -1.52 4.27
 -0.18 -1.519 4.265
 -0.167 -1.517 4.262
 -0.155 -1.517 4.262
 -0.142 -1.515 4.256
 -0.129 -1.512 4.247
 -0.116 -1.514 4.253
 -0.103 -1.513 4.251
 -0.091 -1.512 4.247
 -0.078 -1.513 4.25
 -0.065 -1.514 4.252
 -0.052 -1.512 4.246
 -0.04 -1.513 4.251
 -0.027 -1.512 4.249
 -0.014 -1.515 4.256
 -0.002 -1.515 4.257
 0.01 -1.518 4.265
 0.023 -1.518 4.263
 0.036 -1.519 4.267
 0.048 -1.518 4.264
 0.061 -1.518 4.262
 0.074 -1.517 4.259
 0.086 -1.516 4.256
 0.099 -1.515 4.252
 0.112 -1.516 4.256
 0.125 -1.517 4.257
 0.137 -1.516 4.254
 0.15 -1.515 4.252
 0.163 -1.517 4.257
 0.176 -1.517 4.254
 0.188 -1.517 4.256
 0.201 -1.518 4.257
 0.214 -1.519 4.259
 0.227 -1.518 4.256
 0.239 -1.517 4.251
 0.252 -1.515 4.247
 0.264 -1.514 4.243
 0.277 -1.514 4.242
 0.29 -1.515 4.245
 0.303 -1.518 4.25
 0.316 -1.519 4.253
 0.329 -1.522 4.26
 0.342 -1.522 4.259
 0.355 -1.522 4.259
 0.367 -1.52 4.252
 0.38 -1.52 4.25
 0.392 -1.518 4.245
 0.405 -1.518 4.242
 0.417 -1.517 4.24
 0.43 -1.518 4.24
 0.443 -1.52 4.244
 0.456 -1.521 4.245
 0.47 -1.524 4.253
 0.483 -1.523 4.25
 0.495 -1.523 4.248
 0.508 -1.523 4.245
 0.521 -1.523 4.243
 0.533 -1.521 4.237
 0.546 -1.522 4.24
 0.559 -1.523 4.24
 0.572 -1.525 4.243
 0.586 -1.526 4.244
 0.598 -1.526 4.244
 0.611 -1.526 4.243
 0.624 -1.527 4.242
 0.636 -1.525 4.236
 0.649 -1.524 4.231
 0.662 -1.526 4.234
 0.675 -1.526 4.234
 0.688 -1.527 4.232
 0.701 -1.527 4.233
 0.714 -1.527 4.231
 0.727 -1.529 4.233
 0.74 -1.529 4.23
 0.754 -1.532 4.236
 0.768 -1.533 4.238
 0.781 -1.534 4.24
 0.793 -1.533 4.234
 0.807 -1.534 4.235
 0.819 -1.534 4.231
 0.833 -1.534 4.231
 0.846 -1.535 4.229
 0.86 -1.537 4.234
 0.873 -1.537 4.232
 0.885 -1.536 4.226
 0.897 -1.535 4.221
 0.911 -1.537 4.224
 0.923 -1.535 4.216
 0.938 -1.539 4.222
 0.951 -1.539 4.222
 0.966 -1.542 4.227
 0.979 -1.543 4.226
 0.994 -1.546 4.233
 1.006 -1.545 4.227
 1.02 -1.547 4.23
 1.032 -1.546 4.223
 1.046 -1.547 4.223
 1.059 -1.547 4.22
 1.072 -1.548 4.219
 1.086 -1.548 4.217
 1.101 -1.551 4.223
 1.114 -1.551 4.22
 1.126 -1.551 4.216
 1.139 -1.551 4.212
 1.153 -1.551 4.211
 1.166 -1.553 4.21
 1.18 -1.554 4.211
 1.194 -1.554 4.209
 1.208 -1.556 4.21
 1.223 -1.559 4.214
 1.236 -1.558 4.209
 1.249 -1.559 4.209
 1.264 -1.561 4.21
 1.278 -1.562 4.209
 1.291 -1.562 4.205
 1.306 -1.565 4.208
 1.319 -1.565 4.206
 1.333 -1.566 4.203
 1.349 -1.569 4.208
 1.363 -1.571 4.21
 1.378 -1.573 4.211
 1.394 -1.576 4.217
 1.409 -1.578 4.218
 1.421 -1.577 4.21
 1.434 -1.577 4.205
 1.444 -1.574 4.194
 1.457 -1.573 4.187
 1.471 -1.574 4.186
 1.486 -1.576 4.188
 1.501 -1.578 4.188
 1.517 -1.581 4.191
 1.531 -1.582 4.19
 1.545 -1.583 4.188
 1.56 -1.584 4.187
 1.571 -1.583 4.179
 1.585 -1.584 4.176
 1.598 -1.584 4.171
 1.612 -1.584 4.167
 1.624 -1.583 4.16
 1.637 -1.583 4.155
 1.654 -1.586 4.159
 1.667 -1.586 4.154
 1.68 -1.587 4.15
 1.695 -1.588 4.149
 1.711 -1.59 4.15
 1.722 -1.588 4.139
 1.736 -1.59 4.138
 1.751 -1.591 4.136
 1.766 -1.593 4.136
 1.782 -1.595 4.136
 1.794 -1.594 4.129
 1.807 -1.594 4.123
 1.817 -1.591 4.111
 1.829 -1.59 4.102
 1.836 -1.584 4.082
 1.845 -1.581 4.068
 1.852 -1.576 4.048
 1.857 -1.569 4.025
 1.859 -1.56 3.996
 1.867 -1.556 3.98
 1.873 -1.55 3.96
 1.877 -1.543 3.936
 1.885 -1.539 3.92
 1.888 -1.531 3.894
 1.893 -1.524 3.872
 1.894 -1.515 3.843
 1.897 -1.508 3.818
 1.896 -1.497 3.787
 1.899 -1.49 3.762
 1.901 -1.482 3.735
 1.903 -1.474 3.71
 0 0 0
 0 0 0
 0 0 0
 0 0 0
 0 0 0
 0 0 0
 0 0 0
 0 0 0
 0 0 0
 0 0 0
 0 0 0
 0 0 0
 0 0 0
 1.801 -1.28 3.147
 1.817 -1.284 3.152
 1.834 -1.289 3.157
 1.837 -1.284 3.138
 1.848 -1.283 3.132
 1.853 -1.28 3.117
 1.85 -1.271 3.09
 1.844 -1.259 3.056
 1.824 -1.239 3
 1.82 -1.229 2.971
 0 0 0
 -2.403 -1.635 4.101
 -2.348 -1.607 4.036
 -2.344 -1.614 4.061
 -2.324 -1.61 4.058
 -2.314 -1.612 4.07
 -2.299 -1.612 4.076
 -2.28 -1.608 4.072
 -2.264 -1.607 4.075
 -2.254 -1.609 4.088
 -2.242 -1.611 4.099
 -2.233 -1.614 4.113
 -2.219 -1.614 4.12
 -2.207 -1.615 4.13
 -2.193 -1.616 4.136
 -2.175 -1.612 4.133
 -2.155 -1.607 4.128
 -2.143 -1.609 4.138
 -2.126 -1.607 4.138
 -2.112 -1.607 4.144
 -2.098 -1.607 4.15
 -2.09 -1.611 4.166
 -2.073 -1.609 4.166
 -2.061 -1.609 4.174
 -2.045 -1.608 4.176
 -2.03 -1.607 4.18
 -2.012 -1.604 4.177
 -2 -1.605 4.185
 -1.984 -1.603 4.186
 -1.968 -1.602 4.188
 -1.957 -1.603 4.198
 -1.941 -1.602 4.2
 -1.926 -1.601 4.203
 -1.911 -1.6 4.205
 -1.896 -1.599 4.207
 -1.881 -1.598 4.209
 -1.87 -1.6 4.22
 -1.856 -1.6 4.225
 -1.843 -1.6 4.232
 -1.832 -1.603 4.243
 -1.82 -1.604 4.253
 -1.809 -1.606 4.262
 -1.794 -1.605 4.265
 -1.781 -1.606 4.271
 -1.766 -1.606 4.275
 -1.748 -1.601 4.268
 -1.73 -1.597 4.262
 -1.713 -1.594 4.258
 -1.694 -1.589 4.251
 -1.677 -1.586 4.246
 -1.664 -1.587 4.252
 -1.652 -1.588 4.261
 -1.639 -1.589 4.267
 -1.625 -1.589 4.271
 -1.613 -1.589 4.277
 -1.599 -1.589 4.281
 -1.583 -1.587 4.279
 -1.568 -1.586 4.281
 -1.553 -1.584 4.28
 -1.539 -1.584 4.284
 -1.522 -1.58 4.278
 -1.508 -1.579 4.279
 -1.494 -1.579 4.283
 -1.481 -1.58 4.288
 -1.465 -1.577 4.284
 -1.454 -1.58 4.295
 -1.439 -1.578 4.296
 -1.424 -1.576 4.293
 -1.408 -1.574 4.291
 -1.395 -1.574 4.296
 -1.381 -1.573 4.296
 -1.366 -1.571 4.294
 -1.351 -1.57 4.294
 -1.338 -1.57 4.298
 -1.322 -1.568 4.295
 -1.307 -1.565 4.291
 -1.292 -1.563 4.289
 -1.277 -1.562 4.289
 -1.263 -1.56 4.287
 -1.249 -1.56 4.291
 -1.235 -1.559 4.291
 -1.221 -1.558 4.29
 -1.206 -1.557 4.29
 -1.192 -1.555 4.289
 -1.177 -1.553 4.286
 -1.164 -1.553 4.288
 -1.151 -1.553 4.292
 -1.137 -1.553 4.294
 -1.124 -1.553 4.297
 -1.109 -1.551 4.294
 -1.095 -1.549 4.292
 -1.079 -1.546 4.285
 -1.065 -1.544 4.283
 -1.05 -1.541 4.277
 -1.037 -1.542 4.283
 -1.024 -1.542 4.286
 -1.012 -1.544 4.293
 -0.998 -1.542 4.29
 -0.985 -1.542 4.293
 -0.97 -1.54 4.29
 -0.957 -1.54 4.292
 -0.943 -1.538 4.289
 -0.93 -1.539 4.293
 -0.917 -1.538 4.293
 -0.902 -1.536 4.29
 -0.889 -1.535 4.289
 -0.875 -1.534 4.287
 -0.861 -1.532 4.285
 -0.847 -1.531 4.283
 -0.834 -1.531 4.287
 -0.821 -1.531 4.287
 -0.807 -1.529 4.283
 -0.793 -1.527 4.281
 -0.78 -1.527 4.282
 -0.766 -1.525 4.279
 -0.752 -1.523 4.274
 -0.739 -1.523 4.277
 -0.726 -1.524 4.28
 -0.713 -1.522 4.278
 -0.7 -1.523 4.281
 -0.687 -1.523 4.283
 -0.674 -1.524 4.287
 -0.661 -1.523 4.286
 -0.649 -1.524 4.289
 -0.635 -1.523 4.288
 -0.622 -1.522 4.288
 -0.609 -1.522 4.289
 -0.595 -1.521 4.286
 -0.581 -1.518 4.279
 -0.568 -1.517 4.277
 -0.555 -1.515 4.274
 -0.541 -1.514 4.272
 -0.528 -1.513 4.271
 -0.515 -1.513 4.271
 -0.502 -1.513 4.274
 -0.489 -1.513 4.272
 -0.476 -1.51 4.266
 -0.463 -1.509 4.265
 -0.45 -1.511 4.27
 -0.437 -1.508 4.263
 -0.424 -1.508 4.264
 -0.411 -1.508 4.265
 -0.398 -1.509 4.268
 -0.385 -1.508 4.266
 -0.372 -1.508 4.267
 -0.36 -1.507 4.267
 -0.347 -1.508 4.27
 -0.334 -1.508 4.27
 -0.321 -1.509 4.272
 -0.309 -1.51 4.277
 -0.296 -1.509 4.275
 -0.283 -1.506 4.267
 -0.27 -1.505 4.263
 -0.257 -1.503 4.259
 -0.244 -1.502 4.255
 -0.231 -1.503 4.258
 -0.218 -1.505 4.265
 -0.206 -1.505 4.266
 -0.193 -1.506 4.27
 -0.18 -1.504 4.265
 -0.167 -1.503 4.261
 -0.154 -1.502 4.259
 -0.141 -1.5 4.253
 -0.129 -1.498 4.247
 -0.116 -1.5 4.253
 -0.103 -1.501 4.256
 -0.091 -1.5 4.255
 -0.078 -1.501 4.257
 -0.065 -1.501 4.256
 -0.052 -1.499 4.25
 -0.04 -1.5 4.253
 -0.027 -1.498 4.248
 -0.014 -1.502 4.259
 -0.002 -1.503 4.26
 0.01 -1.505 4.267
 0.023 -1.504 4.263
 0.036 -1.505 4.267
 0.048 -1.502 4.259
 0.061 -1.502 4.256
 0.074 -1.502 4.257
 0.086 -1.501 4.255
 0.099 -1.502 4.255
 0.112 -1.503 4.26
 0.125 -1.503 4.26
 0.137 -1.502 4.255
 0.15 -1.501 4.252
 0.163 -1.502 4.254
 0.175 -1.501 4.251
 0.188 -1.502 4.253
 0.201 -1.502 4.251
 0.214 -1.504 4.256
 0.226 -1.503 4.254
 0.239 -1.503 4.253
 0.252 -1.502 4.249
 0.264 -1.502 4.248
 0.277 -1.502 4.246
 0.29 -1.503 4.249
 0.303 -1.504 4.252
 0.316 -1.505 4.254
 0.329 -1.507 4.257
 0.342 -1.508 4.258
 0.355 -1.508 4.259
 0.367 -1.507 4.254
 0.38 -1.507 4.254
 0.392 -1.507 4.251
 0.405 -1.505 4.245
 0.417 -1.505 4.243
 0.43 -1.505 4.244
 0.443 -1.506 4.245
 0.456 -1.507 4.246
 0.47 -1.51 4.254
 0.482 -1.509 4.25
 0.495 -1.509 4.248
 0.508 -1.509 4.245
 0.52 -1.509 4.244
 0.532 -1.507 4.237
 0.546 -1.508 4.239
 0.559 -1.509 4.239
 0.572 -1.51 4.241
 0.585 -1.51 4.241
 0.598 -1.512 4.243
 0.611 -1.512 4.243
 0.624 -1.512 4.241
 0.636 -1.511 4.236
 0.648 -1.511 4.233
 0.662 -1.512 4.235
 0.675 -1.513 4.237
 0.688 -1.514 4.237
 0.702 -1.515 4.238
 0.715 -1.516 4.238
 0.728 -1.517 4.24
 0.74 -1.516 4.235
 0.755 -1.519 4.242
 0.769 -1.522 4.247
 0.782 -1.523 4.248
 0.795 -1.522 4.244
 0.808 -1.524 4.245
 0.821 -1.523 4.241
 0.832 -1.521 4.233
 0.846 -1.522 4.234
 0.859 -1.522 4.233
 0.871 -1.521 4.227
 0.883 -1.52 4.222
 0.896 -1.521 4.22
 0.91 -1.522 4.221
 0.922 -1.521 4.217
 0.938 -1.525 4.225
 0.951 -1.526 4.225
 0.965 -1.528 4.228
 0.978 -1.528 4.225
 0.992 -1.53 4.229
 1.005 -1.53 4.225
 1.019 -1.532 4.227
 1.032 -1.532 4.226
 1.046 -1.534 4.228
 1.059 -1.534 4.224
 1.072 -1.535 4.223
 1.086 -1.536 4.224
 1.1 -1.538 4.225
 1.113 -1.538 4.223
 1.128 -1.54 4.225
 1.14 -1.539 4.221
 1.153 -1.539 4.218
 1.167 -1.54 4.216
 1.181 -1.541 4.216
 1.193 -1.54 4.21
 1.207 -1.542 4.21
 1.222 -1.544 4.215
 1.236 -1.546 4.216
 1.251 -1.548 4.217
 1.266 -1.55 4.219
 1.28 -1.552 4.22
 1.293 -1.551 4.216
 1.307 -1.552 4.215
 1.319 -1.552 4.21
 1.333 -1.553 4.209
 1.348 -1.555 4.21
 1.363 -1.557 4.212
 1.377 -1.559 4.213
 1.393 -1.561 4.216
 1.407 -1.563 4.216
 1.42 -1.563 4.211
 1.433 -1.563 4.208
 1.445 -1.561 4.2
 1.459 -1.562 4.197
 1.473 -1.563 4.196
 1.487 -1.564 4.195
 1.502 -1.566 4.194
 1.516 -1.567 4.194
 1.53 -1.568 4.192
 1.544 -1.569 4.19
 1.559 -1.571 4.191
 1.57 -1.569 4.18
 1.585 -1.57 4.18
 1.6 -1.572 4.179
 1.613 -1.572 4.176
 1.626 -1.571 4.169
 1.64 -1.572 4.167
 1.655 -1.574 4.167
 1.668 -1.574 4.162
 1.682 -1.575 4.159
 1.697 -1.577 4.158
 1.713 -1.579 4.16
 1.724 -1.577 4.15
 1.739 -1.579 4.148
 1.753 -1.579 4.146
 1.77 -1.582 4.148
 1.785 -1.584 4.148
 1.798 -1.584 4.142
 1.812 -1.584 4.137
 1.822 -1.581 4.124
 1.834 -1.58 4.116
 1.84 -1.575 4.096
 1.851 -1.572 4.084
 1.857 -1.567 4.064
 1.864 -1.562 4.045
 1.865 -1.552 4.014
 1.873 -1.547 3.997
 1.878 -1.541 3.974
 1.88 -1.532 3.947
 1.886 -1.527 3.927
 1.892 -1.521 3.906
 1.897 -1.515 3.886
 1.899 -1.507 3.859
 1.903 -1.5 3.835
 1.905 -1.491 3.808
 1.907 -1.483 3.782
 1.908 -1.475 3.753
 0 0 0
 0 0 0
 0 0 0
 0 0 0
 0 0 0
 0 0 0
 0 0 0
 0 0 0
 0 0 0
 0 0 0
 0 0 0
 0 0 0
 0 0 0
 0 0 0
 1.803 -1.271 3.155
 1.817 -1.273 3.154
 1.829 -1.274 3.151
 1.836 -1.272 3.14
 1.845 -1.271 3.132
 1.848 -1.266 3.114
 1.846 -1.257 3.086
 1.843 -1.248 3.057
 1.822 -1.227 3.001
 1.84 -1.232 3.007
 0 0 0
 -2.378 -1.604 4.063
 -2.373 -1.611 4.086
 -2.359 -1.61 4.092
 -2.334 -1.603 4.079
 -2.324 -1.606 4.094
 -2.311 -1.606 4.101
 -2.293 -1.603 4.101
 -2.279 -1.603 4.106
 -2.268 -1.605 4.119
 -2.255 -1.606 4.126
 -2.246 -1.609 4.142
 -2.232 -1.61 4.149
 -2.219 -1.611 4.158
 -2.207 -1.612 4.167
 -2.192 -1.611 4.172
 -2.174 -1.608 4.169
 -2.161 -1.609 4.178
 -2.144 -1.606 4.178
 -2.129 -1.606 4.182
 -2.112 -1.603 4.181
 -2.103 -1.607 4.197
 -2.088 -1.606 4.2
 -2.076 -1.607 4.21
 -2.057 -1.603 4.205
 -2.044 -1.604 4.214
 -2.025 -1.6 4.209
 -2.013 -1.602 4.218
 -1.995 -1.599 4.216
 -1.98 -1.597 4.217
 -1.965 -1.597 4.222
 -1.951 -1.597 4.227
 -1.936 -1.596 4.229
 -1.921 -1.594 4.231
 -1.907 -1.595 4.237
 -1.894 -1.595 4.243
 -1.881 -1.596 4.25
 -1.867 -1.595 4.255
 -1.853 -1.595 4.26
 -1.841 -1.597 4.268
 -1.827 -1.596 4.272
 -1.813 -1.596 4.277
 -1.797 -1.595 4.278
 -1.785 -1.596 4.287
 -1.771 -1.596 4.291
 -1.755 -1.594 4.29
 -1.737 -1.59 4.286
 -1.719 -1.586 4.279
 -1.701 -1.582 4.272
 -1.684 -1.579 4.268
 -1.668 -1.577 4.268
 -1.657 -1.579 4.278
 -1.644 -1.58 4.285
 -1.63 -1.579 4.287
 -1.618 -1.581 4.297
 -1.604 -1.58 4.299
 -1.589 -1.579 4.299
 -1.573 -1.577 4.299
 -1.559 -1.577 4.301
 -1.544 -1.575 4.301
 -1.526 -1.571 4.294
 -1.51 -1.569 4.291
 -1.497 -1.569 4.295
 -1.482 -1.567 4.294
 -1.465 -1.564 4.289
 -1.454 -1.566 4.3
 -1.44 -1.565 4.301
 -1.424 -1.563 4.299
 -1.409 -1.561 4.298
 -1.396 -1.562 4.303
 -1.382 -1.561 4.304
 -1.367 -1.559 4.302
 -1.351 -1.557 4.299
 -1.337 -1.556 4.301
 -1.321 -1.553 4.297
 -1.306 -1.551 4.293
 -1.291 -1.55 4.293
 -1.278 -1.549 4.294
 -1.263 -1.548 4.294
 -1.249 -1.546 4.293
 -1.234 -1.545 4.293
 -1.221 -1.545 4.295
 -1.207 -1.545 4.298
 -1.193 -1.543 4.297
 -1.18 -1.543 4.3
 -1.166 -1.542 4.3
 -1.152 -1.542 4.302
 -1.137 -1.539 4.298
 -1.124 -1.539 4.301
 -1.109 -1.537 4.295
 -1.094 -1.534 4.292
 -1.078 -1.531 4.286
 -1.065 -1.53 4.286
 -1.049 -1.527 4.28
 -1.037 -1.528 4.285
 -1.024 -1.529 4.29
 -1.011 -1.529 4.293
 -0.997 -1.527 4.29
 -0.983 -1.526 4.289
 -0.969 -1.525 4.288
 -0.955 -1.524 4.287
 -0.941 -1.522 4.285
 -0.928 -1.523 4.29
 -0.916 -1.525 4.297
 -0.902 -1.523 4.293
 -0.889 -1.522 4.294
 -0.875 -1.521 4.294
 -0.861 -1.52 4.291
 -0.847 -1.517 4.285
 -0.834 -1.518 4.289
 -0.82 -1.517 4.288
 -0.805 -1.513 4.28
 -0.792 -1.512 4.279
 -0.778 -1.511 4.278
 -0.764 -1.509 4.275
 -0.75 -1.507 4.27
 -0.738 -1.509 4.277
 -0.726 -1.51 4.28
 -0.712 -1.508 4.277
 -0.699 -1.508 4.28
 -0.687 -1.51 4.285
 -0.674 -1.509 4.285
 -0.66 -1.509 4.286
 -0.649 -1.511 4.294
 -0.635 -1.511 4.294
 -0.622 -1.51 4.295
 -0.609 -1.51 4.296
 -0.595 -1.508 4.291
 -0.581 -1.505 4.282
 -0.568 -1.504 4.281
 -0.554 -1.502 4.276
 -0.541 -1.501 4.274
 -0.528 -1.501 4.275
 -0.515 -1.5 4.276
 -0.502 -1.501 4.278
 -0.489 -1.5 4.276
 -0.476 -1.498 4.273
 -0.462 -1.496 4.268
 -0.45 -1.498 4.273
 -0.437 -1.496 4.269
 -0.423 -1.494 4.266
 -0.411 -1.494 4.265
 -0.398 -1.495 4.27
 -0.385 -1.494 4.267
 -0.372 -1.493 4.264
 -0.359 -1.494 4.268
 -0.347 -1.494 4.27
 -0.334 -1.494 4.271
 -0.321 -1.495 4.274
 -0.309 -1.497 4.279
 -0.295 -1.494 4.273
 -0.282 -1.493 4.27
 -0.269 -1.491 4.263
 -0.256 -1.49 4.261
 -0.243 -1.487 4.255
 -0.231 -1.489 4.26
 -0.218 -1.491 4.265
 -0.206 -1.492 4.269
 -0.193 -1.493 4.272
 -0.18 -1.493 4.272
 -0.167 -1.491 4.267
 -0.154 -1.489 4.261
 -0.141 -1.487 4.256
 -0.128 -1.484 4.249
 -0.116 -1.485 4.251
 -0.103 -1.487 4.256
 -0.09 -1.487 4.256
 -0.078 -1.487 4.256
 -0.065 -1.488 4.259
 -0.052 -1.486 4.255
 -0.04 -1.487 4.256
 -0.027 -1.486 4.253
 -0.014 -1.489 4.263
 -0.002 -1.49 4.266
 0.01 -1.492 4.27
 0.023 -1.49 4.264
 0.036 -1.49 4.265
 0.048 -1.488 4.258
 0.061 -1.486 4.253
 0.074 -1.488 4.256
 0.086 -1.489 4.259
 0.099 -1.489 4.26
 0.112 -1.489 4.26
 0.125 -1.489 4.259
 0.137 -1.488 4.254
 0.15 -1.487 4.251
 0.163 -1.487 4.252
 0.175 -1.488 4.253
 0.188 -1.488 4.252
 0.201 -1.487 4.249
 0.213 -1.487 4.25
 0.226 -1.487 4.249
 0.239 -1.487 4.247
 0.251 -1.488 4.248
 0.264 -1.489 4.251
 0.277 -1.489 4.25
 0.29 -1.49 4.252
 0.303 -1.491 4.256
 0.316 -1.492 4.257
 0.329 -1.492 4.255
 0.341 -1.493 4.257
 0.354 -1.494 4.259
 0.367 -1.493 4.254
 0.379 -1.491 4.248
 0.392 -1.492 4.25
 0.404 -1.491 4.245
 0.417 -1.49 4.243
 0.43 -1.491 4.244
 0.443 -1.493 4.247
 0.456 -1.493 4.248
 0.47 -1.496 4.254
 0.482 -1.495 4.251
 0.495 -1.496 4.251
 0.508 -1.496 4.25
 0.52 -1.495 4.246
 0.533 -1.494 4.241
 0.546 -1.495 4.242
 0.558 -1.495 4.241
 0.571 -1.496 4.242
 0.585 -1.497 4.243
 0.598 -1.499 4.247
 0.611 -1.498 4.244
 0.623 -1.498 4.242
 0.636 -1.498 4.238
 0.649 -1.498 4.237
 0.662 -1.498 4.237
 0.675 -1.5 4.239
 0.688 -1.501 4.24
 0.701 -1.501 4.237
 0.714 -1.501 4.238
 0.727 -1.503 4.24
 0.74 -1.502 4.234
 0.754 -1.504 4.239
 0.768 -1.508 4.247
 0.782 -1.509 4.248
 0.794 -1.508 4.244
 0.808 -1.511 4.25
 0.821 -1.51 4.246
 0.834 -1.51 4.242
 0.846 -1.509 4.238
 0.86 -1.512 4.242
