 0.708 -1.587 4.218
 0.733 -1.585 4.21
 0.759 -1.587 4.21
 0.785 -1.588 4.208
 0.811 -1.588 4.203
 0.836 -1.588 4.199
 0.863 -1.589 4.198
 0.888 -1.59 4.194
 0.915 -1.592 4.194
 0.941 -1.593 4.191
 0.968 -1.595 4.192
 0.995 -1.597 4.192
 1.021 -1.597 4.187
 1.048 -1.6 4.188
 1.075 -1.601 4.185
 1.101 -1.602 4.181
 1.128 -1.604 4.18
 1.156 -1.607 4.181
 1.181 -1.606 4.173
 1.209 -1.609 4.172
 1.237 -1.611 4.171
 1.263 -1.611 4.165
 1.289 -1.611 4.157
 1.317 -1.614 4.158
 1.344 -1.615 4.154
 1.371 -1.617 4.15
 1.398 -1.618 4.145
 1.425 -1.62 4.141
 1.452 -1.62 4.133
 1.477 -1.619 4.122
 1.503 -1.62 4.115
 1.531 -1.621 4.111
 1.558 -1.623 4.105
 1.584 -1.622 4.095
 1.612 -1.624 4.09
 1.637 -1.624 4.08
 1.663 -1.623 4.069
 1.687 -1.622 4.055
 1.713 -1.622 4.044
 1.737 -1.62 4.031
 1.762 -1.619 4.017
 1.786 -1.617 4.003
 1.811 -1.616 3.989
 1.831 -1.611 3.966
 1.849 -1.604 3.938
 1.862 -1.594 3.901
 1.871 -1.58 3.855
 1.879 -1.566 3.81
 1.886 -1.551 3.763
 1.894 -1.537 3.718
 1.901 -1.523 3.672
 1.911 -1.512 3.633
 1.918 -1.499 3.589
 1.929 -1.488 3.553
 0 0 0
 1.813 -1.366 3.237
 1.809 -1.347 3.181
 1.82 -1.339 3.151
 1.833 -1.333 3.125
 1.841 -1.324 3.093
 1.834 -1.304 3.035
 1.827 -1.284 2.978
 -2.311 -1.615 3.912
 -2.294 -1.622 3.943
 -2.256 -1.615 3.937
 -2.234 -1.618 3.958
 -2.205 -1.617 3.967
 -2.177 -1.615 3.977
 -2.152 -1.617 3.993
 -2.126 -1.618 4.008
 -2.1 -1.619 4.021
 -2.072 -1.618 4.032
 -2.044 -1.617 4.042
 -2.015 -1.615 4.048
 -1.986 -1.614 4.056
 -1.96 -1.614 4.068
 -1.934 -1.615 4.08
 -1.907 -1.615 4.093
 -1.881 -1.616 4.105
 -1.856 -1.617 4.119
 -1.827 -1.615 4.124
 -1.799 -1.615 4.131
 -1.77 -1.613 4.136
 -1.742 -1.612 4.144
 -1.712 -1.608 4.144
 -1.685 -1.608 4.153
 -1.657 -1.607 4.16
 -1.63 -1.606 4.167
 -1.601 -1.604 4.17
 -1.575 -1.605 4.18
 -1.546 -1.603 4.184
 -1.52 -1.603 4.192
 -1.493 -1.603 4.199
 -1.466 -1.603 4.207
 -1.438 -1.601 4.21
 -1.411 -1.6 4.215
 -1.382 -1.598 4.216
 -1.354 -1.596 4.218
 -1.326 -1.595 4.223
 -1.3 -1.595 4.229
 -1.272 -1.593 4.23
 -1.244 -1.592 4.234
 -1.218 -1.592 4.24
 -1.19 -1.59 4.241
 -1.162 -1.588 4.241
 -1.136 -1.588 4.248
 -1.108 -1.586 4.248
 -1.08 -1.583 4.246
 -1.053 -1.582 4.248
 -1.026 -1.58 4.248
 -0.999 -1.578 4.249
 -0.973 -1.579 4.254
 -0.946 -1.579 4.259
 -0.92 -1.578 4.261
 -0.893 -1.577 4.263
 -0.866 -1.575 4.263
 -0.839 -1.573 4.261
 -0.812 -1.571 4.259
 -0.785 -1.57 4.26
 -0.759 -1.569 4.261
 -0.732 -1.568 4.261
 -0.706 -1.567 4.262
 -0.68 -1.566 4.263
 -0.653 -1.565 4.262
 -0.627 -1.563 4.262
 -0.601 -1.563 4.263
 -0.575 -1.563 4.267
 -0.549 -1.563 4.267
 -0.523 -1.562 4.267
 -0.497 -1.561 4.268
 -0.471 -1.561 4.269
 -0.445 -1.559 4.266
 -0.419 -1.558 4.265
 -0.393 -1.558 4.266
 -0.367 -1.556 4.264
 -0.341 -1.555 4.262
 -0.315 -1.554 4.261
 -0.29 -1.554 4.26
 -0.264 -1.553 4.261
 -0.239 -1.554 4.262
 -0.213 -1.553 4.262
 -0.187 -1.553 4.262
 -0.162 -1.553 4.261
 -0.136 -1.552 4.26
 -0.11 -1.552 4.261
 -0.085 -1.552 4.26
 -0.059 -1.552 4.262
 -0.034 -1.553 4.263
 -0.008 -1.553 4.263
 0.016 -1.553 4.263
 0.042 -1.553 4.262
 0.067 -1.552 4.258
 0.093 -1.552 4.259
 0.118 -1.552 4.258
 0.144 -1.552 4.256
 0.169 -1.552 4.256
 0.195 -1.553 4.255
 0.22 -1.552 4.254
 0.246 -1.553 4.253
 0.272 -1.553 4.252
 0.297 -1.553 4.251
 0.323 -1.553 4.249
 0.348 -1.554 4.248
 0.374 -1.554 4.247
 0.399 -1.554 4.244
 0.425 -1.554 4.243
 0.451 -1.556 4.245
 0.476 -1.557 4.244
 0.502 -1.557 4.243
 0.528 -1.558 4.242
 0.554 -1.559 4.242
 0.58 -1.559 4.24
 0.606 -1.562 4.242
 0.632 -1.563 4.241
 0.658 -1.563 4.239
 0.684 -1.563 4.236
 0.71 -1.565 4.235
 0.735 -1.564 4.229
 0.762 -1.566 4.231
 0.788 -1.567 4.23
 0.814 -1.569 4.229
 0.84 -1.569 4.226
 0.866 -1.57 4.224
 0.892 -1.57 4.219
 0.919 -1.572 4.22
 0.945 -1.574 4.218
 0.973 -1.576 4.219
 1 -1.578 4.22
 1.026 -1.579 4.217
 1.054 -1.582 4.217
 1.08 -1.582 4.213
 1.106 -1.583 4.209
 1.134 -1.585 4.209
 1.162 -1.588 4.209
 1.188 -1.588 4.202
 1.216 -1.591 4.204
 1.244 -1.593 4.203
 1.27 -1.594 4.198
 1.296 -1.594 4.189
 1.324 -1.597 4.189
 1.351 -1.598 4.184
 1.379 -1.599 4.181
 1.406 -1.601 4.177
 1.434 -1.603 4.175
 1.461 -1.604 4.168
 1.487 -1.603 4.158
 1.515 -1.605 4.155
 1.542 -1.607 4.15
 1.57 -1.608 4.144
 1.596 -1.609 4.136
 1.625 -1.611 4.133
 1.652 -1.611 4.124
 1.678 -1.612 4.115
 1.704 -1.612 4.105
 1.731 -1.612 4.096
 1.756 -1.611 4.082
 1.779 -1.608 4.066
 1.803 -1.607 4.051
 1.825 -1.603 4.03
 1.844 -1.596 4.003
 1.859 -1.587 3.969
 1.87 -1.575 3.927
 1.877 -1.559 3.877
 1.887 -1.547 3.834
 1.895 -1.533 3.789
 1.904 -1.52 3.746
 1.913 -1.508 3.704
 1.926 -1.499 3.67
 1.933 -1.486 3.626
 0 0 0
 0 0 0
 0 0 0
 1.807 -1.323 3.185
 1.818 -1.316 3.156
 1.833 -1.311 3.133
 1.842 -1.303 3.102
 1.854 -1.296 3.075
 1.837 -1.27 3.001
 -2.326 -1.599 3.948
 -2.323 -1.615 4.001
 -2.291 -1.612 4.007
 -2.266 -1.614 4.024
 -2.236 -1.612 4.033
 -2.209 -1.612 4.045
 -2.183 -1.613 4.06
 -2.155 -1.613 4.073
 -2.127 -1.613 4.084
 -2.099 -1.612 4.094
 -2.071 -1.611 4.104
 -2.042 -1.61 4.112
 -2.013 -1.608 4.12
 -1.986 -1.608 4.132
 -1.958 -1.608 4.142
 -1.932 -1.609 4.155
 -1.904 -1.608 4.164
 -1.878 -1.61 4.178
 -1.849 -1.608 4.183
 -1.82 -1.606 4.19
 -1.79 -1.604 4.192
 -1.762 -1.603 4.201
 -1.729 -1.598 4.197
 -1.702 -1.598 4.205
 -1.673 -1.596 4.21
 -1.645 -1.595 4.216
 -1.616 -1.593 4.218
 -1.589 -1.593 4.228
 -1.56 -1.591 4.23
 -1.532 -1.59 4.237
 -1.505 -1.589 4.243
 -1.477 -1.588 4.247
 -1.448 -1.586 4.249
 -1.42 -1.585 4.253
 -1.391 -1.582 4.254
 -1.362 -1.58 4.254
 -1.334 -1.578 4.257
 -1.307 -1.577 4.262
 -1.278 -1.575 4.261
 -1.25 -1.572 4.262
 -1.223 -1.572 4.266
 -1.195 -1.57 4.267
 -1.167 -1.568 4.267
 -1.14 -1.568 4.273
 -1.113 -1.566 4.274
 -1.085 -1.564 4.274
 -1.057 -1.562 4.274
 -1.03 -1.561 4.274
 -1.003 -1.559 4.275
 -0.976 -1.558 4.278
 -0.949 -1.557 4.28
 -0.922 -1.555 4.279
 -0.895 -1.554 4.281
 -0.868 -1.552 4.28
 -0.841 -1.551 4.279
 -0.814 -1.549 4.278
 -0.787 -1.548 4.28
 -0.761 -1.547 4.279
 -0.734 -1.545 4.278
 -0.707 -1.543 4.276
 -0.681 -1.542 4.277
 -0.654 -1.54 4.275
 -0.627 -1.539 4.273
 -0.601 -1.538 4.273
 -0.576 -1.539 4.278
 -0.549 -1.538 4.278
 -0.523 -1.537 4.277
 -0.497 -1.537 4.279
 -0.471 -1.536 4.28
 -0.445 -1.534 4.276
 -0.419 -1.533 4.275
 -0.393 -1.533 4.275
 -0.367 -1.531 4.274
 -0.341 -1.53 4.273
 -0.316 -1.53 4.272
 -0.29 -1.529 4.27
 -0.264 -1.529 4.272
 -0.238 -1.528 4.269
 -0.213 -1.527 4.269
 -0.187 -1.528 4.27
 -0.162 -1.527 4.27
 -0.136 -1.527 4.271
 -0.11 -1.528 4.273
 -0.085 -1.527 4.27
 -0.059 -1.527 4.27
 -0.034 -1.527 4.269
 -0.008 -1.526 4.268
 0.016 -1.527 4.269
 0.042 -1.527 4.268
 0.067 -1.526 4.266
 0.093 -1.527 4.266
 0.119 -1.527 4.265
 0.144 -1.527 4.264
 0.17 -1.527 4.265
 0.195 -1.527 4.263
 0.221 -1.527 4.261
 0.246 -1.526 4.258
 0.271 -1.526 4.256
 0.297 -1.526 4.254
 0.323 -1.527 4.254
 0.348 -1.527 4.253
 0.374 -1.528 4.253
 0.399 -1.528 4.251
 0.425 -1.53 4.254
 0.451 -1.531 4.254
 0.477 -1.532 4.254
 0.503 -1.533 4.254
 0.529 -1.534 4.254
 0.554 -1.534 4.25
 0.58 -1.534 4.248
 0.606 -1.536 4.25
 0.632 -1.536 4.248
 0.658 -1.536 4.244
 0.683 -1.537 4.242
 0.709 -1.537 4.239
 0.735 -1.538 4.236
 0.761 -1.54 4.238
 0.788 -1.542 4.239
 0.815 -1.543 4.239
 0.842 -1.545 4.24
 0.868 -1.546 4.238
 0.893 -1.546 4.232
 0.92 -1.549 4.234
 0.947 -1.55 4.234
 0.974 -1.552 4.234
 1.002 -1.555 4.235
 1.029 -1.557 4.234
 1.056 -1.559 4.235
 1.083 -1.56 4.232
 1.11 -1.562 4.23
 1.137 -1.563 4.227
 1.164 -1.565 4.226
 1.191 -1.566 4.221
 1.219 -1.568 4.222
 1.246 -1.57 4.219
 1.273 -1.571 4.216
 1.3 -1.572 4.209
 1.327 -1.573 4.206
 1.355 -1.575 4.203
 1.382 -1.577 4.2
 1.41 -1.579 4.198
 1.439 -1.582 4.196
 1.466 -1.583 4.192
 1.493 -1.583 4.184
 1.522 -1.586 4.182
 1.551 -1.589 4.18
 1.578 -1.59 4.175
 1.606 -1.592 4.171
 1.635 -1.594 4.168
 1.664 -1.596 4.163
 1.69 -1.596 4.152
 1.717 -1.596 4.144
 1.744 -1.597 4.136
 1.769 -1.596 4.123
 1.793 -1.594 4.105
 1.817 -1.592 4.09
 1.837 -1.586 4.065
 1.854 -1.578 4.033
 1.868 -1.568 3.996
 1.879 -1.556 3.954
 1.886 -1.541 3.904
 1.896 -1.529 3.862
 1.906 -1.516 3.819
 1.916 -1.505 3.779
 1.925 -1.492 3.735
 1.942 -1.486 3.709
 0 0 0
 0 0 0
 0 0 0
 0 0 0
 1.808 -1.302 3.194
 1.824 -1.298 3.173
 1.835 -1.291 3.144
 1.844 -1.283 3.113
 1.86 -1.279 3.092
 1.852 -1.259 3.033
 0 0 0
 -2.372 -1.621 4.096
 -2.324 -1.608 4.075
 -2.298 -1.609 4.091
 -2.269 -1.608 4.103
 -2.241 -1.608 4.114
 -2.215 -1.609 4.131
 -2.186 -1.608 4.141
 -2.155 -1.606 4.147
 -2.126 -1.605 4.156
 -2.096 -1.603 4.164
 -2.065 -1.601 4.169
 -2.037 -1.6 4.179
 -2.009 -1.6 4.19
 -1.982 -1.6 4.202
 -1.954 -1.6 4.211
 -1.925 -1.599 4.219
 -1.897 -1.598 4.229
 -1.867 -1.596 4.234
 -1.837 -1.594 4.238
 -1.807 -1.592 4.242
 -1.779 -1.592 4.251
 -1.746 -1.586 4.247
 -1.716 -1.584 4.25
 -1.685 -1.581 4.25
 -1.656 -1.579 4.254
 -1.626 -1.576 4.255
 -1.599 -1.576 4.263
 -1.57 -1.574 4.266
 -1.542 -1.573 4.273
 -1.514 -1.572 4.277
 -1.485 -1.57 4.28
 -1.456 -1.568 4.281
 -1.427 -1.566 4.284
 -1.398 -1.563 4.284
 -1.369 -1.561 4.284
 -1.34 -1.559 4.286
 -1.312 -1.557 4.288
 -1.283 -1.554 4.285
 -1.254 -1.551 4.284
 -1.226 -1.549 4.285
 -1.198 -1.547 4.286
 -1.17 -1.545 4.286
 -1.143 -1.545 4.29
 -1.115 -1.543 4.291
 -1.088 -1.542 4.293
 -1.059 -1.538 4.288
 -1.031 -1.536 4.289
 -1.004 -1.534 4.288
 -0.977 -1.533 4.29
 -0.949 -1.531 4.288
 -0.922 -1.53 4.29
 -0.895 -1.529 4.291
 -0.868 -1.527 4.29
 -0.841 -1.525 4.289
 -0.814 -1.523 4.287
 -0.787 -1.522 4.289
 -0.76 -1.52 4.286
 -0.734 -1.519 4.287
 -0.707 -1.518 4.285
 -0.681 -1.517 4.287
 -0.654 -1.515 4.284
 -0.628 -1.514 4.285
 -0.601 -1.513 4.283
 -0.575 -1.512 4.284
 -0.549 -1.511 4.283
 -0.523 -1.51 4.283
 -0.497 -1.51 4.286
 -0.471 -1.509 4.285
 -0.445 -1.508 4.284
 -0.419 -1.507 4.283
 -0.393 -1.507 4.283
 -0.367 -1.505 4.279
 -0.341 -1.505 4.28
 -0.315 -1.504 4.279
 -0.29 -1.503 4.277
 -0.264 -1.503 4.279
 -0.238 -1.502 4.277
 -0.212 -1.501 4.276
 -0.187 -1.501 4.277
 -0.161 -1.501 4.277
 -0.136 -1.501 4.277
 -0.11 -1.502 4.278
 -0.085 -1.501 4.275
 -0.059 -1.5 4.274
 -0.033 -1.5 4.274
 -0.008 -1.5 4.272
 0.017 -1.5 4.273
 0.042 -1.5 4.271
 0.068 -1.499 4.269
 0.093 -1.499 4.268
 0.119 -1.499 4.267
 0.144 -1.499 4.266
 0.17 -1.5 4.267
 0.195 -1.5 4.267
 0.221 -1.5 4.265
 0.246 -1.5 4.263
 0.271 -1.499 4.261
 0.297 -1.5 4.26
 0.323 -1.5 4.26
 0.348 -1.501 4.26
 0.374 -1.502 4.259
 0.399 -1.502 4.258
 0.425 -1.503 4.259
 0.451 -1.504 4.26
 0.477 -1.505 4.26
 0.503 -1.507 4.261
 0.529 -1.508 4.261
 0.554 -1.508 4.259
 0.58 -1.508 4.254
 0.606 -1.509 4.255
 0.632 -1.509 4.252
 0.657 -1.509 4.249
 0.683 -1.51 4.247
 0.709 -1.511 4.247
 0.735 -1.512 4.245
 0.762 -1.514 4.247
 0.788 -1.516 4.248
 0.815 -1.518 4.248
 0.842 -1.52 4.25
 0.868 -1.521 4.247
 0.894 -1.521 4.244
 0.921 -1.523 4.243
 0.948 -1.525 4.242
 0.974 -1.526 4.24
 1.001 -1.528 4.241
 1.029 -1.53 4.241
 1.057 -1.533 4.244
 1.083 -1.535 4.242
 1.111 -1.537 4.242
 1.138 -1.539 4.24
 1.165 -1.54 4.238
 1.192 -1.541 4.233
 1.22 -1.543 4.233
 1.247 -1.545 4.231
 1.274 -1.546 4.228
 1.302 -1.548 4.224
 1.329 -1.549 4.22
 1.357 -1.551 4.218
 1.385 -1.553 4.216
 1.413 -1.555 4.213
 1.441 -1.558 4.212
 1.469 -1.56 4.209
 1.497 -1.561 4.205
 1.526 -1.564 4.202
 1.555 -1.567 4.201
 1.583 -1.568 4.196
 1.612 -1.57 4.193
 1.64 -1.572 4.189
 1.669 -1.575 4.186
 1.697 -1.576 4.179
 1.725 -1.577 4.172
 1.753 -1.578 4.166
 1.779 -1.578 4.155
 1.803 -1.576 4.137
 1.826 -1.573 4.119
 1.845 -1.567 4.091
 1.86 -1.557 4.056
 1.873 -1.546 4.016
 1.885 -1.535 3.975
 1.892 -1.52 3.926
 1.906 -1.51 3.89
 1.917 -1.5 3.85
 1.929 -1.489 3.812
 1.939 -1.478 3.772
 0 0 0
 0 0 0
 0 0 0
 0 0 0
 0 0 0
 1.814 -1.285 3.213
 1.83 -1.281 3.192
 1.841 -1.273 3.161
 1.85 -1.265 3.129
 1.87 -1.264 3.116
 1.856 -1.241 3.048
 -2.428 -1.612 4.14
 -2.396 -1.61 4.148
 -2.358 -1.603 4.145
 -2.331 -1.604 4.16
 -2.301 -1.603 4.171
 -2.27 -1.601 4.178
 -2.244 -1.602 4.194
 -2.212 -1.6 4.2
 -2.181 -1.597 4.207
 -2.151 -1.596 4.215
 -2.121 -1.595 4.224
 -2.09 -1.592 4.23
 -2.061 -1.592 4.239
 -2.033 -1.591 4.249
 -2.003 -1.59 4.256
 -1.972 -1.587 4.261
 -1.939 -1.583 4.261
 -1.91 -1.582 4.268
 -1.88 -1.58 4.272
 -1.85 -1.578 4.277
 -1.819 -1.575 4.279
 -1.79 -1.574 4.288
 -1.758 -1.57 4.285
 -1.726 -1.566 4.284
 -1.694 -1.562 4.282
 -1.665 -1.56 4.285
 -1.634 -1.556 4.285
 -1.605 -1.555 4.289
 -1.575 -1.552 4.289
 -1.547 -1.551 4.296
 -1.518 -1.549 4.299
 -1.489 -1.547 4.3
 -1.459 -1.545 4.301
 -1.431 -1.543 4.303
 -1.401 -1.54 4.302
 -1.371 -1.537 4.3
 -1.342 -1.534 4.301
 -1.314 -1.532 4.301
 -1.284 -1.529 4.299
 -1.255 -1.525 4.295
 -1.226 -1.523 4.295
 -1.198 -1.521 4.295
 -1.17 -1.519 4.295
 -1.142 -1.517 4.297
 -1.115 -1.516 4.299
 -1.087 -1.515 4.3
 -1.059 -1.512 4.296
 -1.031 -1.509 4.295
 -1.004 -1.508 4.296
 -0.976 -1.506 4.296
 -0.948 -1.503 4.292
 -0.921 -1.503 4.294
 -0.894 -1.502 4.296
 -0.867 -1.5 4.294
 -0.841 -1.499 4.296
 -0.814 -1.498 4.296
 -0.787 -1.496 4.297
 -0.76 -1.494 4.294
 -0.733 -1.493 4.294
 -0.707 -1.491 4.291
 -0.68 -1.491 4.293
 -0.653 -1.488 4.289
 -0.627 -1.487 4.289
 -0.601 -1.486 4.288
 -0.574 -1.485 4.287
 -0.548 -1.484 4.287
 -0.522 -1.483 4.288
 -0.497 -1.483 4.29
 -0.471 -1.482 4.289
 -0.444 -1.481 4.289
 -0.418 -1.48 4.287
 -0.393 -1.479 4.286
 -0.367 -1.478 4.284
 -0.341 -1.478 4.285
 -0.315 -1.477 4.283
 -0.289 -1.476 4.283
 -0.264 -1.477 4.284
 -0.238 -1.476 4.283
 -0.212 -1.476 4.283
 -0.187 -1.476 4.283
 -0.161 -1.475 4.283
 -0.136 -1.475 4.283
 -0.11 -1.474 4.281
 -0.084 -1.473 4.278
 -0.059 -1.473 4.276
 -0.033 -1.473 4.276
 -0.008 -1.472 4.275
 0.017 -1.473 4.277
 0.042 -1.473 4.275
 0.068 -1.472 4.273
 0.093 -1.472 4.271
 0.119 -1.472 4.27
 0.144 -1.472 4.268
 0.17 -1.473 4.27
 0.195 -1.473 4.271
 0.221 -1.474 4.271
 0.246 -1.473 4.268
 0.271 -1.473 4.266
 0.297 -1.473 4.264
 0.322 -1.474 4.264
 0.348 -1.474 4.263
 0.374 -1.475 4.263
 0.399 -1.476 4.263
 0.425 -1.477 4.265
 0.451 -1.477 4.263
 0.477 -1.479 4.264
 0.503 -1.48 4.265
 0.529 -1.481 4.266
 0.554 -1.481 4.263
 0.58 -1.482 4.261
 0.606 -1.482 4.26
 0.631 -1.483 4.257
 0.657 -1.483 4.254
 0.683 -1.484 4.254
 0.71 -1.486 4.255
 0.735 -1.486 4.253
 0.762 -1.489 4.255
 0.788 -1.49 4.254
 0.815 -1.491 4.254
 0.841 -1.493 4.253
 0.868 -1.494 4.252
 0.894 -1.494 4.248
 0.92 -1.496 4.247
 0.947 -1.498 4.247
 0.974 -1.499 4.245
 1.001 -1.501 4.246
 1.028 -1.503 4.247
 1.056 -1.506 4.249
 1.083 -1.508 4.248
 1.111 -1.51 4.248
 1.138 -1.512 4.247
 1.165 -1.514 4.245
 1.192 -1.514 4.241
 1.219 -1.516 4.24
 1.247 -1.518 4.237
 1.274 -1.52 4.234
 1.301 -1.52 4.23
 1.329 -1.522 4.227
 1.357 -1.524 4.225
 1.385 -1.526 4.223
 1.413 -1.529 4.221
 1.442 -1.531 4.221
 1.47 -1.534 4.219
 1.498 -1.535 4.215
 1.527 -1.538 4.213
 1.556 -1.541 4.213
 1.585 -1.543 4.209
 1.613 -1.545 4.205
 1.642 -1.547 4.202
 1.672 -1.55 4.2
 1.7 -1.552 4.195
 1.729 -1.554 4.19
 1.758 -1.556 4.185
 1.784 -1.556 4.175
 1.807 -1.553 4.156
 1.831 -1.55 4.139
 1.85 -1.544 4.11
 1.866 -1.535 4.076
 1.879 -1.525 4.037
 1.892 -1.515 4
 1.899 -1.5 3.949
 1.913 -1.49 3.913
 1.928 -1.483 3.881
 1.942 -1.474 3.846
 0 0 0
 0 0 0
 0 0 0
 0 0 0
 0 0 0
 0 0 0
 1.805 -1.257 3.203
 1.826 -1.257 3.192
 1.838 -1.25 3.165
 1.848 -1.242 3.134
 1.845 -1.226 3.083
 1.857 -1.221 3.056
 -2.465 -1.608 4.214
 -2.384 -1.574 4.137
 -2.392 -1.598 4.214
 -2.359 -1.595 4.22
 -2.328 -1.593 4.229
 -2.297 -1.591 4.237
 -2.267 -1.59 4.247
 -2.234 -1.587 4.251
 -2.201 -1.584 4.256
 -2.169 -1.581 4.26
 -2.136 -1.578 4.264
 -2.105 -1.576 4.269
 -2.075 -1.574 4.276
 -2.046 -1.573 4.286
 -2.015 -1.571 4.292
 -1.983 -1.568 4.295
 -1.95 -1.564 4.294
 -1.919 -1.562 4.299
 -1.888 -1.559 4.302
 -1.858 -1.558 4.307
 -1.826 -1.554 4.307
 -1.797 -1.553 4.313
 -1.764 -1.548 4.31
 -1.733 -1.545 4.31
 -1.7 -1.54 4.306
 -1.671 -1.538 4.31
 -1.639 -1.534 4.307
 -1.609 -1.532 4.309
 -1.578 -1.528 4.306
 -1.549 -1.526 4.311
 -1.519 -1.524 4.31
 -1.489 -1.521 4.31
 -1.459 -1.518 4.309
 -1.431 -1.516 4.313
 -1.401 -1.513 4.31
 -1.371 -1.51 4.308
 -1.343 -1.508 4.31
 -1.314 -1.505 4.31
 -1.284 -1.502 4.308
 -1.255 -1.499 4.304
 -1.226 -1.497 4.303
 -1.198 -1.494 4.303
 -1.17 -1.493 4.304
 -1.142 -1.49 4.303
 -1.114 -1.49 4.306
 -1.087 -1.488 4.308
 -1.058 -1.485 4.304
 -1.03 -1.483 4.301
 -1.003 -1.482 4.304
 -0.976 -1.48 4.303
 -0.947 -1.477 4.298
 -0.921 -1.475 4.299
 -0.894 -1.474 4.3
 -0.866 -1.472 4.297
 -0.839 -1.471 4.297
 -0.813 -1.47 4.299
 -0.786 -1.469 4.299
 -0.759 -1.466 4.296
 -0.733 -1.466 4.297
 -0.706 -1.464 4.296
 -0.679 -1.463 4.296
 -0.653 -1.461 4.294
 -0.627 -1.461 4.295
 -0.6 -1.459 4.292
 -0.574 -1.458 4.291
 -0.548 -1.457 4.292
 -0.522 -1.456 4.291
 -0.496 -1.456 4.292
 -0.47 -1.455 4.291
 -0.444 -1.454 4.291
 -0.418 -1.452 4.287
 -0.392 -1.452 4.288
 -0.366 -1.451 4.286
 -0.34 -1.45 4.285
 -0.314 -1.449 4.283
 -0.289 -1.449 4.284
 -0.263 -1.449 4.284
 -0.237 -1.448 4.283
 -0.212 -1.449 4.286
 -0.186 -1.449 4.287
 -0.161 -1.448 4.287
 -0.135 -1.448 4.287
 -0.11 -1.448 4.286
 -0.084 -1.447 4.282
 -0.059 -1.446 4.28
 -0.033 -1.446 4.279
 -0.008 -1.445 4.277
 0.017 -1.445 4.278
 0.042 -1.445 4.275
 0.068 -1.445 4.274
 0.093 -1.444 4.273
 0.119 -1.444 4.272
 0.144 -1.445 4.272
 0.17 -1.446 4.275
 0.195 -1.446 4.273
 0.221 -1.446 4.273
 0.246 -1.446 4.271
 0.271 -1.446 4.268
 0.297 -1.446 4.267
 0.322 -1.447 4.267
 0.348 -1.447 4.266
 0.373 -1.447 4.265
 0.399 -1.448 4.265
 0.425 -1.449 4.265
 0.45 -1.45 4.264
 0.476 -1.451 4.266
 0.502 -1.452 4.266
 0.528 -1.454 4.268
 0.554 -1.454 4.266
 0.58 -1.455 4.266
 0.605 -1.455 4.264
 0.631 -1.456 4.262
 0.657 -1.456 4.259
 0.682 -1.457 4.256
 0.708 -1.457 4.255
 0.735 -1.459 4.255
 0.761 -1.46 4.255
 0.787 -1.462 4.255
 0.814 -1.464 4.257
 0.841 -1.466 4.259
 0.867 -1.467 4.257
 0.893 -1.467 4.253
 0.92 -1.469 4.253
 0.947 -1.471 4.252
 0.973 -1.472 4.25
 1 -1.474 4.25
 1.028 -1.477 4.254
 1.056 -1.479 4.255
 1.083 -1.481 4.253
 1.11 -1.483 4.254
 1.137 -1.485 4.252
 1.165 -1.486 4.25
 1.191 -1.487 4.246
 1.218 -1.489 4.243
 1.246 -1.49 4.241
 1.273 -1.491 4.238
 1.3 -1.493 4.235
 1.328 -1.495 4.232
 1.356 -1.497 4.23
 1.384 -1.499 4.228
 1.413 -1.502 4.228
 1.441 -1.504 4.227
 1.47 -1.507 4.227
 1.499 -1.509 4.225
 1.528 -1.512 4.223
 1.557 -1.514 4.222
 1.585 -1.516 4.218
 1.613 -1.518 4.213
 1.642 -1.52 4.21
 1.672 -1.523 4.208
 1.699 -1.524 4.201
 1.729 -1.526 4.198
 1.758 -1.528 4.193
 1.785 -1.529 4.185
 1.809 -1.527 4.168
 1.834 -1.526 4.154
 1.854 -1.52 4.128
 1.87 -1.512 4.095
 1.885 -1.503 4.059
 1.9 -1.494 4.024
 1.908 -1.48 3.974
 1.924 -1.473 3.944
 1.944 -1.468 3.92
 0 0 0
 0 0 0
 0 0 0
 0 0 0
 0 0 0
 0 0 0
 0 0 0
 1.792 -1.226 3.187
 1.821 -1.231 3.19
 1.837 -1.228 3.17
 1.848 -1.22 3.14
 1.86 -1.215 3.114
 1.858 -1.2 3.064
 0 0 0
 -2.459 -1.595 4.278
 -2.413 -1.583 4.261
 -2.38 -1.581 4.268
 -2.349 -1.579 4.277
 -2.317 -1.577 4.284
 -2.286 -1.575 4.293
 -2.25 -1.57 4.292
 -2.217 -1.567 4.297
 -2.184 -1.564 4.299
 -2.15 -1.56 4.301
 -2.116 -1.556 4.301
 -2.084 -1.553 4.306
 -2.052 -1.55 4.31
 -2.021 -1.548 4.314
 -1.989 -1.545 4.317
 -1.957 -1.542 4.318
 -1.926 -1.539 4.322
 -1.895 -1.537 4.325
 -1.863 -1.534 4.327
 -1.829 -1.529 4.323
 -1.798 -1.525 4.323
 -1.765 -1.521 4.321
 -1.734 -1.518 4.321
 -1.701 -1.513 4.317
 -1.671 -1.511 4.32
 -1.64 -1.508 4.32
 -1.61 -1.505 4.319
 -1.578 -1.501 4.315
 -1.549 -1.499 4.318
 -1.519 -1.496 4.318
 -1.488 -1.492 4.315
 -1.457 -1.489 4.313
 -1.428 -1.487 4.313
 -1.398 -1.483 4.311
 -1.368 -1.48 4.309
 -1.341 -1.479 4.313
 -1.312 -1.477 4.312
 -1.283 -1.475 4.313
 -1.254 -1.472 4.31
 -1.225 -1.47 4.31
 -1.197 -1.467 4.309
 -1.169 -1.466 4.311
 -1.141 -1.463 4.309
 -1.113 -1.461 4.309
 -1.085 -1.46 4.309
 -1.057 -1.456 4.305
 -1.028 -1.454 4.302
 -1.002 -1.453 4.304
 -0.975 -1.452 4.306
 -0.947 -1.449 4.303
 -0.92 -1.448 4.303
 -0.893 -1.447 4.304
 -0.865 -1.445 4.302
 -0.839 -1.444 4.302
 -0.812 -1.443 4.303
 -0.785 -1.441 4.302
 -0.758 -1.439 4.3
 -0.732 -1.438 4.301
 -0.705 -1.437 4.299
 -0.678 -1.434 4.295
 -0.652 -1.433 4.294
 -0.625 -1.432 4.294
 -0.599 -1.431 4.293
 -0.573 -1.429 4.29
 -0.547 -1.429 4.293
 -0.521 -1.428 4.29
 -0.494 -1.426 4.287
 -0.468 -1.424 4.284
 -0.443 -1.425 4.288
 -0.417 -1.424 4.286
 -0.391 -1.425 4.29
 -0.366 -1.425 4.292
 -0.34 -1.424 4.29
 -0.314 -1.422 4.287
 -0.288 -1.422 4.287
 -0.263 -1.421 4.286
 -0.237 -1.42 4.285
 -0.212 -1.421 4.288
 -0.186 -1.421 4.287
 -0.16 -1.421 4.288
 -0.135 -1.42 4.287
 -0.109 -1.42 4.287
 -0.084 -1.419 4.283
 -0.058 -1.418 4.28
 -0.033 -1.417 4.278
 -0.007 -1.417 4.278
 0.017 -1.418 4.278
 0.042 -1.417 4.276
 0.068 -1.418 4.279
 0.093 -1.418 4.277
 0.119 -1.418 4.276
 0.144 -1.419 4.277
 0.17 -1.42 4.28
 0.195 -1.42 4.278
 0.22 -1.419 4.275
 0.246 -1.419 4.273
 0.271 -1.419 4.27
 0.296 -1.418 4.265
 0.322 -1.418 4.264
 0.348 -1.42 4.268
 0.373 -1.421 4.269
 0.399 -1.422 4.27
 0.425 -1.425 4.276
 0.451 -1.426 4.279
 0.477 -1.427 4.277
 0.503 -1.428 4.277
 0.528 -1.428 4.276
 0.554 -1.428 4.272
 0.579 -1.428 4.269
 0.605 -1.428 4.266
 0.63 -1.428 4.263
 0.656 -1.428 4.259
 0.682 -1.429 4.259
 0.708 -1.43 4.257
 0.734 -1.432 4.258
 0.76 -1.433 4.259
 0.787 -1.435 4.259
 0.813 -1.436 4.259
 0.84 -1.439 4.262
 0.867 -1.44 4.261
 0.893 -1.44 4.257
 0.919 -1.442 4.257
 0.946 -1.443 4.256
 0.972 -1.444 4.253
 0.999 -1.445 4.251
 1.027 -1.449 4.255
 1.054 -1.451 4.256
 1.082 -1.453 4.256
 1.11 -1.456 4.259
 1.137 -1.457 4.257
 1.163 -1.458 4.253
 1.19 -1.459 4.248
 1.216 -1.46 4.243
 1.244 -1.461 4.241
 1.271 -1.463 4.238
 1.299 -1.465 4.237
 1.327 -1.467 4.236
 1.355 -1.469 4.234
 1.383 -1.471 4.232
 1.412 -1.474 4.234
 1.44 -1.477 4.232
 1.47 -1.48 4.234
 1.499 -1.483 4.234
 1.528 -1.485 4.231
 1.557 -1.488 4.23
 1.585 -1.489 4.226
 1.613 -1.491 4.221
 1.641 -1.493 4.216
 1.67 -1.495 4.213
 1.698 -1.496 4.206
 1.727 -1.498 4.202
 1.756 -1.5 4.198
 1.785 -1.502 4.192
 1.81 -1.501 4.178
 1.835 -1.5 4.165
 1.857 -1.496 4.144
 1.875 -1.489 4.114
 1.891 -1.481 4.079
 1.908 -1.474 4.049
 1.919 -1.463 4.007
 1.936 -1.456 3.977
 0 0 0
 0 0 0
 0 0 0
 0 0 0
 0 0 0
 0 0 0
 0 0 0
 0 0 0
 1.79 -1.203 3.191
 1.819 -1.208 3.194
 1.837 -1.206 3.176
 1.847 -1.199 3.147
 1.871 -1.201 3.14
 1.851 -1.175 3.061
 -2.495 -1.57 4.286
 -2.486 -1.583 4.334
 -2.432 -1.567 4.304
 -2.396 -1.563 4.307
 -2.364 -1.561 4.314
 -2.33 -1.557 4.318
 -2.298 -1.555 4.325
 -2.262 -1.55 4.325
 -2.228 -1.546 4.327
 -2.193 -1.542 4.327
 -2.158 -1.537 4.326
 -2.121 -1.531 4.321
 -2.089 -1.528 4.324
 -2.056 -1.525 4.326
 -2.024 -1.522 4.329
 -1.991 -1.518 4.329
 -1.957 -1.514 4.329
 -1.925 -1.511 4.329
 -1.893 -1.508 4.33
 -1.861 -1.505 4.332
 -1.828 -1.5 4.329
 -1.797 -1.497 4.33
 -1.765 -1.494 4.33
 -1.733 -1.49 4.329
 -1.7 -1.486 4.324
 -1.671 -1.484 4.328
 -1.64 -1.48 4.326
 -1.609 -1.477 4.325
 -1.576 -1.472 4.32
 -1.547 -1.471 4.323
 -1.516 -1.467 4.32
 -1.486 -1.464 4.318
 -1.456 -1.46 4.316
 -1.427 -1.459 4.319
 -1.397 -1.455 4.315
 -1.368 -1.453 4.315
 -1.34 -1.452 4.32
 -1.311 -1.45 4.32
 -1.282 -1.447 4.317
 -1.253 -1.445 4.316
 -1.225 -1.442 4.316
 -1.196 -1.439 4.312
 -1.168 -1.438 4.313
 -1.139 -1.435 4.31
 -1.111 -1.433 4.309
 -1.083 -1.431 4.31
 -1.055 -1.429 4.308
 -1.027 -1.426 4.305
 -0.999 -1.424 4.303
 -0.973 -1.423 4.305
 -0.945 -1.42 4.301
 -0.918 -1.419 4.302
 -0.891 -1.418 4.303
 -0.865 -1.417 4.305
 -0.838 -1.417 4.306
 -0.812 -1.416 4.308
 -0.784 -1.414 4.306
 -0.757 -1.412 4.302
 -0.731 -1.411 4.304
 -0.704 -1.41 4.303
 -0.677 -1.407 4.298
 -0.651 -1.406 4.298
 -0.625 -1.406 4.299
 -0.599 -1.405 4.299
 -0.572 -1.402 4.294
 -0.547 -1.403 4.3
 -0.52 -1.401 4.295
 -0.494 -1.399 4.29
 -0.467 -1.397 4.287
 -0.442 -1.398 4.293
 -0.416 -1.396 4.288
 -0.391 -1.398 4.294
 -0.365 -1.398 4.296
 -0.339 -1.396 4.292
 -0.313 -1.395 4.288
 -0.288 -1.394 4.288
 -0.262 -1.394 4.287
 -0.236 -1.393 4.286
 -0.211 -1.394 4.29
 -0.185 -1.393 4.286
 -0.16 -1.393 4.287
 -0.134 -1.392 4.285
 -0.109 -1.392 4.286
 -0.084 -1.392 4.284
 -0.058 -1.391 4.283
 -0.033 -1.391 4.283
 -0.007 -1.392 4.285
 0.017 -1.392 4.285
 0.042 -1.391 4.281
 0.068 -1.392 4.283
 0.093 -1.391 4.281
 0.119 -1.391 4.279
 0.144 -1.392 4.28
 0.17 -1.393 4.283
 0.195 -1.394 4.283
 0.221 -1.393 4.281
 0.246 -1.393 4.28
 0.271 -1.393 4.278
 0.297 -1.392 4.273
 0.322 -1.392 4.27
 0.348 -1.394 4.274
 0.373 -1.395 4.275
 0.399 -1.396 4.277
 0.425 -1.399 4.281
 0.451 -1.401 4.285
 0.477 -1.401 4.284
 0.502 -1.401 4.282
 0.528 -1.402 4.281
 0.554 -1.402 4.278
 0.579 -1.402 4.275
 0.605 -1.402 4.271
 0.63 -1.402 4.269
 0.656 -1.402 4.265
 0.682 -1.403 4.264
 0.708 -1.404 4.263
 0.734 -1.406 4.265
 0.761 -1.408 4.266
 0.787 -1.408 4.264
 0.813 -1.41 4.265
 0.84 -1.412 4.266
 0.866 -1.414 4.266
 0.892 -1.414 4.261
 0.919 -1.416 4.263
 0.946 -1.417 4.262
 0.972 -1.418 4.259
 0.999 -1.419 4.257
 1.026 -1.421 4.259
 1.053 -1.423 4.259
 1.08 -1.425 4.257
 1.108 -1.428 4.26
 1.135 -1.429 4.257
 1.162 -1.43 4.255
 1.188 -1.431 4.25
 1.215 -1.432 4.247
 1.242 -1.433 4.243
 1.27 -1.435 4.242
 1.298 -1.437 4.242
 1.326 -1.44 4.241
 1.354 -1.441 4.239
 1.382 -1.444 4.239
 1.411 -1.447 4.24
 1.44 -1.449 4.237
 1.469 -1.452 4.238
 1.498 -1.455 4.237
 1.526 -1.457 4.234
 1.554 -1.459 4.231
 1.583 -1.461 4.228
 1.612 -1.463 4.225
 1.64 -1.465 4.221
 1.669 -1.467 4.217
 1.698 -1.469 4.213
 1.726 -1.471 4.208
 1.755 -1.472 4.204
 1.784 -1.474 4.198
 1.81 -1.474 4.188
 1.837 -1.474 4.177
 1.86 -1.472 4.159
 1.881 -1.467 4.134
 1.898 -1.46 4.104
 1.915 -1.453 4.072
 1.923 -1.439 4.022
 0 0 0
 0 0 0
 0 0 0
 0 0 0
 0 0 0
 0 0 0
 0 0 0
 0 0 0
 0 0 0
 1.788 -1.18 3.194
 1.815 -1.184 3.193
 1.835 -1.183 3.18
 1.846 -1.177 3.151
 1.9 -1.197 3.196
 1.859 -1.159 3.08
 -2.525 -1.56 4.347
 -2.47 -1.544 4.316
 -2.448 -1.548 4.343
 -2.409 -1.542 4.34
 -2.374 -1.538 4.342
 -2.338 -1.533 4.342
 -2.303 -1.53 4.345
 -2.267 -1.525 4.343
 -2.233 -1.521 4.346
 -2.196 -1.516 4.343
 -2.161 -1.511 4.34
 -2.123 -1.505 4.335
 -2.089 -1.501 4.334
 -2.054 -1.496 4.332
 -2.021 -1.492 4.332
 -1.989 -1.489 4.334
 -1.955 -1.485 4.332
 -1.923 -1.481 4.333
 -1.891 -1.478 4.334
 -1.859 -1.475 4.336
 -1.826 -1.471 4.332
 -1.794 -1.468 4.333
 -1.763 -1.465 4.333
 -1.731 -1.461 4.333
 -1.698 -1.456 4.327
 -1.668 -1.454 4.328
 -1.637 -1.451 4.328
 -1.606 -1.448 4.327
 -1.574 -1.443 4.321
 -1.545 -1.442 4.325
 -1.515 -1.439 4.325
 -1.485 -1.436 4.322
 -1.454 -1.432 4.319
 -1.425 -1.43 4.321
 -1.395 -1.427 4.317
 -1.366 -1.424 4.317
 -1.338 -1.423 4.321
 -1.31 -1.422 4.322
 -1.281 -1.419 4.322
 -1.252 -1.417 4.321
 -1.224 -1.415 4.322
 -1.195 -1.412 4.318
 -1.167 -1.411 4.319
 -1.138 -1.408 4.316
 -1.11 -1.405 4.314
 -1.083 -1.404 4.315
 -1.055 -1.402 4.314
 -1.027 -1.4 4.312
 -0.999 -1.397 4.308
 -0.972 -1.396 4.31
 -0.944 -1.393 4.306
 -0.916 -1.391 4.304
 -0.889 -1.39 4.303
 -0.863 -1.39 4.308
 -0.837 -1.39 4.311
 -0.811 -1.389 4.314
 -0.784 -1.388 4.311
 -0.757 -1.386 4.311
 -0.731 -1.385 4.311
 -0.704 -1.383 4.309
 -0.676 -1.379 4.299
 -0.65 -1.379 4.299
 -0.624 -1.378 4.299
 -0.598 -1.377 4.299
 -0.571 -1.375 4.294
 -0.546 -1.377 4.304
 -0.52 -1.374 4.298
 -0.493 -1.372 4.292
 -0.467 -1.37 4.29
 -0.442 -1.372 4.296
 -0.415 -1.369 4.29
 -0.39 -1.371 4.297
 -0.365 -1.37 4.296
 -0.338 -1.368 4.29
 -0.313 -1.366 4.286
 -0.287 -1.366 4.286
 -0.262 -1.366 4.287
 -0.236 -1.365 4.286
 -0.211 -1.366 4.29
 -0.185 -1.365 4.287
 -0.16 -1.365 4.287
 -0.134 -1.364 4.285
 -0.109 -1.365 4.287
 -0.083 -1.364 4.285
 -0.058 -1.363 4.282
 -0.033 -1.363 4.282
 -0.007 -1.364 4.284
 0.017 -1.364 4.283
 0.043 -1.363 4.281
 0.068 -1.366 4.288
 0.093 -1.366 4.288
 0.119 -1.366 4.286
 0.144 -1.366 4.287
 0.17 -1.367 4.287
 0.195 -1.367 4.287
 0.221 -1.367 4.284
 0.246 -1.367 4.284
 0.271 -1.368 4.285
 0.297 -1.367 4.279
 0.322 -1.366 4.275
 0.348 -1.368 4.28
 0.373 -1.369 4.28
 0.399 -1.37 4.281
 0.425 -1.373 4.288
 0.451 -1.375 4.291
 0.477 -1.374 4.288
 0.502 -1.374 4.285
 0.528 -1.375 4.283
 0.553 -1.374 4.279
 0.579 -1.376 4.279
 0.604 -1.375 4.275
 0.63 -1.376 4.274
 0.656 -1.377 4.273
 0.682 -1.378 4.272
 0.708 -1.378 4.269
 0.734 -1.38 4.271
 0.761 -1.382 4.272
 0.786 -1.382 4.269
 0.813 -1.384 4.271
 0.84 -1.385 4.27
 0.866 -1.387 4.271
 0.892 -1.386 4.265
 0.919 -1.39 4.269
 0.946 -1.391 4.269
 0.972 -1.392 4.265
 0.998 -1.393 4.263
 1.026 -1.395 4.264
 1.052 -1.396 4.262
 1.079 -1.397 4.259
 1.107 -1.4 4.261
 1.134 -1.401 4.258
 1.16 -1.402 4.256
 1.187 -1.403 4.252
 1.214 -1.404 4.249
 1.241 -1.406 4.247
 1.268 -1.407 4.244
 1.296 -1.409 4.244
 1.324 -1.411 4.243
 1.353 -1.414 4.242
 1.38 -1.416 4.24
 1.41 -1.419 4.244
 1.438 -1.421 4.242
 1.467 -1.424 4.241
 1.496 -1.426 4.239
 1.525 -1.429 4.237
 1.552 -1.43 4.233
 1.581 -1.433 4.231
 1.61 -1.435 4.229
 1.639 -1.437 4.226
 1.668 -1.439 4.221
 1.696 -1.44 4.217
 1.725 -1.442 4.212
 1.753 -1.444 4.207
 1.782 -1.446 4.203
 1.81 -1.447 4.194
 1.837 -1.447 4.185
 1.862 -1.446 4.171
 1.886 -1.444 4.154
 1.908 -1.441 4.134
 0 0 0
 0 0 0
 0 0 0
 0 0 0
 0 0 0
 0 0 0
 0 0 0
 0 0 0
 0 0 0
 0 0 0
 0 0 0
 0 0 0
 1.812 -1.16 3.195
 1.835 -1.162 3.187
 1.847 -1.156 3.16
 1.878 -1.162 3.165
 1.863 -1.14 3.094
 -2.537 -1.538 4.377
 -2.483 -1.522 4.348
 -2.451 -1.521 4.357
 -2.412 -1.515 4.354
 -2.376 -1.511 4.355
 -2.341 -1.507 4.358
 -2.305 -1.502 4.356
 -2.268 -1.497 4.354
 -2.232 -1.492 4.353
 -2.195 -1.486 4.348
 -2.156 -1.48 4.341
 -2.119 -1.474 4.335
 -2.085 -1.469 4.333
 -2.05 -1.465 4.332
 -2.018 -1.462 4.334
 -1.986 -1.459 4.337
 -1.953 -1.456 4.337
 -1.92 -1.452 4.336
 -1.887 -1.448 4.335
 -1.855 -1.444 4.335
 -1.822 -1.44 4.332
 -1.791 -1.437 4.333
 -1.759 -1.434 4.333
 -1.728 -1.432 4.334
 -1.695 -1.427 4.329
 -1.666 -1.425 4.331
 -1.635 -1.422 4.33
 -1.604 -1.418 4.328
 -1.573 -1.415 4.326
 -1.543 -1.413 4.329
 -1.513 -1.41 4.327
 -1.482 -1.406 4.323
 -1.452 -1.404 4.323
 -1.423 -1.401 4.322
 -1.393 -1.398 4.32
 -1.364 -1.396 4.321
 -1.337 -1.396 4.326
 -1.309 -1.394 4.326
 -1.28 -1.392 4.326
 -1.252 -1.39 4.327
 -1.224 -1.389 4.329
 -1.194 -1.385 4.323
 -1.166 -1.383 4.324
 -1.138 -1.38 4.32
 -1.109 -1.378 4.318
 -1.082 -1.377 4.319
 -1.054 -1.375 4.319
 -1.027 -1.374 4.32
 -0.998 -1.37 4.313
 -0.971 -1.369 4.316
 -0.943 -1.367 4.312
 -0.916 -1.364 4.308
 -0.888 -1.362 4.304
 -0.863 -1.364 4.314
 -0.836 -1.362 4.313
 -0.81 -1.362 4.315
 -0.783 -1.36 4.314
 -0.757 -1.359 4.315
 -0.73 -1.359 4.316
 -0.704 -1.357 4.313
 -0.675 -1.352 4.301
 -0.649 -1.351 4.302
 -0.623 -1.351 4.303
 -0.597 -1.35 4.302
 -0.57 -1.348 4.298
 -0.546 -1.35 4.308
 -0.519 -1.347 4.3
 -0.492 -1.343 4.289
 -0.466 -1.341 4.285
 -0.441 -1.343 4.294
 -0.414 -1.341 4.287
 -0.39 -1.343 4.297
 -0.363 -1.34 4.289
 -0.337 -1.339 4.285
 -0.312 -1.338 4.283
 -0.286 -1.337 4.282
 -0.261 -1.337 4.284
 -0.235 -1.338 4.286
 -0.21 -1.339 4.29
 -0.185 -1.338 4.287
 -0.159 -1.338 4.288
 -0.134 -1.337 4.285
 -0.108 -1.337 4.287
 -0.083 -1.337 4.285
 -0.058 -1.336 4.282
 -0.032 -1.336 4.282
 -0.007 -1.336 4.283
 0.017 -1.336 4.28
 0.043 -1.334 4.273
 0.068 -1.337 4.285
 0.093 -1.339 4.288
 0.119 -1.34 4.292
 0.144 -1.341 4.294
 0.17 -1.342 4.295
 0.195 -1.341 4.291
 0.22 -1.34 4.287
 0.246 -1.34 4.286
 0.272 -1.342 4.29
 0.297 -1.34 4.282
 0.322 -1.34 4.279
 0.348 -1.342 4.285
 0.373 -1.343 4.286
 0.399 -1.344 4.286
 0.426 -1.348 4.296
 0.452 -1.351 4.303
 0.477 -1.35 4.298
 0.503 -1.35 4.296
 0.528 -1.35 4.292
 0.554 -1.35 4.288
 0.579 -1.35 4.287
 0.605 -1.35 4.284
 0.63 -1.35 4.28
 0.656 -1.351 4.278
 0.682 -1.351 4.276
 0.706 -1.35 4.268
 0.733 -1.352 4.271
 0.76 -1.354 4.273
 0.786 -1.356 4.274
 0.813 -1.358 4.277
 0.84 -1.36 4.28
 0.867 -1.362 4.281
 0.893 -1.362 4.276
 0.92 -1.365 4.281
 0.946 -1.366 4.277
 0.973 -1.367 4.276
 0.999 -1.367 4.272
 1.026 -1.369 4.271
 1.052 -1.369 4.267
 1.078 -1.37 4.263
 1.105 -1.372 4.262
 1.132 -1.373 4.259
 1.158 -1.373 4.255
 1.185 -1.374 4.251
 1.212 -1.376 4.249
 1.24 -1.378 4.248
 1.267 -1.379 4.246
 1.295 -1.381 4.245
 1.323 -1.384 4.246
 1.351 -1.386 4.245
 1.379 -1.388 4.242
 1.409 -1.392 4.247
 1.437 -1.394 4.245
 1.466 -1.396 4.244
 1.494 -1.398 4.243
 1.523 -1.401 4.241
 1.55 -1.402 4.235
 1.58 -1.404 4.235
 1.609 -1.407 4.234
 1.638 -1.409 4.231
 1.667 -1.411 4.227
 1.695 -1.413 4.222
 1.723 -1.414 4.215
 1.751 -1.415 4.21
 1.78 -1.417 4.206
 1.808 -1.419 4.198
 1.837 -1.42 4.192
 1.866 -1.422 4.187
 1.892 -1.422 4.175
 1.917 -1.42 4.16
 0 0 0
 0 0 0
 0 0 0
 0 0 0
 0 0 0
 0 0 0
 0 0 0
 0 0 0
 0 0 0
 0 0 0
 0 0 0
 0 0 0
 1.812 -1.138 3.201
 1.836 -1.14 3.195
 1.847 -1.134 3.167
 1.865 -1.132 3.15
 1.868 -1.122 3.108
 -2.562 -1.523 4.429
 -2.514 -1.512 4.412
 -2.451 -1.492 4.366
 -2.412 -1.486 4.363
 -2.376 -1.482 4.364
 -2.34 -1.477 4.365
 -2.304 -1.473 4.365
 -2.267 -1.468 4.362
 -2.231 -1.463 4.36
 -2.193 -1.457 4.354
 -2.156 -1.451 4.35
 -2.118 -1.445 4.342
 -2.084 -1.441 4.341
 -2.049 -1.436 4.339
 -2.016 -1.433 4.339
 -1.983 -1.429 4.34
 -1.951 -1.426 4.34
 -1.917 -1.422 4.337
 -1.883 -1.417 4.334
 -1.851 -1.414 4.333
 -1.818 -1.41 4.331
 -1.787 -1.407 4.333
 -1.756 -1.405 4.334
 -1.725 -1.402 4.334
 -1.693 -1.398 4.331
 -1.662 -1.395 4.331
 -1.631 -1.392 4.329
 -1.6 -1.388 4.327
 -1.57 -1.386 4.327
 -1.541 -1.384 4.329
 -1.511 -1.381 4.328
 -1.48 -1.378 4.327
 -1.451 -1.376 4.326
 -1.42 -1.372 4.322
 -1.391 -1.369 4.321
 -1.362 -1.367 4.321
 -1.334 -1.366 4.325
 -1.306 -1.365 4.327
 -1.279 -1.364 4.329
 -1.251 -1.363 4.332
 -1.223 -1.361 4.332
 -1.193 -1.357 4.327
 -1.165 -1.355 4.326
 -1.136 -1.353 4.323
 -1.107 -1.349 4.317
 -1.08 -1.348 4.319
 -1.053 -1.348 4.323
 -1.026 -1.346 4.323
 -0.996 -1.341 4.312
 -0.97 -1.342 4.317
 -0.942 -1.339 4.312
 -0.913 -1.335 4.304
 -0.886 -1.332 4.3
 -0.863 -1.337 4.32
 -0.836 -1.336 4.318
 -0.809 -1.334 4.318
 -0.782 -1.333 4.315
 -0.756 -1.332 4.317
 -0.729 -1.331 4.318
 -0.703 -1.331 4.319
 -0.674 -1.325 4.302
 -0.649 -1.324 4.305
 -0.622 -1.324 4.304
 -0.596 -1.322 4.303
 -0.569 -1.318 4.292
 -0.544 -1.321 4.303
 -0.517 -1.316 4.29
 -0.489 -1.311 4.274
 -0.463 -1.308 4.265
 -0.439 -1.313 4.286
 0 0 0
 0 0 0
 -0.362 -1.312 4.287
 -0.337 -1.311 4.284
 -0.311 -1.31 4.281
 -0.285 -1.309 4.28
 -0.26 -1.31 4.284
 -0.235 -1.311 4.287
 -0.21 -1.311 4.289
 -0.184 -1.311 4.288
 -0.159 -1.311 4.289
 -0.133 -1.31 4.286
 -0.108 -1.309 4.285
 -0.083 -1.309 4.284
 -0.057 -1.307 4.278
 -0.032 -1.307 4.277
 -0.007 -1.307 4.276
 0.017 -1.306 4.271
 0.042 -1.3 4.252
 0 0 0
 0 0 0
 0 0 0
 0 0 0
 0 0 0
 0 0 0
 0 0 0
 0 0 0
 0 0 0
 0.296 -1.311 4.275
 0.321 -1.309 4.27
 0.348 -1.315 4.287
 0.373 -1.317 4.29
 0.399 -1.319 4.294
 0.427 -1.327 4.32
 0.455 -1.333 4.335
 0.479 -1.33 4.322
 0.505 -1.33 4.32
 0.53 -1.329 4.313
 0.555 -1.326 4.302
 0.58 -1.326 4.298
 0.606 -1.326 4.295
 0.631 -1.325 4.288
 0.656 -1.324 4.283
 0.682 -1.327 4.286
 0.707 -1.324 4.274
 0.734 -1.327 4.279
 0.76 -1.329 4.283
 0.787 -1.331 4.285
 0.814 -1.333 4.286
 0.841 -1.336 4.292
 0.868 -1.338 4.292
 0.894 -1.338 4.29
 0.921 -1.34 4.292
 0.947 -1.34 4.286
 0.971 -1.338 4.272
 0.997 -1.338 4.268
 1.023 -1.339 4.266
 1.049 -1.34 4.262
 1.076 -1.34 4.259
 1.103 -1.343 4.26
 1.13 -1.344 4.257
 1.156 -1.345 4.255
 1.183 -1.346 4.251
 1.21 -1.347 4.249
 1.238 -1.35 4.25
 1.266 -1.351 4.248
 1.293 -1.353 4.245
 1.321 -1.355 4.246
 1.349 -1.358 4.246
 1.377 -1.359 4.242
 1.406 -1.362 4.245
 1.435 -1.365 4.246
 1.464 -1.367 4.244
 1.492 -1.369 4.242
 1.52 -1.371 4.24
 1.548 -1.373 4.236
 1.578 -1.376 4.236
 1.607 -1.378 4.235
 1.636 -1.381 4.232
 1.665 -1.383 4.23
 1.694 -1.385 4.226
 1.722 -1.386 4.219
 1.75 -1.387 4.214
 1.779 -1.389 4.209
 1.806 -1.39 4.202
 1.834 -1.391 4.194
 1.863 -1.393 4.188
 1.889 -1.393 4.176
 0 0 0
 0 0 0
 0 0 0
 0 0 0
 0 0 0
 0 0 0
 0 0 0
 0 0 0
 0 0 0
 0 0 0
 0 0 0
 0 0 0
 0 0 0
 1.807 -1.114 3.198
 1.831 -1.115 3.192
 1.842 -1.11 3.164
 1.89 -1.126 3.198
 1.876 -1.105 3.127
 -2.523 -1.471 4.371
 -2.488 -1.467 4.374
 -2.45 -1.462 4.374
 -2.412 -1.457 4.372
 -2.374 -1.452 4.37
 -2.34 -1.448 4.373
 -2.302 -1.443 4.369
 -2.265 -1.438 4.366
 -2.229 -1.433 4.365
 -2.192 -1.428 4.361
 -2.155 -1.422 4.355
 -2.118 -1.417 4.351
 -2.084 -1.413 4.349
 -2.049 -1.408 4.347
 -2.015 -1.404 4.345
 -1.981 -1.4 4.344
 -1.948 -1.396 4.342
 -1.914 -1.392 4.34
 -1.881 -1.388 4.336
 -1.849 -1.385 4.338
 -1.817 -1.382 4.337
 -1.786 -1.379 4.339
 -1.755 -1.376 4.339
 -1.723 -1.372 4.336
 -1.689 -1.368 4.33
 -1.659 -1.365 4.33
 -1.628 -1.362 4.328
 -1.597 -1.358 4.326
 -1.567 -1.356 4.327
 -1.539 -1.355 4.331
 -1.508 -1.352 4.33
 -1.479 -1.35 4.329
 -1.449 -1.348 4.33
 -1.419 -1.345 4.327
 -1.39 -1.342 4.325
 -1.362 -1.341 4.328
 -1.334 -1.339 4.33
 -1.306 -1.338 4.333
 -1.278 -1.337 4.334
 -1.25 -1.335 4.337
 -1.222 -1.334 4.338
 -1.192 -1.33 4.331
 -1.163 -1.326 4.325
 -1.133 -1.323 4.319
 -1.105 -1.321 4.318
 -1.08 -1.322 4.326
 -1.053 -1.322 4.33
 -1.026 -1.32 4.33
 -0.995 -1.314 4.313
 -0.968 -1.312 4.314
 0 0 0
 0 0 0
 0 0 0
 0 0 0
 0 0 0
 0 0 0
 0 0 0
 0 0 0
 0 0 0
 0 0 0
 0 0 0
 0 0 0
 0 0 0
 0 0 0
 0 0 0
 0 0 0
 0 0 0
 0 0 0
 0 0 0
 0 0 0
 0 0 0
 0 0 0
 -0.361 -1.283 4.28
 -0.336 -1.283 4.281
 -0.311 -1.283 4.284
 -0.285 -1.283 4.283
 -0.26 -1.283 4.286
 -0.235 -1.283 4.287
 -0.209 -1.284 4.289
 -0.184 -1.283 4.288
 -0.159 -1.283 4.288
 -0.133 -1.282 4.285
 -0.108 -1.282 4.285
 -0.082 -1.282 4.284
 -0.057 -1.28 4.277
 -0.032 -1.28 4.277
 -0.007 -1.279 4.275
 0.018 -1.278 4.271
 0.043 -1.273 4.252
 0 0 0
 0 0 0
 0 0 0
 0 0 0
 0 0 0
 0 0 0
 0 0 0
 0 0 0
 0 0 0
 0 0 0
 0 0 0
 0 0 0
 0 0 0
 0 0 0
 0 0 0
 0 0 0
 0 0 0
 0 0 0
 0 0 0
 0 0 0
 0 0 0
 0 0 0
 0 0 0
 0 0 0
 0 0 0
 0 0 0
 0 0 0
 0 0 0
 0 0 0
 0 0 0
 0 0 0
 0 0 0
 0 0 0
 0 0 0
 0 0 0
 0.966 -1.305 4.257
 0.994 -1.309 4.263
 1.021 -1.31 4.262
 1.047 -1.311 4.261
 1.074 -1.312 4.258
 1.102 -1.315 4.261
 1.128 -1.316 4.259
 1.156 -1.318 4.257
 1.182 -1.319 4.255
 1.209 -1.32 4.253
 1.237 -1.322 4.252
 1.264 -1.324 4.251
 1.292 -1.325 4.248
 1.32 -1.328 4.248
 1.348 -1.33 4.249
 1.375 -1.331 4.245
 1.404 -1.334 4.246
 1.433 -1.336 4.245
 1.461 -1.338 4.244
 1.489 -1.34 4.24
 1.518 -1.342 4.239
 1.545 -1.344 4.235
 1.574 -1.346 4.234
 1.603 -1.348 4.232
 1.633 -1.351 4.231
 1.662 -1.354 4.23
 1.692 -1.356 4.228
 1.72 -1.358 4.223
 1.748 -1.359 4.217
 1.777 -1.361 4.213
 1.805 -1.362 4.206
 1.833 -1.363 4.198
 1.862 -1.365 4.194
 1.892 -1.367 4.189
 0 0 0
 0 0 0
 0 0 0
 0 0 0
 0 0 0
 0 0 0
 0 0 0
 0 0 0
 0 0 0
 0 0 0
 0 0 0
 0 0 0
 0 0 0
 1.804 -1.091 3.2
 1.827 -1.092 3.192
 1.839 -1.086 3.164
 1.882 -1.099 3.191
 1.859 -1.074 3.105
 -2.522 -1.441 4.378
 -2.491 -1.44 4.39
 -2.448 -1.432 4.38
 -2.41 -1.427 4.377
 -2.371 -1.421 4.373
 -2.336 -1.417 4.375
 -2.296 -1.411 4.367
 -2.259 -1.406 4.364
 -2.224 -1.401 4.363
 -2.187 -1.396 4.36
 -2.151 -1.391 4.356
 -2.117 -1.388 4.356
 -2.081 -1.383 4.352
 -2.047 -1.379 4.351
 -2.012 -1.374 4.347
 -1.978 -1.37 4.345
 -1.946 -1.367 4.346
 -1.914 -1.364 4.347
 -1.88 -1.36 4.344
 -1.849 -1.357 4.344
 -1.816 -1.353 4.342
 -1.784 -1.35 4.341
 -1.752 -1.346 4.338
 -1.719 -1.343 4.335
 -1.686 -1.338 4.329
 -1.655 -1.335 4.328
 -1.625 -1.332 4.328
 -1.594 -1.329 4.326
 -1.565 -1.327 4.328
 -1.536 -1.326 4.331
 -1.506 -1.323 4.33
 -1.476 -1.321 4.329
 -1.447 -1.319 4.33
 -1.416 -1.315 4.325
 -1.388 -1.313 4.326
 -1.36 -1.312 4.329
 -1.33 -1.31 4.327
 -1.301 -1.307 4.324
 0 0 0
 0 0 0
 0 0 0
 0 0 0
 0 0 0
 0 0 0
 0 0 0
 0 0 0
 0 0 0
 0 0 0
 0 0 0
 0 0 0
 0 0 0
 0 0 0
 0 0 0
 0 0 0
 0 0 0
 0 0 0
 0 0 0
 0 0 0
 0 0 0
 0 0 0
 0 0 0
 0 0 0
 0 0 0
 -0.6 -1.28 4.346
 0 0 0
 0 0 0
 0 0 0
 0 0 0
 0 0 0
 0 0 0
 0 0 0
 0 0 0
 -0.36 -1.253 4.272
 -0.335 -1.254 4.275
 -0.31 -1.255 4.279
 -0.284 -1.255 4.282
 -0.259 -1.256 4.284
 -0.234 -1.256 4.285
 -0.209 -1.256 4.288
 -0.184 -1.257 4.29
 -0.158 -1.256 4.289
 -0.133 -1.256 4.288
 -0.108 -1.256 4.287
 -0.082 -1.255 4.284
 -0.057 -1.252 4.274
 -0.032 -1.251 4.272
 -0.006 -1.25 4.267
 0.018 -1.249 4.262
 0.043 -1.244 4.246
 0 0 0
 0 0 0
 0 0 0
 0 0 0
 0 0 0
 0 0 0
 0 0 0
 0 0 0
 0 0 0
 0 0 0
 0 0 0
 0 0 0
 0 0 0
 0 0 0
 0 0 0
 0 0 0
 0 0 0
 0 0 0
 0 0 0
 0 0 0
 0 0 0
 0 0 0
 0 0 0
 0 0 0
 0 0 0
 0 0 0
 0 0 0
 0 0 0
 0 0 0
 0 0 0
 0 0 0
 0 0 0
 0 0 0
 0 0 0
 0 0 0
 0.961 -1.273 4.242
 0.991 -1.279 4.257
 1.019 -1.281 4.26
 1.045 -1.283 4.258
 1.072 -1.284 4.257
 1.1 -1.287 4.262
 1.127 -1.289 4.261
 1.154 -1.29 4.258
 1.181 -1.292 4.257
 1.208 -1.293 4.255
 1.236 -1.295 4.256
 1.263 -1.296 4.253
 1.29 -1.298 4.25
 1.318 -1.3 4.25
 1.346 -1.302 4.25
 1.373 -1.303 4.245
 1.402 -1.306 4.246
 1.431 -1.308 4.247
 1.459 -1.31 4.246
 1.487 -1.312 4.242
 1.516 -1.314 4.24
 1.543 -1.315 4.236
 1.572 -1.317 4.233
 1.6 -1.319 4.23
 1.63 -1.322 4.23
 1.659 -1.325 4.229
 1.689 -1.327 4.228
 1.718 -1.329 4.224
 1.746 -1.331 4.22
 1.775 -1.332 4.215
 1.802 -1.333 4.206
 1.829 -1.334 4.197
 1.858 -1.335 4.191
 1.886 -1.336 4.183
 0 0 0
 0 0 0
 0 0 0
 0 0 0
 0 0 0
 0 0 0
 0 0 0
 0 0 0
 0 0 0
 0 0 0
 0 0 0
 0 0 0
 0 0 0
 1.795 -1.064 3.19
 1.823 -1.068 3.19
 1.834 -1.062 3.162
 1.863 -1.067 3.164
 1.851 -1.048 3.098
 -2.505 -1.402 4.356
 -2.479 -1.404 4.377
 -2.444 -1.4 4.38
 -2.405 -1.395 4.376
 -2.366 -1.389 4.373
 -2.331 -1.385 4.373
 -2.291 -1.379 4.365
 -2.255 -1.374 4.364
 -2.22 -1.371 4.364
 -2.184 -1.366 4.362
 -2.149 -1.362 4.359
 -2.115 -1.358 4.36
 -2.078 -1.353 4.354
 -2.044 -1.349 4.353
 -2.01 -1.345 4.35
 -1.975 -1.34 4.347
 -1.943 -1.338 4.348
 -1.912 -1.335 4.352
 -1.879 -1.331 4.348
 -1.846 -1.328 4.347
 -1.813 -1.324 4.342
 -1.78 -1.32 4.34
 -1.749 -1.317 4.339
 -1.716 -1.313 4.334
 -1.683 -1.309 4.329
 -1.653 -1.306 4.329
 -1.622 -1.303 4.329
 -1.591 -1.3 4.326
 -1.562 -1.298 4.328
 -1.533 -1.296 4.329
 -1.502 -1.293 4.327
 -1.472 -1.291 4.326
 -1.444 -1.289 4.327
 -1.413 -1.285 4.322
 -1.384 -1.284 4.323
 -1.356 -1.282 4.325
 -1.328 -1.28 4.325
 -1.297 -1.277 4.319
 0 0 0
 0 0 0
 0 0 0
 0 0 0
 0 0 0
 0 0 0
 0 0 0
 0 0 0
 0 0 0
 0 0 0
 0 0 0
 0 0 0
 0 0 0
 0 0 0
 0 0 0
 0 0 0
 0 0 0
 0 0 0
 0 0 0
 0 0 0
 0 0 0
 -0.7 -1.248 4.322
 -0.677 -1.253 4.342
 -0.651 -1.252 4.341
 -0.625 -1.252 4.343
 -0.6 -1.253 4.35
 -0.574 -1.254 4.356
 -0.547 -1.251 4.346
 -0.517 -1.241 4.315
 -0.492 -1.242 4.318
 0 0 0
 0 0 0
 0 0 0
 0 0 0
 -0.361 -1.232 4.292
 -0.335 -1.23 4.286
 -0.31 -1.23 4.287
 -0.284 -1.23 4.287
 -0.259 -1.229 4.288
 -0.233 -1.228 4.284
 -0.208 -1.229 4.287
 -0.183 -1.229 4.288
 -0.158 -1.229 4.287
 -0.132 -1.229 4.287
 -0.107 -1.229 4.287
 -0.082 -1.228 4.285
 -0.057 -1.225 4.276
 -0.031 -1.225 4.276
 -0.006 -1.224 4.272
 0.018 -1.223 4.267
 0.043 -1.218 4.25
 0 0 0
 0 0 0
 0 0 0
 0 0 0
 0 0 0
 0 0 0
 0 0 0
 0 0 0
 0 0 0
 0 0 0
 0 0 0
 0 0 0
 0 0 0
 0 0 0
 0 0 0
 0 0 0
 0 0 0
 0 0 0
 0 0 0
 0 0 0
 0 0 0
 0 0 0
 0 0 0
 0 0 0
 0 0 0
 0 0 0
 0 0 0
 0 0 0
 0 0 0
 0 0 0
 0 0 0
 0 0 0
 0 0 0
 0 0 0
 0 0 0
 0.959 -1.244 4.236
 0.989 -1.25 4.254
 1.017 -1.253 4.257
 1.044 -1.255 4.257
 1.07 -1.256 4.254
 1.099 -1.259 4.261
 1.125 -1.26 4.259
 1.152 -1.262 4.258
 1.179 -1.263 4.256
 1.206 -1.265 4.255
 1.234 -1.266 4.253
 1.261 -1.268 4.252
 1.288 -1.269 4.248
 1.316 -1.271 4.249
 1.344 -1.274 4.248
 1.372 -1.275 4.246
 1.4 -1.277 4.245
 1.429 -1.28 4.246
 1.457 -1.282 4.244
 1.484 -1.283 4.24
 1.513 -1.285 4.239
 1.541 -1.287 4.235
 1.569 -1.288 4.231
 1.597 -1.29 4.229
 1.627 -1.293 4.229
 1.656 -1.296 4.229
 1.686 -1.298 4.228
 1.716 -1.301 4.226
 1.744 -1.303 4.222
 1.773 -1.304 4.217
 1.8 -1.305 4.208
 1.827 -1.305 4.198
 1.855 -1.306 4.192
 1.883 -1.308 4.185
 0 0 0
 0 0 0
 0 0 0
 0 0 0
 0 0 0
 0 0 0
 0 0 0
 0 0 0
 0 0 0
 0 0 0
 0 0 0
 0 0 0
 0 0 0
 1.791 -1.04 3.189
 1.816 -1.042 3.185
 1.829 -1.038 3.159
 1.855 -1.041 3.156
 1.849 -1.026 3.101
 -2.507 -1.374 4.368
 -2.49 -1.381 4.406
 -2.439 -1.368 4.38
 -2.399 -1.363 4.374
 -2.361 -1.357 4.37
 -2.324 -1.353 4.369
 -2.285 -1.347 4.362
 -2.251 -1.343 4.364
 -2.216 -1.34 4.365
 -2.18 -1.335 4.362
 -2.146 -1.332 4.361
 -2.112 -1.328 4.362
 -2.075 -1.323 4.355
 -2.041 -1.319 4.353
 -2.006 -1.315 4.351
 -1.973 -1.311 4.349
 -1.942 -1.309 4.353
 -1.912 -1.307 4.358
 -1.88 -1.304 4.358
 -1.847 -1.301 4.356
 -1.812 -1.296 4.348
 -1.779 -1.292 4.346
 -1.748 -1.289 4.344
 -1.713 -1.284 4.335
 -1.681 -1.28 4.33
 -1.65 -1.277 4.33
 -1.619 -1.274 4.329
 -1.589 -1.272 4.328
 -1.56 -1.27 4.33
 -1.53 -1.268 4.33
 -1.5 -1.265 4.327
 -1.47 -1.262 4.326
 -1.441 -1.26 4.326
 -1.411 -1.257 4.323
 -1.383 -1.256 4.325
 -1.355 -1.255 4.329
 -1.327 -1.253 4.33
 -1.297 -1.251 4.327
 0 0 0
 0 0 0
 0 0 0
 0 0 0
 0 0 0
 0 0 0
 0 0 0
 0 0 0
 0 0 0
 0 0 0
 0 0 0
 0 0 0
 0 0 0
 0 0 0
 0 0 0
 0 0 0
 0 0 0
 0 0 0
 0 0 0
 0 0 0
 0 0 0
 -0.705 -1.23 4.356
 -0.68 -1.233 4.368
 -0.653 -1.231 4.364
 -0.627 -1.232 4.368
 -0.6 -1.229 4.361
 -0.574 -1.229 4.364
 -0.547 -1.225 4.354
 -0.517 -1.216 4.322
 -0.492 -1.216 4.325
 0 0 0
 0 0 0
 0 0 0
 0 0 0
 -0.361 -1.207 4.299
 -0.335 -1.204 4.289
 -0.309 -1.203 4.289
 -0.284 -1.204 4.291
 -0.259 -1.204 4.292
 -0.233 -1.202 4.287
 -0.208 -1.202 4.287
 -0.183 -1.202 4.289
 -0.157 -1.201 4.285
 -0.132 -1.201 4.285
 -0.107 -1.202 4.287
 -0.082 -1.201 4.285
 -0.056 -1.199 4.276
 -0.031 -1.198 4.275
 -0.006 -1.197 4.27
 0.018 -1.195 4.263
 0.043 -1.191 4.248
 0 0 0
 0 0 0
 0 0 0
 0 0 0
 0 0 0
 0 0 0
 0 0 0
 0 0 0
 0 0 0
 0 0 0
 0 0 0
 0 0 0
 0 0 0
 0 0 0
 0 0 0
 0 0 0
 0 0 0
 0 0 0
 0 0 0
 0 0 0
 0 0 0
 0 0 0
 0 0 0
 0 0 0
 0 0 0
 0 0 0
 0 0 0
 0 0 0
 0 0 0
 0 0 0
 0 0 0
 0 0 0
 0 0 0
 0 0 0
 0 0 0
 0.958 -1.218 4.241
 0.989 -1.224 4.256
 1.016 -1.226 4.258
 1.042 -1.227 4.256
 1.068 -1.228 4.253
 1.097 -1.231 4.259
 1.123 -1.232 4.256
 1.15 -1.234 4.256
 1.177 -1.235 4.255
 1.205 -1.237 4.255
 1.232 -1.239 4.254
 1.259 -1.24 4.251
 1.286 -1.241 4.248
 1.314 -1.243 4.249
 1.342 -1.245 4.247
 1.369 -1.246 4.244
 1.397 -1.249 4.244
 1.426 -1.251 4.245
 1.454 -1.253 4.241
 1.481 -1.254 4.237
 1.51 -1.256 4.237
 1.537 -1.258 4.233
 1.565 -1.259 4.228
 1.593 -1.261 4.226
 1.623 -1.263 4.225
 1.652 -1.266 4.224
 1.683 -1.269 4.225
 1.712 -1.272 4.224
 1.741 -1.273 4.22
 1.77 -1.275 4.216
 1.797 -1.276 4.207
 1.823 -1.275 4.196
 1.85 -1.276 4.186
 1.877 -1.276 4.177
 0 0 0
 0 0 0
 0 0 0
 0 0 0
 0 0 0
 0 0 0
 0 0 0
 0 0 0
 0 0 0
 0 0 0
 0 0 0
 0 0 0
 0 0 0
 1.789 -1.018 3.191
 1.813 -1.019 3.185
 1.826 -1.015 3.16
 1.865 -1.025 3.179
 1.848 -1.004 3.104
 -2.534 -1.359 4.424
 -2.477 -1.344 4.39
 -2.437 -1.338 4.384
 -2.396 -1.332 4.377
 -2.357 -1.327 4.372
 -2.32 -1.322 4.369
 -2.281 -1.316 4.362
 -2.246 -1.312 4.363
 -2.212 -1.309 4.364
 -2.176 -1.305 4.362
 -2.141 -1.301 4.36
 -2.108 -1.298 4.362
 -2.07 -1.292 4.353
 -2.037 -1.288 4.353
 -2.003 -1.284 4.35
 -1.97 -1.282 4.351
 -1.939 -1.28 4.355
 -1.912 -1.28 4.365
 -1.879 -1.276 4.363
 -1.845 -1.272 4.358
 -1.808 -1.266 4.347
 -1.777 -1.263 4.346
 -1.744 -1.259 4.343
 -1.71 -1.255 4.335
 -1.679 -1.251 4.332
 -1.648 -1.248 4.33
 -1.617 -1.246 4.33
 -1.587 -1.243 4.329
 -1.558 -1.241 4.331
 -1.528 -1.239 4.331
 -1.498 -1.236 4.328
 -1.467 -1.233 4.325
 -1.439 -1.232 4.327
 -1.409 -1.229 4.323
 -1.38 -1.227 4.325
 -1.353 -1.227 4.331
 -1.325 -1.226 4.332
 -1.294 -1.221 4.322
 0 0 0
 0 0 0
 0 0 0
 0 0 0
 0 0 0
 0 0 0
 0 0 0
 0 0 0
 0 0 0
 0 0 0
 0 0 0
 0 0 0
 0 0 0
 0 0 0
 0 0 0
 0 0 0
 0 0 0
 0 0 0
 0 0 0
 0 0 0
 -0.735 -1.213 4.389
 -0.706 -1.206 4.369
 -0.68 -1.207 4.375
 -0.653 -1.205 4.369
 -0.627 -1.204 4.369
 -0.6 -1.202 4.364
 -0.574 -1.202 4.366
 -0.547 -1.199 4.359
 -0.516 -1.189 4.322
 -0.491 -1.19 4.328
 -0.463 -1.183 4.303
 -0.437 -1.181 4.299
 -0.411 -1.181 4.302
 0 0 0
 -0.361 -1.182 4.307
 -0.334 -1.177 4.291
 -0.309 -1.177 4.291
 -0.284 -1.177 4.293
 -0.258 -1.178 4.295
 -0.233 -1.176 4.288
 -0.208 -1.175 4.288
 -0.182 -1.175 4.289
 -0.157 -1.174 4.285
 -0.132 -1.174 4.283
 -0.107 -1.175 4.286
 -0.081 -1.175 4.286
 -0.056 -1.173 4.28
 -0.031 -1.173 4.28
 -0.006 -1.172 4.276
 0.018 -1.171 4.27
 0.043 -1.168 4.258
 0 0 0
 0 0 0
 0 0 0
 0 0 0
 0 0 0
 0 0 0
 0 0 0
 0 0 0
 0 0 0
 0 0 0
 0 0 0
 0 0 0
 0 0 0
 0 0 0
 0 0 0
 0 0 0
 0 0 0
 0 0 0
 0 0 0
 0 0 0
 0 0 0
 0 0 0
 0 0 0
 0 0 0
 0 0 0
 0 0 0
 0 0 0
 0 0 0
 0 0 0
 0 0 0
 0 0 0
 0 0 0
 0 0 0
 0 0 0
 0 0 0
 0.96 -1.194 4.254
 0.989 -1.199 4.265
 1.016 -1.2 4.263
 1.042 -1.2 4.26
 1.068 -1.201 4.256
 1.095 -1.203 4.259
 1.122 -1.205 4.258
 1.149 -1.207 4.258
 1.177 -1.208 4.257
 1.204 -1.21 4.258
 1.231 -1.211 4.255
 1.257 -1.212 4.252
 1.285 -1.214 4.25
 1.313 -1.216 4.25
 1.34 -1.217 4.247
 1.368 -1.219 4.246
 1.396 -1.221 4.246
 1.424 -1.223 4.246
 1.452 -1.225 4.242
