 0.132 0.008 0.35
 0.135 0.008 0.351
 0.139 0.008 0.354
 0.142 0.009 0.356
 0.146 0.009 0.361
 0.151 0.009 0.366
 0.155 0.009 0.369
 0.159 0.009 0.372
 0.164 0.009 0.379
 0.172 0.01 0.391
 0.182 0.01 0.407
 0.198 0.011 0.435
 0.217 0.012 0.471
 0.24 0.014 0.513
 0.261 0.015 0.55
 0.284 0.016 0.59
 0.311 0.018 0.636
 0.34 0.019 0.685
 0.369 0.021 0.732
 0.397 0.023 0.776
 0.419 0.024 0.807
 0.433 0.024 0.821
 0.438 0.024 0.818
 0.44 0.024 0.809
 0.441 0.024 0.799
 0.443 0.023 0.791
 0.434 0.022 0.764
 0.437 0.022 0.759
 -0.378 0.028 0.678
 -0.365 0.027 0.665
 -0.359 0.027 0.663
 -0.361 0.027 0.677
 -0.365 0.028 0.696
 -0.373 0.029 0.721
 -0.38 0.03 0.748
 -0.385 0.031 0.768
 -0.387 0.031 0.784
 -0.386 0.032 0.796
 -0.385 0.032 0.806
 -0.382 0.032 0.813
 -0.378 0.032 0.818
 -0.375 0.033 0.823
 -0.371 0.033 0.828
 -0.366 0.033 0.831
 -0.361 0.033 0.834
 -0.357 0.033 0.837
 -0.352 0.033 0.84
 -0.347 0.033 0.843
 -0.343 0.033 0.846
 -0.338 0.033 0.848
 -0.333 0.033 0.85
 -0.327 0.033 0.851
 -0.321 0.033 0.851
 -0.315 0.033 0.85
 -0.31 0.032 0.85
 -0.303 0.032 0.849
 -0.298 0.032 0.849
 -0.293 0.032 0.85
 -0.287 0.032 0.851
 -0.282 0.032 0.851
 -0.276 0.032 0.85
 -0.27 0.032 0.849
 -0.264 0.032 0.846
 -0.259 0.032 0.848
 -0.255 0.032 0.854
 -0.252 0.032 0.863
 -0.249 0.032 0.871
 -0.247 0.033 0.882
 -0.242 0.033 0.886
 -0.236 0.033 0.884
 -0.229 0.032 0.879
 -0.223 0.032 0.877
 -0.219 0.032 0.883
 -0.216 0.033 0.89
 -0.211 0.033 0.892
 -0.206 0.033 0.894
 -0.2 0.033 0.893
 -0.192 0.032 0.88
 -0.182 0.031 0.858
 -0.174 0.03 0.844
 -0.166 0.03 0.832
 -0.159 0.029 0.819
 -0.152 0.029 0.809
 -0.147 0.029 0.808
 -0.143 0.029 0.81
 -0.138 0.029 0.811
 -0.134 0.029 0.814
 -0.129 0.029 0.817
 -0.126 0.029 0.829
 -0.124 0.03 0.848
 -0.12 0.03 0.859
 -0.117 0.031 0.869
 -0.112 0.031 0.875
 -0.107 0.031 0.869
 -0.1 0.03 0.853
 -0.093 0.03 0.842
 -0.087 0.029 0.83
 -0.082 0.029 0.823
 -0.076 0.029 0.817
 -0.071 0.028 0.812
 -0.066 0.028 0.808
 -0.061 0.028 0.804
 -0.056 0.028 0.8
 -0.051 0.028 0.797
 -0.047 0.028 0.797
 -0.042 0.028 0.798
 -0.037 0.027 0.796
 -0.033 0.027 0.794
 -0.028 0.027 0.79
 -0.023 0.027 0.783
 -0.019 0.027 0.78
 -0.014 0.027 0.782
 -0.01 0.027 0.794
 -0.005 0.028 0.817
 -0.001 0.029 0.848
 0.004 0.031 0.894
 0.009 0.032 0.931
 0.015 0.033 0.95
 0.02 0.033 0.954
 0.026 0.033 0.946
 0.031 0.032 0.932
 0.035 0.031 0.911
 0.04 0.031 0.902
 0.046 0.031 0.912
 0.052 0.032 0.932
 0.059 0.033 0.954
 0.067 0.034 0.994
 0.078 0.037 1.061
 0.09 0.039 1.127
 0.102 0.042 1.19
 0.111 0.043 1.22
 0.122 0.044 1.26
 0.133 0.046 1.295
 0.141 0.046 1.297
 0.146 0.045 1.273
 0.156 0.046 1.296
 0.164 0.046 1.302
 0.171 0.046 1.296
 0.175 0.044 1.268
 0.182 0.044 1.265
 0.189 0.044 1.265
 0.194 0.044 1.246
 0.19 0.041 1.18
 0.194 0.04 1.159
 0.197 0.04 1.136
 0.189 0.036 1.053
 0.185 0.034 0.998
 0.188 0.034 0.983
 0.183 0.032 0.929
 0.178 0.03 0.875
 0.182 0.03 0.87
 0.195 0.031 0.906
 0.212 0.033 0.957
 0.235 0.036 1.033
 0.256 0.038 1.096
 0.266 0.039 1.11
 0.256 0.036 1.044
 0.24 0.033 0.953
 0.218 0.029 0.843
 0.193 0.024 0.728
 0.167 0.02 0.618
 0.145 0.017 0.521
 0.129 0.014 0.454
 0.119 0.013 0.409
 0.114 0.012 0.384
 0.113 0.011 0.372
 0.114 0.011 0.367
 0.114 0.011 0.36
 0.115 0.011 0.355
 0.115 0.01 0.348
 0.116 0.01 0.345
 0.118 0.01 0.343
 0.119 0.01 0.339
 0.121 0.01 0.34
 0.124 0.01 0.34
 0.126 0.01 0.338
 0.128 0.01 0.338
 0.132 0.01 0.342
 0.136 0.01 0.348
 0.14 0.011 0.351
 0.144 0.011 0.354
 0.148 0.011 0.358
 0.152 0.011 0.362
 0.154 0.011 0.361
 0.159 0.011 0.365
 0.165 0.012 0.373
 0.168 0.012 0.376
 0.174 0.012 0.383
 0.185 0.013 0.4
 0.198 0.014 0.423
 0.213 0.015 0.447
 0.235 0.016 0.486
 0.263 0.018 0.536
 0.293 0.02 0.589
 0.329 0.023 0.651
 0.364 0.025 0.711
 0.394 0.027 0.758
 0.415 0.028 0.787
 0.427 0.029 0.798
 0.432 0.028 0.795
 0.433 0.028 0.785
 0.435 0.028 0.777
 0.442 0.028 0.778
 0.447 0.028 0.775
 -0.359 0.03 0.644
 -0.343 0.029 0.624
 -0.357 0.031 0.659
 -0.361 0.032 0.677
 -0.366 0.033 0.698
 -0.373 0.034 0.722
 -0.38 0.035 0.747
 -0.383 0.036 0.766
 -0.385 0.036 0.782
 -0.385 0.037 0.793
 -0.383 0.037 0.803
 -0.38 0.037 0.809
 -0.377 0.037 0.814
 -0.373 0.038 0.819
 -0.369 0.038 0.824
 -0.365 0.038 0.828
 -0.36 0.038 0.831
 -0.356 0.038 0.835
 -0.352 0.038 0.839
 -0.347 0.038 0.842
 -0.343 0.038 0.847
 -0.338 0.038 0.849
 -0.333 0.038 0.851
 -0.328 0.038 0.852
 -0.322 0.038 0.852
 -0.316 0.038 0.851
 -0.31 0.038 0.852
 -0.305 0.038 0.852
 -0.299 0.038 0.853
 -0.294 0.038 0.854
 -0.288 0.037 0.853
 -0.281 0.037 0.848
 -0.274 0.037 0.843
 -0.267 0.036 0.838
 -0.258 0.036 0.826
 -0.252 0.036 0.824
 -0.247 0.036 0.827
 -0.243 0.036 0.832
 -0.24 0.036 0.839
 -0.239 0.037 0.854
 -0.235 0.037 0.86
 -0.229 0.037 0.859
 -0.224 0.037 0.857
 -0.218 0.036 0.855
 -0.214 0.037 0.862
 -0.211 0.037 0.869
 -0.205 0.037 0.869
 -0.2 0.037 0.869
 -0.194 0.037 0.864
 -0.185 0.036 0.847
 -0.174 0.034 0.821
 -0.166 0.034 0.807
 -0.159 0.033 0.793
 -0.151 0.032 0.779
 -0.145 0.032 0.768
 -0.14 0.032 0.768
 -0.135 0.032 0.769
 -0.131 0.032 0.77
 -0.127 0.032 0.772
 -0.122 0.032 0.774
 -0.119 0.032 0.784
 -0.118 0.033 0.803
 -0.114 0.033 0.814
 -0.111 0.034 0.827
 -0.107 0.034 0.833
 -0.102 0.034 0.831
 -0.096 0.034 0.825
 -0.092 0.034 0.825
 -0.086 0.034 0.822
 -0.082 0.034 0.825
 -0.077 0.034 0.827
 -0.072 0.033 0.821
 -0.067 0.033 0.817
 -0.062 0.033 0.813
 -0.057 0.033 0.809
 -0.052 0.033 0.806
 -0.047 0.033 0.807
 -0.043 0.033 0.808
 -0.038 0.033 0.806
 -0.033 0.032 0.803
 -0.028 0.032 0.798
 -0.023 0.032 0.789
 -0.019 0.031 0.782
 -0.014 0.031 0.777
 -0.01 0.031 0.774
 -0.005 0.031 0.775
 -0.001 0.032 0.787
 0.003 0.033 0.823
 0.008 0.035 0.861
 0.014 0.036 0.895
 0.02 0.037 0.926
 0.026 0.038 0.944
 0.031 0.038 0.938
 0.036 0.037 0.926
 0.041 0.037 0.92
 0.047 0.038 0.932
 0.053 0.038 0.953
 0.061 0.04 0.984
 0.069 0.041 1.018
 0.079 0.043 1.066
 0.089 0.046 1.118
 0.1 0.048 1.167
 0.107 0.048 1.175
 0.117 0.05 1.211
 0.129 0.051 1.254
 0.137 0.052 1.265
 0.141 0.05 1.233
 0.152 0.052 1.261
 0.159 0.051 1.257
 0.165 0.051 1.249
 0.166 0.049 1.202
 0.172 0.049 1.194
 0.178 0.048 1.188
 0.182 0.048 1.169
 0.179 0.045 1.107
 0.183 0.044 1.092
 0.186 0.044 1.077
 0.18 0.041 1.008
 0.178 0.039 0.96
 0.182 0.038 0.952
 0.18 0.037 0.912
 0.176 0.035 0.869
 0.184 0.035 0.881
 0.202 0.038 0.939
 0.221 0.04 1.001
 0.238 0.042 1.047
 0.248 0.043 1.064
 0.247 0.042 1.03
 0.224 0.037 0.913
 0.194 0.031 0.769
 0.166 0.025 0.644
 0.144 0.021 0.544
 0.126 0.017 0.465
 0.113 0.015 0.407
 0.106 0.014 0.374
 0.105 0.013 0.362
 0.106 0.013 0.355
 0.106 0.012 0.348
 0.107 0.012 0.345
 0.109 0.012 0.343
 0.11 0.012 0.34
 0.111 0.012 0.334
 0.113 0.012 0.334
 0.115 0.012 0.333
 0.116 0.012 0.332
 0.119 0.012 0.332
 0.121 0.012 0.333
 0.123 0.012 0.333
 0.126 0.012 0.333
 0.13 0.012 0.338
 0.135 0.013 0.345
 0.14 0.013 0.35
 0.143 0.013 0.353
 0.148 0.013 0.358
 0.151 0.013 0.36
 0.153 0.013 0.358
 0.158 0.013 0.363
 0.163 0.014 0.369
 0.166 0.014 0.371
 0.169 0.014 0.371
 0.175 0.014 0.379
 0.181 0.015 0.385
 0.188 0.015 0.394
 0.202 0.016 0.416
 0.225 0.018 0.456
 0.252 0.02 0.505
 0.287 0.023 0.568
 0.327 0.026 0.637
 0.364 0.029 0.699
 0.392 0.031 0.743
 0.412 0.032 0.769
 0.423 0.033 0.779
 0.428 0.033 0.776
 0.431 0.033 0.769
 0.446 0.033 0.785
 0.455 0.034 0.789
 -0.326 0.031 0.582
 -0.327 0.032 0.594
 -0.36 0.036 0.665
 -0.366 0.037 0.687
 -0.373 0.038 0.711
 -0.379 0.039 0.732
 -0.383 0.04 0.753
 -0.384 0.041 0.767
 -0.383 0.041 0.777
 -0.38 0.041 0.783
 -0.376 0.041 0.787
 -0.371 0.041 0.788
 -0.366 0.041 0.79
 -0.361 0.041 0.792
 -0.357 0.041 0.796
 -0.353 0.041 0.8
 -0.349 0.041 0.804
 -0.345 0.042 0.809
 -0.342 0.042 0.815
 -0.338 0.042 0.82
 -0.335 0.042 0.826
 -0.331 0.042 0.83
 -0.327 0.042 0.834
 -0.322 0.042 0.836
 -0.316 0.042 0.837
 -0.31 0.042 0.837
 -0.305 0.042 0.838
 -0.3 0.042 0.838
 -0.295 0.042 0.84
 -0.29 0.042 0.842
 -0.284 0.042 0.842
 -0.277 0.042 0.836
 -0.27 0.041 0.831
 -0.262 0.041 0.823
 -0.252 0.04 0.808
 -0.245 0.039 0.801
 -0.239 0.039 0.8
 -0.235 0.039 0.802
 -0.231 0.039 0.807
 -0.23 0.04 0.82
 -0.226 0.04 0.827
 -0.221 0.04 0.827
 -0.216 0.04 0.826
 -0.211 0.04 0.826
 -0.207 0.04 0.833
 -0.204 0.041 0.842
 -0.199 0.041 0.843
 -0.194 0.041 0.842
 -0.188 0.04 0.837
 -0.179 0.039 0.819
 -0.168 0.038 0.792
 -0.16 0.037 0.777
 -0.153 0.036 0.762
 -0.145 0.035 0.746
 -0.138 0.035 0.734
 -0.134 0.034 0.733
 -0.129 0.034 0.733
 -0.125 0.035 0.735
 -0.121 0.035 0.738
 -0.117 0.035 0.739
 -0.114 0.035 0.749
 -0.113 0.036 0.77
 -0.11 0.037 0.784
 -0.108 0.037 0.799
 -0.104 0.038 0.812
 -0.1 0.038 0.817
 -0.096 0.038 0.818
 -0.091 0.039 0.824
 -0.087 0.039 0.827
 -0.083 0.039 0.833
 -0.078 0.039 0.837
 -0.073 0.039 0.831
 -0.068 0.038 0.827
 -0.062 0.038 0.823
 -0.057 0.038 0.819
 -0.053 0.038 0.816
 -0.048 0.038 0.818
 -0.043 0.038 0.818
 -0.038 0.038 0.817
 -0.033 0.038 0.813
 -0.029 0.037 0.808
 -0.024 0.037 0.797
 -0.019 0.036 0.787
 -0.014 0.036 0.779
 -0.01 0.035 0.774
 -0.005 0.035 0.771
 -0.001 0.036 0.781
 0.003 0.037 0.811
 0.008 0.039 0.847
 0.014 0.041 0.883
 0.02 0.042 0.919
 0.026 0.044 0.94
 0.031 0.044 0.944
 0.037 0.043 0.941
 0.042 0.044 0.944
 0.049 0.045 0.963
 0.056 0.046 0.996
 0.064 0.048 1.029
 0.071 0.049 1.047
 0.079 0.05 1.071
 0.087 0.051 1.099
 0.096 0.052 1.124
 0.101 0.051 1.106
 0.111 0.053 1.141
 0.122 0.055 1.187
 0.131 0.056 1.208
 0.133 0.054 1.163
 0.144 0.056 1.198
 0.152 0.056 1.206
 0.159 0.056 1.203
 0.157 0.053 1.142
 0.164 0.053 1.138
 0.17 0.053 1.135
 0.172 0.051 1.107
 0.167 0.048 1.035
 0.172 0.047 1.027
 0.178 0.047 1.026
 0.169 0.043 0.943
 0.168 0.042 0.907
 0.177 0.043 0.925
 0.178 0.042 0.904
 0.175 0.039 0.861
 0.187 0.041 0.894
 0.209 0.045 0.969
 0.226 0.047 1.019
 0.23 0.047 1.012
 0.231 0.046 0.99
 0.22 0.042 0.918
 0.187 0.035 0.762
 0.15 0.027 0.596
 0.128 0.022 0.496
 0.113 0.018 0.427
 0.104 0.016 0.383
 0.101 0.015 0.361
 0.1 0.015 0.351
 0.101 0.014 0.345
 0.102 0.014 0.342
 0.103 0.014 0.338
 0.105 0.014 0.336
 0.106 0.014 0.334
 0.108 0.014 0.332
 0.108 0.014 0.328
 0.11 0.014 0.327
 0.112 0.014 0.326
 0.115 0.014 0.328
 0.117 0.014 0.328
 0.12 0.014 0.33
 0.122 0.014 0.329
 0.125 0.014 0.331
 0.129 0.014 0.335
 0.134 0.015 0.343
 0.139 0.015 0.349
 0.144 0.015 0.354
 0.148 0.015 0.358
 0.152 0.016 0.361
 0.155 0.016 0.362
 0.159 0.016 0.367
 0.165 0.016 0.375
 0.17 0.017 0.379
 0.171 0.016 0.376
 0.176 0.017 0.379
 0.18 0.017 0.383
 0.182 0.017 0.38
 0.189 0.017 0.388
 0.206 0.019 0.417
 0.227 0.021 0.454
 0.254 0.023 0.501
 0.29 0.027 0.565
 0.33 0.03 0.634
 0.364 0.033 0.688
 0.391 0.035 0.73
 0.411 0.037 0.756
 0.424 0.037 0.768
 0.43 0.037 0.767
 0.406 0.035 0.714
 0.415 0.035 0.719
 -0.334 0.036 0.598
 -0.355 0.039 0.645
 -0.365 0.04 0.674
 -0.373 0.042 0.7
 -0.381 0.043 0.725
 -0.387 0.045 0.748
 -0.39 0.046 0.766
 -0.39 0.046 0.779
 -0.386 0.046 0.784
 -0.379 0.046 0.781
 -0.371 0.046 0.775
 -0.362 0.045 0.768
 -0.354 0.045 0.763
 -0.347 0.044 0.761
 -0.342 0.044 0.763
 -0.339 0.044 0.767
 -0.335 0.044 0.771
 -0.331 0.045 0.776
 -0.328 0.045 0.78
 -0.324 0.045 0.786
 -0.321 0.045 0.791
 -0.317 0.045 0.794
 -0.312 0.045 0.797
 -0.308 0.045 0.799
 -0.303 0.045 0.8
 -0.297 0.045 0.801
 -0.293 0.045 0.802
 -0.287 0.045 0.803
 -0.283 0.045 0.804
 -0.278 0.045 0.808
 -0.273 0.045 0.808
 -0.266 0.045 0.802
 -0.259 0.044 0.796
 -0.251 0.044 0.788
 -0.241 0.043 0.772
 -0.234 0.042 0.766
 -0.23 0.042 0.767
 -0.226 0.042 0.77
 -0.222 0.042 0.775
 -0.222 0.043 0.791
 -0.219 0.044 0.799
 -0.214 0.044 0.8
 -0.209 0.044 0.801
 -0.204 0.043 0.801
 -0.201 0.044 0.809
 -0.198 0.044 0.817
 -0.193 0.044 0.818
 -0.188 0.044 0.817
 -0.182 0.044 0.812
 -0.173 0.043 0.793
 -0.163 0.041 0.766
 -0.155 0.04 0.749
 -0.147 0.039 0.732
 -0.139 0.038 0.716
 -0.133 0.037 0.703
 -0.128 0.037 0.701
 -0.124 0.037 0.701
 -0.12 0.037 0.703
 -0.116 0.037 0.706
 -0.112 0.037 0.706
 -0.109 0.038 0.717
 -0.108 0.039 0.74
 -0.106 0.04 0.755
 -0.104 0.041 0.774
 -0.102 0.042 0.791
 -0.098 0.042 0.8
 -0.094 0.042 0.804
 -0.09 0.043 0.814
 -0.086 0.043 0.82
 -0.082 0.043 0.828
 -0.078 0.044 0.833
 -0.073 0.043 0.828
 -0.067 0.043 0.825
 -0.062 0.043 0.821
 -0.057 0.043 0.819
 -0.053 0.043 0.816
 -0.048 0.043 0.818
 -0.043 0.043 0.819
 -0.038 0.042 0.816
 -0.033 0.042 0.81
 -0.028 0.042 0.801
 -0.023 0.041 0.788
 -0.018 0.04 0.775
 -0.014 0.04 0.765
 -0.009 0.039 0.76
 -0.005 0.039 0.758
 -0.001 0.04 0.772
 0.003 0.042 0.805
 0.008 0.044 0.844
 0.014 0.046 0.882
 0.02 0.048 0.92
 0.026 0.049 0.942
 0.031 0.049 0.947
 0.037 0.049 0.945
 0.043 0.05 0.952
 0.049 0.051 0.979
 0.058 0.053 1.023
 0.067 0.056 1.072
 0.077 0.059 1.125
 0.087 0.062 1.182
 0.097 0.064 1.223
 0.107 0.066 1.252
 0.115 0.066 1.256
 0.123 0.067 1.27
 0.131 0.067 1.278
 0.138 0.067 1.272
 0.141 0.065 1.232
 0.148 0.064 1.227
 0.151 0.063 1.194
 0.154 0.061 1.169
 0.151 0.057 1.096
 0.156 0.057 1.084
 0.161 0.056 1.079
 0.163 0.055 1.051
 0.159 0.051 0.985
 0.165 0.051 0.985
 0.174 0.052 1.002
 0.165 0.048 0.918
 0.164 0.046 0.886
 0.175 0.047 0.913
 0.175 0.046 0.888
 0.168 0.043 0.826
 0.183 0.045 0.876
 0.208 0.05 0.965
 0.218 0.051 0.984
 0.214 0.049 0.94
 0.21 0.047 0.898
 0.194 0.042 0.808
 0.159 0.033 0.644
 0.128 0.025 0.506
 0.114 0.022 0.442
 0.106 0.019 0.398
 0.101 0.018 0.37
 0.099 0.017 0.354
 0.099 0.017 0.346
 0.099 0.016 0.34
 0.1 0.016 0.337
 0.101 0.016 0.331
 0.102 0.016 0.328
 0.103 0.015 0.324
 0.105 0.015 0.324
 0.105 0.015 0.319
 0.108 0.015 0.32
 0.111 0.015 0.321
 0.114 0.016 0.326
 0.117 0.016 0.326
 0.121 0.016 0.331
 0.123 0.016 0.332
 0.128 0.016 0.337
 0.131 0.017 0.341
 0.136 0.017 0.348
 0.141 0.017 0.354
 0.145 0.018 0.357
 0.148 0.018 0.358
 0.152 0.018 0.361
 0.155 0.018 0.363
 0.159 0.018 0.367
 0.165 0.019 0.374
 0.171 0.019 0.381
 0.174 0.019 0.382
 0.178 0.019 0.384
 0.182 0.02 0.387
 0.183 0.019 0.383
 0.187 0.019 0.384
 0.196 0.02 0.396
 0.208 0.021 0.415
 0.226 0.023 0.446
 0.255 0.026 0.495
 0.29 0.03 0.555
 0.328 0.033 0.619
 0.364 0.037 0.677
 0.392 0.04 0.72
 0.413 0.041 0.748
 0.426 0.042 0.761
 0.432 0.042 0.76
 0.433 0.042 0.751
 -0.353 0.042 0.631
 -0.372 0.045 0.678
 -0.374 0.046 0.691
 -0.383 0.048 0.718
 -0.39 0.049 0.744
 -0.394 0.05 0.763
 -0.395 0.051 0.777
 -0.393 0.052 0.784
 -0.385 0.051 0.78
 -0.374 0.05 0.769
 -0.362 0.049 0.755
 -0.35 0.048 0.742
 -0.34 0.047 0.733
 -0.333 0.047 0.729
 -0.328 0.047 0.731
 -0.325 0.047 0.735
 -0.322 0.047 0.74
 -0.319 0.047 0.746
 -0.316 0.048 0.751
 -0.313 0.048 0.756
 -0.309 0.048 0.761
 -0.305 0.048 0.765
 -0.301 0.048 0.769
 -0.297 0.048 0.772
 -0.293 0.048 0.774
 -0.288 0.048 0.776
 -0.284 0.048 0.778
 -0.279 0.048 0.78
 -0.275 0.049 0.782
 -0.271 0.049 0.786
 -0.266 0.049 0.786
 -0.259 0.048 0.78
 -0.251 0.047 0.773
 -0.243 0.047 0.763
 -0.233 0.046 0.746
 -0.226 0.045 0.738
 -0.221 0.045 0.737
 -0.217 0.045 0.739
 -0.214 0.045 0.744
 -0.213 0.046 0.758
 -0.21 0.046 0.767
 -0.206 0.046 0.768
 -0.201 0.046 0.768
 -0.196 0.046 0.767
 -0.193 0.046 0.774
 -0.19 0.047 0.781
 -0.185 0.047 0.782
 -0.18 0.047 0.782
 -0.175 0.047 0.779
 -0.167 0.045 0.764
 -0.157 0.044 0.739
 -0.149 0.043 0.724
 -0.142 0.042 0.708
 -0.135 0.041 0.692
 -0.128 0.04 0.68
 -0.124 0.04 0.678
 -0.12 0.04 0.677
 -0.116 0.04 0.678
 -0.112 0.04 0.68
 -0.108 0.04 0.68
 -0.105 0.04 0.688
 -0.104 0.041 0.708
 -0.102 0.042 0.724
 -0.1 0.043 0.743
 -0.098 0.044 0.76
 -0.095 0.045 0.773
 -0.092 0.046 0.784
 -0.089 0.047 0.798
 -0.085 0.047 0.81
 -0.082 0.048 0.822
 -0.077 0.048 0.83
 -0.072 0.048 0.826
 -0.067 0.048 0.823
 -0.062 0.048 0.819
 -0.057 0.047 0.817
 -0.052 0.047 0.814
 -0.048 0.047 0.816
 -0.043 0.047 0.817
 -0.038 0.047 0.816
 -0.033 0.047 0.81
 -0.028 0.046 0.802
 -0.023 0.046 0.789
 -0.019 0.045 0.776
 -0.014 0.044 0.767
 -0.009 0.044 0.762
 -0.005 0.044 0.761
 -0.001 0.045 0.777
 0.003 0.047 0.81
 0.008 0.049 0.847
 0.014 0.051 0.884
 0.02 0.053 0.919
 0.026 0.054 0.938
 0.031 0.054 0.938
 0.036 0.054 0.932
 0.042 0.054 0.932
 0.048 0.055 0.948
 0.055 0.057 0.978
 0.063 0.059 1.015
 0.072 0.062 1.06
 0.082 0.065 1.112
 0.092 0.067 1.158
 0.102 0.07 1.198
 0.114 0.073 1.246
 0.125 0.075 1.291
 0.136 0.077 1.32
 0.146 0.078 1.338
 0.155 0.079 1.352
 0.164 0.08 1.364
 0.169 0.078 1.335
 0.177 0.078 1.336
 0.18 0.076 1.301
 0.182 0.074 1.263
 0.184 0.072 1.23
 0.187 0.07 1.204
 0.183 0.066 1.132
 0.185 0.064 1.102
 0.189 0.063 1.088
 0.177 0.057 0.99
 0.178 0.055 0.958
 0.186 0.056 0.97
 0.185 0.054 0.936
 0.175 0.05 0.859
 0.187 0.052 0.893
 0.203 0.055 0.943
 0.203 0.053 0.919
 0.193 0.049 0.849
 0.186 0.046 0.796
 0.17 0.041 0.708
 0.14 0.032 0.569
 0.119 0.026 0.472
 0.111 0.024 0.43
 0.105 0.021 0.393
 0.1 0.02 0.367
 0.098 0.019 0.351
 0.098 0.018 0.342
 0.098 0.018 0.336
 0.099 0.018 0.332
 0.099 0.017 0.326
 0.101 0.017 0.323
 0.101 0.017 0.318
 0.103 0.017 0.317
 0.104 0.017 0.314
 0.107 0.017 0.316
 0.11 0.017 0.318
 0.114 0.018 0.325
 0.117 0.018 0.328
 0.121 0.018 0.332
 0.124 0.018 0.335
 0.128 0.019 0.339
 0.132 0.019 0.342
 0.137 0.019 0.349
 0.142 0.02 0.357
 0.146 0.02 0.359
 0.148 0.02 0.359
 0.152 0.02 0.362
 0.155 0.02 0.362
 0.158 0.02 0.363
 0.164 0.021 0.371
 0.17 0.021 0.378
 0.175 0.022 0.383
 0.18 0.022 0.388
 0.184 0.022 0.391
 0.187 0.022 0.391
 0.194 0.023 0.399
 0.201 0.023 0.407
 0.208 0.024 0.415
 0.222 0.025 0.436
 0.241 0.028 0.468
 0.265 0.03 0.507
 0.298 0.034 0.561
 0.337 0.038 0.626
 0.37 0.042 0.68
 0.398 0.044 0.719
 0.418 0.046 0.745
 0.434 0.047 0.762
 0.441 0.048 0.763
 -0.38 0.05 0.682
 -0.379 0.05 0.689
 -0.384 0.052 0.71
 -0.391 0.054 0.734
 -0.397 0.055 0.756
 -0.399 0.056 0.772
 -0.397 0.056 0.779
 -0.389 0.056 0.776
 -0.377 0.055 0.764
 -0.363 0.053 0.745
 -0.347 0.052 0.725
 -0.334 0.05 0.708
 -0.324 0.049 0.698
 -0.317 0.049 0.694
 -0.313 0.049 0.696
 -0.31 0.049 0.7
 -0.307 0.049 0.705
 -0.304 0.05 0.711
 -0.301 0.05 0.715
 -0.298 0.05 0.72
 -0.295 0.05 0.725
 -0.291 0.05 0.728
 -0.288 0.05 0.733
 -0.284 0.051 0.737
 -0.28 0.051 0.74
 -0.276 0.051 0.742
 -0.272 0.051 0.745
 -0.268 0.051 0.748
 -0.264 0.051 0.751
 -0.261 0.051 0.755
 -0.256 0.051 0.757
 -0.25 0.051 0.754
 -0.244 0.051 0.751
 -0.238 0.05 0.745
 -0.23 0.049 0.734
 -0.223 0.049 0.727
 -0.217 0.048 0.723
 -0.211 0.048 0.718
 -0.206 0.048 0.717
 -0.203 0.048 0.722
 -0.199 0.048 0.726
 -0.196 0.048 0.729
 -0.192 0.048 0.733
 -0.187 0.048 0.733
 -0.183 0.048 0.734
 -0.178 0.048 0.733
 -0.173 0.048 0.729
 -0.167 0.047 0.725
 -0.162 0.047 0.719
 -0.156 0.047 0.713
 -0.15 0.046 0.706
 -0.145 0.046 0.703
 -0.14 0.045 0.698
 -0.135 0.045 0.694
 -0.13 0.045 0.689
 -0.126 0.044 0.687
 -0.121 0.044 0.686
 -0.117 0.044 0.687
 -0.113 0.044 0.688
 -0.109 0.044 0.687
 -0.105 0.044 0.685
 -0.101 0.044 0.688
 -0.098 0.044 0.692
 -0.094 0.045 0.7
 -0.092 0.045 0.709
 -0.089 0.047 0.727
 -0.088 0.048 0.75
 -0.086 0.05 0.772
 -0.083 0.051 0.792
 -0.08 0.052 0.809
 -0.076 0.053 0.819
 -0.072 0.052 0.817
 -0.067 0.052 0.816
 -0.062 0.052 0.812
 -0.057 0.052 0.81
 -0.052 0.051 0.806
 -0.047 0.051 0.805
 -0.042 0.051 0.802
 -0.038 0.051 0.8
 -0.033 0.051 0.794
 -0.028 0.05 0.788
 -0.023 0.049 0.779
 -0.018 0.049 0.77
 -0.014 0.048 0.763
 -0.009 0.048 0.759
 -0.005 0.048 0.759
 -0.001 0.049 0.771
 0.003 0.05 0.793
 0.008 0.052 0.82
 0.013 0.054 0.848
 0.019 0.056 0.875
 0.024 0.057 0.894
 0.03 0.057 0.894
 0.035 0.057 0.892
 0.04 0.057 0.895
 0.046 0.058 0.911
 0.053 0.059 0.934
 0.06 0.062 0.973
 0.069 0.064 1.011
 0.077 0.067 1.049
 0.087 0.07 1.092
 0.096 0.072 1.123
 0.105 0.074 1.155
 0.115 0.076 1.186
 0.124 0.077 1.206
 0.132 0.078 1.212
 0.139 0.078 1.21
 0.146 0.078 1.21
 0.15 0.076 1.19
 0.159 0.077 1.2
 0.167 0.078 1.209
 0.174 0.078 1.21
 0.179 0.077 1.197
 0.186 0.077 1.193
 0.185 0.074 1.147
 0.186 0.071 1.11
 0.188 0.069 1.083
 0.181 0.064 1.007
 0.184 0.063 0.99
 0.189 0.063 0.989
 0.196 0.064 0.995
 0.187 0.059 0.918
 0.193 0.059 0.92
 0.196 0.058 0.911
 0.189 0.054 0.853
 0.175 0.049 0.77
 0.165 0.044 0.705
 0.149 0.039 0.619
 0.127 0.032 0.515
 0.113 0.027 0.447
 0.108 0.025 0.417
 0.103 0.023 0.386
 0.099 0.022 0.363
 0.097 0.021 0.349
 0.097 0.02 0.341
 0.098 0.02 0.334
 0.098 0.02 0.329
 0.099 0.019 0.324
 0.099 0.019 0.319
 0.1 0.019 0.313
 0.102 0.019 0.313
 0.103 0.019 0.31
 0.106 0.019 0.314
 0.11 0.019 0.319
 0.114 0.02 0.325
 0.118 0.02 0.329
 0.122 0.02 0.335
 0.125 0.02 0.336
 0.129 0.021 0.34
 0.132 0.021 0.343
 0.137 0.021 0.349
 0.142 0.022 0.356
 0.147 0.022 0.361
 0.149 0.022 0.362
 0.154 0.023 0.366
 0.157 0.023 0.367
 0.159 0.023 0.366
 0.164 0.023 0.372
 0.169 0.024 0.377
 0.174 0.024 0.382
 0.179 0.024 0.386
 0.185 0.025 0.392
 0.187 0.025 0.391
 0.195 0.026 0.401
 0.201 0.026 0.407
 0.209 0.027 0.416
 0.218 0.028 0.428
 0.233 0.029 0.452
 0.251 0.032 0.48
 0.278 0.035 0.524
 0.316 0.039 0.587
 0.354 0.044 0.649
 0.388 0.048 0.701
 0.415 0.051 0.74
 0.438 0.053 0.769
 0.44 0.052 0.761
 -0.379 0.054 0.679
 -0.385 0.056 0.7
 -0.388 0.057 0.716
 -0.393 0.059 0.737
 -0.397 0.06 0.756
 -0.396 0.06 0.765
 -0.388 0.06 0.762
 -0.376 0.059 0.75
 -0.361 0.057 0.73
 -0.343 0.055 0.704
 -0.326 0.053 0.68
 -0.313 0.051 0.663
 -0.303 0.05 0.652
 -0.296 0.05 0.647
 -0.292 0.049 0.647
 -0.288 0.05 0.651
 -0.285 0.05 0.655
 -0.282 0.05 0.659
 -0.279 0.05 0.662
 -0.276 0.05 0.667
 -0.273 0.05 0.67
 -0.27 0.051 0.674
 -0.267 0.051 0.678
 -0.264 0.051 0.682
 -0.26 0.051 0.685
 -0.257 0.051 0.688
 -0.253 0.051 0.691
 -0.249 0.051 0.694
 -0.246 0.051 0.697
 -0.242 0.052 0.701
 -0.239 0.052 0.704
 -0.235 0.052 0.706
 -0.23 0.052 0.707
 -0.226 0.052 0.706
 -0.221 0.051 0.705
 -0.215 0.051 0.702
 -0.211 0.051 0.701
 -0.206 0.051 0.701
 -0.201 0.051 0.701
 -0.197 0.051 0.702
 -0.194 0.051 0.704
 -0.189 0.051 0.706
 -0.185 0.051 0.707
 -0.181 0.051 0.707
 -0.176 0.051 0.706
 -0.172 0.051 0.706
 -0.167 0.05 0.704
 -0.162 0.05 0.702
 -0.157 0.05 0.699
 -0.153 0.05 0.698
 -0.148 0.049 0.694
 -0.143 0.049 0.691
 -0.138 0.049 0.688
 -0.133 0.048 0.684
 -0.128 0.048 0.68
 -0.124 0.048 0.678
 -0.12 0.048 0.678
 -0.116 0.048 0.678
 -0.112 0.048 0.679
 -0.108 0.048 0.678
 -0.103 0.047 0.677
 -0.1 0.048 0.68
 -0.096 0.048 0.684
 -0.093 0.048 0.689
 -0.09 0.049 0.698
 -0.088 0.05 0.711
 -0.085 0.051 0.723
 -0.082 0.051 0.734
 -0.078 0.052 0.744
 -0.075 0.052 0.751
 -0.071 0.053 0.755
 -0.066 0.053 0.755
 -0.062 0.053 0.755
 -0.057 0.052 0.753
 -0.053 0.052 0.753
 -0.048 0.052 0.75
 -0.044 0.052 0.748
 -0.039 0.052 0.746
 -0.035 0.052 0.745
 -0.031 0.051 0.742
 -0.026 0.051 0.738
 -0.022 0.051 0.734
 -0.017 0.05 0.729
 -0.013 0.05 0.724
 -0.009 0.05 0.723
 -0.005 0.05 0.724
 -0.001 0.051 0.733
 0.003 0.051 0.745
 0.007 0.053 0.761
 0.012 0.054 0.778
 0.017 0.055 0.794
 0.022 0.056 0.806
 0.027 0.056 0.815
 0.032 0.057 0.824
 0.037 0.058 0.84
 0.043 0.06 0.861
 0.05 0.062 0.892
 0.057 0.064 0.925
 0.065 0.066 0.952
 0.072 0.068 0.981
 0.08 0.07 1.01
 0.088 0.072 1.031
 0.096 0.073 1.053
 0.105 0.075 1.08
 0.113 0.076 1.097
 0.12 0.077 1.104
 0.126 0.077 1.102
 0.133 0.077 1.104
 0.14 0.077 1.105
 0.147 0.078 1.114
 0.161 0.081 1.164
 0.174 0.085 1.211
 0.187 0.087 1.247
 0.199 0.09 1.278
 0.207 0.09 1.279
 0.211 0.088 1.256
 0.215 0.087 1.236
 0.193 0.075 1.075
 0.18 0.068 0.972
 0 0 0
 0 0 0
 0.161 0.055 0.793
 0.173 0.057 0.824
 0.175 0.056 0.811
 0.165 0.051 0.744
 0.154 0.047 0.677
 0.146 0.043 0.624
 0.129 0.037 0.538
 0.113 0.031 0.458
 0.106 0.028 0.418
 0.104 0.027 0.399
 0.099 0.025 0.373
 0.097 0.024 0.356
 0.096 0.023 0.344
 0.097 0.022 0.338
 0.097 0.022 0.332
 0.097 0.021 0.326
 0.098 0.021 0.321
 0.098 0.021 0.315
 0.098 0.02 0.308
 0.1 0.02 0.308
 0.102 0.02 0.306
 0.105 0.02 0.31
 0.109 0.021 0.317
 0.114 0.022 0.325
 0.118 0.022 0.33
 0.123 0.023 0.338
 0.127 0.023 0.342
 0.13 0.023 0.345
 0.133 0.023 0.346
 0.138 0.024 0.351
 0.143 0.024 0.358
 0.147 0.025 0.362
 0.15 0.025 0.362
 0.154 0.025 0.367
 0.159 0.025 0.371
 0.161 0.026 0.371
 0.166 0.026 0.375
 0.17 0.026 0.379
 0.175 0.027 0.384
 0.179 0.027 0.386
 0.185 0.027 0.392
 0.189 0.028 0.394
 0.197 0.029 0.405
 0.204 0.029 0.412
 0.212 0.03 0.423
 0.221 0.031 0.434
 0.234 0.032 0.452
 0.246 0.034 0.47
 0.268 0.037 0.503
 0.303 0.041 0.562
 0.341 0.046 0.623
 0.376 0.051 0.679
 0.408 0.054 0.726
 0.439 0.058 0.771
 0.444 0.058 0.768
 -0.377 0.059 0.676
 -0.377 0.059 0.686
 -0.388 0.062 0.715
 -0.391 0.063 0.734
 -0.392 0.064 0.746
 -0.387 0.064 0.748
 -0.377 0.063 0.739
 -0.362 0.061 0.722
 -0.345 0.059 0.697
 -0.327 0.056 0.671
 -0.312 0.054 0.65
 -0.301 0.053 0.636
 -0.291 0.052 0.626
 -0.285 0.051 0.621
 -0.281 0.051 0.622
 -0.277 0.051 0.624
 -0.273 0.051 0.626
 -0.269 0.051 0.627
 -0.265 0.051 0.629
 -0.261 0.051 0.63
 -0.257 0.051 0.631
 -0.253 0.051 0.632
 -0.25 0.051 0.634
 -0.246 0.051 0.637
 -0.243 0.052 0.64
 -0.241 0.052 0.645
 -0.238 0.052 0.65
 -0.235 0.052 0.654
 -0.233 0.053 0.66
 -0.23 0.053 0.664
 -0.227 0.053 0.669
 -0.224 0.053 0.673
 -0.22 0.053 0.675
 -0.216 0.053 0.675
 -0.212 0.053 0.676
 -0.208 0.053 0.677
 -0.204 0.053 0.678
 -0.199 0.053 0.678
 -0.196 0.053 0.68
 -0.192 0.053 0.681
 -0.188 0.053 0.683
 -0.183 0.053 0.683
 -0.179 0.053 0.682
 -0.174 0.053 0.681
 -0.17 0.053 0.679
 -0.165 0.052 0.677
 -0.16 0.052 0.673
 -0.155 0.052 0.671
 -0.151 0.051 0.668
 -0.146 0.051 0.667
 -0.142 0.051 0.664
 -0.137 0.051 0.663
 -0.133 0.051 0.663
 -0.129 0.051 0.662
 -0.125 0.05 0.661
 -0.121 0.05 0.66
 -0.117 0.05 0.66
 -0.113 0.05 0.659
 -0.108 0.05 0.658
 -0.104 0.05 0.656
 -0.1 0.05 0.655
 -0.097 0.05 0.656
 -0.093 0.05 0.659
 -0.09 0.05 0.662
 -0.086 0.05 0.667
 -0.083 0.051 0.673
 -0.08 0.051 0.679
 -0.076 0.052 0.685
 -0.073 0.052 0.689
 -0.069 0.052 0.694
 -0.065 0.053 0.698
 -0.062 0.053 0.702
 -0.058 0.053 0.707
 -0.054 0.053 0.711
 -0.05 0.054 0.714
 -0.046 0.054 0.714
 -0.042 0.054 0.715
 -0.038 0.054 0.716
 -0.034 0.054 0.721
 -0.03 0.054 0.725
 -0.026 0.055 0.731
 -0.022 0.055 0.735
 -0.018 0.055 0.738
 -0.013 0.056 0.742
 -0.009 0.056 0.747
 -0.005 0.056 0.754
 0 0.057 0.766
 0.003 0.058 0.78
 0.008 0.06 0.794
 0.013 0.061 0.807
 0.018 0.061 0.819
 0.022 0.062 0.827
 0.027 0.062 0.833
 0.033 0.063 0.84
 0.038 0.064 0.854
 0.044 0.066 0.873
 0.051 0.067 0.898
 0.058 0.07 0.926
 0.065 0.073 0.963
 0.074 0.076 1.008
 0.084 0.08 1.053
 0.094 0.083 1.093
 0.103 0.085 1.128
 0.113 0.088 1.158
 0.121 0.089 1.174
 0.128 0.089 1.18
 0.135 0.089 1.178
 0.143 0.09 1.185
 0.15 0.09 1.189
 0.158 0.091 1.197
 0.171 0.094 1.234
 0.182 0.096 1.265
 0.193 0.098 1.29
 0.204 0.099 1.306
 0.208 0.098 1.288
 0.213 0.096 1.268
 0.217 0.095 1.25
 0.213 0.09 1.185
 0.21 0.086 1.129
 0 0 0
 0 0 0
 0.185 0.068 0.907
 0.171 0.061 0.814
 0.166 0.058 0.768
 0.149 0.05 0.673
 0.139 0.045 0.609
 0.13 0.041 0.557
 0.114 0.035 0.474
 0.104 0.031 0.42
 0.1 0.029 0.395
 0.099 0.028 0.38
 0.096 0.026 0.362
 0.096 0.025 0.351
 0.095 0.025 0.341
 0.096 0.024 0.335
 0.096 0.024 0.33
 0.097 0.023 0.323
 0.097 0.023 0.317
 0.096 0.022 0.309
 0.096 0.022 0.302
 0.098 0.022 0.301
 0.1 0.022 0.3
 0.103 0.022 0.305
 0.108 0.023 0.312
 0.113 0.023 0.321
 0.118 0.024 0.329
 0.123 0.025 0.337
 0.128 0.025 0.343
 0.131 0.025 0.346
 0.135 0.026 0.349
 0.139 0.026 0.354
 0.144 0.027 0.361
 0.148 0.027 0.365
 0.152 0.027 0.367
 0.156 0.028 0.37
 0.16 0.028 0.373
 0.163 0.028 0.374
 0.166 0.028 0.376
 0.17 0.029 0.379
 0.176 0.029 0.386
 0.18 0.029 0.388
 0.186 0.03 0.393
 0.19 0.03 0.396
 0.199 0.032 0.41
 0.206 0.032 0.417
 0.216 0.033 0.43
 0.226 0.035 0.445
 0.24 0.036 0.466
 0.248 0.037 0.474
 0.263 0.039 0.494
 0.289 0.043 0.536
 0.317 0.046 0.58
 0.343 0.05 0.618
 0.37 0.053 0.658
 0.443 0.064 0.777
 0.443 0.063 0.766
 -0.379 0.063 0.678
 -0.378 0.064 0.686
 -0.386 0.066 0.711
 -0.389 0.067 0.729
 -0.389 0.068 0.741
 -0.385 0.068 0.743
 -0.375 0.067 0.734
 -0.361 0.065 0.718
 -0.344 0.063 0.695
 -0.329 0.061 0.675
 -0.317 0.059 0.66
 -0.308 0.058 0.651
 -0.301 0.058 0.647
 -0.296 0.058 0.647
 -0.292 0.058 0.648
 -0.289 0.058 0.651
 -0.285 0.058 0.654
 -0.282 0.058 0.657
 -0.279 0.058 0.661
 -0.276 0.058 0.664
 -0.272 0.059 0.668
 -0.269 0.059 0.672
 -0.267 0.059 0.678
 -0.265 0.06 0.685
 -0.263 0.06 0.693
 -0.262 0.061 0.703
 -0.261 0.062 0.713
 -0.259 0.062 0.721
 -0.257 0.063 0.73
 -0.254 0.063 0.736
 -0.251 0.064 0.741
 -0.248 0.064 0.746
 -0.244 0.064 0.749
 -0.239 0.064 0.75
 -0.235 0.064 0.752
 -0.231 0.064 0.754
 -0.226 0.064 0.755
 -0.222 0.064 0.756
 -0.217 0.064 0.757
 -0.213 0.064 0.757
 -0.208 0.064 0.758
 -0.203 0.064 0.758
 -0.198 0.064 0.757
 -0.193 0.063 0.755
 -0.188 0.063 0.752
 -0.182 0.063 0.748
 -0.176 0.062 0.742
 -0.17 0.061 0.737
 -0.164 0.061 0.731
 -0.159 0.061 0.728
 -0.154 0.06 0.725
 -0.15 0.06 0.724
 -0.145 0.06 0.725
 -0.141 0.06 0.725
 -0.137 0.06 0.725
 -0.132 0.06 0.726
 -0.128 0.06 0.725
 -0.123 0.059 0.723
 -0.119 0.059 0.721
 -0.114 0.059 0.719
 -0.109 0.059 0.717
 -0.105 0.059 0.717
 -0.101 0.059 0.719
 -0.097 0.059 0.721
 -0.093 0.059 0.725
 -0.09 0.06 0.732
 -0.087 0.06 0.74
 -0.083 0.061 0.749
 -0.08 0.062 0.756
 -0.076 0.062 0.764
 -0.072 0.063 0.77
 -0.068 0.063 0.774
 -0.064 0.063 0.778
 -0.059 0.063 0.78
 -0.055 0.063 0.78
 -0.05 0.063 0.777
 -0.045 0.063 0.775
 -0.041 0.063 0.775
 -0.037 0.063 0.779
 -0.032 0.064 0.788
 -0.028 0.065 0.798
 -0.024 0.065 0.807
 -0.019 0.066 0.817
 -0.015 0.067 0.826
 -0.01 0.068 0.835
 -0.005 0.068 0.844
 0 0.07 0.858
 0.004 0.071 0.871
 0.009 0.071 0.882
 0.014 0.072 0.89
 0.019 0.073 0.895
 0.025 0.073 0.897
 0.03 0.073 0.896
 0.035 0.073 0.899
 0.041 0.074 0.908
 0.047 0.075 0.921
 0.053 0.076 0.939
 0.06 0.078 0.958
 0.067 0.08 0.986
 0.076 0.083 1.027
 0.085 0.087 1.07
 0.095 0.091 1.112
 0.105 0.094 1.15
 0.115 0.096 1.181
 0.124 0.098 1.2
 0.132 0.099 1.21
 0.14 0.099 1.217
 0.149 0.101 1.232
 0.158 0.102 1.245
 0.167 0.103 1.258
 0.178 0.105 1.286
 0.188 0.107 1.306
 0.198 0.108 1.322
 0.207 0.109 1.328
 0.211 0.107 1.3
 0.214 0.104 1.276
 0.218 0.103 1.255
 0.212 0.097 1.181
 0.208 0.092 1.122
 0.213 0.091 1.112
 0.203 0.084 1.029
 0.2 0.08 0.98
 0.186 0.072 0.885
 0.168 0.063 0.776
 0.147 0.053 0.661
 0.13 0.046 0.571
 0.118 0.04 0.502
 0.104 0.034 0.431
 0.098 0.031 0.396
 0.095 0.029 0.376
 0.095 0.028 0.364
 0.094 0.028 0.353
 0.094 0.027 0.344
 0.094 0.026 0.338
 0.095 0.026 0.332
 0.095 0.025 0.327
 0.095 0.025 0.319
 0.096 0.024 0.314
 0.096 0.024 0.306
 0.096 0.023 0.301
 0.097 0.023 0.298
 0.099 0.023 0.298
 0.102 0.024 0.302
 0.106 0.024 0.308
 0.111 0.025 0.316
 0.116 0.026 0.324
 0.121 0.026 0.331
 0.125 0.027 0.337
 0.129 0.027 0.34
 0.133 0.028 0.345
 0.137 0.028 0.35
 0.143 0.029 0.357
 0.148 0.029 0.363
 0.151 0.03 0.366
 0.156 0.03 0.37
 0.16 0.03 0.375
 0.164 0.031 0.376
 0.168 0.031 0.381
 0.173 0.032 0.384
 0.178 0.032 0.39
 0.182 0.032 0.392
 0.188 0.033 0.399
 0.193 0.033 0.402
 0.203 0.035 0.416
 0.21 0.036 0.426
 0.219 0.037 0.438
 0.229 0.038 0.45
 0.241 0.04 0.467
 0.249 0.04 0.475
 0.262 0.042 0.492
 0.284 0.045 0.527
 0.309 0.049 0.564
 0.334 0.052 0.601
 0.359 0.056 0.637
 0.433 0.067 0.759
 0.405 0.062 0.7
 -0.376 0.067 0.673
 -0.378 0.068 0.687
 -0.383 0.07 0.706
 -0.387 0.072 0.724
 -0.387 0.073 0.736
 -0.382 0.073 0.738
 -0.373 0.072 0.73
 -0.36 0.07 0.716
 -0.346 0.068 0.699
 -0.334 0.066 0.685
 -0.325 0.065 0.677
 -0.319 0.065 0.674
 -0.314 0.065 0.674
 -0.309 0.065 0.675
 -0.305 0.065 0.676
 -0.301 0.065 0.679
 -0.297 0.065 0.681
 -0.294 0.065 0.685
 -0.291 0.065 0.689
 -0.288 0.065 0.695
 -0.285 0.066 0.7
 -0.283 0.066 0.708
 -0.282 0.067 0.718
 -0.282 0.068 0.729
 -0.281 0.069 0.742
 -0.281 0.07 0.756
 -0.281 0.072 0.77
 -0.28 0.073 0.782
 -0.279 0.073 0.793
 -0.277 0.074 0.801
 -0.273 0.075 0.808
 -0.27 0.075 0.814
 -0.266 0.075 0.818
 -0.262 0.075 0.821
 -0.258 0.076 0.825
 -0.254 0.076 0.829
 -0.249 0.076 0.831
 -0.244 0.076 0.833
 -0.239 0.076 0.835
 -0.234 0.076 0.836
 -0.229 0.076 0.837
 -0.224 0.076 0.838
 -0.219 0.076 0.838
 -0.214 0.076 0.838
 -0.208 0.075 0.835
 -0.202 0.075 0.83
 -0.195 0.074 0.823
 -0.188 0.073 0.815
 -0.181 0.072 0.806
 -0.175 0.072 0.8
 -0.169 0.071 0.796
 -0.164 0.071 0.794
 -0.159 0.071 0.795
 -0.155 0.071 0.796
 -0.15 0.071 0.795
 -0.145 0.071 0.795
 -0.14 0.071 0.796
 -0.135 0.07 0.794
 -0.13 0.07 0.793
 -0.125 0.07 0.791
 -0.12 0.07 0.79
 -0.116 0.07 0.79
 -0.111 0.07 0.791
 -0.107 0.07 0.794
 -0.103 0.07 0.8
 -0.099 0.071 0.81
 -0.096 0.072 0.824
 -0.093 0.073 0.837
 -0.089 0.074 0.848
 -0.085 0.075 0.859
 -0.081 0.076 0.865
 -0.076 0.076 0.867
 -0.071 0.076 0.868
 -0.066 0.076 0.867
 -0.06 0.075 0.863
 -0.055 0.075 0.855
 -0.049 0.074 0.848
 -0.044 0.074 0.845
 -0.04 0.074 0.847
 -0.035 0.075 0.855
 -0.03 0.075 0.865
 -0.026 0.076 0.877
 -0.021 0.077 0.889
 -0.016 0.079 0.902
 -0.011 0.08 0.914
 -0.006 0.081 0.927
 0 0.082 0.945
 0.004 0.084 0.961
 0.01 0.085 0.973
 0.016 0.085 0.98
 0.021 0.086 0.984
 0.027 0.086 0.983
 0.033 0.085 0.979
 0.038 0.085 0.98
 0.045 0.086 0.99
 0.051 0.088 1.006
 0.058 0.089 1.027
 0.066 0.092 1.05
 0.074 0.094 1.081
 0.083 0.098 1.121
 0.093 0.101 1.159
 0.102 0.104 1.191
 0.111 0.106 1.215
 0.12 0.108 1.231
 0.128 0.108 1.236
 0.135 0.108 1.238
 0.143 0.109 1.241
 0.152 0.11 1.255
 0.161 0.111 1.269
 0.17 0.112 1.281
 0.181 0.115 1.308
 0.192 0.117 1.334
 0.203 0.118 1.348
 0.211 0.119 1.35
 0.213 0.116 1.317
 0.217 0.113 1.291
 0.22 0.111 1.265
 0.214 0.105 1.192
 0.211 0.1 1.136
 0.216 0.099 1.124
 0.207 0.092 1.046
 0.209 0.09 1.027
 0.202 0.084 0.964
 0.186 0.075 0.862
 0.164 0.064 0.737
 0.139 0.053 0.609
 0.122 0.045 0.519
 0.109 0.039 0.452
 0.101 0.035 0.408
 0.095 0.032 0.374
 0.094 0.03 0.36
 0.093 0.029 0.349
 0.094 0.029 0.344
 0.094 0.028 0.336
 0.095 0.028 0.331
 0.095 0.027 0.326
 0.095 0.027 0.318
 0.095 0.026 0.312
 0.095 0.026 0.304
 0.096 0.025 0.3
 0.097 0.025 0.298
 0.098 0.025 0.296
 0.101 0.025 0.298
 0.105 0.026 0.303
 0.109 0.026 0.308
 0.113 0.027 0.315
 0.118 0.028 0.323
 0.123 0.028 0.33
 0.127 0.029 0.336
 0.133 0.03 0.343
 0.137 0.03 0.347
 0.142 0.031 0.354
 0.147 0.031 0.362
 0.151 0.032 0.365
 0.155 0.032 0.368
 0.161 0.033 0.377
 0.167 0.034 0.383
 0.171 0.034 0.386
 0.176 0.035 0.391
 0.18 0.035 0.393
 0.182 0.035 0.392
 0.187 0.035 0.396
 0.192 0.036 0.4
 0.199 0.037 0.409
 0.206 0.038 0.417
 0.214 0.039 0.427
 0.223 0.04 0.437
 0.235 0.041 0.454
 0.251 0.044 0.479
 0.272 0.047 0.512
 0.297 0.051 0.551
 0.32 0.055 0.585
 0.346 0.058 0.622
 0.364 0.061 0.646
 0.221 0.035 0.383
 0.234 0.037 0.401
 -0.373 0.071 0.667
 -0.374 0.072 0.679
 -0.381 0.074 0.702
 -0.384 0.076 0.719
 -0.385 0.077 0.731
 -0.38 0.077 0.733
 -0.372 0.076 0.729
 -0.363 0.075 0.722
 -0.353 0.074 0.712
 -0.344 0.073 0.705
 -0.338 0.072 0.704
 -0.333 0.072 0.705
 -0.328 0.072 0.705
 -0.323 0.072 0.706
 -0.319 0.072 0.708
 -0.315 0.072 0.71
 -0.311 0.072 0.713
 -0.308 0.073 0.718
 -0.305 0.073 0.725
 -0.304 0.074 0.733
 -0.302 0.074 0.742
 -0.301 0.075 0.754
 -0.302 0.077 0.767
 -0.302 0.078 0.782
 -0.303 0.08 0.8
 -0.304 0.081 0.818
 -0.306 0.083 0.837
 -0.306 0.085 0.853
 -0.305 0.086 0.868
 -0.303 0.087 0.878
 -0.3 0.087 0.887
 -0.296 0.088 0.894
 -0.293 0.088 0.9
 -0.288 0.089 0.905
 -0.284 0.089 0.91
 -0.28 0.09 0.916
 -0.275 0.09 0.92
 -0.27 0.09 0.922
 -0.265 0.09 0.925
 -0.26 0.09 0.927
 -0.254 0.09 0.928
 -0.249 0.09 0.93
 -0.243 0.09 0.931
 -0.237 0.09 0.931
 -0.231 0.089 0.928
 -0.224 0.089 0.922
 -0.216 0.088 0.913
 -0.208 0.087 0.903
 -0.2 0.085 0.893
 -0.193 0.085 0.885
 -0.186 0.084 0.879
 -0.18 0.083 0.876
 -0.175 0.083 0.876
 -0.17 0.083 0.876
 -0.165 0.083 0.876
 -0.159 0.083 0.876
 -0.154 0.083 0.877
 -0.149 0.083 0.876
 -0.144 0.083 0.876
 -0.138 0.083 0.875
 -0.133 0.083 0.875
 -0.128 0.083 0.875
 -0.123 0.083 0.877
 -0.118 0.083 0.881
 -0.114 0.084 0.89
 -0.111 0.085 0.904
 -0.108 0.087 0.923
 -0.104 0.088 0.942
 -0.1 0.09 0.957
 -0.096 0.091 0.97
 -0.091 0.092 0.976
 -0.085 0.092 0.977
 -0.079 0.091 0.975
 -0.073 0.091 0.97
 -0.067 0.09 0.96
 -0.061 0.088 0.947
 -0.054 0.087 0.934
 -0.049 0.086 0.927
 -0.043 0.086 0.927
 -0.038 0.087 0.934
 -0.033 0.088 0.945
 -0.028 0.089 0.958
 -0.023 0.091 0.972
 -0.017 0.092 0.988
 -0.012 0.093 1.002
 -0.006 0.095 1.018
 0 0.097 1.038
 0.005 0.099 1.058
 0.011 0.1 1.072
 0.018 0.101 1.08
 0.024 0.101 1.085
 0.03 0.101 1.084
 0.036 0.101 1.08
 0.043 0.101 1.081
 0.049 0.102 1.094
 0.057 0.104 1.115
 0.065 0.106 1.141
 0.074 0.109 1.174
 0.083 0.114 1.218
 0.094 0.118 1.268
 0.105 0.123 1.314
 0.116 0.126 1.352
 0.126 0.129 1.375
 0.135 0.13 1.387
 0.143 0.13 1.387
 0.151 0.13 1.386
 0.159 0.129 1.383
 0.168 0.13 1.39
 0.176 0.13 1.391
 0.184 0.13 1.386
 0.192 0.13 1.389
 0.201 0.13 1.392
 0.209 0.13 1.392
 0.215 0.129 1.378
 0.218 0.126 1.343
 0.221 0.123 1.314
 0.224 0.121 1.29
 0.217 0.113 1.205
 0.215 0.108 1.156
 0.218 0.106 1.136
 0.207 0.098 1.047
 0.21 0.096 1.029
 0.21 0.094 1.002
 0.201 0.087 0.932
 0.176 0.074 0.791
 0.149 0.06 0.651
 0.128 0.05 0.547
 0.117 0.044 0.483
 0.108 0.04 0.435
 0.098 0.035 0.385
 0.094 0.033 0.362
 0.094 0.032 0.351
 0.094 0.031 0.344
 0.095 0.031 0.338
 0.095 0.03 0.333
 0.096 0.029 0.327
 0.095 0.029 0.318
 0.095 0.028 0.311
 0.095 0.027 0.304
 0.096 0.027 0.301
 0.097 0.027 0.298
 0.099 0.027 0.297
 0.101 0.027 0.298
 0.104 0.027 0.301
 0.108 0.028 0.306
 0.112 0.028 0.311
 0.117 0.029 0.32
 0.122 0.03 0.326
 0.126 0.031 0.332
 0.131 0.031 0.34
 0.136 0.032 0.346
 0.14 0.032 0.35
 0.145 0.033 0.356
 0.148 0.033 0.358
 0.152 0.034 0.36
 0.157 0.034 0.367
 0.164 0.035 0.376
 0.168 0.036 0.379
 0.173 0.037 0.385
 0.176 0.037 0.385
 0.179 0.037 0.385
 0.183 0.037 0.387
 0.189 0.038 0.394
 0.196 0.039 0.403
 0.206 0.04 0.415
 0.215 0.041 0.428
 0.224 0.043 0.439
 0.239 0.045 0.462
 0.262 0.049 0.499
 0.288 0.054 0.542
 0.313 0.058 0.579
 0.331 0.06 0.605
 0.353 0.064 0.635
 0.365 0.065 0.648
 0.405 0.072 0.708
 0.423 0.074 0.73
 -0.367 0.074 0.656
 -0.373 0.076 0.677
 -0.378 0.078 0.696
 -0.382 0.08 0.714
 -0.382 0.081 0.726
 -0.381 0.082 0.734
 -0.377 0.082 0.739
 -0.372 0.082 0.741
 -0.366 0.082 0.74
 -0.362 0.082 0.742
 -0.358 0.082 0.745
 -0.353 0.082 0.748
 -0.349 0.082 0.75
 -0.344 0.082 0.752
 -0.34 0.082 0.756
 -0.336 0.082 0.759
 -0.333 0.082 0.764
 -0.33 0.083 0.771
 -0.328 0.084 0.779
 -0.327 0.085 0.79
 -0.327 0.086 0.803
 -0.327 0.087 0.819
 -0.329 0.089 0.838
 -0.331 0.091 0.859
 -0.334 0.094 0.882
 -0.337 0.096 0.906
 -0.339 0.098 0.929
 -0.34 0.1 0.949
 -0.34 0.102 0.967
 -0.338 0.103 0.981
 -0.335 0.104 0.993
 -0.332 0.105 1.002
 -0.328 0.106 1.011
 -0.324 0.106 1.017
 -0.319 0.107 1.025
 -0.315 0.107 1.032
 -0.31 0.108 1.037
 -0.304 0.108 1.041
 -0.299 0.108 1.045
 -0.293 0.109 1.05
 -0.288 0.109 1.053
 -0.282 0.109 1.057
 -0.276 0.109 1.059
 -0.27 0.109 1.06
 -0.262 0.108 1.056
 -0.254 0.108 1.049
 -0.245 0.106 1.039
 -0.236 0.105 1.027
 -0.227 0.104 1.015
 -0.219 0.102 1.005
 -0.211 0.101 0.998
 -0.204 0.101 0.994
 -0.198 0.101 0.993
 -0.192 0.101 0.993
 -0.186 0.1 0.993
 -0.18 0.1 0.994
 -0.175 0.101 0.996
 -0.169 0.1 0.996
 -0.163 0.1 0.997
 -0.157 0.1 0.997
 -0.151 0.1 0.998
 -0.146 0.1 1
 -0.14 0.101 1.004
 -0.135 0.101 1.009
 -0.131 0.102 1.022
 -0.127 0.104 1.043
 -0.124 0.107 1.068
 -0.121 0.11 1.094
 -0.117 0.112 1.116
 -0.112 0.113 1.134
 -0.106 0.114 1.14
 -0.099 0.114 1.14
 -0.092 0.113 1.135
 -0.085 0.112 1.125
 -0.077 0.111 1.109
 -0.069 0.109 1.091
 -0.062 0.107 1.071
 -0.055 0.105 1.058
 -0.049 0.105 1.053
 -0.043 0.105 1.057
 -0.037 0.106 1.064
 -0.031 0.107 1.076
 -0.025 0.108 1.089
 -0.019 0.11 1.107
 -0.013 0.111 1.123
 -0.007 0.113 1.141
 0 0.116 1.164
 0.006 0.118 1.187
 0.013 0.119 1.202
 0.02 0.12 1.209
 0.027 0.12 1.212
 0.034 0.12 1.208
 0.041 0.119 1.2
 0.047 0.119 1.198
 0.055 0.12 1.21
 0.063 0.122 1.232
 0.072 0.125 1.263
 0.082 0.13 1.306
 0.094 0.135 1.362
 0.106 0.141 1.423
 0.119 0.147 1.477
 0.131 0.151 1.519
 0.142 0.153 1.541
 0.151 0.154 1.549
 0.16 0.154 1.547
 0.169 0.154 1.543
 0.177 0.153 1.535
 0.186 0.153 1.535
 0.194 0.152 1.53
 0.202 0.151 1.519
 0.208 0.149 1.498
 0.213 0.147 1.477
 0.219 0.145 1.455
 0.222 0.141 1.419
 0.221 0.136 1.364
 0.223 0.132 1.329
 0.228 0.13 1.309
 0.221 0.122 1.23
 0.221 0.118 1.189
 0.225 0.117 1.173
 0.214 0.108 1.082
 0.211 0.103 1.036
 0.211 0.1 1.003
 0.21 0.097 0.973
 0.186 0.083 0.837
 0.152 0.066 0.664
 0.127 0.053 0.542
 0.121 0.049 0.5
 0.113 0.044 0.455
 0.103 0.039 0.405
 0.096 0.036 0.368
 0.094 0.034 0.353
 0.095 0.033 0.346
 0.096 0.033 0.342
 0.096 0.032 0.336
 0.097 0.032 0.33
 0.096 0.031 0.322
 0.096 0.03 0.314
 0.096 0.03 0.306
 0.096 0.029 0.302
 0.098 0.029 0.299
 0.1 0.029 0.299
 0.102 0.029 0.3
 0.104 0.029 0.301
 0.107 0.03 0.304
 0.111 0.03 0.308
 0.115 0.031 0.314
 0.119 0.031 0.319
 0.123 0.032 0.325
 0.129 0.033 0.333
 0.134 0.034 0.34
 0.138 0.034 0.343
 0.142 0.035 0.349
 0.147 0.035 0.354
 0.15 0.036 0.356
 0.156 0.036 0.363
 0.162 0.037 0.373
 0.168 0.038 0.378
 0.173 0.039 0.385
 0.177 0.039 0.387
 0.18 0.039 0.387
 0.184 0.04 0.39
 0.19 0.04 0.395
 0.196 0.041 0.402
 0.203 0.042 0.41
 0.212 0.044 0.421
 0.22 0.045 0.431
 0.235 0.047 0.453
 0.268 0.054 0.51
 0.299 0.059 0.563
 0.321 0.063 0.594
 0.335 0.065 0.612
 0.353 0.068 0.635
 0.36 0.069 0.638
 0.437 0.083 0.765
 0.432 0.081 0.745
 -0.372 0.079 0.664
 -0.37 0.08 0.671
 -0.375 0.082 0.69
 -0.379 0.084 0.708
 -0.382 0.086 0.726
 -0.385 0.087 0.741
 -0.385 0.089 0.754
 -0.384 0.089 0.764
 -0.382 0.09 0.772
 -0.379 0.091 0.778
 -0.376 0.091 0.784
 -0.373 0.091 0.789
 -0.369 0.092 0.793
 -0.365 0.092 0.798
 -0.362 0.092 0.804
 -0.358 0.093 0.809
 -0.355 0.093 0.817
 -0.354 0.094 0.826
 -0.353 0.095 0.838
 -0.353 0.097 0.853
 -0.354 0.099 0.871
 -0.356 0.101 0.892
 -0.359 0.103 0.916
 -0.364 0.106 0.944
 -0.368 0.109 0.972
 -0.371 0.112 1
 -0.374 0.115 1.026
 -0.375 0.117 1.05
 -0.375 0.119 1.069
 -0.373 0.121 1.085
 -0.371 0.122 1.098
 -0.367 0.123 1.109
 -0.363 0.124 1.12
 -0.359 0.125 1.13
 -0.355 0.126 1.141
 -0.351 0.127 1.152
 -0.346 0.128 1.161
 -0.341 0.128 1.168
 -0.335 0.129 1.174
 -0.33 0.13 1.182
 -0.324 0.13 1.189
 -0.318 0.131 1.194
 -0.312 0.131 1.199
 -0.305 0.131 1.201
 -0.297 0.13 1.199
 -0.288 0.129 1.191
 -0.278 0.128 1.181
 -0.268 0.127 1.168
 -0.258 0.125 1.154
 -0.248 0.123 1.141
 -0.239 0.122 1.131
 -0.231 0.121 1.125
 -0.224 0.121 1.122
 -0.217 0.12 1.12
 -0.21 0.12 1.12
 -0.203 0.12 1.122
 -0.197 0.12 1.124
 -0.19 0.12 1.125
 -0.184 0.121 1.128
 -0.178 0.121 1.129
 -0.171 0.121 1.13
 -0.165 0.121 1.134
 -0.159 0.121 1.139
 -0.153 0.122 1.145
 -0.148 0.123 1.16
 -0.145 0.126 1.186
 -0.141 0.129 1.216
 -0.137 0.132 1.247
 -0.133 0.135 1.275
 -0.127 0.138 1.297
 -0.121 0.138 1.303
 -0.113 0.138 1.299
 -0.104 0.136 1.288
 -0.095 0.135 1.271
 -0.086 0.132 1.247
 -0.078 0.129 1.22
 -0.069 0.126 1.194
 -0.061 0.124 1.171
 -0.053 0.122 1.156
 -0.047 0.121 1.15
 -0.04 0.121 1.148
 -0.033 0.121 1.153
 -0.027 0.122 1.163
 -0.02 0.124 1.178
 -0.014 0.126 1.193
 -0.007 0.127 1.211
 0 0.13 1.232
 0.006 0.132 1.252
 0.014 0.133 1.263
 0.021 0.133 1.267
 0.028 0.133 1.267
 0.035 0.133 1.262
 0.042 0.132 1.253
 0.05 0.131 1.251
 0.057 0.133 1.263
 0.066 0.135 1.285
 0.075 0.138 1.316
 0.086 0.143 1.363
 0.098 0.15 1.422
 0.11 0.156 1.478
 0.123 0.161 1.525
 0.134 0.164 1.56
 0.145 0.166 1.572
 0.154 0.166 1.571
 0.162 0.165 1.566
 0.171 0.164 1.56
 0.179 0.164 1.553
 0.188 0.164 1.551
 0.196 0.163 1.544
 0.204 0.162 1.532
 0.21 0.159 1.511
 0.215 0.157 1.49
 0.221 0.155 1.465
 0.223 0.151 1.429
 0.224 0.145 1.378
 0.226 0.141 1.341
 0.229 0.139 1.317
 0.225 0.132 1.248
 0.225 0.128 1.21
 0.229 0.126 1.191
 0.219 0.116 1.103
 0.211 0.109 1.032
 0.211 0.106 1.003
 0.21 0.103 0.972
 0.195 0.092 0.878
 0.162 0.074 0.707
 0.134 0.059 0.57
 0.124 0.053 0.513
 0.115 0.048 0.464
 0.104 0.042 0.41
 0.097 0.038 0.373
 0.096 0.037 0.358
 0.096 0.036 0.352
 0.097 0.035 0.345
 0.097 0.035 0.34
 0.098 0.034 0.335
 0.098 0.034 0.327
 0.097 0.033 0.318
 0.097 0.032 0.31
 0.098 0.031 0.306
 0.099 0.031 0.304
 0.101 0.031 0.303
 0.103 0.031 0.304
 0.106 0.032 0.305
 0.108 0.032 0.307
 0.111 0.032 0.308
 0.114 0.032 0.312
 0.119 0.033 0.317
 0.122 0.034 0.321
 0.127 0.034 0.327
 0.133 0.035 0.337
 0.136 0.036 0.339
 0.141 0.036 0.345
 0.146 0.037 0.352
 0.15 0.038 0.356
 0.154 0.038 0.359
 0.162 0.04 0.371
 0.167 0.04 0.376
 0.173 0.041 0.385
 0.177 0.042 0.386
 0.18 0.042 0.386
 0.184 0.042 0.389
 0.189 0.043 0.392
 0.193 0.043 0.395
 0.2 0.044 0.402
 0.205 0.045 0.407
 0.21 0.045 0.41
 0.227 0.048 0.437
 0.275 0.059 0.524
 0.316 0.067 0.594
 0.343 0.072 0.635
 0.358 0.074 0.654
 0.379 0.078 0.681
 0.39 0.079 0.691
 0.406 0.081 0.71
 0.418 0.083 0.721
 -0.365 0.082 0.651
 -0.365 0.083 0.661
 -0.373 0.086 0.685
 -0.376 0.088 0.703
 -0.38 0.09 0.72
 -0.382 0.091 0.736
 -0.383 0.093 0.75
 -0.383 0.094 0.761
 -0.381 0.095 0.769
 -0.378 0.095 0.776
 -0.376 0.096 0.782
 -0.372 0.096 0.788
 -0.369 0.097 0.792
 -0.365 0.097 0.798
 -0.362 0.097 0.804
 -0.359 0.098 0.81
 -0.356 0.099 0.818
 -0.355 0.1 0.828
 -0.354 0.101 0.841
 -0.355 0.103 0.857
 -0.356 0.105 0.876
 -0.359 0.107 0.899
 -0.364 0.11 0.926
 -0.369 0.114 0.957
 -0.374 0.117 0.988
 -0.378 0.121 1.018
 -0.381 0.124 1.046
 -0.383 0.126 1.071
 -0.383 0.129 1.091
 -0.382 0.13 1.109
 -0.379 0.132 1.124
 -0.376 0.133 1.136
 -0.372 0.134 1.147
 -0.368 0.135 1.158
 -0.364 0.136 1.169
 -0.36 0.137 1.18
 -0.355 0.138 1.191
 -0.35 0.139 1.199
 -0.345 0.14 1.206
 -0.339 0.141 1.215
 -0.334 0.141 1.224
 -0.328 0.142 1.23
 -0.322 0.142 1.235
 -0.315 0.142 1.239
 -0.307 0.142 1.238
 -0.298 0.141 1.231
 -0.288 0.14 1.222
 -0.278 0.138 1.21
 -0.267 0.137 1.197
 -0.257 0.135 1.183
 -0.248 0.133 1.172
 -0.239 0.133 1.166
 -0.231 0.132 1.161
 -0.224 0.132 1.16
 -0.217 0.131 1.16
 -0.21 0.131 1.161
 -0.204 0.132 1.164
 -0.198 0.132 1.168
 -0.191 0.132 1.172
 -0.185 0.132 1.174
 -0.178 0.133 1.178
 -0.172 0.133 1.182
 -0.166 0.134 1.188
 -0.16 0.134 1.196
 -0.155 0.136 1.212
 -0.151 0.139 1.238
 -0.147 0.142 1.268
 -0.143 0.146 1.3
 -0.138 0.149 1.328
 -0.133 0.151 1.349
 -0.125 0.152 1.355
 -0.117 0.151 1.35
 -0.108 0.15 1.338
 -0.099 0.148 1.32
 -0.09 0.145 1.296
 -0.08 0.141 1.267
 -0.072 0.138 1.239
 -0.063 0.135 1.215
 -0.055 0.133 1.197
 -0.048 0.132 1.188
 -0.041 0.132 1.184
 -0.034 0.132 1.186
 -0.028 0.133 1.194
 -0.021 0.134 1.208
 -0.014 0.136 1.221
 -0.007 0.137 1.237
 0 0.14 1.256
 0.006 0.141 1.273
 0.014 0.143 1.284
 0.021 0.143 1.288
 0.029 0.143 1.288
 0.036 0.143 1.285
 0.044 0.142 1.281
 0.051 0.142 1.282
 0.059 0.144 1.296
 0.068 0.146 1.32
 0.077 0.15 1.352
 0.088 0.155 1.398
 0.1 0.161 1.452
 0.112 0.167 1.501
 0.124 0.171 1.542
 0.135 0.175 1.57
 0.145 0.176 1.579
 0.154 0.175 1.576
 0.163 0.175 1.57
 0.172 0.174 1.566
 0.18 0.174 1.559
 0.189 0.173 1.556
 0.197 0.172 1.548
 0.204 0.171 1.536
 0.21 0.169 1.515
 0.216 0.166 1.493
 0.221 0.164 1.468
 0.224 0.16 1.435
 0.226 0.155 1.391
 0.228 0.151 1.357
 0.232 0.148 1.332
 0.231 0.143 1.282
 0.235 0.141 1.26
 0.24 0.139 1.247
 0.234 0.132 1.179
 0.224 0.122 1.094
 0.219 0.116 1.04
 0.217 0.112 1.004
 0.209 0.105 0.941
 0.181 0.088 0.79
 0.157 0.074 0.67
 0.131 0.06 0.543
 0.12 0.053 0.486
 0.108 0.046 0.424
 0.098 0.041 0.378
 0.096 0.039 0.36
 0.097 0.039 0.355
 0.097 0.038 0.348
 0.099 0.038 0.347
 0.101 0.037 0.343
 0.101 0.037 0.339
 0.101 0.036 0.33
 0.1 0.035 0.321
 0.1 0.034 0.314
 0.101 0.034 0.31
 0.103 0.034 0.309
 0.105 0.034 0.31
 0.108 0.034 0.312
 0.111 0.035 0.315
 0.114 0.035 0.317
 0.117 0.035 0.318
 0.12 0.036 0.321
 0.122 0.035 0.32
 0.126 0.036 0.324
 0.131 0.037 0.333
 0.135 0.038 0.336
 0.139 0.038 0.341
 0.146 0.039 0.351
 0.15 0.04 0.355
 0.152 0.04 0.355
 0.161 0.042 0.369
 0.165 0.042 0.371
 0.17 0.043 0.376
 0.173 0.043 0.377
 0.176 0.043 0.377
 0.177 0.043 0.374
 0.183 0.044 0.379
 0.183 0.043 0.375
 0.185 0.043 0.373
 0.192 0.044 0.38
 0.195 0.044 0.38
 0.229 0.052 0.442
 0.302 0.068 0.576
 0.344 0.077 0.646
 0.364 0.081 0.675
 0.373 0.082 0.68
 0.386 0.084 0.694
 0.396 0.085 0.701
 0.378 0.08 0.659
 0.38 0.079 0.653
 -0.362 0.085 0.644
 -0.365 0.087 0.66
 -0.37 0.09 0.68
 -0.374 0.092 0.698
 -0.377 0.094 0.715
 -0.38 0.096 0.731
 -0.381 0.097 0.745
 -0.381 0.098 0.756
 -0.379 0.099 0.765
 -0.377 0.1 0.772
 -0.374 0.1 0.779
 -0.371 0.101 0.784
 -0.367 0.101 0.789
 -0.364 0.102 0.795
 -0.361 0.102 0.802
 -0.358 0.103 0.808
 -0.356 0.104 0.817
