 1.812 -1.57 3.456
 1.778 -1.521 3.338
 1.82 -1.538 3.363
 1.784 -1.489 3.245
 1.813 -1.495 3.247
 1.794 -1.461 3.163
 1.791 -1.441 3.109
 1.791 -1.425 3.062
 1.752 -1.378 2.949
 1.755 -1.364 2.909
 1.751 -1.345 2.859
 1.755 -1.334 2.823
 -2.147 -1.625 3.585
 -2.13 -1.631 3.61
 -2.111 -1.636 3.634
 -2.082 -1.633 3.639
 -2.08 -1.651 3.692
 -2.022 -1.625 3.646
 -1.978 -1.61 3.623
 -1.998 -1.646 3.717
 -1.941 -1.62 3.669
 -1.952 -1.65 3.748
 -1.883 -1.613 3.674
 -1.872 -1.625 3.713
 -1.868 -1.643 3.766
 -1.827 -1.63 3.744
 -1.779 -1.609 3.706
 -1.773 -1.626 3.757
 -1.722 -1.602 3.71
 -1.764 -1.664 3.865
 -1.711 -1.639 3.815
 -1.67 -1.623 3.788
 -1.649 -1.626 3.805
 -1.616 -1.618 3.796
 -1.605 -1.632 3.837
 -1.565 -1.617 3.81
 -1.528 -1.604 3.789
 -1.518 -1.62 3.834
 -1.473 -1.598 3.791
 -1.465 -1.617 3.843
 -1.454 -1.632 3.888
 -1.421 -1.622 3.872
 -1.381 -1.605 3.839
 -1.379 -1.632 3.91
 -1.353 -1.631 3.915
 -1.325 -1.627 3.913
 -1.281 -1.603 3.862
 -1.27 -1.621 3.912
 -1.25 -1.626 3.932
 -1.208 -1.604 3.884
 -1.213 -1.644 3.988
 -1.181 -1.635 3.973
 -1.14 -1.612 3.922
 -1.112 -1.608 3.918
 -1.098 -1.623 3.96
 -1.07 -1.618 3.953
 -1.04 -1.61 3.938
 -1.035 -1.642 4.023
 -0.997 -1.621 3.977
 -0.97 -1.617 3.971
 -0.942 -1.612 3.964
 -0.928 -1.631 4.015
 -0.896 -1.617 3.985
 -0.87 -1.614 3.984
 -0.84 -1.605 3.964
 -0.822 -1.618 4.002
 -0.804 -1.631 4.038
 -0.763 -1.598 3.96
 -0.75 -1.621 4.021
 -0.726 -1.624 4.03
 -0.702 -1.625 4.037
 -0.676 -1.623 4.035
 -0.648 -1.614 4.016
 -0.626 -1.62 4.035
 -0.596 -1.608 4.006
 -0.587 -1.652 4.12
 -0.548 -1.61 4.017
 -0.532 -1.636 4.084
 -0.499 -1.612 4.026
 -0.484 -1.644 4.109
 -0.455 -1.628 4.073
 -0.43 -1.627 4.07
 -0.399 -1.602 4.011
 -0.38 -1.627 4.075
 -0.355 -1.626 4.074
 -0.326 -1.607 4.027
 -0.305 -1.624 4.071
 -0.278 -1.608 4.033
 -0.255 -1.62 4.064
 -0.232 -1.632 4.096
 -0.204 -1.609 4.037
 -0.182 -1.628 4.086
 -0.157 -1.623 4.075
 -0.131 -1.607 4.035
 -0.106 -1.598 4.012
 -0.083 -1.633 4.101
 -0.058 -1.621 4.071
 -0.033 -1.613 4.049
 -0.009 -1.632 4.097
 0.015 -1.616 4.058
 0.039 -1.62 4.067
 0.064 -1.611 4.044
 0.089 -1.624 4.074
 0.113 -1.613 4.046
 0.137 -1.605 4.025
 0.162 -1.616 4.052
 0.188 -1.624 4.071
 0.212 -1.619 4.058
 0.236 -1.616 4.048
 0.26 -1.613 4.04
 0.286 -1.626 4.07
 0.309 -1.614 4.037
 0.339 -1.641 4.104
 0.36 -1.626 4.064
 0.38 -1.604 4.006
 0.408 -1.62 4.045
 0.434 -1.623 4.05
 0.456 -1.614 4.026
 0.486 -1.634 4.073
 0.509 -1.63 4.059
 0.53 -1.618 4.026
 0.558 -1.629 4.049
 0.574 -1.605 3.987
 0.604 -1.619 4.019
 0.632 -1.628 4.037
 0.658 -1.632 4.044
 0.678 -1.619 4.009
 0.702 -1.619 4.004
 0.734 -1.635 4.04
 0.756 -1.63 4.024
 0.777 -1.622 4
 0.804 -1.628 4.008
 0.834 -1.639 4.031
 0.852 -1.625 3.991
 0.877 -1.626 3.991
 0.905 -1.631 3.998
 0.935 -1.641 4.016
 0.965 -1.651 4.035
 0.988 -1.646 4.019
 0.998 -1.622 3.954
 1.031 -1.637 3.984
 1.054 -1.634 3.971
 1.089 -1.649 4.002
 1.1 -1.628 3.944
 1.122 -1.625 3.93
 1.155 -1.637 3.954
 1.185 -1.644 3.963
 1.206 -1.639 3.943
 1.239 -1.651 3.965
 1.261 -1.647 3.947
 1.286 -1.647 3.941
 1.316 -1.654 3.95
 1.337 -1.648 3.929
 1.353 -1.638 3.896
 1.392 -1.655 3.929
 1.405 -1.641 3.888
 1.438 -1.651 3.902
 1.449 -1.634 3.855
 1.477 -1.638 3.855
 1.497 -1.634 3.837
 1.527 -1.639 3.84
 1.541 -1.628 3.805
 1.584 -1.647 3.84
 1.597 -1.635 3.803
 1.622 -1.636 3.794
 1.649 -1.638 3.791
 1.665 -1.63 3.761
 1.705 -1.644 3.785
 1.727 -1.642 3.77
 1.745 -1.636 3.744
 1.771 -1.637 3.737
 1.796 -1.638 3.727
 1.813 -1.631 3.7
 1.817 -1.613 3.649
 1.839 -1.61 3.632
 1.812 -1.567 3.523
 1.807 -1.542 3.456
 1.817 -1.531 3.42
 1.84 -1.531 3.409
 1.797 -1.477 3.277
 1.81 -1.469 3.249
 1.76 -1.412 3.111
 1.762 -1.397 3.067
 1.779 -1.394 3.049
 1.741 -1.348 2.939
 1.784 -1.365 2.965
 1.756 -1.329 2.875
 1.772 -1.326 2.857
 -2.184 -1.628 3.657
 -2.173 -1.638 3.694
 -2.13 -1.625 3.677
 -2.106 -1.626 3.691
 -2.079 -1.625 3.7
 -2.053 -1.624 3.711
 -2.03 -1.626 3.727
 -2.008 -1.629 3.745
 -1.98 -1.627 3.752
 -1.953 -1.626 3.761
 -1.928 -1.626 3.772
 -1.904 -1.627 3.785
 -1.876 -1.625 3.792
 -1.852 -1.627 3.806
 -1.828 -1.627 3.818
 -1.803 -1.628 3.83
 -1.777 -1.627 3.838
 -1.752 -1.627 3.848
 -1.723 -1.624 3.85
 -1.697 -1.624 3.858
 -1.669 -1.621 3.862
 -1.643 -1.62 3.869
 -1.617 -1.619 3.876
 -1.592 -1.62 3.886
 -1.566 -1.619 3.894
 -1.539 -1.618 3.898
 -1.514 -1.618 3.907
 -1.489 -1.618 3.916
 -1.465 -1.619 3.926
 -1.441 -1.621 3.938
 -1.418 -1.623 3.95
 -1.393 -1.623 3.959
 -1.366 -1.622 3.963
 -1.341 -1.621 3.969
 -1.315 -1.621 3.975
 -1.289 -1.619 3.978
 -1.264 -1.62 3.987
 -1.24 -1.621 3.996
 -1.212 -1.618 3.994
 -1.186 -1.617 3.997
 -1.161 -1.617 4.004
 -1.134 -1.615 4.004
 -1.108 -1.613 4.005
 -1.085 -1.616 4.019
 -1.059 -1.614 4.02
 -1.033 -1.613 4.023
 -1.008 -1.614 4.029
 -0.984 -1.615 4.037
 -0.958 -1.614 4.041
 -0.935 -1.617 4.053
 -0.911 -1.619 4.061
 -0.885 -1.617 4.062
 -0.86 -1.618 4.069
 -0.834 -1.616 4.067
 -0.808 -1.613 4.065
 -0.782 -1.613 4.067
 -0.758 -1.614 4.073
 -0.733 -1.614 4.077
 -0.708 -1.616 4.085
 -0.683 -1.615 4.087
 -0.658 -1.614 4.087
 -0.633 -1.615 4.093
 -0.608 -1.615 4.096
 -0.584 -1.617 4.103
 -0.559 -1.618 4.109
 -0.535 -1.621 4.12
 -0.509 -1.618 4.114
 -0.483 -1.616 4.112
 -0.458 -1.615 4.11
 -0.433 -1.615 4.113
 -0.408 -1.614 4.112
 -0.383 -1.617 4.121
 -0.359 -1.618 4.125
 -0.333 -1.616 4.122
 -0.309 -1.618 4.127
 -0.283 -1.617 4.126
 -0.258 -1.614 4.121
 -0.233 -1.615 4.124
 -0.208 -1.616 4.127
 -0.183 -1.615 4.125
 -0.158 -1.614 4.122
 -0.134 -1.617 4.132
 -0.109 -1.618 4.133
 -0.084 -1.618 4.135
 -0.059 -1.62 4.139
 -0.034 -1.621 4.141
 -0.009 -1.619 4.136
 0.015 -1.618 4.133
 0.04 -1.619 4.137
 0.065 -1.618 4.132
 0.09 -1.619 4.135
 0.115 -1.619 4.134
 0.14 -1.619 4.132
 0.165 -1.618 4.129
 0.19 -1.618 4.128
 0.215 -1.616 4.121
 0.239 -1.615 4.118
 0.264 -1.614 4.113
 0.289 -1.615 4.115
 0.314 -1.617 4.117
 0.34 -1.618 4.119
 0.365 -1.619 4.118
 0.39 -1.621 4.12
 0.414 -1.618 4.112
 0.44 -1.62 4.114
 0.464 -1.618 4.106
 0.489 -1.617 4.101
 0.514 -1.618 4.099
 0.539 -1.618 4.098
 0.563 -1.616 4.089
 0.588 -1.618 4.09
 0.614 -1.621 4.094
 0.64 -1.622 4.095
 0.666 -1.625 4.097
 0.691 -1.626 4.097
 0.717 -1.629 4.099
 0.742 -1.628 4.094
 0.767 -1.627 4.087
 0.792 -1.627 4.083
 0.816 -1.626 4.074
 0.841 -1.625 4.068
 0.866 -1.626 4.064
 0.892 -1.628 4.064
 0.918 -1.629 4.063
 0.945 -1.633 4.066
 0.97 -1.634 4.063
 0.995 -1.633 4.057
 1.02 -1.633 4.051
 1.046 -1.635 4.05
 1.071 -1.635 4.043
 1.096 -1.635 4.036
 1.122 -1.636 4.033
 1.148 -1.637 4.029
 1.172 -1.636 4.02
 1.198 -1.637 4.016
 1.225 -1.64 4.015
 1.251 -1.641 4.012
 1.277 -1.642 4.007
 1.303 -1.642 4
 1.328 -1.642 3.993
 1.353 -1.642 3.985
 1.377 -1.641 3.974
 1.402 -1.642 3.967
 1.427 -1.642 3.958
 1.453 -1.642 3.95
 1.475 -1.639 3.935
 1.5 -1.638 3.925
 1.522 -1.636 3.909
 1.547 -1.636 3.9
 1.572 -1.635 3.89
 1.598 -1.636 3.884
 1.623 -1.637 3.875
 1.647 -1.636 3.863
 1.67 -1.633 3.848
 1.694 -1.633 3.835
 1.717 -1.631 3.821
 1.74 -1.629 3.806
 1.765 -1.629 3.797
 1.787 -1.627 3.78
 1.803 -1.618 3.75
 1.817 -1.609 3.717
 1.826 -1.595 3.674
 1.827 -1.576 3.619
 1.828 -1.556 3.561
 1.831 -1.539 3.511
 1.83 -1.519 3.454
 1.821 -1.492 3.383
 1.798 -1.455 3.287
 1.783 -1.426 3.21
 1.775 -1.402 3.145
 1.775 -1.385 3.097
 1.774 -1.369 3.049
 1.77 -1.35 2.995
 1.767 -1.332 2.945
 1.754 -1.307 2.879
 1.776 -1.309 2.872
 -2.204 -1.617 3.701
 -2.203 -1.635 3.756
 -2.162 -1.624 3.743
 -2.137 -1.625 3.756
 -2.109 -1.623 3.764
 -2.085 -1.624 3.779
 -2.058 -1.624 3.79
 -2.034 -1.625 3.805
 -2.007 -1.624 3.814
 -1.982 -1.624 3.826
 -1.956 -1.625 3.838
 -1.934 -1.627 3.856
 -1.907 -1.626 3.864
 -1.882 -1.627 3.878
 -1.857 -1.628 3.89
 -1.833 -1.63 3.904
 -1.807 -1.629 3.912
 -1.78 -1.628 3.921
 -1.751 -1.626 3.925
 -1.725 -1.625 3.933
 -1.694 -1.62 3.931
 -1.667 -1.619 3.936
 -1.641 -1.619 3.945
 -1.616 -1.619 3.954
 -1.589 -1.618 3.96
 -1.562 -1.616 3.966
 -1.537 -1.616 3.974
 -1.511 -1.616 3.982
 -1.486 -1.617 3.992
 -1.462 -1.619 4.004
 -1.438 -1.621 4.018
 -1.413 -1.621 4.026
 -1.384 -1.618 4.025
 -1.358 -1.617 4.031
 -1.332 -1.617 4.037
 -1.305 -1.615 4.039
 -1.281 -1.617 4.05
 -1.257 -1.619 4.062
 -1.231 -1.617 4.065
 -1.205 -1.617 4.07
 -1.179 -1.617 4.077
 -1.151 -1.613 4.074
 -1.124 -1.611 4.073
 -1.099 -1.612 4.082
 -1.073 -1.611 4.084
 -1.046 -1.609 4.086
 -1.022 -1.61 4.093
 -0.998 -1.613 4.104
 -0.972 -1.613 4.109
 -0.947 -1.614 4.117
 -0.923 -1.616 4.127
 -0.897 -1.615 4.128
 -0.872 -1.615 4.133
 -0.845 -1.611 4.129
 -0.819 -1.61 4.13
 -0.792 -1.609 4.129
 -0.768 -1.61 4.136
 -0.742 -1.61 4.14
 -0.718 -1.612 4.148
 -0.692 -1.611 4.149
 -0.667 -1.611 4.154
 -0.642 -1.613 4.16
 -0.617 -1.613 4.163
 -0.592 -1.614 4.17
 -0.567 -1.615 4.174
 -0.542 -1.616 4.18
 -0.515 -1.613 4.175
 -0.49 -1.612 4.174
 -0.463 -1.609 4.17
 -0.438 -1.609 4.17
 -0.413 -1.608 4.17
 -0.388 -1.609 4.175
 -0.362 -1.61 4.179
 -0.337 -1.609 4.178
 -0.312 -1.611 4.185
 -0.287 -1.61 4.183
 -0.261 -1.608 4.179
 -0.236 -1.609 4.181
 -0.211 -1.611 4.187
 -0.185 -1.609 4.184
 -0.16 -1.609 4.185
 -0.135 -1.612 4.192
 -0.11 -1.612 4.193
 -0.084 -1.612 4.191
 -0.059 -1.613 4.195
 -0.034 -1.614 4.198
 -0.009 -1.613 4.195
 0.016 -1.612 4.192
 0.041 -1.613 4.194
 0.066 -1.612 4.189
 0.091 -1.611 4.187
 0.117 -1.612 4.188
 0.142 -1.611 4.185
 0.167 -1.61 4.182
 0.192 -1.61 4.18
 0.217 -1.608 4.175
 0.242 -1.608 4.171
 0.267 -1.607 4.168
 0.293 -1.609 4.171
 0.318 -1.609 4.171
 0.343 -1.611 4.172
 0.369 -1.611 4.17
 0.394 -1.613 4.173
 0.419 -1.611 4.165
 0.445 -1.612 4.167
 0.469 -1.611 4.161
 0.494 -1.611 4.157
 0.52 -1.61 4.153
 0.545 -1.611 4.153
 0.57 -1.61 4.148
 0.596 -1.613 4.15
 0.622 -1.614 4.151
 0.647 -1.615 4.15
 0.673 -1.617 4.15
 0.699 -1.618 4.15
 0.725 -1.62 4.15
 0.751 -1.621 4.148
 0.776 -1.621 4.145
 0.802 -1.622 4.143
 0.827 -1.621 4.136
 0.852 -1.621 4.13
 0.877 -1.622 4.127
 0.904 -1.623 4.126
 0.929 -1.624 4.123
 0.957 -1.627 4.126
 0.982 -1.628 4.121
 1.007 -1.627 4.114
 1.032 -1.627 4.107
 1.058 -1.628 4.105
 1.083 -1.628 4.098
 1.11 -1.629 4.096
 1.136 -1.63 4.091
 1.162 -1.631 4.088
 1.187 -1.631 4.081
 1.215 -1.634 4.08
 1.242 -1.636 4.078
 1.268 -1.637 4.074
 1.294 -1.638 4.068
 1.319 -1.637 4.059
 1.344 -1.637 4.05
 1.37 -1.637 4.044
 1.395 -1.637 4.035
 1.422 -1.638 4.03
 1.448 -1.639 4.024
 1.473 -1.638 4.013
 1.496 -1.636 3.998
 1.521 -1.636 3.989
 1.545 -1.634 3.976
 1.57 -1.634 3.966
 1.595 -1.634 3.957
 1.62 -1.634 3.947
 1.646 -1.634 3.938
 1.67 -1.632 3.925
 1.693 -1.63 3.91
 1.718 -1.63 3.9
 1.742 -1.629 3.885
 1.763 -1.625 3.867
 1.785 -1.622 3.849
 1.804 -1.616 3.824
 1.815 -1.604 3.784
 1.825 -1.591 3.743
 1.831 -1.576 3.695
 1.834 -1.557 3.641
 1.837 -1.539 3.588
 1.842 -1.524 3.541
 1.845 -1.507 3.491
 1.829 -1.476 3.406
 1.79 -1.427 3.281
 1.771 -1.394 3.196
 1.765 -1.373 3.136
 1.77 -1.361 3.097
 1.774 -1.347 3.056
 1.772 -1.33 3.007
 1.769 -1.313 2.957
 1.751 -1.285 2.883
 1.759 -1.276 2.852
 -2.263 -1.634 3.81
 -2.229 -1.628 3.809
 -2.19 -1.619 3.801
 -2.166 -1.62 3.816
 -2.136 -1.618 3.823
 -2.111 -1.619 3.837
 -2.087 -1.62 3.852
 -2.062 -1.621 3.866
 -2.035 -1.62 3.876
 -2.009 -1.621 3.889
 -1.984 -1.622 3.903
 -1.961 -1.624 3.919
 -1.934 -1.624 3.93
 -1.909 -1.624 3.942
 -1.885 -1.627 3.959
 -1.858 -1.625 3.966
 -1.83 -1.624 3.974
 -1.804 -1.624 3.984
 -1.775 -1.621 3.987
 -1.746 -1.619 3.99
 -1.718 -1.617 3.995
 -1.691 -1.616 4.002
 -1.666 -1.617 4.014
 -1.64 -1.617 4.024
 -1.614 -1.617 4.032
 -1.588 -1.617 4.04
 -1.561 -1.616 4.046
 -1.533 -1.614 4.051
 -1.509 -1.616 4.064
 -1.484 -1.617 4.074
 -1.459 -1.619 4.086
 -1.433 -1.618 4.093
 -1.404 -1.615 4.093
 -1.377 -1.614 4.096
 -1.35 -1.612 4.1
 -1.323 -1.612 4.105
 -1.298 -1.612 4.114
 -1.273 -1.613 4.122
 -1.246 -1.612 4.125
 -1.221 -1.613 4.135
 -1.194 -1.612 4.139
 -1.167 -1.611 4.141
 -1.14 -1.609 4.143
 -1.114 -1.608 4.147
 -1.086 -1.605 4.145
 -1.06 -1.604 4.146
 -1.035 -1.605 4.155
 -1.009 -1.606 4.162
 -0.985 -1.608 4.172
 -0.959 -1.609 4.178
 -0.935 -1.611 4.19
 -0.908 -1.608 4.186
 -0.882 -1.609 4.193
 -0.855 -1.606 4.189
 -0.829 -1.605 4.19
 -0.801 -1.602 4.186
 -0.776 -1.603 4.194
 -0.751 -1.603 4.196
 -0.725 -1.604 4.203
 -0.7 -1.603 4.205
 -0.674 -1.604 4.211
 -0.649 -1.605 4.214
 -0.623 -1.605 4.218
 -0.598 -1.605 4.222
 -0.572 -1.605 4.225
 -0.546 -1.605 4.226
 -0.52 -1.603 4.223
 -0.494 -1.601 4.22
 -0.468 -1.599 4.218
 -0.442 -1.597 4.214
 -0.416 -1.597 4.215
 -0.391 -1.598 4.221
 -0.366 -1.599 4.225
 -0.34 -1.598 4.222
 -0.315 -1.601 4.232
 -0.289 -1.6 4.23
 -0.263 -1.598 4.227
 -0.238 -1.598 4.228
 -0.212 -1.599 4.232
 -0.187 -1.598 4.228
 -0.161 -1.599 4.232
 -0.136 -1.6 4.236
 -0.111 -1.6 4.237
 -0.085 -1.6 4.237
 -0.06 -1.601 4.238
 -0.034 -1.601 4.238
 -0.009 -1.6 4.236
 0.016 -1.601 4.237
 0.041 -1.602 4.239
 0.067 -1.601 4.238
 0.092 -1.601 4.236
 0.118 -1.602 4.239
 0.143 -1.6 4.231
 0.169 -1.599 4.228
 0.194 -1.599 4.228
 0.219 -1.597 4.221
 0.244 -1.596 4.216
 0.27 -1.596 4.215
 0.295 -1.597 4.215
 0.321 -1.597 4.214
 0.347 -1.599 4.217
 0.372 -1.599 4.214
 0.398 -1.601 4.217
 0.423 -1.6 4.212
 0.449 -1.601 4.211
 0.473 -1.598 4.201
 0.499 -1.599 4.2
 0.524 -1.598 4.197
 0.55 -1.6 4.197
 0.575 -1.6 4.195
 0.602 -1.603 4.198
 0.628 -1.604 4.198
 0.654 -1.605 4.198
 0.68 -1.608 4.201
 0.706 -1.609 4.199
 0.732 -1.61 4.2
 0.758 -1.611 4.198
 0.784 -1.611 4.194
 0.809 -1.611 4.189
 0.835 -1.611 4.184
 0.86 -1.611 4.178
 0.886 -1.611 4.174
 0.912 -1.613 4.174
 0.938 -1.613 4.17
 0.965 -1.616 4.171
 0.991 -1.617 4.169
 1.017 -1.617 4.163
 1.043 -1.617 4.157
 1.069 -1.619 4.156
 1.095 -1.619 4.15
 1.122 -1.62 4.147
 1.148 -1.621 4.142
 1.174 -1.622 4.139
 1.201 -1.623 4.135
 1.228 -1.625 4.132
 1.255 -1.627 4.13
 1.281 -1.628 4.126
 1.308 -1.629 4.12
 1.333 -1.628 4.111
 1.359 -1.629 4.104
 1.385 -1.63 4.099
 1.411 -1.63 4.091
 1.439 -1.632 4.088
 1.466 -1.634 4.084
 1.491 -1.633 4.073
 1.516 -1.631 4.061
 1.542 -1.632 4.053
 1.567 -1.631 4.042
 1.592 -1.631 4.032
 1.619 -1.632 4.025
 1.643 -1.631 4.012
 1.669 -1.63 4.002
 1.693 -1.629 3.988
 1.715 -1.626 3.971
 1.74 -1.625 3.957
 1.763 -1.623 3.942
 1.784 -1.618 3.921
 1.804 -1.613 3.898
 1.82 -1.605 3.867
 1.828 -1.591 3.821
 1.836 -1.576 3.775
 1.843 -1.56 3.727
 1.845 -1.542 3.672
 1.849 -1.525 3.62
 1.854 -1.51 3.573
 1.86 -1.496 3.528
 1.839 -1.461 3.434
 1.78 -1.396 3.271
 1.759 -1.363 3.182
 1.76 -1.348 3.135
 1.772 -1.34 3.107
 1.778 -1.329 3.07
 1.777 -1.313 3.023
 1.773 -1.295 2.97
 1.77 -1.278 2.921
 1.771 -1.265 2.878
 -2.288 -1.626 3.863
 -2.222 -1.597 3.808
 -2.224 -1.617 3.869
 -2.198 -1.618 3.883
 -2.169 -1.616 3.892
 -2.144 -1.618 3.907
 -2.118 -1.618 3.921
 -2.092 -1.618 3.933
 -2.064 -1.617 3.942
 -2.039 -1.618 3.957
 -2.012 -1.618 3.967
 -1.987 -1.619 3.982
 -1.959 -1.618 3.99
 -1.933 -1.619 4.003
 -1.907 -1.619 4.014
 -1.879 -1.618 4.022
 -1.853 -1.618 4.033
 -1.827 -1.619 4.045
 -1.798 -1.617 4.049
 -1.77 -1.615 4.056
 -1.742 -1.613 4.06
 -1.714 -1.612 4.066
 -1.687 -1.612 4.075
 -1.661 -1.612 4.086
 -1.635 -1.612 4.095
 -1.609 -1.613 4.105
 -1.583 -1.613 4.113
 -1.556 -1.612 4.121
 -1.531 -1.614 4.133
 -1.504 -1.613 4.14
 -1.478 -1.614 4.15
 -1.45 -1.612 4.153
 -1.421 -1.609 4.152
 -1.393 -1.607 4.154
 -1.366 -1.606 4.16
 -1.34 -1.606 4.167
 -1.314 -1.607 4.175
 -1.288 -1.606 4.181
 -1.261 -1.606 4.187
 -1.235 -1.606 4.193
 -1.208 -1.605 4.197
 -1.181 -1.604 4.199
 -1.155 -1.603 4.204
 -1.127 -1.602 4.205
 -1.1 -1.599 4.205
 -1.072 -1.597 4.205
 -1.047 -1.599 4.214
 -1.021 -1.599 4.221
 -0.996 -1.6 4.228
 -0.97 -1.601 4.235
 -0.945 -1.603 4.244
 -0.917 -1.599 4.239
 -0.891 -1.598 4.242
 -0.863 -1.595 4.238
 -0.836 -1.593 4.236
 -0.808 -1.59 4.232
 -0.783 -1.591 4.238
 -0.757 -1.59 4.239
 -0.731 -1.59 4.244
 -0.705 -1.59 4.247
 -0.68 -1.592 4.253
 -0.654 -1.591 4.254
 -0.628 -1.591 4.257
 -0.602 -1.59 4.258
 -0.576 -1.59 4.261
 -0.55 -1.589 4.262
 -0.524 -1.589 4.262
 -0.497 -1.587 4.259
 -0.471 -1.586 4.26
 -0.445 -1.583 4.254
 -0.419 -1.583 4.255
 -0.393 -1.584 4.258
 -0.368 -1.583 4.26
 -0.342 -1.581 4.255
 -0.317 -1.585 4.266
 -0.291 -1.583 4.263
 -0.265 -1.582 4.26
 -0.239 -1.583 4.263
 -0.214 -1.584 4.269
 -0.188 -1.582 4.262
 -0.162 -1.582 4.264
 -0.137 -1.583 4.266
 -0.111 -1.582 4.265
 -0.085 -1.582 4.264
 -0.06 -1.582 4.265
 -0.034 -1.583 4.267
 -0.008 -1.582 4.265
 0.016 -1.582 4.264
 0.042 -1.583 4.265
 0.067 -1.583 4.264
 0.093 -1.581 4.26
 0.119 -1.582 4.261
 0.144 -1.581 4.258
 0.17 -1.581 4.255
 0.195 -1.581 4.256
 0.221 -1.581 4.252
 0.246 -1.58 4.25
 0.272 -1.58 4.248
 0.297 -1.581 4.249
 0.323 -1.581 4.247
 0.349 -1.583 4.249
 0.374 -1.582 4.245
 0.4 -1.584 4.248
 0.425 -1.583 4.243
 0.451 -1.583 4.24
 0.476 -1.581 4.232
 0.502 -1.582 4.232
 0.527 -1.582 4.229
 0.553 -1.582 4.227
 0.579 -1.584 4.228
 0.605 -1.586 4.23
 0.632 -1.588 4.233
 0.658 -1.589 4.232
 0.684 -1.591 4.234
 0.71 -1.591 4.23
 0.736 -1.593 4.229
 0.762 -1.593 4.226
 0.788 -1.594 4.223
 0.814 -1.594 4.221
 0.84 -1.596 4.219
 0.866 -1.596 4.215
 0.892 -1.597 4.213
 0.919 -1.599 4.213
 0.945 -1.6 4.21
 0.972 -1.602 4.211
 0.999 -1.603 4.209
 1.025 -1.603 4.203
 1.051 -1.603 4.197
 1.077 -1.605 4.195
 1.104 -1.605 4.19
 1.131 -1.607 4.189
 1.157 -1.608 4.185
 1.185 -1.611 4.185
 1.211 -1.611 4.18
 1.238 -1.613 4.177
 1.266 -1.615 4.175
 1.292 -1.616 4.169
 1.319 -1.617 4.165
 1.346 -1.618 4.16
 1.372 -1.618 4.152
 1.399 -1.619 4.146
 1.426 -1.62 4.141
 1.452 -1.621 4.135
 1.48 -1.622 4.13
 1.506 -1.622 4.122
 1.531 -1.622 4.112
 1.558 -1.623 4.104
 1.585 -1.624 4.098
 1.612 -1.624 4.091
 1.639 -1.625 4.084
 1.665 -1.625 4.073
 1.69 -1.625 4.063
 1.715 -1.623 4.048
 1.738 -1.621 4.032
 1.763 -1.62 4.018
 1.784 -1.615 3.997
 1.802 -1.609 3.971
 1.82 -1.602 3.942
 1.832 -1.59 3.902
 1.836 -1.572 3.846
 1.844 -1.557 3.8
 1.851 -1.543 3.753
 1.851 -1.522 3.692
 1.855 -1.506 3.641
 1.868 -1.497 3.608
 1.874 -1.483 3.563
 0 0 0
 1.766 -1.363 3.253
 1.744 -1.33 3.163
 1.757 -1.323 3.137
 1.77 -1.318 3.112
 1.777 -1.308 3.077
 1.78 -1.294 3.035
 1.775 -1.276 2.981
 1.759 -1.25 2.91
 1.763 -1.239 2.874
 -2.279 -1.593 3.857
 -2.312 -1.634 3.972
 -2.253 -1.612 3.93
 -2.229 -1.614 3.948
 -2.202 -1.614 3.961
 -2.177 -1.615 3.977
 -2.15 -1.615 3.989
 -2.123 -1.615 4.002
 -2.095 -1.615 4.012
 -2.069 -1.615 4.025
 -2.041 -1.614 4.035
 -2.014 -1.615 4.047
 -1.986 -1.614 4.055
 -1.957 -1.612 4.063
 -1.931 -1.613 4.075
 -1.902 -1.611 4.081
 -1.876 -1.612 4.093
 -1.85 -1.612 4.106
 -1.825 -1.614 4.12
 -1.797 -1.613 4.126
 -1.768 -1.611 4.132
 -1.739 -1.609 4.136
 -1.712 -1.609 4.146
 -1.684 -1.607 4.15
 -1.656 -1.607 4.158
 -1.631 -1.608 4.171
 -1.604 -1.608 4.179
 -1.576 -1.606 4.183
 -1.55 -1.607 4.193
 -1.522 -1.606 4.199
 -1.495 -1.606 4.207
 -1.467 -1.604 4.21
 -1.438 -1.601 4.21
 -1.41 -1.6 4.214
 -1.383 -1.599 4.219
 -1.356 -1.598 4.225
 -1.329 -1.598 4.23
 -1.302 -1.597 4.235
 -1.274 -1.596 4.239
 -1.247 -1.595 4.243
 -1.22 -1.594 4.247
 -1.193 -1.594 4.251
 -1.167 -1.594 4.258
 -1.139 -1.593 4.26
 -1.111 -1.59 4.259
 -1.083 -1.587 4.257
 -1.057 -1.588 4.264
 -1.03 -1.587 4.267
 -1.004 -1.587 4.271
 -0.978 -1.587 4.277
 -0.952 -1.588 4.284
 -0.923 -1.584 4.278
 -0.897 -1.583 4.281
 -0.87 -1.581 4.279
 -0.842 -1.58 4.279
 -0.815 -1.577 4.276
 -0.789 -1.578 4.282
 -0.762 -1.576 4.281
 -0.736 -1.575 4.281
 -0.709 -1.574 4.282
 -0.684 -1.575 4.287
 -0.657 -1.574 4.287
 -0.631 -1.573 4.289
 -0.605 -1.573 4.29
 -0.579 -1.572 4.291
 -0.552 -1.57 4.288
 -0.526 -1.57 4.289
 -0.499 -1.568 4.286
 -0.473 -1.568 4.288
 -0.447 -1.564 4.281
 -0.421 -1.564 4.282
 -0.395 -1.563 4.28
 -0.369 -1.563 4.281
 -0.342 -1.56 4.275
 -0.317 -1.563 4.284
 -0.291 -1.562 4.282
 -0.265 -1.561 4.282
 -0.24 -1.562 4.285
 -0.214 -1.563 4.29
 -0.188 -1.562 4.287
 -0.163 -1.562 4.288
 -0.137 -1.563 4.291
 -0.111 -1.562 4.287
 -0.085 -1.561 4.284
 -0.06 -1.56 4.283
 -0.034 -1.56 4.283
 -0.008 -1.559 4.28
 0.016 -1.559 4.279
 0.042 -1.56 4.28
 0.068 -1.559 4.277
 0.093 -1.559 4.277
 0.119 -1.559 4.277
 0.144 -1.558 4.273
 0.17 -1.558 4.273
 0.196 -1.56 4.275
 0.221 -1.559 4.273
 0.247 -1.559 4.271
 0.273 -1.559 4.269
 0.298 -1.559 4.268
 0.324 -1.559 4.266
 0.35 -1.56 4.267
 0.375 -1.56 4.265
 0.402 -1.563 4.269
 0.427 -1.563 4.267
 0.453 -1.562 4.262
 0.478 -1.561 4.256
 0.504 -1.562 4.255
 0.529 -1.562 4.253
 0.555 -1.562 4.251
 0.581 -1.564 4.252
 0.607 -1.565 4.252
 0.634 -1.567 4.254
 0.66 -1.568 4.252
 0.686 -1.57 4.254
 0.713 -1.572 4.255
 0.739 -1.572 4.252
 0.765 -1.573 4.25
 0.791 -1.574 4.248
 0.817 -1.575 4.246
 0.844 -1.576 4.244
 0.87 -1.577 4.243
 0.897 -1.578 4.24
 0.923 -1.58 4.24
 0.95 -1.581 4.238
 0.977 -1.582 4.236
 1.004 -1.584 4.235
 1.03 -1.585 4.231
 1.056 -1.585 4.226
 1.083 -1.587 4.225
 1.11 -1.588 4.222
 1.136 -1.589 4.218
 1.164 -1.591 4.218
 1.192 -1.594 4.218
 1.218 -1.594 4.212
 1.245 -1.596 4.209
 1.274 -1.598 4.209
 1.3 -1.599 4.203
 1.327 -1.599 4.197
 1.355 -1.602 4.196
 1.382 -1.603 4.191
 1.409 -1.604 4.185
 1.436 -1.605 4.179
 1.463 -1.606 4.175
 1.49 -1.607 4.167
 1.516 -1.607 4.159
 1.543 -1.608 4.152
 1.571 -1.609 4.147
 1.6 -1.612 4.145
 1.627 -1.613 4.138
 1.656 -1.615 4.134
 1.682 -1.615 4.125
 1.708 -1.615 4.113
 1.732 -1.613 4.098
 1.756 -1.611 4.082
 1.779 -1.608 4.065
 1.798 -1.602 4.038
 1.816 -1.595 4.01
 1.83 -1.584 3.973
 1.842 -1.573 3.933
 1.845 -1.554 3.874
 1.853 -1.54 3.828
 1.86 -1.525 3.779
 1.863 -1.507 3.724
 1.863 -1.487 3.665
 1.881 -1.482 3.641
 0 0 0
 0 0 0
 0 0 0
 1.749 -1.312 3.179
 1.762 -1.306 3.154
 1.775 -1.3 3.129
 1.781 -1.289 3.092
 1.785 -1.277 3.051
 1.779 -1.258 2.996
 1.767 -1.236 2.931
 1.77 -1.224 2.891
 -2.358 -1.62 4.001
 -2.305 -1.603 3.971
 -2.091 -1.471 3.656
 -2.075 -1.478 3.685
 -1.956 -1.41 3.527
 -2.024 -1.477 3.707
 -1.999 -1.477 3.718
 -2.061 -1.543 3.894
 -2.034 -1.542 3.905
 -2.096 -1.61 4.089
 -2.069 -1.61 4.101
 -2.044 -1.611 4.116
 -2.016 -1.611 4.127
 -1.988 -1.61 4.135
 -1.961 -1.61 4.148
 -1.93 -1.607 4.15
 -1.901 -1.606 4.157
 -1.876 -1.607 4.172
 -1.849 -1.608 4.185
 -1.82 -1.607 4.191
 -1.793 -1.607 4.2
 -1.763 -1.605 4.204
 -1.734 -1.603 4.209
 -1.706 -1.602 4.215
 -1.677 -1.6 4.219
 -1.651 -1.6 4.23
 -1.624 -1.6 4.239
 -1.595 -1.599 4.244
 -1.567 -1.598 4.249
 -1.54 -1.598 4.259
 -1.512 -1.597 4.263
 -1.483 -1.595 4.265
 -1.453 -1.591 4.263
 -1.425 -1.59 4.267
 -1.396 -1.587 4.268
 -1.369 -1.587 4.274
 -1.34 -1.585 4.277
 -1.314 -1.585 4.283
 -1.286 -1.585 4.289
 -1.259 -1.584 4.292
 -1.231 -1.582 4.294
 -1.204 -1.581 4.298
 -1.176 -1.581 4.302
 -1.148 -1.578 4.3
 -1.119 -1.575 4.297
 -1.09 -1.572 4.294
 -1.064 -1.572 4.3
 -1.036 -1.57 4.301
 -1.009 -1.569 4.304
 -0.983 -1.569 4.309
 -0.957 -1.57 4.314
 -0.928 -1.566 4.308
 -0.901 -1.565 4.309
 -0.873 -1.562 4.306
 -0.846 -1.561 4.306
 -0.818 -1.558 4.302
 -0.792 -1.557 4.305
 -0.765 -1.556 4.304
 -0.739 -1.555 4.306
 -0.712 -1.554 4.306
 -0.686 -1.555 4.312
 -0.659 -1.554 4.312
 -0.633 -1.552 4.31
 -0.606 -1.55 4.307
 -0.58 -1.55 4.308
 -0.553 -1.547 4.304
 -0.527 -1.546 4.304
 -0.5 -1.545 4.303
 -0.474 -1.546 4.307
 -0.447 -1.542 4.299
 -0.421 -1.541 4.299
 -0.395 -1.54 4.295
 -0.369 -1.539 4.296
 -0.343 -1.537 4.29
 -0.317 -1.538 4.295
 -0.291 -1.537 4.294
 -0.265 -1.536 4.292
 -0.24 -1.536 4.293
 -0.214 -1.538 4.298
 -0.188 -1.537 4.296
 -0.163 -1.537 4.297
 -0.137 -1.538 4.299
 -0.111 -1.536 4.294
 -0.085 -1.535 4.292
 -0.059 -1.534 4.291
 -0.034 -1.534 4.29
 -0.008 -1.534 4.29
 0.017 -1.534 4.29
 0.042 -1.535 4.292
 0.068 -1.535 4.291
 0.094 -1.535 4.29
 0.119 -1.535 4.288
 0.145 -1.534 4.284
 0.17 -1.534 4.284
 0.196 -1.535 4.287
 0.222 -1.535 4.283
 0.247 -1.535 4.283
 0.273 -1.536 4.284
 0.299 -1.535 4.28
 0.324 -1.535 4.276
 0.35 -1.537 4.28
 0.376 -1.536 4.275
 0.402 -1.537 4.277
 0.428 -1.538 4.277
 0.453 -1.538 4.275
 0.479 -1.537 4.27
 0.505 -1.539 4.272
 0.531 -1.54 4.271
 0.556 -1.539 4.266
 0.582 -1.54 4.266
 0.608 -1.541 4.264
 0.634 -1.541 4.26
 0.66 -1.541 4.257
 0.686 -1.544 4.262
 0.713 -1.545 4.262
 0.739 -1.546 4.261
 0.766 -1.548 4.262
 0.792 -1.549 4.26
 0.818 -1.549 4.255
 0.844 -1.551 4.254
 0.871 -1.552 4.253
 0.897 -1.553 4.252
 0.925 -1.556 4.253
 0.952 -1.558 4.254
 0.978 -1.558 4.25
 1.005 -1.56 4.25
 1.032 -1.562 4.248
 1.058 -1.562 4.242
 1.085 -1.564 4.242
 1.112 -1.565 4.238
 1.139 -1.566 4.237
 1.166 -1.567 4.232
 1.194 -1.57 4.234
 1.221 -1.571 4.229
 1.249 -1.573 4.228
 1.276 -1.575 4.226
 1.303 -1.576 4.221
 1.33 -1.577 4.216
 1.359 -1.58 4.216
 1.386 -1.582 4.213
 1.414 -1.583 4.21
 1.443 -1.586 4.209
 1.471 -1.588 4.205
 1.498 -1.589 4.199
 1.524 -1.589 4.19
 1.552 -1.59 4.184
 1.58 -1.591 4.179
 1.609 -1.595 4.178
 1.637 -1.596 4.173
 1.666 -1.599 4.17
 1.693 -1.599 4.159
 1.719 -1.599 4.15
 1.743 -1.597 4.134
 1.767 -1.594 4.117
 1.79 -1.591 4.099
 1.807 -1.583 4.068
 1.824 -1.575 4.036
 1.837 -1.564 3.997
 1.849 -1.552 3.955
 1.852 -1.534 3.898
 1.864 -1.523 3.859
 1.87 -1.508 3.808
 1.875 -1.492 3.757
 1.873 -1.471 3.693
 0 0 0
 0 0 0
 0 0 0
 0 0 0
 1.737 -1.282 3.165
 1.759 -1.282 3.155
 1.772 -1.276 3.13
 1.778 -1.266 3.094
 1.784 -1.255 3.056
 1.781 -1.239 3.006
 1.767 -1.215 2.937
 1.752 -1.191 2.869
 0 0 0
 -2.339 -1.599 4.04
 -1.731 -1.198 3.033
 -1.735 -1.215 3.085
 -1.711 -1.213 3.09
 -1.78 -1.278 3.266
 -1.761 -1.279 3.281
 -1.737 -1.279 3.288
 -1.801 -1.342 3.463
 -1.865 -1.408 3.645
 -1.839 -1.407 3.652
 -1.899 -1.472 3.834
 -1.956 -1.537 4.014
 -1.929 -1.536 4.023
 -1.903 -1.537 4.035
 -1.951 -1.598 4.207
 -1.923 -1.597 4.215
 -1.897 -1.598 4.229
 -1.869 -1.598 4.239
 -1.84 -1.597 4.246
 -1.814 -1.598 4.258
 -1.784 -1.596 4.262
 -1.754 -1.593 4.265
 -1.724 -1.591 4.269
 -1.694 -1.589 4.271
 -1.667 -1.589 4.282
 -1.639 -1.589 4.29
 -1.61 -1.587 4.293
 -1.581 -1.585 4.297
 -1.553 -1.584 4.302
 -1.523 -1.581 4.303
 -1.494 -1.579 4.306
 -1.465 -1.577 4.308
 -1.436 -1.576 4.311
 -1.407 -1.573 4.311
 -1.379 -1.572 4.315
 -1.35 -1.569 4.315
 -1.322 -1.568 4.318
 -1.294 -1.567 4.322
 -1.265 -1.565 4.324
 -1.237 -1.563 4.324
 -1.209 -1.562 4.327
 -1.181 -1.56 4.328
 -1.152 -1.557 4.324
 -1.123 -1.553 4.321
 -1.094 -1.551 4.32
 -1.067 -1.551 4.324
 -1.039 -1.549 4.323
 -1.012 -1.547 4.324
 -0.986 -1.547 4.329
 -0.959 -1.546 4.332
 -0.93 -1.543 4.326
 -0.902 -1.541 4.325
 -0.874 -1.538 4.32
 -0.847 -1.536 4.319
 -0.819 -1.533 4.314
 -0.792 -1.532 4.315
 -0.765 -1.53 4.314
 -0.739 -1.53 4.318
 -0.712 -1.529 4.319
 -0.686 -1.529 4.322
 -0.66 -1.528 4.322
 -0.633 -1.527 4.32
 -0.606 -1.524 4.316
 -0.579 -1.523 4.315
 -0.553 -1.521 4.313
 -0.526 -1.521 4.313
 -0.5 -1.519 4.31
 -0.474 -1.519 4.314
 -0.447 -1.516 4.306
 -0.421 -1.515 4.305
 -0.395 -1.512 4.299
 -0.369 -1.512 4.3
 -0.342 -1.51 4.295
 -0.317 -1.511 4.301
 -0.291 -1.511 4.301
 -0.265 -1.511 4.301
 -0.24 -1.511 4.304
 -0.214 -1.512 4.305
 -0.188 -1.511 4.303
 -0.162 -1.509 4.299
 -0.136 -1.51 4.301
 -0.111 -1.507 4.295
 -0.085 -1.507 4.294
 -0.059 -1.507 4.294
 -0.034 -1.507 4.293
 -0.008 -1.507 4.293
 0.017 -1.508 4.295
 0.042 -1.508 4.297
 0.068 -1.508 4.295
 0.094 -1.508 4.295
 0.119 -1.508 4.292
 0.145 -1.506 4.287
 0.17 -1.506 4.286
 0.196 -1.507 4.287
 0.222 -1.507 4.284
 0.247 -1.507 4.285
 0.273 -1.509 4.287
 0.299 -1.508 4.285
 0.324 -1.509 4.285
 0.351 -1.511 4.289
 0.376 -1.51 4.283
 0.402 -1.511 4.285
 0.428 -1.512 4.285
 0.453 -1.512 4.28
 0.479 -1.511 4.275
 0.505 -1.513 4.278
 0.531 -1.513 4.276
 0.556 -1.512 4.27
 0.582 -1.512 4.268
 0.608 -1.514 4.268
 0.633 -1.514 4.265
 0.66 -1.515 4.264
 0.687 -1.518 4.27
 0.713 -1.52 4.272
 0.739 -1.52 4.268
 0.766 -1.522 4.269
 0.792 -1.522 4.266
 0.817 -1.522 4.26
 0.844 -1.523 4.258
 0.87 -1.525 4.258
 0.897 -1.526 4.257
 0.924 -1.528 4.257
 0.951 -1.53 4.258
 0.978 -1.532 4.258
 1.006 -1.535 4.261
 1.033 -1.537 4.261
 1.06 -1.538 4.259
 1.087 -1.54 4.257
 1.114 -1.541 4.253
 1.141 -1.542 4.249
 1.167 -1.543 4.245
 1.196 -1.546 4.247
 1.223 -1.547 4.243
 1.25 -1.549 4.242
 1.278 -1.55 4.238
 1.304 -1.551 4.233
 1.331 -1.551 4.227
 1.36 -1.554 4.227
 1.388 -1.557 4.225
 1.417 -1.559 4.224
 1.446 -1.563 4.226
 1.474 -1.565 4.222
 1.502 -1.566 4.219
 1.529 -1.567 4.211
 1.557 -1.569 4.207
 1.585 -1.57 4.201
 1.615 -1.573 4.2
 1.642 -1.574 4.194
 1.672 -1.577 4.191
 1.698 -1.577 4.182
 1.726 -1.578 4.175
 1.752 -1.577 4.162
 1.776 -1.575 4.146
 1.798 -1.572 4.127
 1.815 -1.563 4.094
 1.832 -1.555 4.062
 1.846 -1.545 4.024
 1.858 -1.534 3.984
 1.864 -1.517 3.93
 1.879 -1.51 3.898
 1.887 -1.495 3.851
 1.891 -1.479 3.797
 0 0 0
 0 0 0
 0 0 0
 0 0 0
 0 0 0
 1.737 -1.26 3.173
 1.762 -1.263 3.168
 1.772 -1.255 3.138
 1.779 -1.245 3.102
 1.786 -1.235 3.067
 1.783 -1.22 3.017
 1.773 -1.199 2.955
 1.765 -1.18 2.897
 -2.413 -1.602 4.115
 -2.405 -1.616 4.164
 -1.271 -0.865 2.227
 -1.296 -0.892 2.307
 -1.279 -0.891 2.312
 -1.352 -0.954 2.483
 -1.336 -0.955 2.493
 -1.321 -0.956 2.503
 -1.39 -1.019 2.677
 -1.544 -1.146 3.023
 -1.522 -1.145 3.028
 -1.67 -1.273 3.377
 -1.729 -1.335 3.554
 -1.787 -1.399 3.733
 -1.762 -1.398 3.742
 -1.894 -1.525 4.092
 -1.866 -1.523 4.1
 -1.917 -1.588 4.285
 -1.889 -1.588 4.294
 -1.86 -1.587 4.302
 -1.831 -1.586 4.309
 -1.8 -1.582 4.31
 -1.768 -1.579 4.311
 -1.738 -1.576 4.312
 -1.706 -1.573 4.313
 -1.678 -1.572 4.32
 -1.65 -1.572 4.327
 -1.62 -1.569 4.329
 -1.59 -1.567 4.33
 -1.56 -1.565 4.333
 -1.53 -1.562 4.334
 -1.501 -1.56 4.335
 -1.472 -1.558 4.337
 -1.443 -1.556 4.341
 -1.413 -1.553 4.34
 -1.385 -1.552 4.343
 -1.355 -1.549 4.342
 -1.327 -1.548 4.345
 -1.298 -1.546 4.346
 -1.268 -1.542 4.342
 -1.239 -1.54 4.341
 -1.211 -1.537 4.341
 -1.181 -1.534 4.338
 -1.153 -1.531 4.336
 -1.124 -1.529 4.335
 -1.096 -1.527 4.334
 -1.068 -1.526 4.336
 -1.041 -1.524 4.337
 -1.012 -1.521 4.334
 -0.986 -1.521 4.339
 -0.959 -1.521 4.341
 -0.931 -1.518 4.338
 -0.903 -1.515 4.335
 -0.875 -1.513 4.332
 -0.847 -1.51 4.328
 -0.819 -1.507 4.323
 -0.792 -1.506 4.324
 -0.765 -1.505 4.324
 -0.739 -1.505 4.328
 -0.712 -1.504 4.327
 -0.686 -1.503 4.328
 -0.659 -1.501 4.326
 -0.632 -1.499 4.322
 -0.605 -1.497 4.319
 -0.579 -1.496 4.32
 -0.552 -1.495 4.318
 -0.526 -1.493 4.317
 -0.5 -1.492 4.316
 -0.474 -1.492 4.317
 -0.447 -1.49 4.312
 -0.421 -1.488 4.31
 -0.394 -1.486 4.306
 -0.368 -1.486 4.307
 -0.342 -1.484 4.302
 -0.317 -1.485 4.305
 -0.291 -1.485 4.308
 -0.265 -1.485 4.308
 -0.239 -1.485 4.309
 -0.214 -1.485 4.311
 -0.188 -1.485 4.31
 -0.162 -1.483 4.307
 -0.136 -1.484 4.309
 -0.11 -1.481 4.302
 -0.085 -1.481 4.3
 -0.059 -1.481 4.299
 -0.033 -1.48 4.297
 -0.008 -1.48 4.296
 0.017 -1.481 4.299
 0.042 -1.481 4.299
 0.068 -1.48 4.295
 0.094 -1.48 4.294
 0.119 -1.48 4.293
 0.145 -1.479 4.29
 0.17 -1.479 4.288
 0.196 -1.479 4.288
 0.221 -1.479 4.287
 0.247 -1.48 4.289
 0.273 -1.482 4.291
 0.299 -1.482 4.289
 0.325 -1.483 4.291
 0.35 -1.484 4.291
 0.376 -1.483 4.287
 0.402 -1.484 4.288
 0.427 -1.484 4.286
 0.453 -1.484 4.282
 0.479 -1.484 4.281
 0.504 -1.485 4.28
 0.53 -1.485 4.277
 0.556 -1.485 4.275
 0.582 -1.486 4.275
 0.608 -1.487 4.273
 0.634 -1.488 4.272
 0.659 -1.488 4.27
 0.686 -1.49 4.271
 0.712 -1.491 4.271
 0.738 -1.492 4.268
 0.765 -1.494 4.27
 0.791 -1.495 4.268
 0.817 -1.496 4.267
 0.844 -1.497 4.265
 0.871 -1.499 4.267
 0.897 -1.501 4.266
 0.924 -1.502 4.265
 0.951 -1.504 4.265
 0.978 -1.506 4.265
 1.006 -1.508 4.267
 1.033 -1.51 4.267
 1.06 -1.512 4.265
 1.087 -1.514 4.264
 1.114 -1.515 4.261
 1.141 -1.516 4.258
 1.168 -1.517 4.256
 1.197 -1.521 4.258
 1.224 -1.521 4.254
 1.252 -1.524 4.254
 1.279 -1.525 4.249
 1.305 -1.525 4.243
 1.332 -1.525 4.236
 1.36 -1.528 4.235
 1.388 -1.53 4.234
 1.417 -1.533 4.233
 1.446 -1.536 4.233
 1.474 -1.538 4.231
 1.503 -1.54 4.227
 1.53 -1.541 4.221
 1.558 -1.543 4.218
 1.587 -1.545 4.215
 1.617 -1.548 4.214
 1.645 -1.55 4.21
 1.674 -1.552 4.206
 1.702 -1.553 4.199
 1.731 -1.555 4.195
 1.757 -1.555 4.183
 1.781 -1.553 4.168
 1.804 -1.55 4.149
 1.82 -1.541 4.115
 1.836 -1.532 4.08
 1.851 -1.523 4.044
 1.864 -1.513 4.006
 1.87 -1.496 3.952
 1.887 -1.49 3.923
 1.891 -1.473 3.868
 0 0 0
 0 0 0
 0 0 0
 0 0 0
 0 0 0
 0 0 0
 1.734 -1.236 3.173
 1.761 -1.24 3.173
 1.773 -1.234 3.147
 1.779 -1.224 3.11
 1.787 -1.215 3.075
 1.784 -1.199 3.025
 1.759 -1.169 2.939
 1.781 -1.171 2.931
 -0.061 -0.041 0.092
 -0.028 -0.02 0.036
 -0.809 -0.541 1.417
 -0.857 -0.58 1.525
 -0.844 -0.579 1.526
 -0.922 -0.64 1.693
 -0.911 -0.64 1.7
 -0.901 -0.641 1.707
 -0.975 -0.702 1.878
 -1.133 -0.827 2.22
 -1.116 -0.825 2.221
 -1.268 -0.95 2.567
 -1.332 -1.011 2.741
 -1.395 -1.073 2.918
 -1.374 -1.072 2.923
 -1.513 -1.197 3.273
 -1.569 -1.259 3.452
 -1.701 -1.384 3.808
 -1.75 -1.445 3.986
 -1.798 -1.507 4.166
 -1.843 -1.568 4.346
 -1.81 -1.564 4.345
 -1.779 -1.561 4.345
 -1.747 -1.557 4.345
 -1.716 -1.554 4.346
 -1.686 -1.552 4.35
 -1.657 -1.551 4.355
 -1.626 -1.547 4.354
 -1.596 -1.545 4.355
 -1.566 -1.543 4.358
 -1.535 -1.539 4.355
 -1.505 -1.536 4.355
 -1.476 -1.535 4.359
 -1.447 -1.534 4.362
 -1.416 -1.53 4.358
 -1.388 -1.528 4.361
 -1.358 -1.525 4.36
 -1.328 -1.523 4.359
 -1.299 -1.52 4.357
 -1.269 -1.516 4.353
 -1.239 -1.513 4.349
 -1.21 -1.51 4.347
 -1.18 -1.506 4.343
 -1.152 -1.504 4.342
 -1.124 -1.502 4.342
 -1.096 -1.501 4.344
 -1.068 -1.499 4.344
 -1.04 -1.497 4.343
 -1.011 -1.493 4.338
 -0.984 -1.492 4.339
 -0.956 -1.491 4.339
 -0.929 -1.489 4.338
 -0.901 -1.487 4.337
 -0.874 -1.486 4.337
 -0.847 -1.484 4.337
 -0.819 -1.482 4.334
 -0.793 -1.481 4.335
 -0.766 -1.479 4.334
 -0.739 -1.479 4.336
 -0.712 -1.477 4.333
 -0.685 -1.476 4.334
 -0.658 -1.474 4.33
 -0.631 -1.471 4.326
 -0.605 -1.47 4.324
 -0.578 -1.469 4.325
 -0.552 -1.467 4.321
 -0.525 -1.466 4.321
 -0.499 -1.466 4.322
 -0.473 -1.464 4.32
 -0.446 -1.462 4.314
 -0.42 -1.46 4.312
 -0.393 -1.458 4.305
 -0.368 -1.457 4.306
 -0.342 -1.457 4.305
 -0.316 -1.457 4.307
 -0.291 -1.458 4.312
 -0.265 -1.458 4.313
 -0.239 -1.459 4.316
 -0.213 -1.458 4.314
 -0.188 -1.458 4.314
 -0.162 -1.457 4.311
 -0.136 -1.457 4.312
 -0.11 -1.454 4.303
 -0.085 -1.454 4.304
 -0.059 -1.454 4.304
 -0.033 -1.453 4.301
 -0.008 -1.453 4.299
 0.017 -1.454 4.303
 0.043 -1.453 4.3
 0.068 -1.452 4.296
 0.094 -1.453 4.298
 0.119 -1.453 4.296
 0.145 -1.452 4.294
 0.17 -1.453 4.294
 0.196 -1.453 4.294
 0.221 -1.452 4.291
 0.247 -1.453 4.292
 0.273 -1.454 4.293
 0.298 -1.454 4.292
 0.324 -1.456 4.293
 0.35 -1.456 4.293
 0.376 -1.456 4.292
 0.402 -1.458 4.295
 0.427 -1.458 4.292
 0.453 -1.459 4.291
 0.479 -1.459 4.289
 0.504 -1.458 4.285
 0.53 -1.458 4.282
 0.556 -1.46 4.283
 0.581 -1.46 4.279
 0.607 -1.46 4.277
 0.633 -1.461 4.276
 0.659 -1.461 4.273
 0.685 -1.461 4.27
 0.711 -1.463 4.27
 0.737 -1.463 4.268
 0.763 -1.465 4.269
 0.79 -1.466 4.267
 0.816 -1.467 4.267
 0.842 -1.469 4.266
 0.87 -1.471 4.268
 0.896 -1.473 4.269
 0.923 -1.474 4.268
 0.951 -1.477 4.271
 0.977 -1.478 4.268
 1.005 -1.481 4.271
 1.032 -1.483 4.27
 1.059 -1.484 4.268
 1.086 -1.485 4.265
 1.113 -1.487 4.264
 1.14 -1.488 4.261
 1.167 -1.489 4.259
 1.196 -1.492 4.261
 1.223 -1.494 4.258
 1.25 -1.496 4.257
 1.278 -1.497 4.254
 1.305 -1.498 4.249
 1.331 -1.498 4.242
 1.359 -1.5 4.24
 1.387 -1.503 4.239
 1.415 -1.504 4.235
 1.444 -1.507 4.236
 1.474 -1.51 4.237
 1.502 -1.512 4.233
 1.529 -1.514 4.228
 1.559 -1.517 4.228
 1.587 -1.518 4.224
 1.616 -1.52 4.22
 1.646 -1.524 4.219
 1.674 -1.525 4.215
 1.702 -1.526 4.208
 1.732 -1.529 4.205
 1.758 -1.529 4.194
 1.782 -1.527 4.178
 1.806 -1.525 4.162
 1.824 -1.518 4.132
 1.841 -1.51 4.099
 1.856 -1.501 4.064
 1.873 -1.493 4.033
 1.884 -1.482 3.991
 1.905 -1.478 3.969
 0 0 0
 0 0 0
 0 0 0
 0 0 0
 0 0 0
 0 0 0
 0 0 0
 1.734 -1.215 3.181
 1.759 -1.218 3.177
 1.77 -1.211 3.148
 1.777 -1.201 3.113
 1.785 -1.193 3.079
 1.782 -1.177 3.029
 1.782 -1.164 2.984
 1.767 -1.141 2.914
 -0.037 -0.025 0.051
 -0.05 -0.034 0.074
 -0.425 -0.28 0.739
 -0.415 -0.277 0.734
 -0.407 -0.275 0.73
 -0.488 -0.333 0.893
 -0.481 -0.333 0.893
 -0.474 -0.332 0.893
 -0.552 -0.391 1.06
 -0.714 -0.512 1.397
 -0.701 -0.51 1.394
 -0.943 -0.694 1.91
 -1.093 -0.815 2.252
 -1.242 -0.939 2.602
 -1.304 -1 2.78
 -1.524 -1.184 3.304
 -1.579 -1.244 3.482
 -1.711 -1.368 3.838
 -1.758 -1.426 4.013
 -1.805 -1.486 4.191
 -1.848 -1.545 4.368
 -1.816 -1.541 4.367
 -1.783 -1.536 4.364
 -1.751 -1.534 4.365
 -1.72 -1.531 4.366
 -1.689 -1.528 4.367
 -1.66 -1.526 4.37
 -1.628 -1.522 4.369
 -1.598 -1.52 4.37
 -1.567 -1.517 4.37
 -1.536 -1.514 4.369
 -1.505 -1.51 4.365
 -1.476 -1.508 4.368
 -1.446 -1.505 4.368
 -1.415 -1.501 4.363
 -1.386 -1.499 4.364
 -1.357 -1.497 4.364
 -1.327 -1.495 4.364
 -1.298 -1.492 4.362
 -1.268 -1.488 4.359
 -1.238 -1.485 4.355
 -1.209 -1.482 4.351
 -1.179 -1.477 4.345
 -1.15 -1.475 4.343
 -1.122 -1.474 4.345
 -1.095 -1.472 4.347
 -1.067 -1.471 4.347
 -1.039 -1.469 4.348
 -1.011 -1.467 4.346
 -0.984 -1.465 4.346
 -0.956 -1.464 4.346
 -0.928 -1.462 4.344
 -0.9 -1.459 4.34
 -0.872 -1.457 4.337
 -0.845 -1.455 4.336
 -0.818 -1.453 4.334
 -0.791 -1.452 4.334
 -0.764 -1.45 4.333
 -0.738 -1.451 4.34
 -0.711 -1.449 4.336
 -0.685 -1.448 4.336
 -0.657 -1.446 4.333
 -0.631 -1.444 4.329
 -0.604 -1.442 4.325
 -0.578 -1.442 4.328
 -0.551 -1.44 4.326
 -0.525 -1.439 4.323
 -0.498 -1.438 4.324
 -0.471 -1.434 4.315
 -0.445 -1.432 4.308
 -0.418 -1.43 4.304
 -0.392 -1.428 4.302
 -0.367 -1.429 4.304
 -0.341 -1.429 4.307
 -0.316 -1.43 4.312
 -0.29 -1.431 4.316
 -0.264 -1.431 4.317
 -0.239 -1.431 4.317
 -0.213 -1.43 4.315
 -0.187 -1.429 4.311
 -0.161 -1.428 4.31
 -0.136 -1.428 4.31
 -0.11 -1.426 4.305
 -0.084 -1.426 4.305
 -0.059 -1.427 4.306
 -0.033 -1.425 4.302
 -0.007 -1.425 4.3
 0.017 -1.425 4.301
 0.043 -1.426 4.301
 0.068 -1.425 4.299
 0.094 -1.425 4.298
 0.119 -1.425 4.296
 0.145 -1.424 4.292
 0.17 -1.424 4.291
 0.196 -1.425 4.293
 0.221 -1.425 4.293
 0.247 -1.426 4.293
 0.273 -1.427 4.297
 0.298 -1.428 4.295
 0.324 -1.428 4.296
 0.35 -1.428 4.294
 0.375 -1.429 4.294
 0.401 -1.43 4.294
 0.427 -1.43 4.292
 0.452 -1.429 4.288
 0.478 -1.429 4.285
 0.503 -1.429 4.283
 0.529 -1.429 4.279
 0.555 -1.43 4.279
 0.581 -1.431 4.279
 0.607 -1.433 4.279
 0.632 -1.433 4.277
 0.658 -1.434 4.276
 0.684 -1.434 4.273
 0.71 -1.435 4.272
 0.736 -1.436 4.271
 0.763 -1.438 4.274
 0.789 -1.439 4.272
 0.816 -1.441 4.272
 0.842 -1.442 4.271
 0.869 -1.444 4.272
 0.896 -1.446 4.272
 0.923 -1.448 4.276
 0.95 -1.45 4.276
 0.977 -1.451 4.273
 1.004 -1.453 4.274
 1.031 -1.454 4.272
 1.057 -1.455 4.267
 1.084 -1.456 4.266
 1.111 -1.458 4.264
 1.139 -1.46 4.264
 1.165 -1.461 4.259
 1.194 -1.464 4.261
 1.22 -1.465 4.258
 1.248 -1.467 4.257
 1.275 -1.468 4.254
 1.303 -1.47 4.251
 1.33 -1.47 4.245
 1.357 -1.472 4.243
 1.386 -1.474 4.242
 1.414 -1.477 4.24
 1.444 -1.48 4.242
 1.473 -1.483 4.243
 1.501 -1.485 4.24
 1.529 -1.486 4.235
 1.558 -1.489 4.232
 1.587 -1.491 4.23
 1.615 -1.493 4.225
 1.645 -1.496 4.225
 1.674 -1.498 4.222
 1.701 -1.499 4.214
 1.731 -1.501 4.211
 1.759 -1.503 4.205
 1.783 -1.501 4.188
 1.807 -1.499 4.172
 1.828 -1.494 4.149
 1.846 -1.487 4.119
 1.861 -1.478 4.083
 1.878 -1.471 4.052
 1.89 -1.46 4.012
 0 0 0
 0 0 0
 0 0 0
 0 0 0
 0 0 0
 0 0 0
 0 0 0
 0 0 0
 1.461 -1.007 2.685
 1.606 -1.092 2.906
 1.664 -1.119 2.966
 1.776 -1.179 3.117
 1.783 -1.171 3.084
 1.781 -1.156 3.034
 1.78 -1.142 2.987
 1.743 -1.106 2.881
 -0.096 -0.062 0.153
 -0.078 -0.051 0.124
 -0.163 -0.107 0.277
 -0.155 -0.102 0.266
 -0.241 -0.16 0.429
 -0.231 -0.156 0.417
 -0.227 -0.155 0.415
 -0.133 -0.093 0.243
 -0.215 -0.15 0.406
 -0.293 -0.207 0.567
 -0.285 -0.204 0.56
 -0.529 -0.383 1.068
 -0.683 -0.501 1.406
 -0.917 -0.681 1.923
 -1.065 -0.802 2.272
 -1.367 -1.043 2.97
 -1.504 -1.164 3.322
 -1.714 -1.345 3.853
 -1.761 -1.402 4.027
 -1.806 -1.46 4.202
 -1.849 -1.518 4.38
 -1.817 -1.514 4.379
 -1.784 -1.51 4.375
 -1.753 -1.507 4.379
 -1.722 -1.504 4.379
 -1.689 -1.5 4.376
 -1.659 -1.497 4.377
 -1.627 -1.494 4.374
 -1.596 -1.491 4.374
 -1.565 -1.487 4.372
 -1.534 -1.485 4.372
 -1.503 -1.481 4.369
 -1.475 -1.48 4.373
 -1.444 -1.476 4.371
 -1.414 -1.473 4.367
 -1.385 -1.471 4.368
 -1.355 -1.468 4.368
 -1.326 -1.466 4.366
 -1.296 -1.462 4.364
 -1.266 -1.459 4.361
 -1.237 -1.457 4.358
 -1.207 -1.453 4.355
 -1.177 -1.45 4.349
 -1.148 -1.447 4.346
 -1.121 -1.446 4.349
 -1.094 -1.444 4.35
 -1.066 -1.443 4.352
 -1.038 -1.441 4.351
 -1.01 -1.44 4.351
 -0.982 -1.437 4.349
 -0.954 -1.435 4.346
 -0.927 -1.433 4.344
 -0.899 -1.431 4.343
 -0.871 -1.429 4.339
 -0.844 -1.428 4.34
 -0.817 -1.426 4.339
 -0.791 -1.425 4.34
 -0.764 -1.424 4.34
 -0.738 -1.425 4.347
 -0.711 -1.423 4.345
 -0.684 -1.422 4.342
 -0.657 -1.42 4.339
 -0.63 -1.418 4.337
 -0.604 -1.416 4.333
 -0.577 -1.415 4.333
 -0.551 -1.414 4.331
 -0.524 -1.412 4.327
 -0.498 -1.411 4.328
 -0.471 -1.407 4.316
 -0.444 -1.405 4.311
 -0.418 -1.403 4.307
 -0.392 -1.4 4.302
 -0.366 -1.401 4.304
 -0.341 -1.402 4.31
 -0.315 -1.403 4.314
 -0.29 -1.404 4.318
 -0.264 -1.405 4.322
 -0.238 -1.404 4.321
 -0.212 -1.403 4.317
 -0.187 -1.401 4.313
 -0.161 -1.4 4.31
 -0.135 -1.4 4.308
 -0.11 -1.398 4.305
 -0.084 -1.399 4.306
 -0.058 -1.399 4.307
 -0.033 -1.399 4.306
 -0.007 -1.398 4.304
 0.017 -1.399 4.304
 0.043 -1.399 4.306
 0.068 -1.399 4.303
 0.094 -1.397 4.299
 0.119 -1.398 4.299
 0.145 -1.396 4.293
 0.17 -1.397 4.294
 0.196 -1.398 4.296
 0.221 -1.399 4.298
 0.247 -1.399 4.297
 0.273 -1.401 4.302
 0.298 -1.401 4.3
 0.324 -1.402 4.302
 0.35 -1.402 4.297
 0.375 -1.402 4.298
 0.401 -1.403 4.297
 0.426 -1.403 4.294
 0.451 -1.401 4.287
 0.477 -1.402 4.286
 0.503 -1.402 4.284
 0.528 -1.402 4.28
 0.554 -1.403 4.282
 0.581 -1.405 4.284
 0.607 -1.407 4.286
 0.633 -1.407 4.285
 0.659 -1.408 4.283
 0.684 -1.409 4.281
 0.71 -1.409 4.28
 0.736 -1.41 4.277
 0.763 -1.412 4.279
 0.789 -1.413 4.279
 0.816 -1.415 4.279
 0.842 -1.415 4.276
 0.869 -1.417 4.278
 0.896 -1.42 4.28
 0.924 -1.423 4.284
 0.95 -1.424 4.282
 0.976 -1.424 4.278
 1.003 -1.426 4.277
 1.029 -1.426 4.273
 1.055 -1.426 4.268
 1.083 -1.428 4.267
 1.11 -1.43 4.266
 1.137 -1.432 4.265
 1.164 -1.433 4.264
 1.192 -1.436 4.264
 1.219 -1.437 4.261
 1.247 -1.439 4.26
 1.274 -1.44 4.257
 1.302 -1.442 4.255
 1.329 -1.443 4.251
 1.357 -1.445 4.249
 1.385 -1.447 4.248
 1.414 -1.449 4.246
 1.442 -1.452 4.245
 1.472 -1.455 4.247
 1.5 -1.457 4.244
 1.528 -1.459 4.241
 1.557 -1.461 4.238
 1.586 -1.464 4.236
 1.614 -1.465 4.231
 1.644 -1.468 4.231
 1.673 -1.47 4.227
 1.701 -1.471 4.221
 1.73 -1.474 4.217
 1.758 -1.475 4.212
 1.784 -1.474 4.199
 1.81 -1.473 4.186
 1.833 -1.471 4.168
 1.854 -1.467 4.146
 1.875 -1.462 4.121
 1.895 -1.458 4.098
 0 0 0
 0 0 0
 0 0 0
 0 0 0
 0 0 0
 0 0 0
 0 0 0
 0 0 0
 0 0 0
 1.411 -0.955 2.598
 1.589 -1.062 2.882
 1.659 -1.095 2.964
 1.777 -1.159 3.126
 1.785 -1.151 3.092
 1.782 -1.136 3.042
 1.772 -1.117 2.98
 1.761 -1.098 2.918
 -0.098 -0.062 0.157
 -0.087 -0.056 0.14
 -0.085 -0.055 0.138
 -0.077 -0.051 0.126
 -0.07 -0.047 0.115
 -0.06 -0.041 0.1
 -0.055 -0.038 0.092
 -0.053 -0.037 0.089
 -0.046 -0.033 0.077
 -0.125 -0.088 0.236
 -0.204 -0.144 0.399
 -0.365 -0.26 0.735
 -0.436 -0.315 0.895
 -0.755 -0.551 1.584
 -0.985 -0.728 2.104
 -1.208 -0.905 2.628
 -1.425 -1.082 3.153
 -1.712 -1.32 3.858
 -1.76 -1.376 4.033
 -1.804 -1.432 4.208
 -1.847 -1.488 4.382
 -1.814 -1.484 4.381
 -1.781 -1.48 4.379
 -1.751 -1.478 4.383
 -1.72 -1.475 4.384
 -1.688 -1.471 4.381
 -1.658 -1.469 4.383
 -1.626 -1.466 4.382
 -1.596 -1.463 4.382
 -1.565 -1.46 4.381
 -1.535 -1.458 4.381
 -1.502 -1.452 4.373
 -1.472 -1.45 4.374
 -1.442 -1.447 4.372
 -1.411 -1.443 4.368
 -1.381 -1.441 4.367
 -1.352 -1.439 4.367
 -1.323 -1.436 4.366
 -1.293 -1.433 4.363
 -1.262 -1.428 4.356
 -1.234 -1.427 4.357
 -1.206 -1.425 4.359
 -1.177 -1.423 4.356
 -1.148 -1.42 4.352
 -1.122 -1.42 4.359
 -1.094 -1.418 4.359
 -1.065 -1.416 4.356
 -1.037 -1.413 4.354
 -1.01 -1.412 4.355
 -0.982 -1.41 4.354
 -0.954 -1.408 4.352
 -0.926 -1.406 4.349
 -0.899 -1.405 4.35
 -0.871 -1.403 4.347
 -0.844 -1.401 4.347
 -0.817 -1.4 4.348
 -0.791 -1.4 4.35
 -0.764 -1.399 4.35
 -0.738 -1.4 4.356
 -0.711 -1.397 4.352
 -0.684 -1.395 4.347
 -0.657 -1.393 4.344
 -0.629 -1.39 4.338
 -0.603 -1.388 4.335
 -0.577 -1.388 4.338
 -0.55 -1.387 4.336
 -0.524 -1.385 4.331
 -0.498 -1.384 4.332
 -0.47 -1.38 4.32
 -0.444 -1.378 4.315
 -0.417 -1.375 4.31
 -0.391 -1.374 4.307
 -0.366 -1.374 4.309
 -0.34 -1.375 4.313
 -0.315 -1.376 4.315
 -0.289 -1.376 4.318
 -0.264 -1.377 4.321
 -0.238 -1.376 4.32
 -0.212 -1.375 4.318
 -0.186 -1.374 4.314
 -0.161 -1.374 4.314
 -0.135 -1.373 4.312
 -0.109 -1.371 4.306
 -0.084 -1.37 4.302
 -0.058 -1.37 4.302
 -0.033 -1.369 4.299
 -0.007 -1.368 4.297
 0.017 -1.369 4.3
 0.043 -1.372 4.309
 0.068 -1.372 4.306
 0.094 -1.371 4.303
 0.119 -1.372 4.305
 0.145 -1.37 4.299
 0.17 -1.371 4.3
 0.196 -1.373 4.305
 0.222 -1.374 4.308
 0.247 -1.374 4.304
 0.273 -1.376 4.31
 0.298 -1.375 4.305
 0.324 -1.375 4.304
 0.349 -1.373 4.296
 0.375 -1.375 4.299
 0.401 -1.376 4.299
 0.426 -1.376 4.296
 0.451 -1.374 4.289
 0.477 -1.375 4.29
 0.502 -1.375 4.286
 0.528 -1.375 4.284
 0.554 -1.378 4.289
 0.581 -1.38 4.293
 0.607 -1.381 4.294
 0.633 -1.383 4.295
 0.659 -1.382 4.29
 0.684 -1.381 4.283
 0.71 -1.382 4.281
 0.736 -1.383 4.28
 0.762 -1.384 4.279
 0.789 -1.386 4.281
 0.816 -1.388 4.285
 0.842 -1.39 4.284
 0.869 -1.391 4.284
 0.896 -1.394 4.288
 0.924 -1.397 4.293
 0.95 -1.397 4.287
 0.975 -1.396 4.28
 1.002 -1.397 4.277
 1.027 -1.397 4.27
 1.053 -1.397 4.264
 1.08 -1.399 4.265
 1.108 -1.401 4.265
 1.135 -1.403 4.265
 1.163 -1.405 4.265
 1.19 -1.407 4.264
 1.217 -1.407 4.259
 1.244 -1.409 4.257
 1.272 -1.411 4.255
 1.3 -1.413 4.254
 1.327 -1.415 4.252
 1.356 -1.417 4.252
 1.383 -1.419 4.25
 1.411 -1.42 4.246
 1.439 -1.422 4.244
 1.469 -1.426 4.246
 1.497 -1.427 4.242
 1.526 -1.43 4.24
 1.555 -1.432 4.24
 1.584 -1.435 4.238
 1.612 -1.436 4.232
 1.642 -1.439 4.233
 1.672 -1.442 4.231
 1.699 -1.443 4.225
 1.729 -1.446 4.222
 1.757 -1.447 4.217
 1.784 -1.447 4.205
 1.81 -1.447 4.194
 1.836 -1.446 4.182
 1.858 -1.443 4.162
 1.88 -1.439 4.141
 0 0 0
 0 0 0
 0 0 0
 0 0 0
 0 0 0
 0 0 0
 0 0 0
 0 0 0
 0 0 0
 0 0 0
 1.329 -0.883 2.451
 1.572 -1.031 2.856
 1.655 -1.072 2.961
 1.781 -1.14 3.139
 1.786 -1.131 3.102
 1.785 -1.117 3.054
 1.765 -1.092 2.974
 1.755 -1.074 2.913
 -0.151 -0.093 0.248
 -0.121 -0.076 0.2
 -0.1 -0.064 0.166
 -0.09 -0.058 0.15
 -0.081 -0.053 0.135
 -0.071 -0.047 0.12
 -0.064 -0.043 0.109
 -0.058 -0.04 0.099
 -0.051 -0.035 0.086
 -0.129 -0.088 0.243
 -0.291 -0.201 0.575
 -0.367 -0.256 0.739
 -0.438 -0.31 0.9
 -0.756 -0.541 1.589
 -0.985 -0.714 2.109
 -1.128 -0.829 2.457
 -1.423 -1.061 3.157
 -1.71 -1.293 3.86
 -1.757 -1.348 4.035
 -1.802 -1.403 4.21
 -1.845 -1.458 4.386
 -1.812 -1.454 4.384
 -1.779 -1.45 4.381
 -1.749 -1.449 4.386
 -1.718 -1.446 4.387
 -1.686 -1.442 4.384
 -1.655 -1.439 4.384
 -1.624 -1.436 4.383
 -1.593 -1.433 4.382
 -1.561 -1.43 4.379
 -1.531 -1.427 4.378
 -1.499 -1.422 4.372
 -1.469 -1.42 4.372
 -1.438 -1.416 4.368
 -1.409 -1.414 4.368
 -1.379 -1.411 4.367
 -1.35 -1.41 4.369
 -1.321 -1.407 4.368
 -1.292 -1.405 4.368
 -1.261 -1.401 4.36
 -1.234 -1.399 4.363
 -1.206 -1.398 4.365
 -1.177 -1.396 4.364
 -1.148 -1.393 4.359
 -1.122 -1.393 4.367
 -1.093 -1.391 4.365
 -1.064 -1.388 4.361
 -1.036 -1.386 4.358
 -1.009 -1.386 4.362
 -0.981 -1.384 4.36
 -0.953 -1.381 4.356
 -0.925 -1.379 4.354
 -0.898 -1.377 4.352
 -0.87 -1.375 4.349
 -0.843 -1.374 4.35
 -0.817 -1.373 4.352
 -0.79 -1.372 4.353
 -0.763 -1.371 4.353
 -0.738 -1.372 4.359
 -0.71 -1.369 4.353
 -0.683 -1.367 4.348
 -0.656 -1.366 4.348
 -0.629 -1.364 4.346
 -0.602 -1.362 4.34
 -0.576 -1.362 4.343
 -0.55 -1.36 4.34
 -0.523 -1.358 4.337
 -0.497 -1.358 4.336
 -0.469 -1.353 4.322
 -0.443 -1.349 4.313
 -0.416 -1.347 4.308
 -0.39 -1.345 4.303
 -0.365 -1.346 4.306
 -0.339 -1.347 4.31
 -0.314 -1.348 4.316
 -0.288 -1.347 4.315
 -0.263 -1.347 4.316
 -0.237 -1.347 4.315
 -0.211 -1.347 4.315
 -0.186 -1.344 4.309
 -0.16 -1.344 4.309
 -0.134 -1.344 4.308
 -0.109 -1.343 4.306
 -0.083 -1.341 4.299
 -0.058 -1.341 4.3
 -0.032 -1.342 4.3
 -0.007 -1.341 4.298
 0.017 -1.34 4.295
 0.043 -1.345 4.31
 0.068 -1.345 4.31
 0.094 -1.344 4.305
 0.119 -1.344 4.305
 0.145 -1.343 4.299
 0.17 -1.344 4.302
 0.196 -1.347 4.311
 0.222 -1.348 4.312
 0.247 -1.346 4.305
 0.273 -1.349 4.313
 0.298 -1.348 4.307
 0.324 -1.347 4.303
 0.349 -1.346 4.298
 0.375 -1.349 4.304
 0.401 -1.349 4.304
 0.426 -1.35 4.304
 0.452 -1.349 4.298
 0.477 -1.349 4.296
 0.503 -1.35 4.295
 0.528 -1.349 4.29
 0.554 -1.351 4.291
 0.58 -1.351 4.291
 0.606 -1.354 4.295
 0.632 -1.354 4.293
 0.658 -1.354 4.289
