 -1.683 -1.612 3.677
 -1.675 -1.628 3.724
 -1.648 -1.626 3.727
 -1.62 -1.623 3.73
 -1.596 -1.623 3.74
 -1.577 -1.629 3.762
 -1.531 -1.606 3.718
 -1.544 -1.646 3.818
 -1.501 -1.626 3.781
 -1.474 -1.623 3.783
 -1.457 -1.632 3.811
 -1.441 -1.642 3.841
 -1.417 -1.643 3.853
 -1.351 -1.595 3.746
 -1.364 -1.639 3.857
 -1.34 -1.64 3.867
 -1.289 -1.607 3.796
 -1.272 -1.617 3.826
 -1.253 -1.623 3.848
 -1.241 -1.639 3.893
 -1.215 -1.638 3.898
 -1.17 -1.611 3.838
 -1.132 -1.592 3.798
 -1.126 -1.617 3.864
 -1.113 -1.633 3.91
 -1.062 -1.594 3.822
 -1.054 -1.619 3.887
 -1.023 -1.607 3.864
 -1.006 -1.619 3.898
 -0.977 -1.611 3.885
 -0.967 -1.637 3.951
 -0.94 -1.632 3.943
 -0.901 -1.607 3.888
 -0.891 -1.633 3.956
 -0.862 -1.624 3.937
 -0.832 -1.613 3.916
 -0.803 -1.605 3.899
 -0.784 -1.614 3.926
 -0.769 -1.634 3.98
 -0.733 -1.609 3.921
 -0.715 -1.624 3.961
 -0.681 -1.601 3.909
 -0.654 -1.594 3.894
 -0.638 -1.614 3.946
 -0.615 -1.616 3.956
 -0.601 -1.645 4.03
 -0.569 -1.625 3.983
 -0.553 -1.648 4.043
 -0.512 -1.598 3.921
 -0.491 -1.608 3.949
 -0.469 -1.615 3.967
 -0.45 -1.636 4.022
 -0.421 -1.617 3.976
 -0.401 -1.637 4.027
 -0.369 -1.604 3.949
 -0.352 -1.634 4.024
 -0.321 -1.604 3.952
 -0.299 -1.612 3.972
 -0.277 -1.627 4.011
 -0.251 -1.619 3.991
 -0.226 -1.614 3.981
 -0.201 -1.604 3.956
 -0.178 -1.617 3.988
 -0.155 -1.624 4.007
 -0.129 -1.611 3.975
 -0.107 -1.635 4.034
 -0.082 -1.627 4.015
 -0.057 -1.623 4.005
 -0.033 -1.622 4.002
 -0.009 -1.607 3.966
 0.014 -1.611 3.975
 0.039 -1.62 3.998
 0.063 -1.616 3.986
 0.086 -1.596 3.936
 0.112 -1.634 4.029
 0.135 -1.617 3.986
 0.159 -1.616 3.982
 0.186 -1.639 4.039
 0.209 -1.624 4
 0.231 -1.611 3.967
 0.259 -1.637 4.031
 0.278 -1.602 3.942
 0.301 -1.601 3.936
 0.326 -1.606 3.948
 0.355 -1.629 4.002
 0.376 -1.613 3.959
 0.395 -1.592 3.907
 0.425 -1.617 3.965
 0.449 -1.614 3.957
 0.474 -1.62 3.968
 0.496 -1.611 3.942
 0.529 -1.638 4.006
 0.55 -1.628 3.979
 0.569 -1.616 3.945
 0.595 -1.618 3.948
 0.612 -1.601 3.903
 0.652 -1.641 3.995
 0.669 -1.623 3.948
 0.688 -1.612 3.917
 0.72 -1.63 3.958
 0.74 -1.621 3.931
 0.766 -1.624 3.935
 0.791 -1.625 3.933
 0.806 -1.607 3.884
 0.831 -1.609 3.884
 0.871 -1.64 3.955
 0.876 -1.605 3.865
 0.902 -1.608 3.867
 0.926 -1.608 3.863
 0.955 -1.617 3.879
 0.98 -1.618 3.876
 1.003 -1.617 3.867
 1.038 -1.634 3.901
 1.062 -1.634 3.896
 1.093 -1.643 3.911
 1.11 -1.632 3.879
 1.149 -1.654 3.925
 1.167 -1.645 3.896
 1.188 -1.64 3.878
 1.205 -1.63 3.846
 1.237 -1.64 3.864
 1.254 -1.63 3.834
 1.294 -1.651 3.875
 1.318 -1.65 3.865
 1.346 -1.654 3.866
 1.352 -1.632 3.807
 1.387 -1.645 3.83
 1.402 -1.633 3.794
 1.449 -1.66 3.848
 1.445 -1.627 3.763
 1.488 -1.649 3.805
 1.508 -1.644 3.783
 1.541 -1.653 3.797
 1.553 -1.64 3.756
 1.578 -1.64 3.748
 1.602 -1.64 3.738
 1.626 -1.64 3.729
 1.666 -1.655 3.753
 1.69 -1.655 3.742
 1.684 -1.625 3.665
 1.737 -1.653 3.717
 1.743 -1.636 3.668
 1.794 -1.661 3.713
 1.778 -1.624 3.62
 1.782 -1.605 3.568
 1.792 -1.593 3.53
 1.809 -1.588 3.506
 1.778 -1.54 3.391
 1.792 -1.533 3.364
 1.784 -1.507 3.296
 1.798 -1.501 3.271
 1.779 -1.466 3.185
 1.777 -1.447 3.133
 1.761 -1.417 3.056
 1.767 -1.405 3.02
 1.75 -1.376 2.946
 1.774 -1.378 2.94
 1.753 -1.347 2.862
 1.74 -1.322 2.798
 -2.153 -1.63 3.596
 -2.121 -1.624 3.595
 -2.096 -1.624 3.609
 -2.04 -1.6 3.565
 -2.013 -1.598 3.573
 -2.017 -1.621 3.636
 -1.98 -1.611 3.626
 -1.985 -1.635 3.692
 -1.944 -1.622 3.674
 -1.927 -1.629 3.7
 -1.899 -1.627 3.706
 -1.875 -1.628 3.719
 -1.849 -1.627 3.727
 -1.827 -1.63 3.744
 -1.799 -1.627 3.748
 -1.77 -1.623 3.75
 -1.749 -1.627 3.769
 -1.742 -1.644 3.817
 -1.694 -1.622 3.777
 -1.668 -1.621 3.783
 -1.648 -1.626 3.804
 -1.626 -1.628 3.819
 -1.588 -1.615 3.797
 -1.562 -1.614 3.803
 -1.547 -1.625 3.836
 -1.513 -1.614 3.821
 -1.491 -1.618 3.838
 -1.494 -1.649 3.919
 -1.44 -1.617 3.85
 -1.403 -1.603 3.825
 -1.403 -1.631 3.899
 -1.375 -1.628 3.9
 -1.339 -1.614 3.874
 -1.345 -1.652 3.974
 -1.289 -1.614 3.888
 -1.263 -1.612 3.89
 -1.243 -1.618 3.91
 -1.213 -1.611 3.901
 -1.191 -1.614 3.915
 -1.178 -1.631 3.962
 -1.144 -1.618 3.937
 -1.127 -1.629 3.968
 -1.084 -1.602 3.909
 -1.058 -1.6 3.91
 -1.023 -1.584 3.876
 -1.025 -1.626 3.984
 -1.008 -1.638 4.019
 -0.966 -1.611 3.956
 -0.943 -1.613 3.968
 -0.908 -1.595 3.927
 -0.898 -1.621 3.996
 -0.866 -1.608 3.968
 -0.843 -1.611 3.979
 -0.815 -1.604 3.966
 -0.789 -1.6 3.961
 -0.774 -1.62 4.013
 -0.746 -1.614 4.004
 -0.729 -1.63 4.046
 -0.703 -1.628 4.044
 -0.676 -1.622 4.032
 -0.642 -1.601 3.983
 -0.62 -1.605 3.996
 -0.599 -1.614 4.023
 -0.581 -1.633 4.073
 -0.542 -1.592 3.972
 -0.525 -1.616 4.036
 -0.502 -1.621 4.049
 -0.478 -1.622 4.055
 -0.448 -1.604 4.012
 -0.425 -1.611 4.031
 -0.397 -1.595 3.993
 -0.379 -1.624 4.066
 -0.353 -1.617 4.05
 -0.33 -1.624 4.07
 -0.307 -1.635 4.1
 -0.282 -1.63 4.088
 -0.256 -1.625 4.076
 -0.23 -1.618 4.061
 -0.205 -1.616 4.056
 -0.181 -1.618 4.062
 -0.157 -1.627 4.083
 -0.133 -1.637 4.111
 -0.108 -1.627 4.086
 -0.082 -1.611 4.046
 -0.058 -1.614 4.052
 -0.033 -1.61 4.043
 -0.009 -1.619 4.064
 0.015 -1.629 4.09
 0.04 -1.636 4.106
 0.064 -1.614 4.05
 0.088 -1.605 4.026
 0.112 -1.605 4.028
 0.138 -1.62 4.064
 0.162 -1.612 4.042
 0.187 -1.621 4.063
 0.21 -1.609 4.033
 0.233 -1.6 4.008
 0.261 -1.619 4.054
 0.286 -1.625 4.068
 0.308 -1.609 4.025
 0.336 -1.629 4.073
 0.357 -1.612 4.03
 0.384 -1.622 4.051
 0.406 -1.61 4.019
 0.434 -1.623 4.051
 0.455 -1.611 4.018
 0.483 -1.623 4.045
 0.504 -1.614 4.018
 0.53 -1.618 4.026
 0.557 -1.625 4.04
 0.578 -1.616 4.015
 0.601 -1.612 4
 0.622 -1.601 3.97
 0.66 -1.637 4.057
 0.696 -1.662 4.116
 0.7 -1.614 3.99
 0.728 -1.621 4.005
 0.748 -1.611 3.977
 0.786 -1.641 4.046
 0.796 -1.61 3.965
 0.83 -1.631 4.011
 0.857 -1.633 4.013
 0.881 -1.633 4.007
 0.894 -1.612 3.951
 0.928 -1.629 3.986
 0.949 -1.623 3.967
 0.98 -1.633 3.987
 1.015 -1.651 4.023
 1.03 -1.635 3.98
 1.061 -1.645 3.996
 1.079 -1.634 3.965
 1.098 -1.626 3.939
 1.131 -1.638 3.962
 1.143 -1.62 3.91
 1.195 -1.658 3.997
 1.188 -1.615 3.885
 1.227 -1.635 3.926
 1.245 -1.625 3.897
 1.292 -1.654 3.958
 1.312 -1.648 3.937
 1.309 -1.614 3.847
 1.35 -1.634 3.887
 1.397 -1.661 3.944
 1.404 -1.64 3.886
 1.418 -1.628 3.848
 1.446 -1.631 3.848
 1.486 -1.649 3.88
 1.508 -1.646 3.864
 1.536 -1.649 3.864
 1.553 -1.641 3.834
 1.583 -1.646 3.838
 1.623 -1.662 3.864
 1.637 -1.651 3.829
 1.652 -1.641 3.798
 1.671 -1.635 3.773
 1.695 -1.635 3.764
 1.719 -1.635 3.752
 1.75 -1.64 3.754
 1.759 -1.626 3.71
 1.793 -1.635 3.72
 1.822 -1.639 3.719
 1.793 -1.592 3.6
 1.851 -1.621 3.657
 1.851 -1.6 3.597
 1.832 -1.563 3.504
 1.798 -1.515 3.384
 1.832 -1.524 3.394
 1.784 -1.466 3.253
 1.776 -1.442 3.188
 1.794 -1.439 3.171
 1.819 -1.442 3.166
 1.789 -1.402 3.067
 1.745 -1.351 2.945
 1.769 -1.354 2.941
 1.757 -1.33 2.876
 1.761 -1.318 2.839
 -2.186 -1.629 3.66
 -2.147 -1.619 3.65
 -2.122 -1.619 3.662
 -2.1 -1.621 3.68
 -2.076 -1.623 3.695
 -2.054 -1.626 3.714
 -2.033 -1.629 3.733
 -2.009 -1.63 3.748
 -1.98 -1.627 3.753
 -1.954 -1.627 3.762
 -1.925 -1.624 3.766
 -1.902 -1.626 3.783
 -1.879 -1.628 3.797
 -1.856 -1.63 3.813
 -1.831 -1.631 3.826
 -1.808 -1.632 3.84
 -1.779 -1.63 3.843
 -1.751 -1.626 3.846
 -1.724 -1.625 3.853
 -1.698 -1.625 3.861
 -1.672 -1.625 3.87
 -1.646 -1.623 3.876
 -1.621 -1.624 3.887
 -1.593 -1.621 3.889
 -1.566 -1.62 3.894
 -1.541 -1.62 3.903
 -1.518 -1.621 3.915
 -1.491 -1.62 3.921
 -1.467 -1.621 3.931
 -1.442 -1.622 3.94
 -1.416 -1.621 3.946
 -1.391 -1.621 3.953
 -1.365 -1.62 3.959
 -1.339 -1.62 3.965
 -1.313 -1.619 3.97
 -1.287 -1.618 3.974
 -1.261 -1.616 3.977
 -1.235 -1.615 3.98
 -1.21 -1.616 3.989
 -1.185 -1.615 3.994
 -1.158 -1.613 3.995
 -1.132 -1.612 3.997
 -1.105 -1.609 3.995
 -1.079 -1.608 3.998
 -1.055 -1.609 4.007
 -1.031 -1.61 4.014
 -1.007 -1.612 4.026
 -0.984 -1.615 4.037
 -0.958 -1.614 4.04
 -0.933 -1.614 4.045
 -0.908 -1.613 4.048
 -0.882 -1.612 4.049
 -0.857 -1.612 4.054
 -0.833 -1.615 4.064
 -0.807 -1.612 4.062
 -0.783 -1.614 4.069
 -0.759 -1.616 4.078
 -0.733 -1.615 4.081
 -0.707 -1.612 4.076
 -0.683 -1.614 4.085
 -0.658 -1.614 4.088
 -0.632 -1.613 4.088
 -0.608 -1.615 4.095
 -0.583 -1.615 4.1
 -0.558 -1.615 4.1
 -0.533 -1.614 4.101
 -0.508 -1.614 4.103
 -0.482 -1.612 4.101
 -0.457 -1.612 4.104
 -0.432 -1.613 4.107
 -0.408 -1.614 4.111
 -0.383 -1.614 4.113
 -0.358 -1.616 4.121
 -0.333 -1.617 4.123
 -0.308 -1.617 4.126
 -0.283 -1.617 4.126
 -0.258 -1.614 4.12
 -0.233 -1.612 4.115
 -0.208 -1.612 4.116
 -0.183 -1.61 4.113
 -0.158 -1.613 4.12
 -0.133 -1.614 4.124
 -0.108 -1.615 4.126
 -0.083 -1.613 4.122
 -0.058 -1.613 4.121
 -0.034 -1.61 4.113
 -0.009 -1.611 4.117
 0.015 -1.613 4.121
 0.04 -1.613 4.121
 0.065 -1.613 4.119
 0.09 -1.613 4.119
 0.115 -1.611 4.114
 0.14 -1.612 4.115
 0.164 -1.612 4.114
 0.189 -1.612 4.112
 0.214 -1.614 4.116
 0.239 -1.614 4.115
 0.264 -1.612 4.107
 0.289 -1.614 4.11
 0.314 -1.616 4.115
 0.339 -1.616 4.111
 0.363 -1.612 4.101
 0.388 -1.615 4.105
 0.413 -1.614 4.102
 0.438 -1.615 4.1
 0.462 -1.613 4.092
 0.488 -1.616 4.099
 0.513 -1.615 4.094
 0.538 -1.616 4.093
 0.563 -1.616 4.088
 0.587 -1.616 4.084
 0.613 -1.617 4.084
 0.638 -1.619 4.085
 0.663 -1.618 4.079
 0.688 -1.618 4.077
 0.714 -1.621 4.078
 0.739 -1.621 4.076
 0.763 -1.619 4.066
 0.788 -1.621 4.066
 0.814 -1.621 4.063
 0.84 -1.624 4.065
 0.864 -1.622 4.055
 0.889 -1.622 4.051
 0.914 -1.622 4.045
 0.939 -1.622 4.04
 0.963 -1.622 4.035
 0.99 -1.624 4.034
 1.016 -1.626 4.034
 1.041 -1.627 4.03
 1.067 -1.629 4.029
 1.093 -1.629 4.024
 1.119 -1.632 4.022
 1.146 -1.635 4.024
 1.173 -1.637 4.022
 1.198 -1.638 4.017
 1.224 -1.638 4.011
 1.25 -1.639 4.007
 1.274 -1.638 3.997
 1.3 -1.639 3.991
 1.324 -1.638 3.982
 1.349 -1.638 3.975
 1.375 -1.639 3.969
 1.4 -1.639 3.959
 1.425 -1.639 3.953
 1.451 -1.64 3.947
 1.477 -1.641 3.941
 1.501 -1.64 3.928
 1.526 -1.64 3.92
 1.551 -1.639 3.91
 1.575 -1.638 3.898
 1.6 -1.638 3.887
 1.625 -1.639 3.88
 1.65 -1.638 3.868
 1.674 -1.637 3.857
 1.7 -1.638 3.848
 1.726 -1.639 3.84
 1.747 -1.635 3.821
 1.769 -1.633 3.805
 1.789 -1.628 3.783
 1.802 -1.618 3.748
 1.812 -1.605 3.707
 1.818 -1.589 3.66
 1.816 -1.566 3.597
 1.815 -1.545 3.537
 1.815 -1.526 3.481
 1.812 -1.504 3.42
 1.789 -1.466 3.323
 1.777 -1.439 3.249
 1.769 -1.415 3.185
 1.769 -1.398 3.135
 1.77 -1.382 3.089
 1.772 -1.367 3.044
 1.77 -1.349 2.995
 1.765 -1.33 2.941
 1.775 -1.323 2.914
 1.744 -1.286 2.821
 -2.198 -1.612 3.69
 -2.178 -1.617 3.713
 -2.154 -1.618 3.728
 -2.13 -1.619 3.744
 -2.106 -1.62 3.758
 -2.083 -1.622 3.775
 -2.059 -1.624 3.791
 -2.035 -1.625 3.805
 -2.008 -1.624 3.815
 -1.983 -1.626 3.829
 -1.953 -1.622 3.832
 -1.931 -1.625 3.849
 -1.907 -1.626 3.864
 -1.882 -1.627 3.878
 -1.854 -1.626 3.884
 -1.832 -1.628 3.901
 -1.802 -1.625 3.903
 -1.774 -1.623 3.907
 -1.748 -1.622 3.917
 -1.723 -1.623 3.928
 -1.695 -1.621 3.933
 -1.669 -1.621 3.941
 -1.643 -1.621 3.95
 -1.615 -1.618 3.952
 -1.588 -1.616 3.957
 -1.562 -1.616 3.965
 -1.537 -1.617 3.976
 -1.51 -1.616 3.981
 -1.486 -1.617 3.992
 -1.46 -1.617 4
 -1.434 -1.616 4.006
 -1.409 -1.617 4.016
 -1.385 -1.618 4.026
 -1.358 -1.617 4.029
 -1.331 -1.615 4.033
 -1.305 -1.614 4.037
 -1.277 -1.612 4.038
 -1.251 -1.611 4.043
 -1.227 -1.612 4.052
 -1.201 -1.612 4.058
 -1.175 -1.612 4.063
 -1.149 -1.611 4.066
 -1.12 -1.606 4.06
 -1.095 -1.605 4.065
 -1.071 -1.607 4.075
 -1.045 -1.607 4.079
 -1.02 -1.608 4.087
 -0.997 -1.611 4.099
 -0.97 -1.609 4.099
 -0.944 -1.608 4.103
 -0.919 -1.608 4.108
 -0.894 -1.608 4.112
 -0.868 -1.609 4.118
 -0.844 -1.611 4.127
 -0.818 -1.608 4.125
 -0.793 -1.61 4.132
 -0.769 -1.612 4.142
 -0.743 -1.612 4.145
 -0.717 -1.61 4.143
 -0.692 -1.611 4.149
 -0.666 -1.61 4.149
 -0.64 -1.608 4.148
 -0.615 -1.607 4.15
 -0.59 -1.609 4.156
 -0.564 -1.609 4.158
 -0.539 -1.608 4.159
 -0.513 -1.607 4.16
 -0.488 -1.607 4.161
 -0.462 -1.606 4.16
 -0.437 -1.607 4.164
 -0.412 -1.608 4.169
 -0.387 -1.609 4.173
 -0.363 -1.611 4.182
 -0.338 -1.612 4.186
 -0.312 -1.612 4.187
 -0.287 -1.612 4.186
 -0.261 -1.609 4.181
 -0.235 -1.606 4.174
 -0.21 -1.606 4.173
 -0.185 -1.604 4.171
 -0.16 -1.606 4.175
 -0.135 -1.606 4.176
 -0.109 -1.607 4.178
 -0.084 -1.606 4.176
 -0.059 -1.606 4.176
 -0.034 -1.604 4.172
 -0.009 -1.606 4.176
 0.016 -1.607 4.179
 0.041 -1.607 4.179
 0.066 -1.605 4.172
 0.091 -1.605 4.171
 0.116 -1.604 4.167
 0.141 -1.604 4.167
 0.166 -1.603 4.164
 0.191 -1.605 4.166
 0.217 -1.605 4.166
 0.242 -1.606 4.167
 0.267 -1.604 4.162
 0.292 -1.607 4.167
 0.318 -1.609 4.17
 0.343 -1.611 4.172
 0.368 -1.608 4.163
 0.394 -1.611 4.168
 0.419 -1.61 4.163
 0.444 -1.61 4.162
 0.469 -1.608 4.154
 0.494 -1.611 4.157
 0.519 -1.61 4.152
 0.545 -1.611 4.153
 0.57 -1.61 4.147
 0.595 -1.61 4.142
 0.62 -1.611 4.142
 0.646 -1.612 4.142
 0.671 -1.612 4.137
 0.696 -1.613 4.135
 0.723 -1.615 4.137
 0.748 -1.616 4.136
 0.773 -1.614 4.127
 0.799 -1.616 4.126
 0.825 -1.617 4.126
 0.851 -1.619 4.126
 0.876 -1.619 4.12
 0.902 -1.621 4.12
 0.927 -1.621 4.115
 0.953 -1.621 4.109
 0.978 -1.622 4.106
 1.005 -1.623 4.104
 1.03 -1.624 4.1
 1.056 -1.624 4.095
 1.082 -1.625 4.092
 1.108 -1.626 4.088
 1.133 -1.627 4.083
 1.161 -1.63 4.083
 1.187 -1.631 4.08
 1.213 -1.632 4.076
 1.239 -1.632 4.069
 1.266 -1.634 4.068
 1.291 -1.634 4.058
 1.317 -1.635 4.054
 1.342 -1.634 4.044
 1.368 -1.635 4.038
 1.394 -1.635 4.031
 1.419 -1.635 4.022
 1.444 -1.635 4.014
 1.472 -1.638 4.012
 1.497 -1.637 4.001
 1.521 -1.635 3.988
 1.546 -1.636 3.98
 1.572 -1.636 3.972
 1.595 -1.633 3.956
 1.62 -1.633 3.946
 1.647 -1.635 3.941
 1.671 -1.634 3.928
 1.695 -1.632 3.913
 1.722 -1.634 3.908
 1.747 -1.633 3.896
 1.766 -1.627 3.872
 1.786 -1.623 3.851
 1.805 -1.618 3.828
 1.814 -1.604 3.783
 1.823 -1.59 3.739
 1.828 -1.573 3.689
 1.828 -1.552 3.629
 1.826 -1.531 3.567
 1.828 -1.513 3.514
 1.825 -1.491 3.452
 1.79 -1.445 3.334
 1.774 -1.413 3.251
 1.766 -1.39 3.187
 1.768 -1.375 3.141
 1.772 -1.362 3.1
 1.774 -1.348 3.056
 1.771 -1.329 3.004
 1.766 -1.311 2.952
 1.779 -1.305 2.928
 1.771 -1.285 2.872
 -2.232 -1.612 3.758
 -2.214 -1.617 3.784
 -2.187 -1.616 3.795
 -2.163 -1.618 3.811
 -2.138 -1.619 3.826
 -2.113 -1.62 3.841
 -2.089 -1.622 3.857
 -2.063 -1.622 3.869
 -2.036 -1.621 3.879
 -2.013 -1.623 3.896
 -1.983 -1.621 3.901
 -1.96 -1.623 3.918
 -1.935 -1.624 3.931
 -1.91 -1.625 3.945
 -1.88 -1.622 3.948
 -1.857 -1.625 3.965
 -1.827 -1.621 3.967
 -1.799 -1.62 3.973
 -1.774 -1.621 3.985
 -1.749 -1.622 3.997
 -1.722 -1.621 4.005
 -1.696 -1.621 4.014
 -1.668 -1.619 4.02
 -1.639 -1.616 4.02
 -1.611 -1.614 4.024
 -1.582 -1.611 4.026
 -1.556 -1.611 4.035
 -1.53 -1.611 4.043
 -1.504 -1.611 4.05
 -1.478 -1.611 4.059
 -1.453 -1.612 4.07
 -1.427 -1.612 4.076
 -1.401 -1.612 4.084
 -1.375 -1.612 4.09
 -1.348 -1.611 4.095
 -1.322 -1.61 4.1
 -1.295 -1.609 4.105
 -1.268 -1.607 4.108
 -1.243 -1.608 4.115
 -1.217 -1.607 4.12
 -1.191 -1.607 4.126
 -1.164 -1.607 4.131
 -1.137 -1.604 4.13
 -1.111 -1.604 4.134
 -1.086 -1.605 4.142
 -1.059 -1.604 4.146
 -1.034 -1.604 4.153
 -1.01 -1.606 4.163
 -0.982 -1.604 4.162
 -0.957 -1.604 4.168
 -0.931 -1.604 4.17
 -0.905 -1.603 4.173
 -0.88 -1.604 4.181
 -0.855 -1.606 4.19
 -0.828 -1.603 4.187
 -0.803 -1.604 4.193
 -0.778 -1.606 4.2
 -0.751 -1.603 4.196
 -0.724 -1.601 4.196
 -0.699 -1.602 4.202
 -0.673 -1.602 4.204
 -0.647 -1.6 4.202
 -0.622 -1.601 4.209
 -0.597 -1.602 4.213
 -0.57 -1.6 4.212
 -0.544 -1.599 4.21
 -0.519 -1.599 4.213
 -0.493 -1.597 4.21
 -0.467 -1.597 4.213
 -0.442 -1.599 4.218
 -0.417 -1.6 4.223
 -0.391 -1.6 4.226
 -0.366 -1.602 4.232
 -0.34 -1.601 4.23
 -0.315 -1.6 4.23
 -0.289 -1.6 4.23
 -0.263 -1.597 4.223
 -0.237 -1.593 4.216
 -0.212 -1.593 4.216
 -0.186 -1.592 4.212
 -0.161 -1.592 4.214
 -0.135 -1.593 4.216
 -0.11 -1.595 4.221
 -0.085 -1.594 4.22
 -0.059 -1.595 4.222
 -0.034 -1.594 4.219
 -0.009 -1.594 4.219
 0.016 -1.594 4.22
 0.041 -1.595 4.221
 0.067 -1.593 4.215
 0.092 -1.593 4.215
 0.117 -1.593 4.215
 0.143 -1.594 4.214
 0.168 -1.593 4.212
 0.193 -1.594 4.214
 0.219 -1.595 4.214
 0.244 -1.595 4.213
 0.269 -1.594 4.208
 0.295 -1.595 4.21
 0.321 -1.597 4.214
 0.346 -1.599 4.215
 0.371 -1.597 4.208
 0.397 -1.599 4.211
 0.423 -1.599 4.209
 0.448 -1.599 4.206
 0.473 -1.597 4.199
 0.499 -1.599 4.203
 0.524 -1.599 4.198
 0.55 -1.6 4.198
 0.575 -1.599 4.193
 0.601 -1.6 4.192
 0.626 -1.6 4.189
 0.652 -1.6 4.185
 0.677 -1.601 4.182
 0.703 -1.601 4.18
 0.729 -1.603 4.18
 0.755 -1.605 4.18
 0.781 -1.605 4.177
 0.806 -1.606 4.174
 0.832 -1.607 4.172
 0.858 -1.608 4.17
 0.884 -1.608 4.167
 0.911 -1.61 4.166
 0.936 -1.61 4.162
 0.962 -1.611 4.158
 0.988 -1.611 4.152
 1.014 -1.612 4.151
 1.04 -1.613 4.147
 1.066 -1.614 4.143
 1.093 -1.616 4.141
 1.119 -1.617 4.138
 1.146 -1.618 4.135
 1.173 -1.62 4.134
 1.2 -1.623 4.133
 1.227 -1.624 4.129
 1.253 -1.625 4.126
 1.28 -1.627 4.122
 1.307 -1.628 4.117
 1.334 -1.629 4.113
 1.36 -1.629 4.106
 1.385 -1.629 4.097
 1.411 -1.63 4.09
 1.437 -1.63 4.083
 1.463 -1.63 4.075
 1.491 -1.632 4.072
 1.517 -1.633 4.065
 1.542 -1.632 4.053
 1.567 -1.632 4.044
 1.593 -1.631 4.034
 1.615 -1.628 4.016
 1.641 -1.628 4.006
 1.668 -1.63 4.001
 1.693 -1.629 3.988
 1.716 -1.626 3.971
 1.743 -1.627 3.964
 1.766 -1.625 3.949
 1.783 -1.618 3.92
 1.8 -1.61 3.89
 1.816 -1.602 3.859
 1.824 -1.587 3.813
 1.832 -1.573 3.767
 1.836 -1.555 3.714
 1.837 -1.535 3.655
 1.837 -1.516 3.597
 1.835 -1.495 3.536
 1.827 -1.469 3.465
 1.782 -1.415 3.327
 1.753 -1.375 3.221
 1.746 -1.353 3.158
 1.756 -1.344 3.128
 1.765 -1.335 3.095
 1.77 -1.323 3.056
 1.771 -1.309 3.013
 1.768 -1.292 2.962
 1.781 -1.287 2.94
 1.76 -1.257 2.861
 -2.264 -1.609 3.822
 -2.235 -1.606 3.83
 -2.22 -1.615 3.863
 -2.195 -1.616 3.879
 -2.17 -1.617 3.893
 -2.146 -1.619 3.91
 -2.12 -1.619 3.924
 -2.093 -1.619 3.935
 -2.066 -1.619 3.947
 -2.042 -1.621 3.963
 -2.012 -1.618 3.968
 -1.987 -1.619 3.982
 -1.962 -1.62 3.996
 -1.938 -1.622 4.012
 -1.907 -1.619 4.015
 -1.884 -1.622 4.032
 -1.855 -1.62 4.037
 -1.828 -1.619 4.047
 -1.802 -1.62 4.058
 -1.777 -1.622 4.072
 -1.749 -1.62 4.079
 -1.722 -1.619 4.086
 -1.693 -1.617 4.089
 -1.662 -1.613 4.088
 -1.634 -1.611 4.092
 -1.605 -1.609 4.095
 -1.579 -1.609 4.103
 -1.552 -1.608 4.11
 -1.525 -1.607 4.116
 -1.499 -1.608 4.126
 -1.473 -1.608 4.135
 -1.447 -1.608 4.142
 -1.42 -1.607 4.148
 -1.394 -1.608 4.156
 -1.366 -1.606 4.16
 -1.339 -1.605 4.164
 -1.312 -1.603 4.167
 -1.285 -1.603 4.173
 -1.259 -1.603 4.178
 -1.232 -1.602 4.183
 -1.206 -1.602 4.188
 -1.18 -1.602 4.194
 -1.151 -1.599 4.192
 -1.125 -1.599 4.197
 -1.1 -1.599 4.205
 -1.074 -1.6 4.211
 -1.047 -1.599 4.215
 -1.022 -1.6 4.224
 -0.994 -1.597 4.22
 -0.967 -1.596 4.221
 -0.94 -1.594 4.223
 -0.914 -1.593 4.224
 -0.888 -1.594 4.231
 -0.863 -1.595 4.238
 -0.837 -1.595 4.24
 -0.81 -1.593 4.241
 -0.784 -1.594 4.246
 -0.757 -1.59 4.24
 -0.73 -1.589 4.239
 -0.704 -1.588 4.24
 -0.678 -1.588 4.245
 -0.652 -1.587 4.245
 -0.627 -1.589 4.252
 -0.601 -1.59 4.257
 -0.575 -1.588 4.256
 -0.548 -1.586 4.252
 -0.522 -1.585 4.252
 -0.496 -1.583 4.249
 -0.47 -1.583 4.251
 -0.445 -1.584 4.255
 -0.419 -1.585 4.26
 -0.394 -1.585 4.261
 -0.368 -1.585 4.264
 -0.342 -1.584 4.262
 -0.316 -1.583 4.26
 -0.29 -1.582 4.259
 -0.264 -1.58 4.256
 -0.238 -1.578 4.25
 -0.213 -1.578 4.251
 -0.187 -1.577 4.248
 -0.161 -1.576 4.246
 -0.136 -1.576 4.248
 -0.111 -1.578 4.254
 -0.085 -1.578 4.253
 -0.059 -1.578 4.253
 -0.034 -1.578 4.253
 -0.008 -1.577 4.252
 0.016 -1.577 4.25
 0.042 -1.577 4.25
 0.067 -1.575 4.245
 0.093 -1.576 4.246
 0.118 -1.576 4.244
 0.144 -1.577 4.247
 0.169 -1.576 4.243
 0.195 -1.578 4.246
 0.22 -1.578 4.246
 0.246 -1.579 4.247
 0.271 -1.577 4.24
 0.297 -1.579 4.242
 0.323 -1.58 4.244
 0.348 -1.581 4.244
 0.373 -1.579 4.237
 0.399 -1.58 4.238
 0.425 -1.58 4.235
 0.45 -1.58 4.233
 0.475 -1.579 4.227
 0.502 -1.581 4.231
 0.527 -1.582 4.23
 0.553 -1.583 4.229
 0.579 -1.584 4.227
 0.605 -1.586 4.231
 0.63 -1.585 4.224
 0.656 -1.585 4.22
 0.682 -1.585 4.218
 0.707 -1.585 4.214
 0.733 -1.586 4.212
 0.76 -1.589 4.215
 0.786 -1.59 4.213
 0.812 -1.591 4.212
 0.839 -1.593 4.212
 0.865 -1.593 4.208
 0.891 -1.594 4.205
 0.917 -1.595 4.204
 0.943 -1.596 4.201
 0.969 -1.597 4.198
 0.995 -1.597 4.193
 1.022 -1.599 4.191
 1.049 -1.6 4.189
 1.075 -1.601 4.185
 1.102 -1.604 4.186
 1.129 -1.605 4.183
 1.156 -1.606 4.18
 1.183 -1.608 4.179
 1.21 -1.61 4.176
 1.236 -1.61 4.17
 1.264 -1.613 4.169
 1.291 -1.614 4.166
 1.318 -1.615 4.161
 1.346 -1.618 4.159
 1.372 -1.618 4.153
 1.399 -1.619 4.147
 1.425 -1.619 4.14
 1.452 -1.62 4.134
 1.479 -1.621 4.128
 1.507 -1.623 4.125
 1.533 -1.624 4.117
 1.56 -1.625 4.11
 1.586 -1.624 4.1
 1.612 -1.624 4.091
 1.636 -1.623 4.077
 1.662 -1.623 4.067
 1.689 -1.624 4.06
 1.715 -1.623 4.049
 1.738 -1.621 4.032
 1.763 -1.619 4.018
 1.783 -1.615 3.996
 1.799 -1.606 3.964
 1.814 -1.596 3.929
 1.826 -1.584 3.888
 1.831 -1.567 3.835
 1.838 -1.552 3.788
 1.843 -1.536 3.737
 1.844 -1.516 3.678
 1.846 -1.499 3.624
 1.854 -1.486 3.581
 1.848 -1.462 3.514
 1.78 -1.391 3.331
 1.74 -1.343 3.205
 1.744 -1.329 3.162
 1.758 -1.324 3.139
 1.766 -1.315 3.106
 1.773 -1.305 3.07
 1.775 -1.291 3.027
 1.772 -1.274 2.976
 1.75 -1.244 2.896
 1.785 -1.255 2.909
 -2.313 -1.617 3.915
 -2.285 -1.616 3.927
 -2.254 -1.613 3.933
 -2.229 -1.614 3.949
 -2.201 -1.613 3.96
 -2.176 -1.615 3.975
 -2.15 -1.615 3.989
 -2.122 -1.615 4
 -2.095 -1.614 4.011
 -2.07 -1.616 4.027
 -2.041 -1.615 4.035
 -2.015 -1.616 4.049
 -1.99 -1.617 4.063
 -1.964 -1.618 4.077
 -1.934 -1.615 4.081
 -1.91 -1.617 4.098
 -1.882 -1.616 4.105
 -1.854 -1.615 4.114
 -1.828 -1.617 4.127
 -1.802 -1.617 4.139
 -1.773 -1.615 4.143
 -1.744 -1.613 4.148
 -1.714 -1.611 4.15
 -1.683 -1.606 4.148
 -1.654 -1.605 4.153
 -1.626 -1.603 4.157
 -1.599 -1.603 4.166
 -1.573 -1.603 4.175
 -1.544 -1.601 4.179
 -1.519 -1.602 4.19
 -1.493 -1.603 4.2
 -1.465 -1.602 4.204
 -1.438 -1.601 4.209
 -1.411 -1.601 4.218
 -1.383 -1.599 4.218
 -1.355 -1.598 4.223
 -1.327 -1.596 4.225
 -1.3 -1.595 4.229
 -1.273 -1.595 4.236
 -1.247 -1.595 4.242
 -1.22 -1.594 4.245
 -1.193 -1.593 4.25
 -1.164 -1.591 4.249
 -1.138 -1.59 4.254
 -1.111 -1.59 4.259
 -1.085 -1.59 4.263
 -1.057 -1.588 4.264
 -1.031 -1.589 4.271
 -1.003 -1.585 4.266
 -0.975 -1.583 4.266
 -0.948 -1.581 4.264
 -0.921 -1.579 4.265
 -0.895 -1.58 4.27
 -0.868 -1.579 4.272
 -0.841 -1.577 4.271
 -0.815 -1.577 4.274
 -0.789 -1.577 4.278
 -0.761 -1.573 4.272
 -0.734 -1.572 4.273
 -0.708 -1.571 4.272
 -0.682 -1.571 4.275
 -0.656 -1.571 4.278
 -0.63 -1.572 4.285
 -0.604 -1.571 4.285
 -0.578 -1.57 4.286
 -0.551 -1.567 4.28
 -0.525 -1.566 4.279
 -0.498 -1.565 4.278
 -0.473 -1.565 4.281
 -0.447 -1.565 4.282
 -0.421 -1.566 4.288
 -0.395 -1.565 4.286
 -0.369 -1.564 4.286
 -0.343 -1.564 4.286
 -0.317 -1.563 4.285
 -0.291 -1.562 4.284
 -0.265 -1.561 4.281
 -0.239 -1.558 4.276
 -0.213 -1.557 4.273
 -0.188 -1.557 4.272
 -0.162 -1.555 4.268
 -0.136 -1.556 4.271
 -0.111 -1.557 4.275
 -0.085 -1.557 4.274
 -0.059 -1.556 4.272
 -0.034 -1.556 4.272
 -0.008 -1.554 4.267
 0.016 -1.554 4.266
 0.042 -1.555 4.268
 0.067 -1.554 4.264
 0.093 -1.555 4.266
 0.119 -1.556 4.267
 0.144 -1.556 4.268
 0.17 -1.556 4.267
 0.196 -1.558 4.269
 0.221 -1.558 4.268
 0.247 -1.558 4.266
 0.272 -1.557 4.263
 0.298 -1.557 4.26
 0.324 -1.558 4.263
 0.349 -1.558 4.261
 0.375 -1.558 4.258
 0.4 -1.559 4.258
 0.426 -1.56 4.257
 0.452 -1.56 4.255
 0.478 -1.56 4.253
 0.504 -1.562 4.256
 0.53 -1.563 4.256
 0.555 -1.563 4.252
 0.581 -1.563 4.249
 0.607 -1.564 4.25
 0.632 -1.563 4.243
 0.658 -1.563 4.24
 0.684 -1.564 4.239
 0.71 -1.566 4.24
 0.736 -1.566 4.236
 0.763 -1.569 4.24
 0.789 -1.57 4.238
 0.816 -1.571 4.236
 0.841 -1.572 4.233
 0.868 -1.572 4.23
 0.894 -1.573 4.228
 0.921 -1.576 4.229
 0.947 -1.577 4.227
 0.974 -1.578 4.224
 1 -1.578 4.22
 1.027 -1.58 4.219
 1.054 -1.582 4.219
 1.081 -1.584 4.218
 1.109 -1.587 4.22
 1.137 -1.589 4.219
 1.163 -1.59 4.214
 1.189 -1.59 4.208
 1.216 -1.591 4.203
 1.243 -1.592 4.2
 1.271 -1.595 4.2
 1.299 -1.598 4.201
 1.327 -1.6 4.199
 1.356 -1.604 4.2
 1.383 -1.605 4.195
 1.41 -1.605 4.188
 1.436 -1.605 4.18
 1.463 -1.606 4.175
 1.491 -1.607 4.169
 1.519 -1.61 4.166
 1.546 -1.611 4.16
 1.574 -1.612 4.155
 1.6 -1.613 4.147
 1.627 -1.613 4.139
 1.654 -1.613 4.129
 1.68 -1.614 4.12
 1.707 -1.615 4.113
 1.733 -1.614 4.1
 1.756 -1.611 4.083
 1.778 -1.607 4.063
 1.797 -1.601 4.036
 1.81 -1.589 3.995
 1.823 -1.578 3.958
 1.834 -1.566 3.915
 1.84 -1.55 3.864
 1.85 -1.537 3.821
 1.859 -1.524 3.777
 1.862 -1.506 3.723
 1.865 -1.489 3.669
 1.877 -1.479 3.633
 0 0 0
 0 0 0
 1.725 -1.31 3.185
 1.744 -1.308 3.17
 1.759 -1.304 3.149
 1.768 -1.295 3.116
 1.776 -1.285 3.082
 1.78 -1.273 3.042
 1.778 -1.257 2.993
 1.794 -1.255 2.976
 1.751 -1.211 2.861
 -2.337 -1.606 3.965
 -2.322 -1.614 4
 -2.287 -1.609 4
 -2.26 -1.609 4.014
 -2.232 -1.609 4.025
 -2.205 -1.609 4.039
 -2.179 -1.61 4.054
 -2.152 -1.611 4.067
 -2.125 -1.611 4.08
 -2.1 -1.613 4.096
 -2.072 -1.612 4.106
 -2.044 -1.611 4.116
 -2.016 -1.61 4.126
 -1.99 -1.612 4.14
 -1.96 -1.609 4.145
 -1.934 -1.611 4.16
 -1.907 -1.611 4.171
 -1.881 -1.612 4.183
 -1.853 -1.612 4.193
 -1.825 -1.611 4.202
 -1.796 -1.61 4.208
 -1.766 -1.607 4.211
 -1.735 -1.603 4.211
 -1.705 -1.601 4.213
 -1.676 -1.599 4.218
 -1.648 -1.597 4.222
 -1.62 -1.596 4.229
 -1.592 -1.596 4.237
 -1.563 -1.594 4.24
 -1.536 -1.594 4.246
 -1.507 -1.592 4.25
 -1.479 -1.59 4.253
 -1.451 -1.589 4.257
 -1.423 -1.588 4.262
 -1.395 -1.587 4.266
 -1.368 -1.587 4.273
 -1.34 -1.585 4.276
 -1.312 -1.583 4.278
 -1.285 -1.583 4.283
 -1.257 -1.581 4.286
 -1.229 -1.58 4.288
 -1.202 -1.579 4.291
 -1.174 -1.577 4.292
 -1.147 -1.576 4.296
 -1.119 -1.575 4.298
 -1.092 -1.574 4.3
 -1.064 -1.572 4.3
 -1.036 -1.57 4.301
 -1.008 -1.567 4.297
 -0.981 -1.566 4.298
 -0.953 -1.563 4.296
 -0.925 -1.561 4.295
 -0.899 -1.561 4.301
 -0.872 -1.559 4.298
 -0.844 -1.557 4.297
 -0.817 -1.556 4.297
 -0.791 -1.556 4.301
 -0.763 -1.552 4.294
 -0.737 -1.552 4.297
 -0.71 -1.55 4.294
 -0.684 -1.549 4.297
 -0.657 -1.549 4.297
 -0.631 -1.549 4.301
 -0.605 -1.548 4.301
 -0.579 -1.547 4.301
 -0.552 -1.544 4.296
 -0.525 -1.543 4.294
 -0.499 -1.542 4.294
 -0.473 -1.542 4.297
 -0.447 -1.542 4.299
 -0.422 -1.542 4.302
 -0.396 -1.542 4.302
 -0.369 -1.54 4.299
 -0.343 -1.539 4.296
 -0.317 -1.538 4.295
 -0.291 -1.537 4.294
 -0.265 -1.537 4.294
 -0.24 -1.535 4.291
 -0.214 -1.534 4.287
 -0.188 -1.534 4.288
 -0.162 -1.532 4.283
 -0.136 -1.532 4.284
 -0.111 -1.534 4.288
 -0.085 -1.534 4.289
 -0.059 -1.533 4.287
 -0.034 -1.534 4.289
 -0.008 -1.532 4.285
 0.016 -1.531 4.279
 0.042 -1.531 4.279
 0.068 -1.529 4.274
 0.093 -1.53 4.276
 0.119 -1.531 4.277
 0.145 -1.532 4.279
 0.17 -1.532 4.279
 0.196 -1.534 4.282
 0.222 -1.534 4.28
 0.247 -1.533 4.277
 0.273 -1.533 4.275
 0.298 -1.533 4.273
 0.324 -1.534 4.274
 0.349 -1.533 4.27
 0.375 -1.534 4.271
 0.401 -1.534 4.269
 0.426 -1.534 4.266
 0.452 -1.534 4.264
 0.478 -1.536 4.266
 0.504 -1.538 4.267
 0.53 -1.539 4.268
 0.556 -1.54 4.267
 0.582 -1.54 4.266
 0.608 -1.541 4.265
 0.634 -1.54 4.259
 0.66 -1.541 4.257
 0.685 -1.541 4.255
 0.712 -1.543 4.254
 0.738 -1.543 4.251
 0.764 -1.545 4.254
 0.791 -1.547 4.253
 0.817 -1.548 4.252
 0.843 -1.548 4.248
 0.869 -1.549 4.245
 0.896 -1.55 4.243
 0.922 -1.552 4.243
 0.949 -1.553 4.242
 0.976 -1.555 4.241
 1.002 -1.556 4.238
 1.029 -1.558 4.237
 1.057 -1.56 4.237
 1.084 -1.562 4.237
 1.111 -1.564 4.235
 1.139 -1.566 4.234
 1.165 -1.567 4.231
 1.193 -1.568 4.228
 1.219 -1.569 4.222
 1.247 -1.571 4.222
 1.275 -1.574 4.223
 1.304 -1.577 4.223
 1.332 -1.579 4.222
 1.361 -1.583 4.224
 1.39 -1.585 4.222
 1.417 -1.587 4.219
 1.445 -1.588 4.213
 1.472 -1.589 4.207
 1.499 -1.59 4.202
 1.528 -1.592 4.199
 1.555 -1.594 4.194
 1.584 -1.595 4.189
 1.611 -1.596 4.181
 1.639 -1.598 4.176
 1.665 -1.597 4.166
 1.692 -1.598 4.159
 1.72 -1.6 4.152
 1.746 -1.599 4.141
 1.769 -1.596 4.121
 1.79 -1.591 4.099
 1.807 -1.583 4.067
 1.819 -1.571 4.026
 1.83 -1.559 3.983
 1.842 -1.547 3.942
 1.849 -1.531 3.89
 1.859 -1.519 3.849
 1.869 -1.507 3.806
 1.879 -1.495 3.765
 1.88 -1.476 3.707
 0 0 0
 0 0 0
 0 0 0
 0 0 0
 1.735 -1.28 3.162
 1.756 -1.28 3.15
 1.764 -1.271 3.116
 1.776 -1.264 3.09
 1.785 -1.256 3.058
 1.788 -1.243 3.017
 1.775 -1.221 2.951
 1.796 -1.221 2.941
 -2.374 -1.604 4.039
 -2.369 -1.62 4.092
 -2.034 -1.408 3.566
 -1.917 -1.342 3.411
 -1.985 -1.407 3.587
 -1.963 -1.408 3.602
 -1.849 -1.344 3.446
 -1.915 -1.409 3.627
 -1.892 -1.41 3.639
 -1.783 -1.346 3.483
 -1.758 -1.345 3.491
 -1.819 -1.41 3.67
 -1.793 -1.408 3.677
 -1.851 -1.474 3.86
 -1.904 -1.538 4.037
 -1.959 -1.604 4.222
 -1.932 -1.604 4.235
 -1.905 -1.605 4.247
 -1.876 -1.604 4.255
 -1.848 -1.604 4.263
 -1.819 -1.602 4.27
 -1.788 -1.6 4.273
 -1.756 -1.595 4.27
 -1.725 -1.592 4.271
 -1.695 -1.59 4.274
 -1.665 -1.588 4.278
 -1.635 -1.585 4.28
 -1.608 -1.584 4.287
 -1.578 -1.582 4.29
 -1.549 -1.581 4.293
 -1.52 -1.578 4.294
 -1.491 -1.576 4.297
 -1.461 -1.573 4.297
 -1.433 -1.572 4.301
 -1.404 -1.57 4.303
 -1.377 -1.57 4.31
 -1.348 -1.568 4.311
 -1.32 -1.567 4.314
 -1.293 -1.566 4.319
 -1.264 -1.564 4.32
 -1.236 -1.563 4.322
 -1.208 -1.56 4.322
 -1.18 -1.559 4.324
 -1.152 -1.557 4.325
 -1.124 -1.556 4.326
 -1.096 -1.553 4.325
 -1.068 -1.552 4.327
 -1.04 -1.549 4.325
 -1.011 -1.546 4.321
 -0.983 -1.544 4.32
 -0.956 -1.542 4.318
 -0.927 -1.539 4.314
 -0.901 -1.538 4.318
 -0.873 -1.536 4.315
 -0.845 -1.533 4.311
 -0.818 -1.531 4.308
 -0.791 -1.53 4.31
 -0.764 -1.527 4.305
 -0.737 -1.526 4.306
 -0.71 -1.525 4.307
 -0.684 -1.525 4.309
 -0.658 -1.524 4.309
 -0.632 -1.524 4.312
 -0.605 -1.522 4.308
 -0.578 -1.521 4.308
 -0.552 -1.519 4.307
 -0.526 -1.518 4.305
 -0.499 -1.517 4.304
 -0.473 -1.517 4.306
 -0.447 -1.516 4.305
 -0.421 -1.515 4.305
 -0.395 -1.514 4.305
 -0.369 -1.513 4.302
 -0.343 -1.512 4.3
 -0.317 -1.511 4.301
 -0.291 -1.511 4.301
 -0.265 -1.51 4.299
 -0.239 -1.509 4.296
 -0.213 -1.508 4.294
 -0.188 -1.507 4.293
 -0.162 -1.505 4.288
 -0.136 -1.505 4.288
 -0.111 -1.507 4.293
 -0.085 -1.506 4.292
 -0.059 -1.506 4.291
 -0.034 -1.506 4.291
 -0.008 -1.506 4.289
 0.017 -1.504 4.285
 0.042 -1.505 4.287
 0.068 -1.503 4.282
 0.093 -1.504 4.284
 0.119 -1.504 4.283
 0.145 -1.505 4.285
 0.17 -1.505 4.283
 0.196 -1.507 4.287
 0.222 -1.508 4.289
 0.247 -1.508 4.285
 0.273 -1.508 4.284
 0.298 -1.508 4.282
 0.324 -1.508 4.281
 0.349 -1.505 4.272
 0.375 -1.506 4.273
 0.401 -1.507 4.271
 0.426 -1.507 4.271
 0.452 -1.508 4.269
 0.478 -1.51 4.272
 0.504 -1.511 4.272
 0.53 -1.511 4.269
 0.556 -1.511 4.268
 0.582 -1.513 4.269
 0.608 -1.514 4.27
 0.634 -1.514 4.265
 0.659 -1.514 4.262
 0.685 -1.514 4.257
 0.711 -1.515 4.257
 0.737 -1.515 4.252
 0.763 -1.517 4.255
 0.79 -1.519 4.256
 0.817 -1.521 4.258
 0.843 -1.522 4.254
 0.87 -1.523 4.254
 0.896 -1.524 4.252
 0.923 -1.526 4.252
 0.949 -1.528 4.251
 0.976 -1.529 4.249
 1.003 -1.53 4.247
 1.029 -1.531 4.245
 1.057 -1.534 4.246
 1.085 -1.537 4.247
 1.112 -1.538 4.246
 1.139 -1.54 4.243
 1.166 -1.541 4.242
 1.194 -1.543 4.24
 1.221 -1.544 4.236
 1.249 -1.547 4.238
 1.278 -1.551 4.24
 1.307 -1.554 4.241
 1.335 -1.556 4.239
 1.364 -1.559 4.239
 1.392 -1.561 4.236
 1.419 -1.562 4.231
 1.447 -1.564 4.228
 1.475 -1.566 4.225
 1.504 -1.568 4.224
 1.533 -1.57 4.221
 1.562 -1.573 4.22
 1.59 -1.575 4.216
 1.618 -1.576 4.208
 1.646 -1.578 4.203
 1.674 -1.579 4.197
 1.702 -1.58 4.191
 1.729 -1.581 4.183
 1.756 -1.581 4.172
 1.778 -1.578 4.153
 1.798 -1.571 4.125
 1.813 -1.562 4.091
 1.827 -1.551 4.051
 1.838 -1.539 4.008
 1.85 -1.527 3.966
 1.859 -1.514 3.92
 1.872 -1.504 3.884
 1.883 -1.492 3.843
 1.897 -1.484 3.809
 0 0 0
 0 0 0
 0 0 0
 0 0 0
 0 0 0
 1.729 -1.254 3.157
 1.752 -1.256 3.151
 1.765 -1.25 3.125
 1.78 -1.246 3.103
 1.794 -1.241 3.081
 1.799 -1.23 3.043
 1.805 -1.221 3.008
 1.78 -1.19 2.922
 -2.388 -1.586 4.072
 -2.384 -1.601 4.126
 -1.592 -1.083 2.794
 -1.481 -1.019 2.638
 -1.557 -1.085 2.818
 -1.54 -1.086 2.83
 -1.429 -1.021 2.667
 -1.499 -1.085 2.843
 -1.48 -1.084 2.85
 -1.372 -1.019 2.685
 -1.353 -1.017 2.689
 -1.418 -1.081 2.866
 -1.398 -1.08 2.871
 -1.543 -1.208 3.223
 -1.683 -1.336 3.575
 -1.819 -1.464 3.93
 -1.872 -1.528 4.113
 -1.923 -1.593 4.298
 -1.892 -1.59 4.302
 -1.863 -1.589 4.307
 -1.833 -1.587 4.312
 -1.801 -1.584 4.314
 -1.768 -1.579 4.311
 -1.739 -1.577 4.315
 -1.708 -1.574 4.316
 -1.678 -1.572 4.32
 -1.648 -1.57 4.322
 -1.619 -1.569 4.328
 -1.589 -1.566 4.328
 -1.559 -1.563 4.329
 -1.528 -1.559 4.326
 -1.498 -1.556 4.326
 -1.467 -1.553 4.325
 -1.438 -1.551 4.325
 -1.409 -1.548 4.325
 -1.381 -1.547 4.331
 -1.351 -1.544 4.329
 -1.323 -1.543 4.332
 -1.295 -1.542 4.337
 -1.267 -1.541 4.339
 -1.239 -1.539 4.34
 -1.21 -1.537 4.34
 -1.181 -1.534 4.337
 -1.153 -1.532 4.337
 -1.124 -1.529 4.336
 -1.096 -1.527 4.334
 -1.068 -1.525 4.334
 -1.04 -1.523 4.333
 -1.011 -1.519 4.329
 -0.983 -1.517 4.328
 -0.956 -1.516 4.327
 -0.928 -1.513 4.325
 -0.901 -1.512 4.325
 -0.873 -1.51 4.323
 -0.845 -1.507 4.319
 -0.817 -1.504 4.314
 -0.791 -1.503 4.316
 -0.764 -1.501 4.314
 -0.737 -1.5 4.314
 -0.71 -1.499 4.314
 -0.684 -1.499 4.317
 -0.658 -1.498 4.317
 -0.631 -1.497 4.316
 -0.604 -1.494 4.313
 -0.578 -1.494 4.315
 -0.552 -1.493 4.314
 -0.525 -1.491 4.31
 -0.499 -1.49 4.31
 -0.473 -1.49 4.312
 -0.447 -1.488 4.309
 -0.421 -1.488 4.308
 -0.395 -1.487 4.308
 -0.368 -1.485 4.305
 -0.342 -1.485 4.305
 -0.317 -1.485 4.307
 -0.291 -1.484 4.305
 -0.265 -1.484 4.307
 -0.239 -1.484 4.305
 -0.213 -1.482 4.301
 -0.187 -1.481 4.299
 -0.162 -1.479 4.295
 -0.136 -1.479 4.293
 -0.11 -1.48 4.296
 -0.085 -1.479 4.295
 -0.059 -1.479 4.294
 -0.033 -1.478 4.292
 -0.008 -1.478 4.29
 0.017 -1.477 4.287
 0.042 -1.478 4.29
 0.068 -1.476 4.284
 0.093 -1.478 4.288
 0.119 -1.477 4.286
 0.145 -1.478 4.287
 0.17 -1.478 4.285
 0.196 -1.48 4.29
 0.222 -1.48 4.29
 0.247 -1.48 4.288
 0.273 -1.481 4.288
 0.298 -1.481 4.286
 0.324 -1.48 4.283
 0.349 -1.479 4.277
 0.375 -1.48 4.278
 0.401 -1.48 4.277
 0.426 -1.481 4.275
 0.452 -1.481 4.275
 0.478 -1.483 4.276
 0.504 -1.484 4.277
 0.529 -1.484 4.273
 0.556 -1.485 4.275
 0.582 -1.486 4.275
 0.608 -1.488 4.275
 0.633 -1.488 4.271
 0.659 -1.488 4.269
 0.684 -1.487 4.262
 0.711 -1.488 4.261
 0.736 -1.488 4.258
 0.763 -1.49 4.26
 0.79 -1.492 4.26
 0.816 -1.494 4.262
 0.843 -1.495 4.26
 0.87 -1.497 4.261
 0.896 -1.498 4.259
 0.923 -1.5 4.259
 0.95 -1.501 4.258
 0.976 -1.502 4.256
 1.002 -1.503 4.252
 1.029 -1.504 4.25
 1.056 -1.507 4.25
 1.084 -1.509 4.251
 1.112 -1.512 4.252
 1.139 -1.514 4.252
 1.167 -1.515 4.25
 1.195 -1.518 4.25
 1.222 -1.519 4.247
 1.25 -1.522 4.247
 1.279 -1.525 4.251
 1.308 -1.528 4.252
 1.335 -1.53 4.248
 1.364 -1.533 4.249
 1.391 -1.534 4.244
 1.418 -1.534 4.238
 1.447 -1.537 4.237
 1.476 -1.54 4.236
 1.505 -1.542 4.234
 1.534 -1.545 4.233
 1.564 -1.548 4.232
 1.592 -1.55 4.228
 1.619 -1.55 4.22
 1.647 -1.552 4.215
 1.676 -1.554 4.21
 1.704 -1.555 4.204
 1.732 -1.557 4.198
 1.759 -1.557 4.189
 1.784 -1.555 4.173
 1.804 -1.549 4.147
 1.819 -1.54 4.112
 1.834 -1.53 4.075
 1.847 -1.52 4.037
 1.86 -1.51 3.997
 1.87 -1.497 3.952
 1.883 -1.487 3.915
 1.892 -1.474 3.871
 0 0 0
 0 0 0
 0 0 0
 0 0 0
 0 0 0
 0 0 0
 1.731 -1.235 3.169
 1.756 -1.237 3.164
 1.77 -1.232 3.142
 1.785 -1.228 3.12
 1.799 -1.223 3.097
 1.809 -1.216 3.067
 1.843 -1.225 3.078
 0 0 0
 -2.43 -1.585 4.154
 -0.009 -0.007 0.002
 -1.152 -0.77 2.023
 -1.044 -0.707 1.861
 -1.125 -0.771 2.037
 -1.109 -0.769 2.04
 -1.003 -0.704 1.872
 -1.076 -0.765 2.041
 -1.061 -0.764 2.045
 -0.958 -0.7 1.875
 -0.944 -0.698 1.876
 -1.014 -0.76 2.049
 -0.998 -0.758 2.05
 -1.23 -0.946 2.572
 -1.455 -1.135 3.095
 -1.594 -1.261 3.45
 -1.728 -1.386 3.803
 -1.859 -1.513 4.163
 -1.828 -1.509 4.163
 -1.798 -1.507 4.167
 -1.842 -1.567 4.344
 -1.811 -1.565 4.347
 -1.777 -1.559 4.341
 -1.748 -1.558 4.347
 -1.716 -1.554 4.346
 -1.685 -1.552 4.348
 -1.654 -1.549 4.348
 -1.625 -1.547 4.353
 -1.595 -1.544 4.352
 -1.564 -1.541 4.352
 -1.532 -1.537 4.348
 -1.502 -1.534 4.348
 -1.472 -1.531 4.346
 -1.441 -1.527 4.343
 -1.411 -1.524 4.342
 -1.383 -1.523 4.346
 -1.353 -1.519 4.343
 -1.324 -1.517 4.343
 -1.296 -1.516 4.348
 -1.268 -1.515 4.35
 -1.24 -1.513 4.351
 -1.211 -1.51 4.349
 -1.181 -1.508 4.347
 -1.153 -1.505 4.347
 -1.124 -1.503 4.344
 -1.095 -1.499 4.34
 -1.068 -1.498 4.341
 -1.04 -1.496 4.341
 -1.011 -1.493 4.336
 -0.983 -1.491 4.336
 -0.956 -1.489 4.335
 -0.928 -1.487 4.332
 -0.9 -1.485 4.332
 -0.873 -1.484 4.332
 -0.844 -1.48 4.324
 -0.817 -1.478 4.322
 -0.791 -1.478 4.325
 -0.764 -1.476 4.324
 -0.737 -1.474 4.322
 -0.711 -1.474 4.325
 -0.684 -1.473 4.325
 -0.657 -1.471 4.321
 -0.63 -1.469 4.319
 -0.604 -1.468 4.318
 -0.578 -1.467 4.32
 -0.551 -1.467 4.32
 -0.525 -1.465 4.316
 -0.499 -1.464 4.316
 -0.473 -1.464 4.317
 -0.446 -1.461 4.313
 -0.42 -1.46 4.311
 -0.394 -1.459 4.31
 -0.368 -1.458 4.307
 -0.342 -1.458 4.308
 -0.316 -1.458 4.311
 -0.291 -1.458 4.311
 -0.265 -1.459 4.314
 -0.239 -1.457 4.312
 -0.213 -1.456 4.307
 -0.187 -1.454 4.303
 -0.161 -1.453 4.299
 -0.136 -1.451 4.296
 -0.11 -1.453 4.3
 -0.084 -1.452 4.298
 -0.059 -1.452 4.297
 -0.033 -1.451 4.295
 -0.008 -1.451 4.295
 0.017 -1.45 4.29
 0.042 -1.452 4.295
 0.068 -1.45 4.291
 0.094 -1.452 4.295
 0.119 -1.452 4.294
 0.145 -1.453 4.295
 0.17 -1.452 4.291
 0.196 -1.454 4.295
 0.222 -1.454 4.295
 0.247 -1.453 4.291
 0.273 -1.453 4.289
 0.298 -1.452 4.285
 0.323 -1.452 4.283
 0.349 -1.451 4.277
 0.374 -1.451 4.277
 0.4 -1.452 4.278
 0.426 -1.454 4.278
 0.452 -1.454 4.277
 0.477 -1.455 4.277
 0.504 -1.457 4.281
 0.529 -1.457 4.277
 0.555 -1.458 4.278
 0.581 -1.459 4.278
 0.607 -1.46 4.277
 0.633 -1.46 4.273
 0.659 -1.46 4.271
 0.684 -1.459 4.264
 0.71 -1.46 4.264
 0.736 -1.461 4.261
 0.762 -1.462 4.261
 0.789 -1.464 4.263
 0.816 -1.467 4.266
 0.842 -1.467 4.263
 0.869 -1.47 4.264
 0.895 -1.471 4.263
 0.922 -1.473 4.263
 0.948 -1.473 4.26
 0.975 -1.475 4.258
 1.001 -1.475 4.254
 1.028 -1.477 4.253
 1.055 -1.478 4.252
 1.083 -1.482 4.256
 1.111 -1.484 4.257
 1.139 -1.487 4.259
 1.167 -1.489 4.257
 1.194 -1.491 4.257
 1.221 -1.492 4.252
 1.249 -1.494 4.252
 1.278 -1.498 4.255
 1.306 -1.5 4.255
 1.334 -1.502 4.253
 1.364 -1.505 4.255
 1.391 -1.506 4.25
 1.418 -1.507 4.243
 1.446 -1.51 4.242
 1.476 -1.513 4.243
 1.504 -1.515 4.241
 1.534 -1.518 4.241
 1.564 -1.521 4.241
 1.592 -1.523 4.237
 1.619 -1.524 4.229
 1.647 -1.525 4.223
 1.676 -1.527 4.218
 1.704 -1.528 4.212
 1.732 -1.529 4.205
 1.759 -1.53 4.197
 1.784 -1.528 4.182
 1.806 -1.524 4.161
 1.824 -1.517 4.131
 1.84 -1.509 4.098
 1.856 -1.5 4.063
 1.872 -1.492 4.03
 1.885 -1.482 3.992
 1.901 -1.475 3.96
 0 0 0
 0 0 0
 0 0 0
 0 0 0
 0 0 0
 0 0 0
 0 0 0
 1.162 -0.815 2.129
 1.576 -1.092 2.846
 1.769 -1.21 3.146
 1.787 -1.208 3.13
 1.804 -1.206 3.113
 1.821 -1.203 3.095
 0 0 0
 0 0 0
 -0.042 -0.028 0.059
 -0.006 -0.005 -0.002
 -0.707 -0.465 1.24
 -0.602 -0.401 1.071
 -0.687 -0.463 1.242
 -0.676 -0.461 1.241
 -0.573 -0.396 1.066
 -0.652 -0.456 1.234
 -0.642 -0.455 1.235
 -0.542 -0.389 1.057
 -0.533 -0.387 1.055
 -0.607 -0.448 1.225
 -0.594 -0.444 1.219
 -0.912 -0.69 1.908
 -1.223 -0.938 2.606
 -1.444 -1.122 3.13
 -1.657 -1.306 3.656
 -1.867 -1.493 4.19
 -1.835 -1.488 4.188
 -1.804 -1.485 4.19
 -1.849 -1.545 4.369
 -1.817 -1.542 4.371
 -1.783 -1.537 4.365
 -1.754 -1.536 4.373
 -1.722 -1.532 4.37
 -1.69 -1.528 4.369
 -1.658 -1.525 4.367
 -1.628 -1.522 4.368
 -1.596 -1.518 4.364
 -1.564 -1.514 4.362
 -1.533 -1.51 4.358
 -1.503 -1.507 4.358
 -1.472 -1.504 4.355
 -1.441 -1.5 4.352
 -1.411 -1.498 4.352
 -1.383 -1.496 4.354
 -1.352 -1.491 4.348
 -1.323 -1.49 4.35
 -1.295 -1.488 4.352
 -1.266 -1.486 4.352
 -1.237 -1.484 4.352
 -1.21 -1.483 4.355
 -1.18 -1.48 4.352
 -1.152 -1.478 4.352
 -1.123 -1.475 4.348
 -1.094 -1.472 4.344
 -1.066 -1.469 4.342
 -1.038 -1.468 4.343
 -1.009 -1.464 4.338
 -0.982 -1.464 4.34
 -0.955 -1.462 4.34
 -0.928 -1.461 4.34
 -0.9 -1.458 4.338
 -0.873 -1.457 4.339
 -0.844 -1.453 4.331
 -0.816 -1.45 4.326
 -0.79 -1.449 4.327
 -0.763 -1.448 4.326
 -0.736 -1.446 4.324
 -0.709 -1.445 4.325
 -0.683 -1.445 4.327
 -0.656 -1.443 4.325
 -0.63 -1.442 4.324
 -0.603 -1.441 4.323
 -0.577 -1.441 4.327
 -0.551 -1.441 4.328
 -0.525 -1.439 4.323
 -0.498 -1.438 4.323
 -0.472 -1.438 4.324
 -0.446 -1.436 4.321
 -0.42 -1.435 4.32
 -0.394 -1.434 4.319
 -0.368 -1.433 4.316
 -0.342 -1.432 4.317
 -0.316 -1.432 4.317
 -0.29 -1.431 4.315
 -0.265 -1.432 4.319
 -0.239 -1.431 4.315
 -0.213 -1.429 4.31
 -0.187 -1.426 4.304
 -0.161 -1.425 4.301
 -0.135 -1.423 4.294
 -0.11 -1.424 4.298
 -0.084 -1.424 4.297
 -0.059 -1.425 4.301
 -0.033 -1.425 4.299
 -0.007 -1.426 4.302
 0.017 -1.424 4.297
 0.043 -1.426 4.303
 0.068 -1.426 4.301
 0.094 -1.427 4.303
 0.119 -1.425 4.298
 0.145 -1.426 4.299
 0.17 -1.423 4.29
 0.196 -1.424 4.29
 0.221 -1.425 4.291
 0.247 -1.424 4.287
 0.272 -1.423 4.284
 0.298 -1.424 4.284
 0.323 -1.424 4.283
 0.348 -1.423 4.277
 0.374 -1.424 4.278
 0.4 -1.425 4.279
 0.426 -1.426 4.281
 0.451 -1.427 4.281
 0.477 -1.427 4.278
 0.503 -1.429 4.282
 0.529 -1.429 4.278
 0.554 -1.429 4.276
 0.58 -1.43 4.275
 0.606 -1.432 4.276
 0.632 -1.432 4.274
 0.658 -1.433 4.272
 0.684 -1.433 4.269
 0.709 -1.433 4.265
 0.735 -1.434 4.264
 0.762 -1.436 4.265
 0.788 -1.437 4.265
 0.815 -1.439 4.267
 0.842 -1.441 4.268
 0.868 -1.442 4.268
 0.894 -1.443 4.265
 0.922 -1.446 4.268
 0.948 -1.447 4.265
 0.974 -1.448 4.263
 1.001 -1.449 4.26
 1.028 -1.45 4.258
 1.054 -1.451 4.257
 1.083 -1.454 4.26
 1.11 -1.456 4.259
 1.137 -1.458 4.259
 1.165 -1.46 4.259
 1.193 -1.463 4.259
 1.22 -1.464 4.255
 1.248 -1.467 4.257
 1.277 -1.47 4.259
 1.305 -1.472 4.258
 1.333 -1.474 4.256
 1.361 -1.476 4.254
 1.388 -1.477 4.25
 1.415 -1.478 4.245
 1.444 -1.48 4.243
 1.473 -1.483 4.243
 1.502 -1.486 4.243
 1.532 -1.489 4.242
 1.562 -1.492 4.243
 1.59 -1.494 4.24
 1.618 -1.495 4.233
 1.647 -1.497 4.229
 1.675 -1.499 4.223
 1.703 -1.5 4.218
 1.731 -1.502 4.212
 1.76 -1.503 4.206
 1.785 -1.502 4.192
 1.809 -1.5 4.176
 1.828 -1.494 4.148
 1.847 -1.488 4.121
 1.863 -1.48 4.088
 1.879 -1.472 4.055
 1.891 -1.461 4.014
 0 0 0
 0 0 0
 0 0 0
 0 0 0
 0 0 0
 0 0 0
 0 0 0
 0 0 0
 1.052 -0.725 1.931
 1.56 -1.061 2.822
 1.769 -1.189 3.153
 1.788 -1.187 3.138
 1.808 -1.187 3.126
 1.714 -1.112 2.918
 0 0 0
 0 0 0
 -0.091 -0.059 0.144
 -0.069 -0.045 0.107
 -0.258 -0.168 0.446
 -0.158 -0.105 0.273
 -0.248 -0.165 0.441
 -0.238 -0.161 0.43
 -0.139 -0.096 0.25
 -0.223 -0.154 0.415
 -0.216 -0.151 0.409
 -0.119 -0.085 0.223
 -0.113 -0.082 0.215
 -0.277 -0.201 0.552
 -0.35 -0.257 0.714
 -0.67 -0.498 1.402
 -1.066 -0.802 2.273
 -1.369 -1.044 2.972
 -1.582 -1.224 3.497
 -1.791 -1.406 4.028
 -1.837 -1.463 4.201
 -1.806 -1.46 4.203
 -1.849 -1.517 4.379
 -1.817 -1.515 4.38
 -1.784 -1.51 4.376
 -1.753 -1.508 4.379
 -1.72 -1.503 4.375
 -1.689 -1.5 4.374
 -1.657 -1.496 4.374
 -1.625 -1.493 4.371
 -1.594 -1.489 4.367
 -1.562 -1.485 4.364
 -1.531 -1.482 4.363
 -1.501 -1.478 4.361
 -1.471 -1.476 4.361
 -1.441 -1.473 4.359
 -1.41 -1.47 4.357
 -1.382 -1.468 4.359
 -1.351 -1.464 4.354
 -1.322 -1.462 4.355
 -1.293 -1.459 4.355
 -1.265 -1.458 4.356
 -1.236 -1.455 4.354
 -1.208 -1.454 4.357
 -1.178 -1.45 4.351
 -1.15 -1.448 4.351
 -1.121 -1.445 4.347
 -1.092 -1.442 4.344
 -1.064 -1.44 4.342
 -1.037 -1.439 4.345
 -1.007 -1.435 4.338
 -0.98 -1.435 4.34
 -0.953 -1.432 4.338
 -0.925 -1.431 4.337
 -0.897 -1.428 4.333
 -0.871 -1.427 4.335
 -0.843 -1.424 4.331
 -0.816 -1.423 4.331
 -0.789 -1.422 4.331
 -0.762 -1.421 4.332
 -0.736 -1.42 4.331
 -0.709 -1.419 4.331
 -0.682 -1.418 4.33
 -0.656 -1.417 4.332
 -0.63 -1.416 4.332
 -0.603 -1.415 4.331
 -0.577 -1.416 4.335
 -0.551 -1.415 4.334
 -0.524 -1.413 4.33
 -0.498 -1.412 4.331
 -0.472 -1.411 4.331
 -0.446 -1.41 4.327
 -0.42 -1.409 4.326
 -0.393 -1.407 4.322
 -0.367 -1.405 4.319
 -0.341 -1.405 4.318
 -0.315 -1.404 4.317
 -0.29 -1.403 4.316
 -0.264 -1.404 4.318
 -0.238 -1.402 4.314
 -0.212 -1.401 4.312
 -0.186 -1.4 4.307
 -0.161 -1.398 4.302
 -0.135 -1.396 4.297
 -0.109 -1.396 4.298
 -0.084 -1.395 4.293
 -0.058 -1.396 4.297
 -0.033 -1.396 4.299
 -0.007 -1.397 4.302
 0.017 -1.397 4.3
 0.043 -1.401 4.31
 0.068 -1.4 4.309
 0.094 -1.401 4.31
 0.119 -1.399 4.305
 0.145 -1.4 4.305
 0.17 -1.397 4.295
 0.196 -1.397 4.293
 0.221 -1.398 4.295
 0.247 -1.397 4.291
 0.272 -1.396 4.287
 0.297 -1.397 4.287
 0.323 -1.398 4.288
 0.348 -1.397 4.283
 0.374 -1.398 4.283
 0.4 -1.399 4.285
 0.426 -1.401 4.29
 0.452 -1.401 4.287
 0.477 -1.401 4.283
 0.503 -1.403 4.287
 0.528 -1.402 4.282
 0.554 -1.402 4.278
 0.579 -1.402 4.276
 0.606 -1.404 4.277
 0.631 -1.405 4.276
 0.657 -1.405 4.273
 0.683 -1.406 4.272
 0.709 -1.406 4.271
 0.735 -1.407 4.269
 0.761 -1.409 4.27
 0.788 -1.411 4.271
 0.814 -1.412 4.271
 0.841 -1.414 4.272
 0.868 -1.415 4.272
 0.894 -1.417 4.27
 0.921 -1.419 4.272
 0.947 -1.419 4.268
 0.973 -1.42 4.264
 0.999 -1.42 4.26
 1.026 -1.421 4.258
 1.053 -1.423 4.258
 1.082 -1.427 4.263
 1.109 -1.429 4.265
 1.137 -1.432 4.265
 1.165 -1.434 4.265
 1.192 -1.436 4.264
 1.219 -1.436 4.26
 1.247 -1.438 4.258
 1.275 -1.441 4.26
 1.303 -1.443 4.257
 1.331 -1.445 4.256
 1.358 -1.446 4.253
 1.386 -1.448 4.25
 1.413 -1.448 4.243
 1.441 -1.451 4.243
 1.47 -1.453 4.241
 1.499 -1.456 4.241
 1.529 -1.459 4.242
 1.559 -1.463 4.243
 1.587 -1.465 4.239
 1.615 -1.466 4.234
 1.644 -1.468 4.231
 1.672 -1.47 4.226
 1.701 -1.472 4.222
 1.73 -1.474 4.218
 1.759 -1.476 4.213
 1.785 -1.475 4.201
 1.81 -1.474 4.188
 1.831 -1.47 4.164
 1.852 -1.465 4.14
 1.872 -1.46 4.115
 1.889 -1.453 4.084
 0 0 0
 0 0 0
 0 0 0
 0 0 0
 0 0 0
 0 0 0
 0 0 0
 0 0 0
 0 0 0
 0.895 -0.607 1.646
 1.511 -1.009 2.739
 1.776 -1.172 3.173
 1.794 -1.17 3.157
 1.815 -1.17 3.145
 1.524 -0.972 2.6
 0 0 0
 0 0 0
 -0.124 -0.078 0.202
 -0.139 -0.088 0.231
 -0.087 -0.056 0.141
 -0.081 -0.053 0.133
 -0.077 -0.051 0.128
 -0.067 -0.045 0.111
 -0.058 -0.04 0.097
 -0.053 -0.037 0.089
 -0.046 -0.033 0.076
 -0.037 -0.027 0.06
 -0.031 -0.023 0.05
 -0.11 -0.079 0.212
 -0.186 -0.135 0.373
 -0.507 -0.37 1.059
 -0.903 -0.668 1.929
 -1.209 -0.905 2.629
 -1.504 -1.142 3.329
 -1.791 -1.38 4.035
 -1.836 -1.436 4.209
 -1.806 -1.433 4.21
 -1.847 -1.488 4.384
 -1.816 -1.485 4.385
 -1.783 -1.481 4.383
 -1.752 -1.479 4.385
 -1.719 -1.474 4.38
 -1.687 -1.471 4.38
 -1.656 -1.468 4.378
 -1.624 -1.464 4.376
 -1.592 -1.46 4.371
 -1.561 -1.457 4.37
 -1.53 -1.453 4.368
 -1.499 -1.449 4.364
 -1.469 -1.446 4.363
 -1.439 -1.444 4.364
 -1.409 -1.441 4.362
 -1.379 -1.439 4.361
 -1.349 -1.435 4.358
 -1.319 -1.432 4.354
 -1.29 -1.429 4.351
 -1.261 -1.427 4.351
 -1.232 -1.425 4.35
 -1.204 -1.423 4.352
 -1.176 -1.422 4.353
 -1.149 -1.421 4.356
 -1.12 -1.417 4.351
 -1.091 -1.415 4.35
 -1.063 -1.413 4.348
 -1.036 -1.412 4.349
 -1.007 -1.408 4.342
 -0.98 -1.408 4.345
 -0.952 -1.405 4.343
 -0.925 -1.404 4.343
 -0.897 -1.401 4.338
 -0.87 -1.401 4.341
 -0.843 -1.399 4.339
 -0.816 -1.398 4.341
 -0.789 -1.397 4.341
 -0.763 -1.396 4.343
 -0.736 -1.395 4.341
 -0.709 -1.393 4.34
 -0.682 -1.392 4.339
 -0.656 -1.391 4.339
 -0.63 -1.39 4.339
 -0.603 -1.39 4.341
 -0.578 -1.391 4.345
 -0.551 -1.389 4.342
 -0.524 -1.387 4.337
 -0.498 -1.387 4.339
 -0.472 -1.386 4.339
 -0.446 -1.384 4.335
 -0.42 -1.383 4.334
 -0.393 -1.38 4.325
 -0.367 -1.378 4.319
 -0.341 -1.377 4.318
 -0.314 -1.375 4.313
 -0.289 -1.374 4.312
 -0.263 -1.375 4.317
 -0.238 -1.374 4.314
 -0.212 -1.374 4.313
 -0.186 -1.373 4.312
 -0.16 -1.371 4.307
 -0.135 -1.37 4.304
 -0.109 -1.37 4.301
 -0.084 -1.368 4.297
 -0.058 -1.369 4.3
 -0.033 -1.369 4.3
 -0.007 -1.37 4.302
 0.017 -1.371 4.304
 0.043 -1.375 4.316
 0.069 -1.375 4.318
 0.094 -1.377 4.322
 0.12 -1.375 4.315
 0.145 -1.376 4.316
 0.17 -1.372 4.303
 0.196 -1.371 4.297
 0.221 -1.37 4.296
 0.246 -1.37 4.292
 0.272 -1.369 4.287
 0.297 -1.37 4.288
 0.323 -1.371 4.291
 0.349 -1.371 4.29
 0.374 -1.372 4.29
 0.4 -1.373 4.289
 0.426 -1.374 4.293
 0.451 -1.374 4.29
 0.477 -1.374 4.286
 0.503 -1.377 4.292
 0.529 -1.377 4.289
 0.554 -1.376 4.283
 0.579 -1.376 4.28
 0.605 -1.377 4.282
 0.631 -1.378 4.28
 0.657 -1.379 4.281
 0.684 -1.381 4.283
 0.71 -1.382 4.28
 0.736 -1.383 4.279
 0.762 -1.384 4.28
 0.788 -1.385 4.278
 0.814 -1.386 4.277
 0.841 -1.388 4.279
 0.867 -1.388 4.276
 0.893 -1.389 4.273
 0.92 -1.391 4.272
 0.946 -1.391 4.268
 0.972 -1.391 4.264
 0.998 -1.392 4.262
 1.025 -1.394 4.26
 1.052 -1.395 4.259
 1.08 -1.398 4.262
 1.108 -1.401 4.264
 1.135 -1.402 4.263
 1.163 -1.405 4.264
 1.19 -1.406 4.263
 1.217 -1.408 4.26
 1.244 -1.409 4.257
 1.273 -1.412 4.258
 1.3 -1.413 4.254
 1.328 -1.415 4.254
 1.356 -1.417 4.253
 1.384 -1.419 4.25
 1.411 -1.42 4.246
