 0 0 0
 0 0 0
 0 0 0
 0 0 0
 0 0 0
 0 0 0
 0 0 0
 0 0 0
 0 0 0
 0 0 0
 0 0 0
 0 0 0
 0 0 0
 0 0 0
 0 0 0
 0 0 0
 0 0 0
 0 0 0
 0 0 0
 1.827 -1.252 3.156
 1.843 -1.255 3.16
 1.847 -1.251 3.143
 1.86 -1.252 3.14
 1.856 -1.243 3.111
 1.856 -1.235 3.087
 1.768 -1.17 2.918
 1.887 -1.242 3.092
 0 0 0
 -2.419 -1.604 4.144
 -2.415 -1.611 4.167
 -2.406 -1.614 4.184
 -2.386 -1.61 4.18
 -2.368 -1.608 4.181
 -2.35 -1.605 4.18
 -2.335 -1.605 4.186
 -2.313 -1.599 4.178
 -2.301 -1.601 4.189
 -2.294 -1.605 4.208
 -2.281 -1.607 4.217
 -2.263 -1.604 4.217
 -2.251 -1.605 4.226
 -2.236 -1.605 4.231
 -2.217 -1.601 4.228
 -2.196 -1.596 4.222
 -2.186 -1.599 4.236
 -2.167 -1.596 4.232
 -2.152 -1.595 4.236
 -2.135 -1.593 4.237
 -2.122 -1.594 4.245
 -2.108 -1.594 4.251
 -2.093 -1.593 4.256
 -2.078 -1.592 4.258
 -2.064 -1.592 4.265
 -2.05 -1.592 4.27
 -2.031 -1.588 4.266
 -2.018 -1.589 4.273
 -2.005 -1.59 4.28
 -1.991 -1.59 4.286
 -1.977 -1.59 4.292
 -1.962 -1.589 4.294
 -1.946 -1.588 4.297
 -1.93 -1.586 4.298
 -1.913 -1.583 4.296
 -1.898 -1.583 4.299
 -1.884 -1.582 4.303
 -1.87 -1.582 4.307
 -1.853 -1.58 4.307
 -1.837 -1.578 4.306
 -1.822 -1.577 4.308
 -1.804 -1.573 4.304
 -1.786 -1.57 4.299
 -1.773 -1.57 4.304
 -1.758 -1.57 4.308
 -1.741 -1.567 4.305
 -1.727 -1.566 4.308
 -1.713 -1.566 4.313
 -1.696 -1.563 4.307
 -1.682 -1.563 4.312
 -1.667 -1.562 4.313
 -1.651 -1.56 4.312
 -1.637 -1.559 4.316
 -1.622 -1.558 4.317
 -1.604 -1.554 4.309
 -1.588 -1.551 4.307
 -1.575 -1.552 4.311
 -1.56 -1.55 4.312
 -1.543 -1.548 4.309
 -1.528 -1.546 4.308
 -1.514 -1.545 4.309
 -1.497 -1.542 4.305
 -1.482 -1.541 4.305
 -1.465 -1.537 4.298
 -1.45 -1.535 4.298
 -1.435 -1.534 4.297
 -1.422 -1.534 4.3
 -1.406 -1.531 4.296
 -1.394 -1.533 4.305
 -1.38 -1.533 4.308
 -1.365 -1.531 4.307
 -1.352 -1.531 4.31
 -1.337 -1.529 4.309
 -1.321 -1.527 4.306
 -1.308 -1.526 4.307
 -1.293 -1.524 4.305
 -1.277 -1.522 4.301
 -1.263 -1.521 4.302
 -1.25 -1.521 4.306
 -1.235 -1.52 4.304
 -1.221 -1.518 4.303
 -1.207 -1.517 4.303
 -1.193 -1.516 4.304
 -1.178 -1.514 4.301
 -1.163 -1.513 4.3
 -1.15 -1.512 4.302
 -1.136 -1.511 4.302
 -1.121 -1.509 4.297
 -1.106 -1.507 4.293
 -1.091 -1.504 4.288
 -1.078 -1.505 4.295
 -1.064 -1.504 4.293
 -1.051 -1.503 4.295
 -1.038 -1.504 4.3
 -1.025 -1.505 4.304
 -1.011 -1.503 4.301
 -0.997 -1.502 4.301
 -0.983 -1.5 4.298
 -0.968 -1.498 4.293
 -0.955 -1.498 4.295
 -0.941 -1.496 4.292
 -0.927 -1.495 4.293
 -0.914 -1.495 4.295
 -0.902 -1.496 4.3
 -0.888 -1.495 4.298
 -0.874 -1.494 4.298
 -0.86 -1.492 4.293
 -0.847 -1.492 4.297
 -0.832 -1.489 4.29
 -0.819 -1.488 4.289
 -0.806 -1.489 4.292
 -0.793 -1.489 4.295
 -0.779 -1.487 4.291
 -0.766 -1.488 4.295
 -0.754 -1.488 4.298
 -0.74 -1.486 4.293
 -0.726 -1.484 4.289
 -0.713 -1.484 4.291
 -0.699 -1.482 4.287
 -0.686 -1.481 4.287
 -0.672 -1.481 4.285
 -0.66 -1.481 4.289
 -0.646 -1.48 4.286
 -0.634 -1.482 4.293
 -0.62 -1.479 4.287
 -0.607 -1.478 4.286
 -0.593 -1.477 4.282
 -0.579 -1.475 4.278
 -0.566 -1.472 4.272
 -0.553 -1.473 4.275
 -0.54 -1.473 4.276
 -0.527 -1.473 4.277
 -0.515 -1.474 4.283
 -0.502 -1.475 4.285
 -0.489 -1.474 4.283
 -0.476 -1.474 4.286
 -0.464 -1.475 4.288
 -0.45 -1.472 4.282
 -0.436 -1.47 4.275
 -0.424 -1.47 4.278
 -0.411 -1.469 4.276
 -0.398 -1.468 4.274
 -0.385 -1.47 4.279
 -0.372 -1.47 4.279
 -0.36 -1.47 4.281
 -0.347 -1.471 4.284
 -0.334 -1.471 4.285
 -0.321 -1.467 4.274
 -0.308 -1.467 4.275
 -0.295 -1.465 4.269
 -0.281 -1.463 4.264
 -0.269 -1.462 4.263
 -0.257 -1.467 4.275
 -0.244 -1.466 4.274
 -0.231 -1.465 4.273
 -0.218 -1.465 4.273
 -0.205 -1.465 4.271
 -0.192 -1.463 4.267
 -0.18 -1.463 4.268
 -0.167 -1.463 4.268
 -0.154 -1.464 4.27
 -0.141 -1.464 4.271
 -0.129 -1.466 4.276
 -0.116 -1.464 4.271
 -0.103 -1.464 4.271
 -0.09 -1.463 4.267
 -0.078 -1.464 4.27
 -0.065 -1.462 4.266
 -0.052 -1.463 4.268
 -0.04 -1.464 4.271
 -0.027 -1.464 4.272
 -0.014 -1.462 4.265
 -0.001 -1.462 4.264
 0.01 -1.462 4.266
 0.023 -1.462 4.265
 0.036 -1.461 4.26
 0.048 -1.462 4.265
 0.061 -1.462 4.265
 0.074 -1.462 4.264
 0.086 -1.461 4.259
 0.099 -1.462 4.263
 0.112 -1.461 4.259
 0.124 -1.46 4.256
 0.137 -1.459 4.253
 0.15 -1.46 4.254
 0.163 -1.461 4.258
 0.175 -1.461 4.256
 0.188 -1.46 4.252
 0.201 -1.462 4.258
 0.214 -1.463 4.26
 0.226 -1.461 4.253
 0.239 -1.463 4.259
 0.252 -1.465 4.265
 0.265 -1.466 4.266
 0.278 -1.466 4.264
 0.291 -1.467 4.267
 0.303 -1.466 4.264
 0.316 -1.466 4.262
 0.328 -1.464 4.256
 0.341 -1.464 4.254
 0.353 -1.464 4.254
 0.366 -1.464 4.254
 0.379 -1.465 4.255
 0.392 -1.465 4.254
 0.405 -1.467 4.258
 0.417 -1.466 4.253
 0.43 -1.466 4.251
 0.443 -1.467 4.255
 0.456 -1.466 4.251
 0.468 -1.466 4.248
 0.481 -1.467 4.25
 0.494 -1.467 4.249
 0.506 -1.465 4.242
 0.519 -1.467 4.245
 0.532 -1.466 4.242
 0.545 -1.467 4.244
 0.557 -1.467 4.241
 0.571 -1.468 4.244
 0.584 -1.47 4.246
 0.598 -1.471 4.25
 0.61 -1.472 4.249
 0.625 -1.475 4.257
 0.637 -1.474 4.251
 0.649 -1.472 4.244
 0.662 -1.472 4.243
 0.675 -1.473 4.244
 0.688 -1.474 4.244
 0.701 -1.475 4.245
 0.715 -1.478 4.252
 0.728 -1.478 4.251
 0.741 -1.478 4.247
 0.753 -1.477 4.243
 0.768 -1.481 4.252
 0.78 -1.479 4.244
 0.792 -1.479 4.242
 0.805 -1.479 4.24
 0.819 -1.48 4.241
 0.83 -1.477 4.231
 0.844 -1.479 4.234
 0.857 -1.481 4.236
 0.871 -1.482 4.237
 0.884 -1.483 4.238
 0.898 -1.484 4.238
 0.912 -1.486 4.24
 0.924 -1.485 4.235
 0.939 -1.488 4.241
 0.951 -1.488 4.238
 0.965 -1.489 4.24
 0.978 -1.489 4.237
 0.991 -1.49 4.237
 1.004 -1.49 4.234
 1.018 -1.491 4.233
 1.031 -1.492 4.233
 1.045 -1.494 4.236
 1.059 -1.495 4.237
 1.073 -1.496 4.237
 1.087 -1.498 4.239
 1.1 -1.498 4.235
 1.114 -1.499 4.235
 1.127 -1.5 4.235
 1.14 -1.5 4.231
 1.153 -1.5 4.229
 1.167 -1.501 4.23
 1.181 -1.503 4.23
 1.195 -1.504 4.23
 1.209 -1.505 4.231
 1.222 -1.505 4.225
 1.236 -1.506 4.225
 1.249 -1.506 4.222
 1.262 -1.506 4.218
 1.274 -1.505 4.211
 1.289 -1.507 4.216
 1.302 -1.508 4.213
 1.317 -1.509 4.213
 1.331 -1.511 4.213
 1.345 -1.512 4.212
 1.36 -1.514 4.215
 1.373 -1.514 4.213
 1.388 -1.516 4.214
 1.403 -1.518 4.215
 1.419 -1.522 4.221
 1.433 -1.522 4.219
 1.449 -1.525 4.222
 1.461 -1.524 4.215
 1.474 -1.524 4.211
 1.487 -1.524 4.207
 1.501 -1.525 4.205
 1.516 -1.527 4.206
 1.53 -1.528 4.203
 1.545 -1.529 4.204
 1.559 -1.531 4.203
 1.573 -1.531 4.198
 1.586 -1.531 4.194
 1.601 -1.533 4.195
 1.615 -1.533 4.192
 1.629 -1.534 4.189
 1.644 -1.536 4.189
 1.657 -1.535 4.183
 1.672 -1.538 4.185
 1.689 -1.541 4.187
 1.703 -1.541 4.185
 1.718 -1.543 4.184
 1.732 -1.544 4.181
 1.744 -1.543 4.173
 1.758 -1.543 4.17
 1.772 -1.544 4.166
 1.786 -1.545 4.163
 1.801 -1.546 4.161
 1.815 -1.546 4.157
 1.825 -1.544 4.145
 1.836 -1.542 4.135
 1.845 -1.538 4.119
 1.851 -1.532 4.098
 1.857 -1.527 4.077
 1.862 -1.52 4.053
 1.865 -1.512 4.027
 1.871 -1.506 4.006
 1.879 -1.503 3.991
 1.888 -1.499 3.975
 1.898 -1.497 3.963
 1.908 -1.495 3.952
 1.918 -1.493 3.942
 1.922 -1.486 3.917
 0 0 0
 0 0 0
 0 0 0
 0 0 0
 0 0 0
 0 0 0
 0 0 0
 0 0 0
 0 0 0
 0 0 0
 0 0 0
 0 0 0
 0 0 0
 0 0 0
 0 0 0
 0 0 0
 0 0 0
 0 0 0
 0 0 0
 0 0 0
 1.816 -1.233 3.14
 1.835 -1.239 3.148
 1.841 -1.236 3.136
 1.855 -1.238 3.135
 1.854 -1.231 3.111
 1.855 -1.224 3.089
 1.829 -1.2 3.023
 1.879 -1.226 3.083
 0 0 0
 0 0 0
 -2.426 -1.604 4.192
 -2.416 -1.607 4.206
 -2.394 -1.601 4.199
 -2.38 -1.602 4.207
 -2.359 -1.597 4.202
 -2.348 -1.6 4.215
 -2.331 -1.597 4.215
 -2.319 -1.599 4.227
 -2.31 -1.602 4.242
 -2.295 -1.602 4.248
 -2.278 -1.6 4.25
 -2.264 -1.6 4.256
 -2.251 -1.601 4.264
 -2.229 -1.595 4.256
 -2.213 -1.594 4.259
 -2.2 -1.596 4.269
 -2.178 -1.589 4.258
 -2.162 -1.588 4.261
 -2.147 -1.588 4.266
 -2.13 -1.586 4.266
 -2.117 -1.586 4.274
 -2.103 -1.586 4.279
 -2.086 -1.584 4.28
 -2.071 -1.583 4.283
 -2.057 -1.584 4.29
 -2.039 -1.581 4.288
 -2.025 -1.58 4.292
 -2.011 -1.581 4.298
 -1.996 -1.58 4.302
 -1.982 -1.58 4.307
 -1.966 -1.578 4.309
 -1.95 -1.577 4.31
 -1.933 -1.574 4.308
 -1.917 -1.572 4.308
 -1.9 -1.57 4.308
 -1.884 -1.568 4.307
 -1.869 -1.568 4.312
 -1.853 -1.566 4.31
 -1.837 -1.564 4.31
 -1.821 -1.562 4.311
 -1.804 -1.56 4.309
 -1.786 -1.556 4.303
 -1.774 -1.557 4.312
 -1.759 -1.556 4.313
 -1.742 -1.554 4.311
 -1.728 -1.553 4.315
 -1.715 -1.554 4.321
 -1.696 -1.55 4.314
 -1.682 -1.549 4.317
 -1.668 -1.548 4.319
 -1.651 -1.546 4.317
 -1.635 -1.544 4.315
 -1.621 -1.543 4.318
 -1.603 -1.539 4.311
 -1.586 -1.536 4.307
 -1.572 -1.536 4.31
 -1.56 -1.537 4.317
 -1.544 -1.534 4.314
 -1.529 -1.533 4.314
 -1.516 -1.534 4.32
 -1.499 -1.531 4.315
 -1.482 -1.527 4.31
 -1.465 -1.524 4.304
 -1.451 -1.523 4.304
 -1.434 -1.519 4.298
 -1.422 -1.52 4.305
 -1.406 -1.518 4.303
 -1.395 -1.521 4.314
 -1.382 -1.521 4.317
 -1.367 -1.52 4.318
 -1.353 -1.518 4.317
 -1.337 -1.516 4.314
 -1.321 -1.513 4.307
 -1.306 -1.511 4.306
 -1.291 -1.509 4.303
 -1.275 -1.506 4.298
 -1.262 -1.506 4.301
 -1.248 -1.506 4.305
 -1.234 -1.505 4.304
 -1.219 -1.503 4.302
 -1.205 -1.502 4.301
 -1.192 -1.502 4.305
 -1.177 -1.5 4.301
 -1.163 -1.499 4.302
 -1.15 -1.499 4.306
 -1.136 -1.499 4.307
 -1.121 -1.496 4.302
 -1.107 -1.495 4.302
 -1.092 -1.493 4.298
 -1.079 -1.493 4.301
 -1.065 -1.491 4.3
 -1.051 -1.491 4.301
 -1.039 -1.492 4.305
 -1.025 -1.491 4.306
 -1.011 -1.49 4.307
 -0.998 -1.49 4.307
 -0.983 -1.487 4.302
 -0.969 -1.486 4.3
 -0.956 -1.486 4.303
 -0.94 -1.482 4.293
 -0.927 -1.481 4.294
 -0.913 -1.481 4.294
 -0.9 -1.48 4.294
 -0.885 -1.478 4.29
 -0.873 -1.478 4.293
 -0.858 -1.475 4.286
 -0.845 -1.475 4.289
 -0.831 -1.473 4.286
 -0.817 -1.472 4.284
 -0.804 -1.472 4.286
 -0.792 -1.473 4.291
 -0.778 -1.472 4.29
 -0.765 -1.473 4.293
 -0.753 -1.473 4.297
 -0.739 -1.472 4.293
 -0.725 -1.469 4.288
 -0.712 -1.469 4.288
 -0.698 -1.467 4.285
 -0.685 -1.467 4.287
 -0.672 -1.468 4.29
 -0.66 -1.47 4.296
 -0.647 -1.469 4.297
 -0.635 -1.471 4.304
 -0.621 -1.469 4.298
 -0.607 -1.467 4.294
 -0.593 -1.464 4.288
 -0.58 -1.463 4.284
 -0.566 -1.459 4.276
 -0.553 -1.46 4.278
 -0.54 -1.461 4.282
 -0.528 -1.461 4.285
 -0.515 -1.462 4.287
 -0.502 -1.462 4.29
 -0.489 -1.461 4.288
 -0.476 -1.461 4.287
 -0.463 -1.46 4.287
 -0.45 -1.459 4.284
 -0.436 -1.457 4.279
 -0.424 -1.457 4.279
 -0.41 -1.456 4.278
 -0.397 -1.455 4.276
 -0.385 -1.456 4.278
 -0.372 -1.455 4.278
 -0.359 -1.456 4.281
 -0.347 -1.457 4.284
 -0.334 -1.456 4.284
 -0.32 -1.453 4.275
 -0.308 -1.455 4.28
 -0.295 -1.453 4.275
 -0.282 -1.451 4.27
 -0.269 -1.452 4.274
 -0.257 -1.455 4.283
 -0.244 -1.453 4.279
 -0.231 -1.453 4.277
 -0.218 -1.453 4.279
 -0.205 -1.452 4.275
 -0.192 -1.449 4.268
 -0.18 -1.451 4.273
 -0.167 -1.45 4.271
 -0.154 -1.451 4.274
 -0.141 -1.451 4.275
 -0.129 -1.453 4.28
 -0.116 -1.451 4.273
 -0.103 -1.452 4.276
 -0.09 -1.449 4.269
 -0.078 -1.45 4.272
 -0.065 -1.45 4.271
 -0.052 -1.45 4.272
 -0.039 -1.451 4.273
 -0.027 -1.451 4.275
 -0.014 -1.449 4.266
 -0.001 -1.448 4.264
 0.01 -1.449 4.267
 0.023 -1.449 4.268
 0.036 -1.448 4.263
 0.049 -1.45 4.269
 0.061 -1.45 4.269
 0.074 -1.447 4.26
 0.086 -1.445 4.253
 0.099 -1.446 4.256
 0.112 -1.445 4.254
 0.124 -1.444 4.25
 0.137 -1.446 4.256
 0.15 -1.447 4.257
 0.163 -1.449 4.264
 0.176 -1.449 4.263
 0.188 -1.449 4.262
 0.201 -1.45 4.263
 0.214 -1.45 4.263
 0.226 -1.447 4.254
 0.239 -1.448 4.257
 0.252 -1.449 4.258
 0.264 -1.449 4.257
 0.277 -1.449 4.257
 0.29 -1.451 4.262
 0.302 -1.449 4.256
 0.315 -1.45 4.257
 0.328 -1.45 4.255
 0.341 -1.451 4.256
 0.353 -1.451 4.256
 0.367 -1.453 4.261
 0.379 -1.452 4.258
 0.392 -1.452 4.256
 0.405 -1.452 4.255
 0.417 -1.45 4.248
 0.429 -1.449 4.243
 0.442 -1.451 4.248
 0.455 -1.451 4.246
 0.467 -1.45 4.243
 0.481 -1.452 4.248
 0.494 -1.453 4.249
 0.506 -1.452 4.245
 0.519 -1.453 4.247
 0.532 -1.454 4.248
 0.545 -1.455 4.249
 0.558 -1.455 4.248
 0.571 -1.456 4.248
 0.584 -1.456 4.248
 0.597 -1.458 4.25
 0.61 -1.458 4.249
 0.623 -1.459 4.252
 0.636 -1.459 4.25
 0.649 -1.459 4.247
 0.661 -1.459 4.245
 0.675 -1.46 4.247
 0.688 -1.461 4.246
 0.7 -1.461 4.245
 0.714 -1.462 4.245
 0.727 -1.463 4.246
 0.739 -1.461 4.24
 0.752 -1.462 4.239
 0.766 -1.465 4.246
 0.779 -1.464 4.243
 0.792 -1.466 4.245
 0.806 -1.467 4.246
 0.819 -1.468 4.246
 0.831 -1.466 4.238
 0.844 -1.467 4.24
 0.857 -1.467 4.238
 0.87 -1.468 4.238
 0.883 -1.469 4.237
 0.897 -1.47 4.237
 0.911 -1.471 4.239
 0.923 -1.47 4.234
 0.937 -1.473 4.239
 0.951 -1.474 4.24
 0.965 -1.475 4.24
 0.977 -1.475 4.237
 0.991 -1.476 4.238
 1.004 -1.476 4.236
 1.016 -1.475 4.23
 1.03 -1.477 4.232
 1.044 -1.479 4.235
 1.058 -1.48 4.235
 1.071 -1.481 4.234
 1.085 -1.482 4.234
 1.098 -1.482 4.23
 1.112 -1.483 4.231
 1.126 -1.484 4.232
 1.139 -1.484 4.229
 1.153 -1.486 4.231
 1.166 -1.487 4.23
 1.18 -1.487 4.227
 1.193 -1.488 4.226
 1.206 -1.488 4.224
 1.22 -1.489 4.222
 1.234 -1.49 4.222
 1.248 -1.492 4.222
 1.262 -1.493 4.222
 1.275 -1.493 4.218
 1.289 -1.494 4.22
 1.302 -1.495 4.217
 1.317 -1.496 4.217
 1.33 -1.497 4.215
 1.344 -1.498 4.214
 1.358 -1.499 4.214
 1.372 -1.499 4.211
 1.387 -1.501 4.213
 1.402 -1.504 4.215
 1.418 -1.507 4.22
 1.432 -1.508 4.22
 1.448 -1.511 4.225
 1.46 -1.51 4.216
 1.473 -1.51 4.212
 1.487 -1.511 4.21
 1.5 -1.511 4.206
 1.515 -1.512 4.206
 1.529 -1.513 4.204
 1.544 -1.515 4.204
 1.558 -1.516 4.203
 1.572 -1.517 4.2
 1.586 -1.517 4.198
 1.601 -1.52 4.2
 1.616 -1.521 4.199
 1.63 -1.522 4.197
 1.645 -1.524 4.197
 1.659 -1.524 4.193
 1.674 -1.526 4.193
 1.69 -1.528 4.194
 1.704 -1.529 4.191
 1.717 -1.529 4.187
 1.732 -1.53 4.186
 1.745 -1.53 4.179
 1.759 -1.531 4.176
 1.773 -1.531 4.173
 1.789 -1.534 4.174
 1.802 -1.534 4.169
 1.816 -1.534 4.164
 1.826 -1.532 4.152
 1.837 -1.53 4.142
 1.845 -1.525 4.124
 1.852 -1.52 4.105
 1.858 -1.514 4.084
 1.864 -1.509 4.063
 1.87 -1.502 4.04
 1.876 -1.497 4.021
 1.886 -1.495 4.008
 1.896 -1.492 3.996
 1.906 -1.49 3.985
 1.919 -1.49 3.979
 1.934 -1.492 3.978
 0 0 0
 0 0 0
 0 0 0
 0 0 0
 0 0 0
 0 0 0
 0 0 0
 0 0 0
 0 0 0
 0 0 0
 0 0 0
 0 0 0
 0 0 0
 0 0 0
 0 0 0
 0 0 0
 0 0 0
 0 0 0
 0 0 0
 0 0 0
 1.788 -1.21 3.118
 1.813 -1.221 3.139
 1.829 -1.224 3.142
 1.839 -1.223 3.135
 1.852 -1.226 3.135
 1.855 -1.221 3.116
 1.858 -1.215 3.097
 1.858 -1.209 3.075
 1.858 -1.202 3.051
 0 0 0
 -2.466 -1.606 4.233
 -2.452 -1.607 4.243
 -2.436 -1.606 4.247
 -2.421 -1.606 4.253
 -2.406 -1.605 4.258
 -2.389 -1.603 4.26
 -2.375 -1.603 4.267
 -2.356 -1.6 4.266
 -2.341 -1.6 4.272
 -2.33 -1.602 4.284
 -2.31 -1.599 4.281
 -2.292 -1.596 4.28
 -2.278 -1.596 4.287
 -2.263 -1.596 4.293
 -2.238 -1.588 4.279
 -2.224 -1.588 4.286
 -2.213 -1.59 4.297
 -2.191 -1.585 4.288
 -2.173 -1.582 4.288
 -2.158 -1.582 4.292
 -2.14 -1.579 4.291
 -2.124 -1.578 4.293
 -2.109 -1.577 4.298
 -2.095 -1.577 4.303
 -2.08 -1.576 4.307
 -2.065 -1.576 4.311
 -2.047 -1.573 4.309
 -2.031 -1.571 4.31
 -2.015 -1.57 4.311
 -2 -1.569 4.315
 -1.985 -1.568 4.319
 -1.969 -1.567 4.32
 -1.954 -1.566 4.323
 -1.938 -1.564 4.324
 -1.921 -1.562 4.322
 -1.904 -1.56 4.322
 -1.889 -1.559 4.325
 -1.873 -1.557 4.325
 -1.856 -1.555 4.323
 -1.84 -1.552 4.322
 -1.824 -1.551 4.322
 -1.806 -1.547 4.317
 -1.788 -1.544 4.313
 -1.775 -1.545 4.32
 -1.759 -1.543 4.32
 -1.743 -1.54 4.317
 -1.728 -1.539 4.319
 -1.715 -1.54 4.325
 -1.696 -1.535 4.316
 -1.681 -1.535 4.319
 -1.667 -1.535 4.323
 -1.652 -1.533 4.322
 -1.635 -1.53 4.318
 -1.622 -1.531 4.326
 -1.605 -1.528 4.321
 -1.588 -1.524 4.316
 -1.574 -1.524 4.318
 -1.561 -1.524 4.324
 -1.545 -1.522 4.321
 -1.531 -1.522 4.326
 -1.517 -1.522 4.329
 -1.501 -1.519 4.325
 -1.484 -1.516 4.32
 -1.467 -1.512 4.312
 -1.451 -1.509 4.309
 -1.436 -1.508 4.307
 -1.422 -1.507 4.31
 -1.407 -1.506 4.31
 -1.396 -1.508 4.32
 -1.383 -1.508 4.324
 -1.367 -1.506 4.322
 -1.353 -1.506 4.323
 -1.338 -1.503 4.32
 -1.321 -1.5 4.314
 -1.305 -1.497 4.308
 -1.29 -1.495 4.304
 -1.274 -1.491 4.298
 -1.26 -1.491 4.3
 -1.246 -1.49 4.302
 -1.233 -1.491 4.306
 -1.218 -1.489 4.304
 -1.204 -1.487 4.302
 -1.19 -1.487 4.304
 -1.175 -1.485 4.3
 -1.161 -1.483 4.298
 -1.148 -1.484 4.305
 -1.134 -1.483 4.305
 -1.121 -1.482 4.305
 -1.107 -1.482 4.306
 -1.093 -1.481 4.305
 -1.079 -1.48 4.306
 -1.066 -1.48 4.309
 -1.051 -1.478 4.306
 -1.039 -1.479 4.309
 -1.024 -1.476 4.304
 -1.009 -1.474 4.302
 -0.996 -1.474 4.304
 -0.983 -1.474 4.305
 -0.969 -1.472 4.304
 -0.956 -1.473 4.309
 -0.941 -1.471 4.303
 -0.927 -1.469 4.301
 -0.913 -1.467 4.296
 -0.899 -1.465 4.293
 -0.884 -1.463 4.29
 -0.871 -1.463 4.291
 -0.857 -1.462 4.289
 -0.845 -1.462 4.292
 -0.831 -1.461 4.291
 -0.818 -1.46 4.291
 -0.805 -1.461 4.296
 -0.792 -1.46 4.295
 -0.778 -1.459 4.292
 -0.765 -1.46 4.297
 -0.752 -1.459 4.297
 -0.738 -1.458 4.295
 -0.725 -1.456 4.292
 -0.711 -1.456 4.292
 -0.698 -1.455 4.289
 -0.685 -1.454 4.289
 -0.671 -1.453 4.288
 -0.659 -1.455 4.294
 -0.646 -1.455 4.297
 -0.634 -1.456 4.301
 -0.62 -1.455 4.299
 -0.607 -1.454 4.299
 -0.594 -1.452 4.294
 -0.58 -1.45 4.288
 -0.566 -1.448 4.285
 -0.553 -1.448 4.285
 -0.54 -1.447 4.285
 -0.527 -1.447 4.285
 -0.515 -1.448 4.289
 -0.502 -1.447 4.287
 -0.488 -1.446 4.286
 -0.476 -1.447 4.288
 -0.463 -1.446 4.287
 -0.45 -1.446 4.286
 -0.436 -1.443 4.281
 -0.424 -1.444 4.284
 -0.41 -1.443 4.282
 -0.398 -1.443 4.283
 -0.385 -1.444 4.286
 -0.372 -1.443 4.285
 -0.359 -1.443 4.285
 -0.347 -1.444 4.289
 -0.334 -1.445 4.29
 -0.321 -1.442 4.283
 -0.308 -1.442 4.285
 -0.295 -1.441 4.282
 -0.282 -1.439 4.276
 -0.269 -1.439 4.276
 -0.256 -1.441 4.283
 -0.244 -1.441 4.283
 -0.231 -1.44 4.281
 -0.218 -1.44 4.281
 -0.205 -1.438 4.276
 -0.192 -1.436 4.269
 -0.179 -1.437 4.273
 -0.167 -1.436 4.271
 -0.154 -1.437 4.274
 -0.141 -1.437 4.274
 -0.129 -1.439 4.279
 -0.116 -1.438 4.275
 -0.103 -1.439 4.279
 -0.09 -1.436 4.273
 -0.078 -1.437 4.275
 -0.065 -1.437 4.273
 -0.052 -1.436 4.271
 -0.039 -1.435 4.267
 -0.027 -1.436 4.271
 -0.014 -1.434 4.264
 -0.001 -1.434 4.263
 0.01 -1.434 4.264
 0.023 -1.435 4.268
 0.036 -1.434 4.265
 0.049 -1.436 4.27
 0.061 -1.436 4.27
 0.074 -1.435 4.265
 0.086 -1.432 4.256
 0.099 -1.432 4.258
 0.112 -1.432 4.254
 0.124 -1.43 4.249
 0.137 -1.432 4.255
 0.15 -1.434 4.261
 0.163 -1.435 4.263
 0.176 -1.436 4.265
 0.188 -1.437 4.267
 0.201 -1.437 4.267
 0.214 -1.437 4.268
 0.226 -1.437 4.265
 0.239 -1.437 4.265
 0.252 -1.437 4.265
 0.265 -1.438 4.267
 0.277 -1.437 4.262
 0.29 -1.438 4.263
 0.302 -1.436 4.256
 0.315 -1.437 4.259
 0.328 -1.435 4.253
 0.341 -1.437 4.257
 0.354 -1.438 4.259
 0.367 -1.44 4.265
 0.379 -1.438 4.257
 0.391 -1.438 4.255
 0.404 -1.438 4.255
 0.416 -1.436 4.248
 0.429 -1.435 4.243
 0.442 -1.437 4.25
 0.455 -1.438 4.25
 0.467 -1.437 4.245
 0.48 -1.438 4.248
 0.494 -1.44 4.252
 0.507 -1.441 4.252
 0.52 -1.442 4.254
 0.533 -1.443 4.256
 0.546 -1.444 4.256
 0.559 -1.444 4.256
 0.571 -1.442 4.25
 0.584 -1.442 4.248
 0.597 -1.443 4.25
 0.61 -1.444 4.249
 0.622 -1.444 4.248
 0.636 -1.445 4.249
 0.648 -1.444 4.244
 0.661 -1.445 4.245
 0.674 -1.446 4.247
 0.688 -1.447 4.249
 0.7 -1.447 4.247
 0.714 -1.448 4.248
 0.726 -1.448 4.244
 0.738 -1.446 4.236
 0.75 -1.446 4.235
 0.764 -1.448 4.238
 0.777 -1.448 4.236
 0.792 -1.451 4.244
 0.805 -1.453 4.247
 0.818 -1.452 4.243
 0.83 -1.452 4.24
 0.844 -1.453 4.241
 0.856 -1.453 4.237
 0.87 -1.454 4.237
 0.883 -1.455 4.24
 0.897 -1.457 4.241
 0.911 -1.458 4.243
 0.923 -1.458 4.239
 0.937 -1.459 4.24
 0.951 -1.461 4.243
 0.965 -1.462 4.244
 0.977 -1.462 4.24
 0.991 -1.462 4.24
 1.004 -1.463 4.238
 1.016 -1.461 4.231
 1.029 -1.463 4.232
 1.043 -1.464 4.233
 1.056 -1.464 4.23
 1.07 -1.466 4.232
 1.084 -1.467 4.232
 1.096 -1.466 4.228
 1.111 -1.469 4.232
 1.125 -1.471 4.234
 1.138 -1.471 4.231
 1.152 -1.472 4.232
 1.165 -1.472 4.228
 1.178 -1.472 4.225
 1.192 -1.474 4.226
 1.205 -1.474 4.224
 1.218 -1.474 4.219
 1.232 -1.475 4.221
 1.246 -1.476 4.22
 1.26 -1.477 4.218
 1.273 -1.478 4.217
 1.289 -1.481 4.223
 1.303 -1.482 4.222
 1.318 -1.484 4.224
 1.331 -1.485 4.223
 1.345 -1.485 4.22
 1.358 -1.486 4.218
 1.372 -1.486 4.215
 1.386 -1.487 4.214
 1.4 -1.489 4.215
 1.416 -1.492 4.22
 1.43 -1.493 4.219
 1.446 -1.496 4.222
 1.459 -1.495 4.216
 1.472 -1.496 4.213
 1.487 -1.497 4.214
 1.501 -1.498 4.213
 1.515 -1.499 4.211
 1.528 -1.499 4.207
 1.543 -1.501 4.206
 1.556 -1.5 4.201
 1.568 -1.5 4.195
 1.584 -1.502 4.196
 1.599 -1.504 4.199
 1.615 -1.507 4.2
 1.63 -1.509 4.201
 1.646 -1.511 4.202
 1.658 -1.51 4.195
 1.673 -1.511 4.194
 1.688 -1.513 4.194
 1.701 -1.513 4.189
 1.716 -1.514 4.187
 1.732 -1.517 4.189
 1.746 -1.517 4.185
 1.759 -1.517 4.181
 1.773 -1.518 4.178
 1.789 -1.52 4.179
 1.803 -1.521 4.175
 1.817 -1.521 4.171
 1.828 -1.52 4.161
 1.841 -1.519 4.154
 1.849 -1.515 4.137
 1.855 -1.509 4.116
 1.862 -1.504 4.097
 1.868 -1.498 4.075
 1.874 -1.493 4.053
 1.88 -1.487 4.034
 1.889 -1.484 4.02
 1.898 -1.481 4.005
 1.908 -1.479 3.994
 1.917 -1.476 3.979
 0 0 0
 0 0 0
 0 0 0
 0 0 0
 0 0 0
 0 0 0
 0 0 0
 0 0 0
 0 0 0
 0 0 0
 0 0 0
 0 0 0
 0 0 0
 0 0 0
 0 0 0
 0 0 0
 0 0 0
 0 0 0
 0 0 0
 0 0 0
 0 0 0
 0 0 0
 1.822 -1.216 3.157
 1.836 -1.218 3.157
 1.844 -1.216 3.148
 1.854 -1.216 3.141
 1.861 -1.213 3.129
 1.861 -1.206 3.105
 1.863 -1.201 3.087
 1.836 -1.177 3.018
 0 0 0
 -2.471 -1.595 4.248
 -2.468 -1.603 4.275
 -2.454 -1.603 4.282
 -2.441 -1.604 4.292
 -2.424 -1.602 4.294
 -2.403 -1.598 4.29
 -2.392 -1.6 4.303
 -2.369 -1.595 4.295
 -2.354 -1.594 4.3
 -2.343 -1.597 4.314
 -2.322 -1.593 4.309
 -2.303 -1.589 4.307
 -2.292 -1.592 4.319
 -2.275 -1.59 4.321
 -2.25 -1.583 4.307
 -2.236 -1.583 4.314
 -2.221 -1.582 4.319
 -2.197 -1.575 4.305
 -2.179 -1.573 4.305
 -2.164 -1.572 4.31
 -2.145 -1.568 4.305
 -2.128 -1.566 4.305
 -2.113 -1.566 4.31
 -2.098 -1.565 4.314
 -2.081 -1.563 4.314
 -2.064 -1.561 4.314
 -2.048 -1.559 4.315
 -2.032 -1.558 4.317
 -2.012 -1.553 4.31
 -1.998 -1.554 4.317
 -1.985 -1.554 4.323
 -1.97 -1.553 4.326
 -1.954 -1.552 4.328
 -1.94 -1.552 4.333
 -1.922 -1.549 4.329
 -1.906 -1.547 4.331
 -1.888 -1.544 4.327
 -1.872 -1.542 4.326
 -1.856 -1.54 4.326
 -1.839 -1.538 4.324
 -1.823 -1.536 4.324
 -1.807 -1.534 4.324
 -1.79 -1.532 4.323
 -1.776 -1.531 4.325
 -1.76 -1.53 4.326
 -1.743 -1.527 4.324
 -1.729 -1.527 4.326
 -1.715 -1.527 4.331
 -1.698 -1.524 4.326
 -1.683 -1.522 4.327
 -1.667 -1.521 4.327
 -1.651 -1.519 4.326
 -1.634 -1.516 4.321
 -1.62 -1.516 4.326
 -1.603 -1.512 4.32
 -1.588 -1.511 4.319
 -1.572 -1.509 4.319
 -1.559 -1.509 4.323
 -1.543 -1.507 4.321
 -1.53 -1.508 4.327
 -1.516 -1.507 4.328
 -1.499 -1.504 4.324
 -1.483 -1.501 4.321
 -1.467 -1.498 4.316
 -1.451 -1.496 4.313
 -1.436 -1.494 4.312
 -1.422 -1.494 4.315
 -1.407 -1.493 4.314
 -1.395 -1.494 4.321
 -1.381 -1.494 4.324
 -1.366 -1.492 4.322
 -1.352 -1.491 4.323
 -1.336 -1.489 4.32
 -1.321 -1.486 4.316
 -1.305 -1.483 4.31
 -1.289 -1.481 4.308
 -1.274 -1.479 4.304
 -1.26 -1.478 4.305
 -1.246 -1.477 4.306
 -1.232 -1.476 4.307
 -1.217 -1.474 4.303
 -1.203 -1.473 4.302
 -1.189 -1.472 4.304
 -1.175 -1.471 4.303
 -1.161 -1.47 4.302
 -1.148 -1.47 4.306
 -1.133 -1.469 4.305
 -1.12 -1.468 4.306
 -1.105 -1.466 4.303
 -1.091 -1.466 4.304
 -1.078 -1.466 4.308
 -1.065 -1.466 4.31
 -1.051 -1.464 4.307
 -1.038 -1.465 4.312
 -1.023 -1.462 4.307
 -1.008 -1.459 4.3
 -0.995 -1.459 4.303
 -0.982 -1.459 4.305
 -0.968 -1.458 4.305
 -0.955 -1.459 4.31
 -0.941 -1.458 4.307
 -0.927 -1.456 4.304
 -0.913 -1.454 4.301
 -0.899 -1.453 4.299
 -0.885 -1.452 4.297
 -0.872 -1.451 4.299
 -0.858 -1.45 4.298
 -0.845 -1.45 4.298
 -0.831 -1.448 4.293
 -0.817 -1.447 4.293
 -0.805 -1.447 4.297
 -0.791 -1.446 4.295
 -0.777 -1.445 4.294
 -0.765 -1.446 4.298
 -0.751 -1.445 4.297
 -0.738 -1.444 4.295
 -0.724 -1.442 4.291
 -0.71 -1.441 4.29
 -0.697 -1.44 4.289
 -0.684 -1.439 4.287
 -0.67 -1.438 4.286
 -0.658 -1.44 4.293
 -0.645 -1.44 4.294
 -0.633 -1.44 4.297
 -0.62 -1.44 4.297
 -0.607 -1.44 4.297
 -0.593 -1.439 4.295
 -0.58 -1.437 4.293
 -0.567 -1.436 4.292
 -0.554 -1.436 4.292
 -0.54 -1.435 4.291
 -0.527 -1.435 4.29
 -0.515 -1.436 4.293
 -0.501 -1.434 4.288
 -0.488 -1.432 4.285
 -0.475 -1.432 4.285
 -0.462 -1.431 4.283
 -0.449 -1.43 4.282
 -0.436 -1.429 4.28
 -0.423 -1.431 4.287
 -0.41 -1.431 4.287
 -0.398 -1.431 4.288
 -0.385 -1.432 4.291
 -0.372 -1.43 4.287
 -0.359 -1.429 4.283
 -0.346 -1.429 4.284
 -0.333 -1.429 4.284
 -0.32 -1.426 4.278
 -0.307 -1.427 4.281
 -0.294 -1.427 4.28
 -0.281 -1.425 4.277
 -0.268 -1.424 4.275
 -0.256 -1.426 4.279
 -0.243 -1.426 4.281
 -0.23 -1.426 4.28
 -0.218 -1.426 4.28
 -0.205 -1.426 4.281
 -0.192 -1.424 4.277
 -0.18 -1.426 4.282
 -0.167 -1.424 4.277
 -0.154 -1.425 4.28
 -0.141 -1.425 4.278
 -0.128 -1.426 4.281
 -0.116 -1.423 4.275
 -0.103 -1.426 4.282
 -0.09 -1.423 4.275
 -0.077 -1.424 4.278
 -0.065 -1.423 4.274
 -0.052 -1.423 4.273
 -0.039 -1.42 4.265
 -0.027 -1.423 4.272
 -0.014 -1.419 4.262
 -0.001 -1.42 4.264
 0.011 -1.42 4.263
 0.023 -1.42 4.265
 0.036 -1.419 4.26
 0.049 -1.42 4.264
 0.061 -1.421 4.266
 0.074 -1.419 4.261
 0.086 -1.418 4.257
 0.099 -1.419 4.26
 0.112 -1.419 4.259
 0.124 -1.418 4.255
 0.137 -1.42 4.262
 0.15 -1.422 4.266
 0.163 -1.423 4.269
 0.176 -1.424 4.27
 0.188 -1.423 4.268
 0.201 -1.424 4.27
 0.214 -1.425 4.273
 0.227 -1.424 4.269
 0.239 -1.424 4.267
 0.252 -1.425 4.269
 0.265 -1.425 4.268
 0.277 -1.424 4.264
 0.29 -1.424 4.264
 0.302 -1.422 4.258
 0.315 -1.422 4.257
 0.327 -1.422 4.255
 0.34 -1.423 4.257
 0.354 -1.425 4.263
 0.367 -1.427 4.267
 0.379 -1.425 4.261
 0.391 -1.423 4.254
 0.404 -1.423 4.253
 0.416 -1.421 4.243
 0.428 -1.42 4.24
 0.442 -1.423 4.247
 0.455 -1.424 4.249
 0.467 -1.423 4.246
 0.48 -1.424 4.247
 0.494 -1.426 4.253
 0.506 -1.427 4.254
 0.52 -1.428 4.255
 0.533 -1.429 4.257
 0.546 -1.431 4.26
 0.559 -1.431 4.258
 0.57 -1.428 4.25
 0.583 -1.428 4.248
 0.596 -1.429 4.249
 0.609 -1.43 4.248
 0.622 -1.43 4.247
 0.635 -1.431 4.249
 0.648 -1.431 4.247
 0.661 -1.432 4.248
 0.674 -1.433 4.249
 0.687 -1.434 4.25
 0.7 -1.434 4.248
 0.712 -1.433 4.244
 0.725 -1.433 4.243
 0.737 -1.432 4.237
 0.75 -1.433 4.238
 0.764 -1.434 4.24
 0.778 -1.436 4.244
 0.791 -1.438 4.246
 0.805 -1.439 4.248
 0.817 -1.438 4.243
 0.83 -1.438 4.24
 0.843 -1.439 4.241
 0.856 -1.439 4.239
 0.869 -1.44 4.239
 0.883 -1.442 4.242
 0.896 -1.443 4.241
 0.91 -1.443 4.241
 0.922 -1.443 4.237
 0.936 -1.444 4.238
 0.95 -1.446 4.242
 0.964 -1.448 4.245
 0.977 -1.448 4.241
 0.99 -1.448 4.24
 1.003 -1.449 4.238
 1.015 -1.448 4.232
 1.028 -1.449 4.232
 1.042 -1.449 4.232
 1.055 -1.45 4.232
 1.069 -1.452 4.233
 1.083 -1.453 4.234
 1.096 -1.454 4.232
 1.111 -1.456 4.237
 1.125 -1.457 4.236
 1.138 -1.458 4.236
 1.152 -1.459 4.234
 1.165 -1.458 4.23
 1.177 -1.458 4.226
 1.192 -1.46 4.228
 1.205 -1.46 4.225
 1.217 -1.459 4.22
 1.231 -1.461 4.221
 1.245 -1.462 4.221
 1.259 -1.463 4.22
 1.272 -1.463 4.217
 1.288 -1.466 4.223
 1.302 -1.467 4.221
 1.316 -1.469 4.224
 1.331 -1.471 4.224
 1.344 -1.471 4.222
 1.359 -1.473 4.222
 1.372 -1.474 4.221
 1.387 -1.475 4.221
 1.401 -1.476 4.22
 1.415 -1.478 4.221
 1.429 -1.479 4.219
 1.445 -1.481 4.222
 1.457 -1.48 4.215
 1.47 -1.481 4.213
 1.486 -1.483 4.216
 1.5 -1.483 4.212
 1.514 -1.484 4.211
 1.529 -1.486 4.211
 1.544 -1.488 4.212
 1.556 -1.487 4.205
 1.57 -1.488 4.203
 1.586 -1.49 4.205
 1.599 -1.491 4.201
 1.614 -1.492 4.2
 1.629 -1.494 4.201
 1.644 -1.496 4.202
 1.657 -1.496 4.197
 1.672 -1.497 4.197
 1.687 -1.499 4.195
 1.7 -1.499 4.191
 1.714 -1.499 4.188
 1.73 -1.502 4.189
 1.745 -1.503 4.188
 1.759 -1.504 4.185
 1.774 -1.505 4.182
 1.79 -1.508 4.185
 1.803 -1.508 4.179
 1.818 -1.508 4.176
 1.829 -1.507 4.167
 1.843 -1.508 4.163
 1.851 -1.503 4.145
 1.859 -1.499 4.128
 1.867 -1.494 4.11
 1.873 -1.489 4.09
 1.878 -1.483 4.067
 1.886 -1.479 4.051
 1.896 -1.476 4.037
 1.904 -1.472 4.022
 1.914 -1.47 4.01
 1.925 -1.469 4.001
 0 0 0
 0 0 0
 0 0 0
 0 0 0
 0 0 0
 0 0 0
 0 0 0
 0 0 0
 0 0 0
 0 0 0
 0 0 0
 0 0 0
 0 0 0
 0 0 0
 0 0 0
 0 0 0
 0 0 0
 0 0 0
 0 0 0
 0 0 0
 0 0 0
 0 0 0
 1.816 -1.201 3.15
 1.831 -1.204 3.153
 1.843 -1.205 3.149
 1.854 -1.205 3.144
 1.863 -1.204 3.136
 1.862 -1.196 3.111
 1.875 -1.198 3.109
 1.839 -1.169 3.027
 -2.525 -1.606 4.313
 0 0 0
 -2.477 -1.594 4.295
 -2.457 -1.591 4.293
 -2.448 -1.594 4.309
 -2.433 -1.594 4.315
 -2.419 -1.594 4.323
 -2.403 -1.593 4.328
 -2.38 -1.588 4.319
 -2.364 -1.587 4.323
 -2.349 -1.587 4.33
 -2.326 -1.581 4.32
 -2.306 -1.577 4.317
 -2.293 -1.578 4.326
 -2.275 -1.575 4.325
 -2.252 -1.57 4.315
 -2.238 -1.569 4.321
 -2.222 -1.569 4.325
 -2.201 -1.564 4.319
 -2.184 -1.562 4.319
 -2.168 -1.56 4.321
 -2.148 -1.557 4.316
 -2.131 -1.554 4.316
 -2.115 -1.553 4.318
 -2.1 -1.553 4.323
 -2.083 -1.551 4.324
 -2.066 -1.548 4.323
 -2.05 -1.547 4.325
 -2.034 -1.545 4.325
 -2.015 -1.542 4.321
 -2.001 -1.542 4.327
 -1.988 -1.543 4.335
 -1.972 -1.541 4.337
 -1.958 -1.541 4.341
 -1.942 -1.54 4.342
 -1.924 -1.537 4.34
 -1.906 -1.534 4.336
 -1.889 -1.531 4.333
 -1.872 -1.528 4.33
 -1.855 -1.526 4.328
 -1.837 -1.523 4.325
 -1.823 -1.522 4.329
 -1.807 -1.521 4.33
 -1.792 -1.52 4.332
 -1.778 -1.52 4.337
 -1.763 -1.518 4.337
 -1.746 -1.516 4.334
 -1.73 -1.514 4.333
 -1.715 -1.513 4.335
 -1.698 -1.51 4.332
 -1.682 -1.508 4.331
 -1.666 -1.506 4.328
 -1.651 -1.505 4.329
 -1.632 -1.5 4.32
 -1.618 -1.5 4.323
 -1.601 -1.497 4.32
 -1.586 -1.496 4.32
 -1.57 -1.493 4.316
 -1.558 -1.495 4.326
 -1.541 -1.492 4.321
 -1.528 -1.492 4.326
 -1.514 -1.491 4.327
 -1.498 -1.489 4.325
 -1.481 -1.486 4.319
 -1.467 -1.485 4.321
 -1.452 -1.484 4.32
 -1.437 -1.482 4.319
 -1.424 -1.483 4.326
 -1.41 -1.482 4.326
 -1.396 -1.481 4.328
 -1.381 -1.48 4.327
 -1.365 -1.478 4.324
 -1.349 -1.475 4.32
 -1.334 -1.473 4.318
 -1.319 -1.471 4.315
 -1.305 -1.47 4.316
 -1.29 -1.468 4.313
 -1.275 -1.467 4.312
 -1.261 -1.466 4.314
 -1.247 -1.465 4.312
 -1.232 -1.463 4.311
 -1.217 -1.46 4.306
 -1.202 -1.459 4.304
 -1.188 -1.457 4.303
 -1.173 -1.456 4.301
 -1.159 -1.454 4.299
 -1.147 -1.456 4.307
 -1.132 -1.454 4.305
 -1.119 -1.454 4.307
 -1.106 -1.454 4.309
 -1.092 -1.453 4.309
 -1.078 -1.452 4.309
 -1.065 -1.452 4.312
 -1.049 -1.449 4.305
 -1.036 -1.448 4.306
 -1.022 -1.447 4.305
 -1.007 -1.446 4.302
 -0.994 -1.445 4.304
 -0.981 -1.445 4.307
 -0.967 -1.444 4.305
 -0.954 -1.444 4.308
 -0.939 -1.442 4.302
 -0.926 -1.441 4.303
 -0.912 -1.44 4.301
 -0.898 -1.439 4.299
 -0.885 -1.438 4.299
 -0.871 -1.437 4.299
 -0.858 -1.436 4.299
 -0.844 -1.435 4.297
 -0.83 -1.434 4.295
 -0.817 -1.433 4.294
 -0.804 -1.434 4.299
 -0.79 -1.432 4.296
 -0.777 -1.432 4.298
 -0.765 -1.432 4.3
 -0.751 -1.432 4.3
 -0.738 -1.431 4.3
 -0.724 -1.429 4.294
 -0.711 -1.429 4.295
 -0.698 -1.428 4.295
 -0.684 -1.426 4.291
 -0.67 -1.424 4.286
 -0.658 -1.426 4.294
 -0.644 -1.424 4.29
 -0.631 -1.424 4.29
 -0.618 -1.424 4.293
 -0.606 -1.425 4.295
 -0.593 -1.425 4.297
 -0.58 -1.425 4.298
 -0.567 -1.424 4.297
 -0.554 -1.424 4.297
 -0.54 -1.422 4.293
 -0.527 -1.42 4.288
 -0.514 -1.42 4.288
 -0.5 -1.419 4.286
 -0.487 -1.417 4.283
 -0.474 -1.418 4.285
 -0.461 -1.417 4.284
 -0.448 -1.416 4.283
 -0.435 -1.415 4.281
 -0.423 -1.417 4.287
 -0.41 -1.417 4.287
 -0.397 -1.416 4.285
 -0.385 -1.417 4.29
 -0.371 -1.416 4.285
 -0.358 -1.414 4.28
 -0.345 -1.413 4.279
 -0.333 -1.414 4.282
 -0.319 -1.411 4.275
 -0.307 -1.413 4.28
 -0.294 -1.413 4.281
 -0.281 -1.412 4.279
 -0.268 -1.412 4.279
 -0.256 -1.413 4.281
 -0.243 -1.412 4.281
 -0.23 -1.411 4.279
 -0.217 -1.412 4.28
 -0.205 -1.412 4.281
 -0.192 -1.411 4.279
 -0.179 -1.414 4.287
 -0.167 -1.413 4.284
 -0.154 -1.413 4.285
 -0.141 -1.412 4.282
 -0.128 -1.412 4.283
 -0.115 -1.41 4.276
 -0.103 -1.413 4.285
 -0.09 -1.411 4.28
 -0.077 -1.412 4.282
 -0.065 -1.411 4.279
 -0.052 -1.41 4.278
 -0.039 -1.407 4.266
 -0.026 -1.408 4.269
 -0.014 -1.406 4.263
 -0.001 -1.406 4.265
 0.011 -1.406 4.264
 0.023 -1.406 4.264
 0.036 -1.406 4.265
 0.049 -1.408 4.268
 0.061 -1.409 4.271
 0.074 -1.408 4.268
 0.087 -1.408 4.267
 0.099 -1.407 4.264
 0.112 -1.406 4.262
 0.124 -1.405 4.259
 0.137 -1.406 4.26
 0.15 -1.407 4.262
 0.163 -1.409 4.267
 0.176 -1.409 4.268
 0.188 -1.409 4.267
 0.201 -1.41 4.27
 0.214 -1.411 4.272
 0.226 -1.409 4.265
 0.239 -1.409 4.265
 0.252 -1.41 4.267
 0.264 -1.411 4.267
 0.277 -1.41 4.265
 0.29 -1.41 4.264
 0.302 -1.408 4.257
 0.315 -1.408 4.254
 0.327 -1.407 4.25
 0.34 -1.409 4.256
 0.354 -1.412 4.266
 0.367 -1.414 4.27
 0.379 -1.414 4.267
 0.392 -1.412 4.262
 0.404 -1.411 4.257
 0.416 -1.409 4.251
 0.429 -1.409 4.248
 0.442 -1.411 4.254
 0.455 -1.413 4.258
 0.468 -1.413 4.257
 0.481 -1.413 4.255
 0.494 -1.414 4.257
 0.506 -1.414 4.257
 0.52 -1.415 4.259
 0.533 -1.417 4.261
 0.546 -1.417 4.261
 0.559 -1.418 4.263
 0.57 -1.416 4.253
 0.583 -1.415 4.249
 0.596 -1.415 4.249
 0.609 -1.416 4.251
 0.621 -1.415 4.246
 0.635 -1.418 4.251
 0.648 -1.418 4.251
 0.661 -1.418 4.25
 0.673 -1.418 4.246
 0.686 -1.418 4.245
 0.699 -1.418 4.244
 0.711 -1.417 4.239
 0.724 -1.418 4.238
 0.736 -1.417 4.235
 0.75 -1.42 4.241
 0.764 -1.421 4.241
 0.778 -1.423 4.246
 0.792 -1.426 4.251
 0.805 -1.426 4.252
 0.817 -1.426 4.248
 0.83 -1.426 4.246
 0.844 -1.428 4.248
 0.856 -1.427 4.244
 0.869 -1.427 4.242
 0.883 -1.429 4.246
 0.896 -1.428 4.241
 0.909 -1.429 4.24
 0.921 -1.429 4.237
 0.934 -1.429 4.235
 0.948 -1.43 4.235
 0.962 -1.432 4.239
 0.975 -1.432 4.236
 0.988 -1.433 4.236
 1.002 -1.434 4.238
 1.014 -1.434 4.233
 1.028 -1.435 4.233
 1.041 -1.435 4.232
 1.054 -1.436 4.231
 1.068 -1.437 4.232
 1.083 -1.439 4.235
 1.096 -1.44 4.235
 1.112 -1.443 4.241
 1.125 -1.444 4.24
 1.139 -1.446 4.242
 1.152 -1.446 4.24
 1.165 -1.445 4.234
 1.176 -1.444 4.226
 1.19 -1.445 4.227
 1.204 -1.445 4.225
 1.217 -1.446 4.223
 1.231 -1.448 4.224
 1.246 -1.45 4.228
 1.26 -1.451 4.228
 1.273 -1.451 4.223
 1.287 -1.452 4.224
 1.302 -1.454 4.226
 1.317 -1.457 4.229
 1.331 -1.458 4.23
 1.346 -1.46 4.232
 1.361 -1.462 4.234
 1.374 -1.462 4.228
 1.387 -1.462 4.225
 1.399 -1.461 4.219
 1.413 -1.462 4.217
 1.427 -1.463 4.216
 1.441 -1.464 4.214
 1.454 -1.464 4.212
 1.468 -1.465 4.209
 1.484 -1.468 4.213
 1.498 -1.468 4.21
 1.513 -1.471 4.214
 1.528 -1.472 4.213
 1.543 -1.474 4.215
 1.556 -1.474 4.209
 1.57 -1.474 4.206
 1.586 -1.477 4.209
 1.599 -1.477 4.204
 1.612 -1.477 4.201
 1.628 -1.479 4.202
 1.643 -1.481 4.203
 1.656 -1.481 4.197
 1.671 -1.483 4.197
 1.687 -1.485 4.199
 1.699 -1.484 4.192
 1.714 -1.486 4.191
 1.731 -1.489 4.194
 1.745 -1.49 4.193
 1.759 -1.491 4.189
 1.776 -1.494 4.192
 1.792 -1.496 4.193
 1.805 -1.495 4.187
 1.82 -1.497 4.186
 1.832 -1.495 4.177
 1.843 -1.494 4.166
 1.85 -1.489 4.147
 1.857 -1.484 4.129
 1.866 -1.48 4.113
 1.874 -1.476 4.095
 1.882 -1.473 4.08
 1.893 -1.471 4.069
 1.903 -1.469 4.058
 1.912 -1.465 4.043
 1.925 -1.465 4.037
 0 0 0
 0 0 0
 0 0 0
 0 0 0
 0 0 0
 0 0 0
 0 0 0
 0 0 0
 0 0 0
 0 0 0
 0 0 0
 0 0 0
 0 0 0
 0 0 0
 0 0 0
 0 0 0
 0 0 0
 0 0 0
 0 0 0
 0 0 0
 0 0 0
 0 0 0
 0 0 0
 1.819 -1.192 3.159
 1.829 -1.192 3.152
 1.84 -1.192 3.147
 1.85 -1.192 3.141
 1.858 -1.19 3.131
 1.856 -1.182 3.104
 1.868 -1.183 3.101
 1.846 -1.162 3.041
 0 0 0
 0 0 0
 -2.486 -1.585 4.315
 -2.47 -1.585 4.32
 -2.454 -1.584 4.325
 -2.44 -1.584 4.334
 -2.427 -1.585 4.343
 -2.405 -1.581 4.337
 -2.385 -1.576 4.333
 -2.369 -1.576 4.338
 -2.353 -1.575 4.342
 -2.331 -1.57 4.334
 -2.314 -1.568 4.336
 -2.296 -1.566 4.336
 -2.278 -1.563 4.335
 -2.257 -1.559 4.329
 -2.243 -1.559 4.337
 -2.227 -1.558 4.339
 -2.21 -1.556 4.34
 -2.191 -1.553 4.338
 -2.172 -1.549 4.334
 -2.15 -1.544 4.324
 -2.132 -1.541 4.323
 -2.114 -1.538 4.321
 -2.098 -1.537 4.324
 -2.082 -1.535 4.325
 -2.065 -1.534 4.325
 -2.049 -1.533 4.328
 -2.034 -1.532 4.331
 -2.016 -1.529 4.328
 -2.004 -1.53 4.337
 -1.989 -1.53 4.342
 -1.973 -1.528 4.342
 -1.957 -1.526 4.344
 -1.941 -1.525 4.345
 -1.923 -1.522 4.34
 -1.905 -1.519 4.337
 -1.888 -1.516 4.336
 -1.87 -1.513 4.332
 -1.853 -1.51 4.328
 -1.835 -1.507 4.324
 -1.821 -1.507 4.329
 -1.805 -1.505 4.329
 -1.791 -1.506 4.334
 -1.777 -1.505 4.338
 -1.763 -1.505 4.341
 -1.746 -1.502 4.34
 -1.73 -1.501 4.339
 -1.715 -1.499 4.339
 -1.699 -1.498 4.339
 -1.682 -1.495 4.336
 -1.665 -1.491 4.33
 -1.651 -1.491 4.334
 -1.632 -1.486 4.324
 -1.617 -1.485 4.325
 -1.601 -1.483 4.323
 -1.587 -1.482 4.325
 -1.568 -1.478 4.317
 -1.556 -1.479 4.323
 -1.539 -1.476 4.318
 -1.526 -1.477 4.325
 -1.512 -1.476 4.328
 -1.497 -1.475 4.328
 -1.481 -1.472 4.323
 -1.468 -1.473 4.328
 -1.453 -1.471 4.326
 -1.437 -1.469 4.324
 -1.424 -1.469 4.329
 -1.41 -1.468 4.33
 -1.395 -1.467 4.33
 -1.379 -1.465 4.327
 -1.364 -1.463 4.325
 -1.348 -1.46 4.32
 -1.333 -1.458 4.318
 -1.318 -1.456 4.315
 -1.304 -1.456 4.317
 -1.289 -1.454 4.315
 -1.275 -1.453 4.315
 -1.262 -1.453 4.319
 -1.247 -1.452 4.319
 -1.233 -1.45 4.316
 -1.217 -1.447 4.31
 -1.202 -1.446 4.309
 -1.187 -1.443 4.304
 -1.172 -1.441 4.301
 -1.158 -1.44 4.299
 -1.146 -1.442 4.308
 -1.131 -1.44 4.305
 -1.119 -1.441 4.311
 -1.106 -1.441 4.313
 -1.092 -1.44 4.314
 -1.078 -1.439 4.315
 -1.065 -1.439 4.317
 -1.05 -1.437 4.312
 -1.036 -1.436 4.313
 -1.022 -1.434 4.309
 -1.007 -1.431 4.303
 -0.993 -1.431 4.304
 -0.98 -1.431 4.308
 -0.966 -1.43 4.306
 -0.954 -1.431 4.312
 -0.94 -1.429 4.309
 -0.926 -1.429 4.308
 -0.912 -1.427 4.306
 -0.898 -1.426 4.304
 -0.884 -1.424 4.3
 -0.87 -1.423 4.3
 -0.858 -1.424 4.305
 -0.844 -1.422 4.299
 -0.83 -1.421 4.299
 -0.817 -1.421 4.3
 -0.805 -1.422 4.305
 -0.79 -1.419 4.298
 -0.778 -1.42 4.302
 -0.764 -1.42 4.304
 -0.751 -1.418 4.301
 -0.737 -1.417 4.299
 -0.723 -1.416 4.297
 -0.71 -1.414 4.293
 -0.696 -1.413 4.292
 -0.682 -1.411 4.287
 -0.669 -1.409 4.284
 -0.656 -1.41 4.287
 -0.643 -1.409 4.287
 -0.63 -1.408 4.284
 -0.618 -1.41 4.291
 -0.605 -1.41 4.294
 -0.592 -1.411 4.297
 -0.58 -1.411 4.299
 -0.567 -1.413 4.305
 -0.554 -1.412 4.304
 -0.54 -1.409 4.295
 -0.526 -1.407 4.29
 -0.513 -1.405 4.287
 -0.5 -1.404 4.283
 -0.486 -1.402 4.279
 -0.474 -1.402 4.281
 -0.461 -1.403 4.282
 -0.448 -1.404 4.287
 -0.435 -1.403 4.285
 -0.423 -1.404 4.291
 -0.411 -1.406 4.297
 -0.398 -1.405 4.295
 -0.385 -1.405 4.294
 -0.371 -1.403 4.29
 -0.358 -1.402 4.287
 -0.345 -1.4 4.283
 -0.332 -1.401 4.284
 -0.319 -1.399 4.28
 -0.307 -1.4 4.284
 -0.294 -1.401 4.287
 -0.281 -1.401 4.286
 -0.269 -1.4 4.286
 -0.256 -1.4 4.286
 -0.243 -1.401 4.288
 -0.23 -1.399 4.284
 -0.217 -1.399 4.284
 -0.204 -1.398 4.281
 -0.192 -1.397 4.279
 -0.179 -1.399 4.284
 -0.166 -1.397 4.28
 -0.153 -1.396 4.276
 -0.141 -1.396 4.276
 -0.128 -1.396 4.275
 -0.115 -1.394 4.27
 -0.103 -1.397 4.278
 -0.09 -1.398 4.281
 -0.077 -1.398 4.282
 -0.065 -1.398 4.281
 -0.052 -1.397 4.279
 -0.039 -1.394 4.269
 -0.026 -1.394 4.269
 -0.014 -1.393 4.267
 -0.001 -1.394 4.268
 0.011 -1.393 4.267
 0.023 -1.393 4.265
 0.036 -1.394 4.268
 0.049 -1.393 4.267
 0.061 -1.395 4.27
 0.074 -1.395 4.27
 0.087 -1.396 4.273
 0.099 -1.394 4.268
 0.112 -1.394 4.266
 0.125 -1.393 4.264
 0.137 -1.393 4.263
 0.15 -1.393 4.262
 0.163 -1.396 4.269
 0.176 -1.397 4.274
 0.188 -1.397 4.273
 0.201 -1.398 4.275
 0.214 -1.399 4.276
 0.226 -1.396 4.268
 0.239 -1.396 4.266
 0.251 -1.395 4.262
 0.264 -1.395 4.261
 0.277 -1.396 4.263
 0.29 -1.396 4.263
 0.302 -1.395 4.258
 0.314 -1.394 4.256
 0.327 -1.395 4.257
 0.34 -1.396 4.259
 0.354 -1.399 4.269
 0.367 -1.401 4.272
 0.379 -1.401 4.271
 0.392 -1.399 4.266
 0.404 -1.397 4.258
 0.416 -1.396 4.253
 0.428 -1.395 4.248
 0.441 -1.395 4.248
 0.455 -1.398 4.254
 0.467 -1.398 4.255
 0.48 -1.398 4.254
 0.494 -1.401 4.26
 0.507 -1.403 4.264
 0.52 -1.402 4.262
 0.533 -1.404 4.265
 0.546 -1.405 4.266
 0.559 -1.406 4.268
 0.57 -1.403 4.256
 0.583 -1.403 4.257
 0.596 -1.402 4.252
 0.609 -1.403 4.253
 0.62 -1.4 4.243
 0.635 -1.404 4.254
 0.648 -1.405 4.255
 0.662 -1.407 4.259
 0.674 -1.407 4.257
 0.687 -1.407 4.255
 0.7 -1.407 4.253
 0.711 -1.405 4.244
 0.725 -1.406 4.246
 0.737 -1.405 4.241
 0.751 -1.408 4.246
 0.764 -1.408 4.245
 0.777 -1.41 4.248
 0.79 -1.41 4.247
 0.804 -1.412 4.251
 0.817 -1.413 4.251
 0.83 -1.412 4.247
 0.844 -1.414 4.251
 0.856 -1.414 4.246
 0.869 -1.413 4.243
 0.883 -1.415 4.247
 0.896 -1.416 4.245
 0.908 -1.416 4.242
 0.922 -1.417 4.246
 0.935 -1.417 4.242
 0.949 -1.419 4.244
 0.962 -1.419 4.241
 0.975 -1.419 4.239
 0.987 -1.418 4.236
 1.001 -1.42 4.236
 1.013 -1.419 4.231
 1.027 -1.421 4.234
 1.04 -1.42 4.23
 1.053 -1.421 4.23
 1.068 -1.424 4.235
 1.082 -1.425 4.235
 1.095 -1.426 4.235
 1.11 -1.429 4.24
 1.123 -1.429 4.237
 1.136 -1.429 4.235
 1.149 -1.429 4.232
 1.161 -1.427 4.223
 1.173 -1.426 4.217
 1.188 -1.429 4.221
 1.201 -1.43 4.22
 1.216 -1.432 4.223
 1.231 -1.435 4.228
 1.246 -1.437 4.232
 1.259 -1.437 4.229
 1.273 -1.438 4.228
 1.286 -1.438 4.225
 1.301 -1.44 4.227
 1.317 -1.443 4.232
 1.332 -1.446 4.236
 1.347 -1.448 4.238
 1.362 -1.45 4.24
 1.376 -1.451 4.238
 1.387 -1.449 4.231
 1.4 -1.449 4.225
 1.414 -1.449 4.223
 1.427 -1.45 4.22
 1.441 -1.45 4.218
 1.456 -1.452 4.22
 1.47 -1.453 4.218
 1.484 -1.455 4.218
 1.498 -1.455 4.214
 1.513 -1.457 4.217
 1.527 -1.458 4.215
 1.542 -1.46 4.215
 1.555 -1.459 4.21
 1.569 -1.46 4.208
 1.583 -1.462 4.207
 1.595 -1.461 4.2
 1.61 -1.462 4.199
 1.625 -1.464 4.199
 1.64 -1.466 4.2
 1.655 -1.467 4.198
 1.67 -1.469 4.2
 1.686 -1.471 4.201
 1.699 -1.471 4.196
 1.715 -1.473 4.196
 1.73 -1.475 4.197
 1.745 -1.476 4.196
 1.758 -1.476 4.191
 1.774 -1.478 4.192
 1.789 -1.479 4.189
 1.803 -1.481 4.188
 1.819 -1.482 4.187
 1.831 -1.482 4.18
 1.844 -1.481 4.172
 1.852 -1.477 4.156
 1.86 -1.473 4.14
 1.869 -1.469 4.123
 1.878 -1.466 4.108
 1.886 -1.462 4.091
 1.898 -1.461 4.084
 1.908 -1.459 4.071
 1.917 -1.456 4.058
 0 0 0
 0 0 0
 0 0 0
 0 0 0
 0 0 0
 0 0 0
 0 0 0
 0 0 0
 0 0 0
 0 0 0
 0 0 0
 0 0 0
 0 0 0
 0 0 0
 0 0 0
 0 0 0
 0 0 0
 0 0 0
 0 0 0
 0 0 0
 0 0 0
 0 0 0
 0 0 0
 0 0 0
 1.822 -1.183 3.168
 1.83 -1.182 3.157
 1.844 -1.184 3.157
 1.853 -1.183 3.149
 1.858 -1.18 3.135
 1.857 -1.172 3.109
 1.837 -1.153 3.053
 1.849 -1.154 3.05
 -2.531 -1.581 4.334
 0 0 0
 -2.491 -1.574 4.33
 -2.475 -1.573 4.334
 -2.461 -1.574 4.343
 -2.447 -1.574 4.35
 -2.434 -1.575 4.36
 -2.416 -1.573 4.362
 -2.395 -1.569 4.357
 -2.377 -1.567 4.357
 -2.357 -1.563 4.353
 -2.336 -1.559 4.348
 -2.315 -1.555 4.344
 -2.298 -1.553 4.345
 -2.277 -1.549 4.339
 -2.26 -1.546 4.339
 -2.243 -1.545 4.341
 -2.228 -1.544 4.345
 -2.212 -1.543 4.349
 -2.194 -1.54 4.347
 -2.173 -1.536 4.342
 -2.155 -1.533 4.339
 -2.137 -1.531 4.338
 -2.117 -1.527 4.332
 -2.103 -1.526 4.337
 -2.088 -1.526 4.342
 -2.069 -1.523 4.339
 -2.051 -1.52 4.336
 -2.036 -1.519 4.341
 -2.018 -1.516 4.337
 -2.004 -1.516 4.342
 -1.988 -1.515 4.344
 -1.973 -1.514 4.347
 -1.957 -1.512 4.348
 -1.942 -1.512 4.352
 -1.923 -1.508 4.345
 -1.906 -1.506 4.344
 -1.89 -1.504 4.345
 -1.872 -1.501 4.34
 -1.853 -1.497 4.333
 -1.836 -1.494 4.332
 -1.82 -1.493 4.332
 -1.804 -1.491 4.331
 -1.79 -1.491 4.336
 -1.775 -1.489 4.336
 -1.76 -1.489 4.339
 -1.744 -1.487 4.338
 -1.728 -1.485 4.336
 -1.712 -1.483 4.338
 -1.698 -1.483 4.34
 -1.682 -1.481 4.34
 -1.665 -1.478 4.336
 -1.652 -1.478 4.34
 -1.633 -1.474 4.332
 -1.619 -1.474 4.335
 -1.602 -1.47 4.329
 -1.588 -1.47 4.333
 -1.569 -1.465 4.323
 -1.554 -1.464 4.324
 -1.536 -1.46 4.314
 -1.524 -1.461 4.322
 -1.508 -1.459 4.321
 -1.494 -1.458 4.322
 -1.479 -1.457 4.321
 -1.467 -1.458 4.328
 -1.451 -1.456 4.327
 -1.437 -1.456 4.329
 -1.423 -1.455 4.331
 -1.408 -1.454 4.331
 -1.393 -1.452 4.328
 -1.378 -1.45 4.326
 -1.362 -1.447 4.322
 -1.347 -1.446 4.321
 -1.333 -1.445 4.321
 -1.317 -1.443 4.318
 -1.304 -1.442 4.319
 -1.289 -1.44 4.317
 -1.274 -1.439 4.317
 -1.26 -1.438 4.317
 -1.246 -1.438 4.318
 -1.232 -1.436 4.317
 -1.216 -1.433 4.312
 -1.201 -1.431 4.309
 -1.186 -1.429 4.304
 -1.171 -1.427 4.302
 -1.157 -1.425 4.299
 -1.144 -1.426 4.304
 -1.129 -1.424 4.302
 -1.117 -1.425 4.308
 -1.103 -1.424 4.305
 -1.089 -1.423 4.305
 -1.076 -1.423 4.309
 -1.063 -1.423 4.311
 -1.047 -1.42 4.303
 -1.034 -1.42 4.306
 -1.02 -1.419 4.306
 -1.004 -1.415 4.297
 -0.99 -1.414 4.295
 -0.978 -1.416 4.303
 -0.964 -1.414 4.301
 -0.952 -1.415 4.304
 -0.938 -1.413 4.303
 -0.925 -1.413 4.305
 -0.911 -1.412 4.303
 -0.897 -1.411 4.301
 -0.883 -1.41 4.3
 -0.87 -1.409 4.301
 -0.858 -1.411 4.307
 -0.843 -1.408 4.301
 -0.83 -1.408 4.303
 -0.817 -1.408 4.305
 -0.805 -1.409 4.309
 -0.79 -1.406 4.302
 -0.777 -1.406 4.303
 -0.764 -1.405 4.303
 -0.749 -1.402 4.295
 -0.736 -1.402 4.296
 -0.723 -1.401 4.295
 -0.71 -1.401 4.297
 -0.696 -1.4 4.296
 -0.683 -1.399 4.293
 -0.668 -1.396 4.285
 -0.655 -1.395 4.285
 -0.642 -1.394 4.282
 -0.628 -1.392 4.278
 -0.616 -1.395 4.288
 -0.604 -1.396 4.294
 -0.592 -1.398 4.299
 -0.579 -1.398 4.303
 -0.567 -1.401 4.311
 -0.554 -1.399 4.307
 -0.539 -1.394 4.292
 -0.525 -1.391 4.285
 -0.512 -1.391 4.285
 -0.499 -1.389 4.28
 -0.485 -1.387 4.276
 -0.473 -1.389 4.283
 -0.461 -1.39 4.287
 -0.448 -1.391 4.291
 -0.435 -1.391 4.291
 -0.423 -1.393 4.299
 -0.411 -1.395 4.307
 -0.398 -1.394 4.304
 -0.385 -1.394 4.303
 -0.371 -1.39 4.294
 -0.358 -1.387 4.285
 -0.344 -1.385 4.279
 -0.332 -1.386 4.283
 -0.319 -1.383 4.274
 -0.306 -1.384 4.278
 -0.294 -1.387 4.286
 -0.281 -1.386 4.285
 -0.268 -1.387 4.286
 -0.256 -1.387 4.289
 -0.243 -1.388 4.292
 -0.23 -1.386 4.286
 -0.217 -1.386 4.286
 -0.204 -1.385 4.282
 -0.192 -1.385 4.285
 -0.179 -1.386 4.286
 -0.166 -1.385 4.283
 -0.153 -1.383 4.28
 -0.141 -1.383 4.28
 -0.128 -1.382 4.276
 -0.115 -1.381 4.273
 -0.102 -1.382 4.277
 -0.09 -1.383 4.28
 -0.077 -1.384 4.281
 -0.064 -1.383 4.28
 -0.052 -1.382 4.276
 -0.039 -1.379 4.265
 -0.026 -1.378 4.263
 -0.014 -1.377 4.26
 -0.001 -1.378 4.263
 0.011 -1.378 4.264
 0.023 -1.38 4.268
 0.036 -1.381 4.27
 0.049 -1.379 4.266
 0.061 -1.38 4.268
 0.074 -1.382 4.274
 0.087 -1.384 4.28
 0.1 -1.383 4.275
 0.112 -1.383 4.277
 0.125 -1.383 4.275
 0.137 -1.381 4.268
 0.15 -1.381 4.266
 0.163 -1.383 4.274
 0.176 -1.384 4.276
 0.188 -1.383 4.273
 0.201 -1.385 4.279
 0.214 -1.387 4.283
 0.226 -1.384 4.274
 0.239 -1.384 4.273
 0.252 -1.384 4.272
 0.264 -1.384 4.27
 0.277 -1.384 4.27
 0.29 -1.385 4.271
 0.302 -1.384 4.269
 0.315 -1.383 4.265
 0.328 -1.384 4.266
 0.341 -1.384 4.266
 0.354 -1.388 4.275
 0.367 -1.388 4.275
 0.38 -1.389 4.277
 0.392 -1.387 4.271
 0.404 -1.386 4.266
 0.417 -1.385 4.262
 0.429 -1.384 4.257
 0.441 -1.383 4.254
 0.455 -1.385 4.258
 0.468 -1.386 4.259
 0.48 -1.385 4.256
 0.494 -1.388 4.264
 0.507 -1.391 4.27
 0.52 -1.39 4.266
 0.533 -1.391 4.269
 0.546 -1.392 4.269
 0.559 -1.392 4.269
 0.57 -1.389 4.258
 0.584 -1.391 4.261
 0.596 -1.389 4.255
 0.609 -1.391 4.257
 0.621 -1.388 4.249
 0.635 -1.392 4.259
 0.648 -1.392 4.258
 0.662 -1.395 4.264
 0.674 -1.395 4.26
 0.687 -1.394 4.256
 0.699 -1.393 4.253
 0.711 -1.391 4.244
 0.724 -1.392 4.245
 0.736 -1.391 4.241
 0.75 -1.394 4.247
 0.764 -1.395 4.247
 0.778 -1.397 4.253
 0.791 -1.398 4.251
 0.805 -1.4 4.257
 0.818 -1.4 4.255
 0.83 -1.399 4.249
 0.843 -1.401 4.252
 0.856 -1.4 4.247
 0.869 -1.4 4.246
 0.883 -1.403 4.251
 0.896 -1.403 4.25
 0.909 -1.403 4.247
 0.923 -1.405 4.251
 0.935 -1.403 4.243
 0.947 -1.403 4.238
 0.96 -1.404 4.239
 0.973 -1.404 4.237
 0.985 -1.403 4.232
 1 -1.405 4.235
 1.014 -1.407 4.238
 1.027 -1.408 4.238
 1.04 -1.408 4.234
 1.054 -1.41 4.237
 1.07 -1.413 4.244
 1.083 -1.414 4.243
 1.097 -1.415 4.245
 1.112 -1.418 4.25
 1.125 -1.418 4.246
 1.137 -1.417 4.241
 1.149 -1.416 4.234
 1.16 -1.413 4.223
 1.172 -1.413 4.218
 1.186 -1.414 4.219
 1.2 -1.415 4.22
 1.215 -1.418 4.224
 1.231 -1.421 4.231
 1.246 -1.423 4.233
 1.259 -1.424 4.232
 1.273 -1.425 4.232
 1.287 -1.426 4.23
 1.301 -1.427 4.23
 1.316 -1.43 4.234
 1.331 -1.432 4.237
 1.346 -1.433 4.237
 1.361 -1.436 4.241
 1.375 -1.437 4.24
 1.388 -1.436 4.235
 1.4 -1.435 4.228
 1.413 -1.435 4.225
 1.426 -1.436 4.222
 1.439 -1.436 4.218
 1.454 -1.438 4.219
 1.469 -1.439 4.218
 1.484 -1.441 4.22
 1.497 -1.441 4.217
 1.514 -1.445 4.222
 1.527 -1.445 4.218
 1.541 -1.446 4.217
 1.554 -1.445 4.211
 1.567 -1.446 4.208
 1.581 -1.446 4.203
 1.592 -1.444 4.195
 1.607 -1.446 4.194
 1.622 -1.448 4.195
 1.638 -1.45 4.197
 1.653 -1.452 4.197
 1.671 -1.456 4.204
 1.686 -1.458 4.205
 1.7 -1.458 4.202
 1.716 -1.461 4.205
 1.731 -1.462 4.203
 1.744 -1.462 4.198
 1.757 -1.461 4.19
 1.772 -1.463 4.19
 1.785 -1.463 4.184
 1.8 -1.464 4.183
 1.815 -1.466 4.183
 1.83 -1.467 4.18
 1.84 -1.465 4.169
 1.849 -1.462 4.154
 1.858 -1.458 4.137
 1.866 -1.454 4.12
 1.874 -1.45 4.104
 1.883 -1.447 4.091
 1.895 -1.446 4.081
 1.903 -1.442 4.065
 0 0 0
 0 0 0
 0 0 0
 0 0 0
 0 0 0
 0 0 0
 0 0 0
 0 0 0
 0 0 0
 0 0 0
 0 0 0
 0 0 0
 0 0 0
 0 0 0
 0 0 0
 0 0 0
 0 0 0
 0 0 0
 0 0 0
 0 0 0
 0 0 0
 0 0 0
 0 0 0
 0 0 0
 0 0 0
 1.824 -1.174 3.174
 1.83 -1.171 3.16
 1.842 -1.172 3.158
 1.849 -1.17 3.146
 1.856 -1.167 3.134
 1.855 -1.16 3.109
 1.82 -1.132 3.028
 1.85 -1.144 3.055
 0 0 0
 -2.502 -1.557 4.321
 -2.498 -1.564 4.346
 -2.481 -1.562 4.35
 -2.467 -1.563 4.357
 -2.45 -1.562 4.361
