 -0.427 -1.639 4.032
 -0.398 -1.621 3.989
 -0.374 -1.625 3.999
 -0.351 -1.63 4.015
 -0.325 -1.625 4.003
 -0.299 -1.615 3.98
 -0.277 -1.63 4.018
 -0.252 -1.624 4.003
 -0.228 -1.625 4.008
 -0.205 -1.634 4.031
 -0.18 -1.633 4.029
 -0.155 -1.628 4.017
 -0.131 -1.631 4.026
 -0.106 -1.62 3.997
 -0.082 -1.633 4.03
 -0.057 -1.626 4.012
 -0.033 -1.63 4.023
 -0.009 -1.61 3.973
 0.014 -1.617 3.989
 0.039 -1.633 4.029
 0.063 -1.627 4.014
 0.087 -1.611 3.973
 0.113 -1.639 4.043
 0.136 -1.62 3.995
 0.16 -1.623 4
 0.184 -1.617 3.984
 0.21 -1.633 4.024
 0.234 -1.628 4.01
 0.257 -1.622 3.991
 0.283 -1.634 4.021
 0.304 -1.615 3.972
 0.334 -1.643 4.04
 0.355 -1.629 4.002
 0.376 -1.612 3.959
 0.404 -1.631 4.001
 0.428 -1.629 3.995
 0.45 -1.62 3.971
 0.474 -1.62 3.968
 0.501 -1.627 3.982
 0.528 -1.638 4.005
 0.548 -1.624 3.968
 0.572 -1.623 3.963
 0.597 -1.625 3.965
 0.621 -1.624 3.959
 0.649 -1.633 3.977
 0.667 -1.619 3.939
 0.698 -1.634 3.971
 0.736 -1.665 4.042
 0.751 -1.643 3.985
 0.771 -1.635 3.961
 0.796 -1.636 3.961
 0.82 -1.634 3.951
 0.843 -1.632 3.94
 0.862 -1.623 3.913
 0.89 -1.629 3.924
 0.918 -1.636 3.935
 0.941 -1.634 3.924
 0.958 -1.621 3.889
 0.982 -1.621 3.883
 1.004 -1.619 3.871
 1.043 -1.642 3.921
 1.067 -1.641 3.912
 1.09 -1.638 3.9
 1.105 -1.625 3.863
 1.131 -1.628 3.862
 1.157 -1.63 3.862
 1.182 -1.632 3.858
 1.211 -1.638 3.866
 1.243 -1.648 3.883
 1.264 -1.643 3.864
 1.277 -1.63 3.824
 1.307 -1.636 3.833
 1.333 -1.638 3.829
 1.364 -1.646 3.84
 1.388 -1.645 3.83
 1.403 -1.635 3.797
 1.441 -1.65 3.825
 1.456 -1.64 3.793
 1.491 -1.652 3.811
 1.501 -1.636 3.765
 1.528 -1.639 3.763
 1.547 -1.634 3.742
 1.575 -1.637 3.742
 1.593 -1.631 3.716
 1.622 -1.636 3.719
 1.65 -1.64 3.718
 1.668 -1.634 3.695
 1.687 -1.629 3.673
 1.736 -1.653 3.716
 1.753 -1.646 3.69
 1.765 -1.634 3.653
 1.785 -1.63 3.633
 1.822 -1.642 3.649
 1.852 -1.647 3.649
 1.853 -1.626 3.592
 1.866 -1.617 3.561
 1.829 -1.565 3.434
 1.863 -1.574 3.443
 1.893 -1.579 3.443
 1.881 -1.55 3.368
 1.876 -1.528 3.308
 1.863 -1.499 3.235
 1.839 -1.463 3.144
 1.851 -1.455 3.116
 1.862 -1.447 3.088
 1.843 -1.416 3.009
 1.824 -1.385 2.933
 -2.152 -1.628 3.593
 -2.136 -1.635 3.621
 -2.132 -1.652 3.67
 -2.059 -1.615 3.599
 -2.058 -1.634 3.653
 -2.029 -1.63 3.658
 -1.998 -1.625 3.658
 -1.978 -1.63 3.68
 -1.953 -1.63 3.691
 -1.961 -1.658 3.765
 -1.897 -1.625 3.702
 -1.884 -1.635 3.736
 -1.85 -1.628 3.73
 -1.809 -1.614 3.707
 -1.822 -1.647 3.796
 -1.777 -1.629 3.763
 -1.741 -1.619 3.75
 -1.735 -1.637 3.802
 -1.712 -1.639 3.816
 -1.68 -1.633 3.811
 -1.671 -1.649 3.858
 -1.641 -1.644 3.855
 -1.6 -1.628 3.827
 -1.586 -1.639 3.863
 -1.542 -1.62 3.825
 -1.528 -1.631 3.86
 -1.505 -1.633 3.873
 -1.459 -1.61 3.826
 -1.463 -1.642 3.911
 -1.426 -1.628 3.886
 -1.398 -1.625 3.885
 -1.373 -1.625 3.893
 -1.345 -1.621 3.892
 -1.324 -1.626 3.91
 -1.296 -1.623 3.909
 -1.279 -1.632 3.937
 -1.249 -1.626 3.931
 -1.223 -1.624 3.933
 -1.196 -1.621 3.932
 -1.173 -1.624 3.944
 -1.155 -1.634 3.975
 -1.129 -1.632 3.976
 -1.094 -1.617 3.945
 -1.063 -1.607 3.927
 -1.047 -1.621 3.966
 -1.032 -1.637 4.011
 -0.999 -1.624 3.984
 -0.969 -1.615 3.967
 -0.939 -1.606 3.949
 -0.922 -1.619 3.987
 -0.901 -1.626 4.007
 -0.878 -1.629 4.02
 -0.848 -1.62 4.001
 -0.826 -1.625 4.018
 -0.799 -1.621 4.013
 -0.773 -1.618 4.008
 -0.749 -1.619 4.016
 -0.723 -1.616 4.012
 -0.698 -1.617 4.018
 -0.678 -1.628 4.048
 -0.654 -1.63 4.056
 -0.623 -1.613 4.016
 -0.6 -1.619 4.034
 -0.585 -1.645 4.101
 -0.55 -1.617 4.034
 -0.528 -1.625 4.056
 -0.502 -1.619 4.046
 -0.478 -1.622 4.055
 -0.457 -1.637 4.093
 -0.43 -1.629 4.077
 -0.407 -1.637 4.098
 -0.381 -1.631 4.085
 -0.356 -1.628 4.079
 -0.334 -1.644 4.122
 -0.304 -1.618 4.057
 -0.278 -1.609 4.036
 -0.255 -1.621 4.068
 -0.229 -1.609 4.036
 -0.207 -1.626 4.081
 -0.183 -1.636 4.107
 -0.157 -1.622 4.073
 -0.133 -1.629 4.091
 -0.107 -1.614 4.053
 -0.082 -1.608 4.036
 -0.058 -1.623 4.076
 -0.033 -1.619 4.066
 -0.009 -1.616 4.057
 0.015 -1.62 4.067
 0.04 -1.633 4.099
 0.064 -1.626 4.081
 0.089 -1.629 4.088
 0.115 -1.637 4.108
 0.137 -1.61 4.039
 0.161 -1.606 4.028
 0.187 -1.622 4.065
 0.214 -1.634 4.096
 0.235 -1.614 4.044
 0.261 -1.623 4.064
 0.286 -1.624 4.066
 0.311 -1.625 4.066
 0.336 -1.627 4.069
 0.357 -1.613 4.032
 0.383 -1.618 4.041
 0.412 -1.637 4.087
 0.436 -1.631 4.071
 0.457 -1.619 4.038
 0.48 -1.614 4.022
 0.51 -1.631 4.061
 0.533 -1.626 4.047
 0.557 -1.625 4.04
 0.579 -1.618 4.021
 0.602 -1.614 4.006
 0.634 -1.632 4.047
 0.654 -1.622 4.02
 0.688 -1.644 4.069
 0.701 -1.616 3.995
 0.733 -1.633 4.034
 0.754 -1.625 4.011
 0.783 -1.634 4.029
 0.803 -1.624 4
 0.834 -1.638 4.028
 0.852 -1.624 3.99
 0.875 -1.622 3.979
 0.902 -1.627 3.986
 0.928 -1.63 3.989
 0.958 -1.639 4.005
 0.981 -1.635 3.992
 0.993 -1.615 3.936
 1.026 -1.628 3.963
 1.051 -1.63 3.96
 1.077 -1.632 3.959
 1.099 -1.627 3.942
 1.134 -1.642 3.972
 1.151 -1.631 3.938
 1.179 -1.636 3.942
 1.202 -1.634 3.931
 1.233 -1.642 3.943
 1.244 -1.624 3.894
 1.273 -1.63 3.901
 1.3 -1.634 3.901
 1.332 -1.643 3.916
 1.346 -1.63 3.876
 1.388 -1.65 3.917
 1.409 -1.645 3.897
 1.416 -1.626 3.843
 1.449 -1.635 3.857
 1.495 -1.658 3.903
 1.503 -1.64 3.851
 1.532 -1.645 3.853
 1.542 -1.63 3.808
 1.565 -1.628 3.794
 1.593 -1.632 3.794
 1.624 -1.638 3.799
 1.649 -1.638 3.79
 1.678 -1.642 3.79
 1.697 -1.637 3.768
 1.713 -1.628 3.737
 1.752 -1.642 3.759
 1.757 -1.624 3.707
 1.789 -1.631 3.713
 1.824 -1.641 3.723
 1.852 -1.644 3.719
 1.851 -1.621 3.656
 1.847 -1.596 3.589
 1.857 -1.585 3.552
 1.883 -1.587 3.545
 1.868 -1.554 3.461
 1.871 -1.538 3.412
 1.867 -1.516 3.352
 1.871 -1.501 3.308
 1.878 -1.488 3.268
 1.866 -1.462 3.198
 1.861 -1.441 3.142
 1.853 -1.418 3.08
 1.818 -1.376 2.976
 1.84 -1.377 2.968
 -2.197 -1.637 3.679
 -2.175 -1.64 3.698
 -2.146 -1.637 3.704
 -2.116 -1.634 3.709
 -2.093 -1.636 3.726
 -2.055 -1.626 3.714
 -2.045 -1.638 3.755
 -2.013 -1.633 3.755
 -1.988 -1.634 3.768
 -1.948 -1.622 3.75
 -1.939 -1.636 3.795
 -1.903 -1.627 3.784
 -1.877 -1.626 3.794
 -1.832 -1.609 3.764
 -1.823 -1.623 3.808
 -1.809 -1.633 3.842
 -1.777 -1.627 3.838
 -1.748 -1.624 3.841
 -1.732 -1.632 3.87
 -1.713 -1.639 3.894
 -1.683 -1.634 3.894
 -1.658 -1.635 3.904
 -1.624 -1.627 3.894
 -1.596 -1.624 3.896
 -1.566 -1.62 3.894
 -1.543 -1.622 3.907
 -1.527 -1.631 3.939
 -1.496 -1.625 3.933
 -1.481 -1.637 3.969
 -1.442 -1.622 3.94
 -1.42 -1.625 3.956
 -1.389 -1.619 3.949
 -1.374 -1.631 3.984
 -1.358 -1.642 4.02
 -1.331 -1.641 4.024
 -1.301 -1.635 4.017
 -1.272 -1.631 4.012
 -1.238 -1.619 3.99
 -1.217 -1.625 4.011
 -1.193 -1.627 4.023
 -1.173 -1.634 4.048
 -1.143 -1.627 4.036
 -1.111 -1.618 4.018
 -1.081 -1.61 4.003
 -1.068 -1.629 4.056
 -1.039 -1.623 4.048
 -1.008 -1.614 4.03
 -0.982 -1.612 4.03
 -0.961 -1.619 4.052
 -0.937 -1.62 4.061
 -0.909 -1.616 4.055
 -0.887 -1.621 4.072
 -0.862 -1.622 4.078
 -0.837 -1.622 4.082
 -0.809 -1.616 4.071
 -0.792 -1.632 4.116
 -0.763 -1.626 4.104
 -0.741 -1.632 4.123
 -0.71 -1.619 4.093
 -0.686 -1.621 4.102
 -0.655 -1.608 4.072
 -0.634 -1.617 4.097
 -0.609 -1.617 4.101
 -0.582 -1.612 4.092
 -0.561 -1.622 4.12
 -0.531 -1.61 4.09
 -0.513 -1.632 4.149
 -0.483 -1.615 4.108
 -0.457 -1.611 4.1
 -0.431 -1.609 4.097
 -0.412 -1.629 4.15
 -0.382 -1.611 4.106
 -0.36 -1.622 4.137
 -0.334 -1.618 4.128
 -0.306 -1.606 4.098
 -0.284 -1.62 4.134
 -0.258 -1.614 4.12
 -0.233 -1.611 4.113
 -0.21 -1.627 4.155
 -0.183 -1.608 4.108
 -0.159 -1.62 4.138
 -0.133 -1.616 4.128
 -0.108 -1.611 4.116
 -0.084 -1.624 4.15
 -0.059 -1.622 4.144
 -0.034 -1.621 4.143
 -0.009 -1.624 4.149
 0.015 -1.632 4.169
 0.04 -1.617 4.131
 0.065 -1.611 4.114
 0.09 -1.612 4.116
 0.116 -1.632 4.167
 0.14 -1.623 4.142
 0.164 -1.609 4.107
 0.191 -1.63 4.158
 0.214 -1.612 4.11
 0.238 -1.606 4.095
 0.263 -1.607 4.095
 0.29 -1.619 4.123
 0.316 -1.623 4.133
 0.341 -1.626 4.137
 0.366 -1.624 4.13
 0.388 -1.614 4.103
 0.415 -1.623 4.123
 0.436 -1.608 4.083
 0.464 -1.619 4.108
 0.493 -1.631 4.136
 0.511 -1.61 4.08
 0.539 -1.618 4.097
 0.563 -1.616 4.089
 0.586 -1.613 4.078
 0.61 -1.609 4.066
 0.638 -1.617 4.081
 0.664 -1.62 4.085
 0.693 -1.631 4.108
 0.719 -1.632 4.106
 0.739 -1.622 4.078
 0.759 -1.61 4.044
 0.788 -1.62 4.065
 0.819 -1.632 4.09
 0.835 -1.613 4.039
 0.868 -1.629 4.073
 0.888 -1.621 4.048
 0.912 -1.62 4.039
 0.946 -1.634 4.07
 0.967 -1.629 4.051
 0.993 -1.63 4.048
 1.02 -1.633 4.051
 1.039 -1.624 4.022
 1.064 -1.623 4.014
 1.093 -1.63 4.026
 1.115 -1.625 4.007
 1.146 -1.634 4.022
 1.178 -1.644 4.041
 1.198 -1.638 4.017
 1.215 -1.626 3.983
 1.236 -1.622 3.964
 1.266 -1.627 3.971
 1.295 -1.633 3.978
 1.327 -1.642 3.991
 1.35 -1.639 3.977
 1.388 -1.654 4.006
 1.381 -1.617 3.908
 1.418 -1.631 3.933
 1.462 -1.652 3.975
 1.475 -1.639 3.935
 1.501 -1.64 3.929
 1.525 -1.639 3.917
 1.547 -1.635 3.9
 1.563 -1.626 3.867
 1.598 -1.637 3.884
 1.626 -1.639 3.881
 1.633 -1.621 3.828
 1.669 -1.633 3.846
 1.698 -1.637 3.845
 1.727 -1.64 3.844
 1.747 -1.636 3.822
 1.774 -1.637 3.815
 1.802 -1.64 3.812
 1.816 -1.63 3.777
 1.871 -1.657 3.827
 1.874 -1.638 3.773
 1.864 -1.608 3.692
 1.87 -1.592 3.644
 1.876 -1.577 3.598
 1.871 -1.552 3.53
 1.879 -1.54 3.491
 1.876 -1.519 3.431
 1.894 -1.514 3.41
 1.919 -1.516 3.402
 1.887 -1.473 3.294
 1.85 -1.427 3.18
 1.824 -1.391 3.087
 1.854 -1.397 3.09
 1.844 -1.374 3.027
 1.834 -1.352 2.967
 -2.22 -1.628 3.727
 -2.202 -1.635 3.754
 -2.208 -1.658 3.822
 -2.154 -1.638 3.787
 -2.101 -1.617 3.751
 -2.078 -1.619 3.767
 -2.062 -1.627 3.797
 -2.043 -1.632 3.821
 -2.004 -1.622 3.809
 -1.986 -1.628 3.835
 -1.959 -1.626 3.843
 -1.949 -1.64 3.886
 -1.892 -1.614 3.835
 -1.882 -1.627 3.876
 -1.854 -1.625 3.883
 -1.828 -1.625 3.893
 -1.83 -1.65 3.962
 -1.796 -1.643 3.956
 -1.755 -1.629 3.931
 -1.723 -1.624 3.929
 -1.712 -1.637 3.971
 -1.667 -1.619 3.936
 -1.652 -1.629 3.97
 -1.629 -1.632 3.988
 -1.604 -1.633 3.998
 -1.555 -1.609 3.946
 -1.565 -1.646 4.047
 -1.52 -1.626 4.007
 -1.481 -1.611 3.978
 -1.458 -1.614 3.993
 -1.446 -1.629 4.039
 -1.41 -1.618 4.017
 -1.387 -1.621 4.033
 -1.368 -1.629 4.059
 -1.338 -1.623 4.053
 -1.299 -1.607 4.02
 -1.281 -1.617 4.051
 -1.265 -1.629 4.087
 -1.227 -1.613 4.054
 -1.203 -1.615 4.065
 -1.179 -1.617 4.078
 -1.163 -1.63 4.115
 -1.125 -1.613 4.078
 -1.118 -1.639 4.151
 -1.081 -1.623 4.114
 -1.044 -1.606 4.076
 -1.023 -1.612 4.098
 -1.006 -1.626 4.139
 -0.968 -1.605 4.09
 -0.942 -1.604 4.091
 -0.92 -1.61 4.113
 -0.901 -1.621 4.146
 -0.873 -1.617 4.14
 -0.848 -1.618 4.145
 -0.817 -1.607 4.12
 -0.802 -1.628 4.178
 -0.774 -1.623 4.17
 -0.748 -1.623 4.173
 -0.721 -1.62 4.17
 -0.697 -1.622 4.177
 -0.667 -1.612 4.155
 -0.646 -1.623 4.188
 -0.617 -1.614 4.168
 -0.588 -1.604 4.144
 -0.563 -1.605 4.148
 -0.544 -1.624 4.2
 -0.514 -1.611 4.169
 -0.487 -1.605 4.155
 -0.465 -1.614 4.181
 -0.435 -1.598 4.141
 -0.412 -1.604 4.16
 -0.387 -1.608 4.171
 -0.365 -1.62 4.205
 -0.339 -1.621 4.209
 -0.312 -1.609 4.177
 -0.287 -1.613 4.19
 -0.264 -1.625 4.222
 -0.236 -1.612 4.19
 -0.208 -1.592 4.137
 -0.186 -1.615 4.198
 -0.159 -1.603 4.168
 -0.136 -1.62 4.212
 -0.108 -1.591 4.138
 -0.084 -1.606 4.176
 -0.059 -1.613 4.196
 -0.034 -1.612 4.192
 -0.009 -1.606 4.178
 0.016 -1.62 4.211
 0.041 -1.605 4.173
 0.067 -1.624 4.223
 0.091 -1.603 4.166
 0.117 -1.623 4.217
 0.143 -1.623 4.215
 0.167 -1.607 4.175
 0.193 -1.616 4.195
 0.217 -1.611 4.181
 0.241 -1.602 4.157
 0.266 -1.601 4.152
 0.295 -1.622 4.205
 0.318 -1.607 4.166
 0.345 -1.617 4.188
 0.368 -1.607 4.162
 0.391 -1.599 4.137
 0.422 -1.621 4.193
 0.449 -1.628 4.209
 0.472 -1.62 4.185
 0.496 -1.615 4.17
 0.523 -1.622 4.184
 0.543 -1.604 4.134
 0.573 -1.62 4.172
 0.594 -1.607 4.134
 0.619 -1.608 4.135
 0.646 -1.613 4.144
 0.669 -1.608 4.127
 0.696 -1.611 4.132
 0.73 -1.631 4.178
 0.751 -1.621 4.149
 0.777 -1.623 4.149
 0.8 -1.618 4.132
 0.824 -1.616 4.122
 0.854 -1.626 4.142
 0.874 -1.616 4.113
 0.907 -1.629 4.141
 0.921 -1.61 4.087
 0.955 -1.625 4.12
 0.975 -1.615 4.09
 1.011 -1.633 4.129
 1.026 -1.616 4.081
 1.054 -1.621 4.086
 1.084 -1.628 4.1
 1.112 -1.632 4.102
 1.128 -1.619 4.062
 1.153 -1.619 4.056
 1.186 -1.63 4.077
 1.212 -1.631 4.073
 1.224 -1.613 4.02
 1.266 -1.635 4.069
 1.286 -1.628 4.043
 1.324 -1.643 4.075
 1.343 -1.636 4.048
 1.375 -1.644 4.06
 1.383 -1.623 3.999
 1.432 -1.65 4.058
 1.452 -1.644 4.037
 1.46 -1.624 3.979
 1.485 -1.624 3.971
 1.514 -1.628 3.97
 1.54 -1.629 3.964
 1.557 -1.62 3.934
 1.598 -1.636 3.963
 1.62 -1.633 3.946
 1.635 -1.623 3.913
 1.668 -1.63 3.92
 1.695 -1.632 3.914
 1.72 -1.632 3.903
 1.735 -1.622 3.87
 1.756 -1.619 3.851
 1.775 -1.613 3.826
 1.81 -1.622 3.837
 1.83 -1.618 3.816
 1.863 -1.624 3.821
 1.88 -1.617 3.793
 1.863 -1.582 3.699
 1.876 -1.572 3.664
 1.87 -1.547 3.594
 1.887 -1.542 3.57
 1.889 -1.524 3.517
 1.881 -1.498 3.447
 1.864 -1.467 3.364
 0 0 0
 0 0 0
 1.81 -1.375 3.118
 1.844 -1.384 3.129
 1.844 -1.368 3.081
 1.846 -1.354 3.039
 1.849 -1.342 2.999
 -2.252 -1.626 3.792
 -2.221 -1.623 3.797
 -2.192 -1.62 3.804
 -2.173 -1.626 3.83
 -2.149 -1.627 3.846
 -2.128 -1.632 3.868
 -2.105 -1.634 3.887
 -2.073 -1.63 3.889
 -2.041 -1.625 3.889
 -2.024 -1.632 3.917
 -1.987 -1.624 3.909
 -1.964 -1.627 3.927
 -1.91 -1.603 3.88
 -1.912 -1.627 3.948
 -1.896 -1.636 3.981
 -1.877 -1.642 4.007
 -1.814 -1.61 3.939
 -1.819 -1.638 4.018
 -1.78 -1.626 3.999
 -1.753 -1.625 4.006
 -1.716 -1.615 3.99
 -1.705 -1.629 4.036
 -1.664 -1.615 4.01
 -1.634 -1.612 4.009
 -1.623 -1.626 4.055
 -1.576 -1.605 4.01
 -1.558 -1.613 4.039
 -1.539 -1.62 4.066
 -1.507 -1.614 4.058
 -1.463 -1.594 4.017
 -1.459 -1.618 4.085
 -1.428 -1.613 4.08
 -1.394 -1.604 4.064
 -1.379 -1.616 4.102
 -1.343 -1.604 4.077
 -1.324 -1.613 4.107
 -1.292 -1.605 4.094
 -1.282 -1.625 4.153
 -1.242 -1.607 4.113
 -1.224 -1.618 4.147
 -1.192 -1.608 4.129
 -1.165 -1.608 4.134
 -1.152 -1.626 4.186
 -1.125 -1.624 4.187
 -1.082 -1.598 4.127
 -1.063 -1.609 4.158
 -1.042 -1.616 4.184
 -1.014 -1.614 4.182
 -0.989 -1.615 4.19
 -0.968 -1.623 4.216
 -0.93 -1.603 4.168
 -0.9 -1.595 4.151
 -0.877 -1.598 4.165
 -0.856 -1.609 4.196
 -0.829 -1.605 4.192
 -0.802 -1.604 4.191
 -0.779 -1.608 4.206
 -0.754 -1.609 4.213
 -0.728 -1.61 4.218
 -0.701 -1.605 4.21
 -0.678 -1.613 4.233
 -0.646 -1.598 4.197
 -0.624 -1.607 4.223
 -0.596 -1.602 4.212
 -0.574 -1.61 4.238
 -0.547 -1.607 4.232
 -0.523 -1.612 4.246
 -0.498 -1.616 4.26
 -0.47 -1.608 4.242
 -0.44 -1.591 4.197
 -0.416 -1.598 4.218
 -0.392 -1.604 4.237
 -0.369 -1.614 4.265
 -0.342 -1.606 4.245
 -0.315 -1.603 4.238
 -0.287 -1.588 4.199
 -0.264 -1.602 4.238
 -0.239 -1.604 4.245
 -0.213 -1.601 4.236
 -0.186 -1.594 4.22
 -0.16 -1.585 4.194
 -0.136 -1.602 4.241
 -0.11 -1.599 4.234
 -0.085 -1.6 4.237
 -0.06 -1.604 4.248
 -0.034 -1.597 4.229
 -0.009 -1.604 4.245
 0.016 -1.61 4.263
 0.041 -1.594 4.219
 0.067 -1.603 4.242
 0.092 -1.6 4.233
 0.119 -1.616 4.274
 0.143 -1.602 4.236
 0.169 -1.606 4.247
 0.195 -1.605 4.243
 0.22 -1.601 4.229
 0.244 -1.592 4.206
 0.271 -1.601 4.227
 0.296 -1.599 4.219
 0.323 -1.609 4.245
 0.345 -1.593 4.201
 0.373 -1.603 4.226
 0.396 -1.593 4.197
 0.423 -1.6 4.213
 0.451 -1.61 4.236
 0.476 -1.606 4.223
 0.502 -1.609 4.227
 0.528 -1.61 4.228
 0.549 -1.596 4.188
 0.579 -1.611 4.224
 0.603 -1.605 4.205
 0.625 -1.597 4.18
 0.652 -1.602 4.19
 0.678 -1.603 4.187
 0.699 -1.593 4.16
 0.735 -1.617 4.217
 0.766 -1.628 4.242
 0.784 -1.611 4.193
 0.802 -1.596 4.15
 0.837 -1.616 4.197
 0.856 -1.604 4.16
 0.878 -1.598 4.14
 0.91 -1.609 4.163
 0.948 -1.629 4.212
 0.969 -1.622 4.188
 0.99 -1.615 4.164
 1.011 -1.608 4.139
 1.045 -1.62 4.165
 1.072 -1.623 4.166
 1.094 -1.618 4.148
 1.117 -1.613 4.129
 1.147 -1.619 4.138
 1.17 -1.616 4.123
 1.204 -1.628 4.148
 1.224 -1.62 4.121
 1.255 -1.627 4.13
 1.28 -1.627 4.123
 1.305 -1.626 4.113
 1.323 -1.617 4.081
 1.359 -1.628 4.103
 1.387 -1.631 4.102
 1.418 -1.638 4.112
 1.445 -1.638 4.104
 1.462 -1.629 4.071
 1.478 -1.618 4.036
 1.524 -1.641 4.084
 1.542 -1.632 4.055
 1.564 -1.628 4.035
 1.601 -1.64 4.054
 1.622 -1.635 4.033
 1.651 -1.638 4.031
 1.67 -1.632 4.006
 1.688 -1.624 3.975
 1.727 -1.637 3.998
 1.739 -1.624 3.956
 1.776 -1.635 3.972
 1.779 -1.614 3.911
 1.817 -1.625 3.926
 1.826 -1.611 3.881
 1.847 -1.606 3.86
 1.871 -1.606 3.847
 1.864 -1.578 3.77
 1.888 -1.578 3.758
 1.882 -1.552 3.684
 1.91 -1.555 3.681
 1.913 -1.538 3.628
 1.869 -1.484 3.49
 1.877 -1.472 3.449
 0 0 0
 0 0 0
 0 0 0
 1.818 -1.359 3.14
 1.877 -1.387 3.193
 1.879 -1.372 3.148
 1.866 -1.348 3.08
 1.836 -1.311 2.984
 -2.254 -1.602 3.806
 -2.253 -1.619 3.861
 -2.217 -1.612 3.857
 -2.192 -1.613 3.873
 -2.167 -1.615 3.889
 -2.148 -1.62 3.914
 -2.116 -1.616 3.916
 -2.079 -1.608 3.909
 -2.076 -1.626 3.965
 -2.042 -1.621 3.964
 -2.01 -1.616 3.963
 -1.99 -1.622 3.988
 -1.951 -1.612 3.974
 -1.913 -1.602 3.961
 -1.904 -1.617 4.009
 -1.887 -1.625 4.04
 -1.84 -1.607 4.005
 -1.812 -1.605 4.011
 -1.833 -1.648 4.128
 -1.768 -1.613 4.05
 -1.766 -1.636 4.118
 -1.719 -1.616 4.078
 -1.684 -1.608 4.067
 -1.653 -1.604 4.066
 -1.635 -1.612 4.094
 -1.608 -1.612 4.102
 -1.596 -1.626 4.149
 -1.55 -1.606 4.105
 -1.529 -1.611 4.127
 -1.503 -1.612 4.137
 -1.48 -1.616 4.155
 -1.45 -1.611 4.151
 -1.421 -1.609 4.151
 -1.39 -1.602 4.143
 -1.371 -1.612 4.175
 -1.346 -1.613 4.185
 -1.313 -1.605 4.17
 -1.282 -1.599 4.162
 -1.264 -1.61 4.196
 -1.237 -1.609 4.2
 -1.208 -1.605 4.196
 -1.18 -1.603 4.196
 -1.147 -1.593 4.178
 -1.119 -1.589 4.173
 -1.093 -1.589 4.179
 -1.075 -1.601 4.215
 -1.051 -1.604 4.229
 -1.026 -1.607 4.242
 -1.004 -1.612 4.261
 -0.97 -1.601 4.235
 -0.938 -1.59 4.211
 -0.915 -1.595 4.23
 -0.888 -1.594 4.231
 -0.871 -1.61 4.277
 -0.837 -1.595 4.241
 -0.812 -1.598 4.253
 -0.785 -1.596 4.251
 -0.762 -1.601 4.268
 -0.73 -1.587 4.236
 -0.708 -1.596 4.263
 -0.684 -1.602 4.282
 -0.646 -1.573 4.206
 -0.627 -1.59 4.256
 -0.598 -1.58 4.232
 -0.572 -1.579 4.232
 -0.547 -1.582 4.241
 -0.522 -1.585 4.252
 -0.499 -1.592 4.273
 -0.469 -1.577 4.236
 -0.445 -1.585 4.258
 -0.418 -1.578 4.241
 -0.394 -1.585 4.263
 -0.368 -1.583 4.259
 -0.341 -1.577 4.243
 -0.315 -1.576 4.243
 -0.289 -1.577 4.245
 -0.264 -1.575 4.242
 -0.24 -1.585 4.271
 -0.214 -1.584 4.267
 -0.185 -1.562 4.21
 -0.162 -1.581 4.262
 -0.136 -1.578 4.252
 -0.11 -1.562 4.21
 -0.085 -1.572 4.237
 -0.06 -1.583 4.268
 -0.034 -1.572 4.237
 -0.008 -1.583 4.267
 0.016 -1.58 4.258
 0.042 -1.58 4.257
 0.067 -1.571 4.234
 0.093 -1.585 4.271
 0.118 -1.574 4.239
 0.143 -1.572 4.234
 0.169 -1.578 4.248
 0.196 -1.585 4.266
 0.22 -1.575 4.237
 0.247 -1.587 4.267
 0.269 -1.566 4.21
 0.297 -1.58 4.245
 0.323 -1.582 4.25
 0.349 -1.585 4.255
 0.376 -1.591 4.27
 0.396 -1.566 4.2
 0.425 -1.58 4.235
 0.453 -1.59 4.259
 0.476 -1.583 4.237
 0.499 -1.573 4.207
 0.527 -1.581 4.227
 0.551 -1.576 4.209
 0.581 -1.588 4.24
 0.607 -1.59 4.24
 0.629 -1.581 4.214
 0.653 -1.578 4.203
 0.684 -1.591 4.233
 0.709 -1.59 4.226
 0.736 -1.592 4.228
 0.755 -1.579 4.19
 0.789 -1.595 4.226
 0.812 -1.591 4.211
 0.841 -1.598 4.225
 0.865 -1.593 4.209
 0.891 -1.595 4.207
 0.917 -1.595 4.204
 0.95 -1.607 4.23
 0.965 -1.589 4.177
 1.005 -1.612 4.233
 1.024 -1.602 4.199
 1.051 -1.603 4.197
 1.072 -1.597 4.174
 1.104 -1.606 4.191
 1.123 -1.597 4.162
 1.159 -1.611 4.193
 1.18 -1.605 4.169
 1.213 -1.614 4.186
 1.227 -1.598 4.139
 1.266 -1.615 4.175
 1.29 -1.612 4.161
 1.321 -1.619 4.17
 1.343 -1.615 4.152
 1.374 -1.62 4.158
 1.407 -1.628 4.171
 1.423 -1.617 4.134
 1.449 -1.617 4.126
 1.476 -1.618 4.12
 1.508 -1.625 4.128
 1.535 -1.625 4.12
 1.548 -1.612 4.079
 1.598 -1.637 4.131
 1.612 -1.624 4.09
 1.625 -1.612 4.049
 1.667 -1.628 4.079
 1.695 -1.63 4.074
 1.721 -1.629 4.063
 1.733 -1.616 4.021
 1.758 -1.616 4.009
 1.786 -1.617 4.003
 1.805 -1.611 3.977
 1.833 -1.613 3.971
 1.867 -1.621 3.978
 1.866 -1.597 3.909
 1.891 -1.597 3.896
 1.879 -1.566 3.81
 1.892 -1.556 3.775
 1.879 -1.526 3.689
 1.899 -1.522 3.668
 1.89 -1.496 3.593
 0 0 0
 0 0 0
 0 0 0
 0 0 0
 0 0 0
 1.848 -1.359 3.2
 1.851 -1.346 3.156
 1.88 -1.351 3.158
 1.863 -1.324 3.082
 1.829 -1.285 2.98
 -2.305 -1.611 3.901
 -2.272 -1.607 3.905
 -2.255 -1.614 3.935
 -2.243 -1.624 3.973
 -2.198 -1.612 3.955
 -2.179 -1.617 3.98
 -2.158 -1.622 4.005
 -2.113 -1.608 3.983
 -2.085 -1.607 3.993
 -2.068 -1.615 4.024
 -2.043 -1.616 4.038
 -2.005 -1.608 4.029
 -1.991 -1.618 4.066
 -1.958 -1.613 4.064
 -1.936 -1.617 4.085
 -1.899 -1.608 4.074
 -1.871 -1.607 4.083
 -1.843 -1.606 4.089
 -1.835 -1.623 4.142
 -1.809 -1.623 4.154
 -1.767 -1.61 4.129
 -1.744 -1.614 4.148
 -1.725 -1.621 4.178
 -1.701 -1.624 4.194
 -1.675 -1.625 4.205
 -1.632 -1.609 4.173
 -1.596 -1.6 4.157
 -1.585 -1.616 4.209
 -1.542 -1.599 4.173
 -1.529 -1.613 4.217
 -1.478 -1.587 4.158
 -1.461 -1.598 4.193
 -1.447 -1.611 4.237
 -1.416 -1.606 4.231
 -1.385 -1.601 4.225
 -1.354 -1.596 4.219
 -1.329 -1.598 4.23
 -1.305 -1.601 4.245
 -1.27 -1.591 4.225
 -1.254 -1.604 4.266
 -1.213 -1.586 4.224
 -1.189 -1.589 4.237
 -1.156 -1.579 4.218
 -1.148 -1.605 4.292
 -1.11 -1.589 4.256
 -1.092 -1.6 4.292
 -1.06 -1.592 4.275
 -1.026 -1.58 4.248
 -1.002 -1.584 4.263
 -0.967 -1.569 4.229
 -0.944 -1.575 4.25
 -0.922 -1.581 4.271
 -0.894 -1.578 4.266
 -0.875 -1.59 4.304
 -0.838 -1.571 4.256
 -0.813 -1.573 4.264
 -0.781 -1.562 4.237
 -0.762 -1.576 4.281
 -0.733 -1.57 4.266
 -0.708 -1.571 4.274
 -0.68 -1.568 4.267
 -0.651 -1.56 4.249
 -0.63 -1.57 4.28
 -0.604 -1.572 4.288
 -0.576 -1.564 4.269
 -0.552 -1.572 4.292
 -0.525 -1.568 4.285
 -0.499 -1.566 4.281
 -0.472 -1.562 4.273
 -0.444 -1.554 4.253
 -0.417 -1.552 4.249
 -0.393 -1.559 4.268
 -0.366 -1.553 4.254
 -0.342 -1.56 4.274
 -0.316 -1.558 4.272
 -0.289 -1.548 4.243
 -0.263 -1.546 4.241
 -0.237 -1.546 4.24
 -0.214 -1.564 4.292
 -0.186 -1.543 4.235
 -0.161 -1.547 4.245
 -0.136 -1.558 4.275
 -0.111 -1.565 4.297
 -0.085 -1.549 4.253
 -0.059 -1.554 4.265
 -0.034 -1.55 4.256
 -0.008 -1.542 4.234
 0.016 -1.541 4.23
 0.042 -1.561 4.283
 0.067 -1.547 4.244
 0.092 -1.545 4.24
 0.118 -1.546 4.239
 0.143 -1.545 4.236
 0.168 -1.544 4.232
 0.194 -1.546 4.238
 0.22 -1.553 4.255
 0.246 -1.553 4.254
 0.271 -1.552 4.249
 0.297 -1.555 4.257
 0.323 -1.557 4.259
 0.348 -1.553 4.246
 0.375 -1.561 4.266
 0.399 -1.554 4.245
 0.425 -1.554 4.241
 0.449 -1.549 4.226
 0.477 -1.558 4.247
 0.503 -1.56 4.249
 0.529 -1.561 4.25
 0.554 -1.558 4.239
 0.58 -1.56 4.242
 0.608 -1.567 4.257
 0.632 -1.563 4.243
 0.655 -1.557 4.223
 0.681 -1.558 4.223
 0.707 -1.558 4.218
 0.738 -1.569 4.245
 0.761 -1.565 4.229
 0.788 -1.568 4.233
 0.812 -1.564 4.216
 0.846 -1.58 4.256
 0.865 -1.567 4.217
 0.896 -1.577 4.238
 0.912 -1.561 4.189
 0.949 -1.579 4.232
 0.975 -1.58 4.23
 0.999 -1.577 4.218
 1.028 -1.581 4.222
 1.049 -1.574 4.197
 1.079 -1.58 4.208
 1.105 -1.582 4.205
 1.127 -1.576 4.184
 1.164 -1.591 4.218
 1.19 -1.591 4.21
 1.212 -1.585 4.189
 1.245 -1.595 4.208
 1.271 -1.595 4.201
 1.299 -1.597 4.199
 1.329 -1.602 4.203
 1.357 -1.605 4.203
 1.383 -1.604 4.195
 1.409 -1.605 4.187
 1.444 -1.613 4.202
 1.465 -1.608 4.179
 1.491 -1.608 4.171
 1.523 -1.614 4.178
 1.546 -1.611 4.16
 1.574 -1.612 4.155
 1.6 -1.613 4.146
 1.639 -1.625 4.17
 1.659 -1.618 4.142
 1.684 -1.617 4.129
 1.718 -1.624 4.137
 1.731 -1.612 4.097
 1.753 -1.608 4.077
 1.778 -1.607 4.063
 1.812 -1.614 4.07
 1.83 -1.607 4.041
 1.852 -1.604 4.022
 1.877 -1.603 4.008
 1.877 -1.581 3.942
 1.876 -1.559 3.875
 1.905 -1.561 3.871
 1.904 -1.54 3.807
 1.922 -1.535 3.781
 1.933 -1.524 3.743
 1.901 -1.48 3.623
 0 0 0
 0 0 0
 0 0 0
 0 0 0
 0 0 0
 0 0 0
 1.874 -1.341 3.204
 1.876 -1.327 3.16
 1.881 -1.315 3.12
 1.85 -1.279 3.023
 -2.333 -1.603 3.959
 -2.343 -1.629 4.037
 -2.309 -1.625 4.039
 -2.262 -1.611 4.017
 -2.248 -1.62 4.054
 -2.2 -1.606 4.03
 -2.163 -1.598 4.024
 -2.177 -1.629 4.114
 -2.137 -1.62 4.102
 -2.079 -1.597 4.056
 -2.064 -1.606 4.091
 -2.039 -1.608 4.107
 -2.02 -1.614 4.135
 -2.023 -1.639 4.21
 -1.959 -1.609 4.144
 -1.942 -1.617 4.176
 -1.911 -1.614 4.179
 -1.885 -1.615 4.192
 -1.854 -1.612 4.195
 -1.83 -1.615 4.213
 -1.788 -1.602 4.188
 -1.772 -1.612 4.224
 -1.735 -1.604 4.211
 -1.709 -1.605 4.223
 -1.677 -1.6 4.219
 -1.646 -1.596 4.218
 -1.633 -1.609 4.263
 -1.598 -1.602 4.252
 -1.561 -1.592 4.234
 -1.532 -1.59 4.236
 -1.522 -1.607 4.292
 -1.476 -1.587 4.246
 -1.454 -1.592 4.266
 -1.423 -1.587 4.261
 -1.392 -1.583 4.257
 -1.37 -1.589 4.279
 -1.351 -1.598 4.31
 -1.317 -1.589 4.294
 -1.279 -1.575 4.263
 -1.248 -1.57 4.255
 -1.222 -1.57 4.262
 -1.202 -1.58 4.293
 -1.167 -1.568 4.268
 -1.144 -1.573 4.288
 -1.118 -1.574 4.295
 -1.085 -1.563 4.272
 -1.059 -1.565 4.281
 -1.034 -1.566 4.291
 -1.007 -1.565 4.292
 -0.977 -1.56 4.283
 -0.949 -1.556 4.277
 -0.919 -1.551 4.268
 -0.891 -1.547 4.262
 -0.869 -1.555 4.288
 -0.842 -1.554 4.288
 -0.808 -1.538 4.249
 -0.788 -1.55 4.286
 -0.759 -1.544 4.271
 -0.733 -1.543 4.273
 -0.71 -1.55 4.296
 -0.681 -1.543 4.278
 -0.654 -1.54 4.273
 -0.626 -1.536 4.266
 -0.603 -1.542 4.283
 -0.575 -1.536 4.271
 -0.549 -1.537 4.276
 -0.523 -1.535 4.273
 -0.497 -1.535 4.274
 -0.469 -1.527 4.254
 -0.446 -1.539 4.29
 -0.419 -1.535 4.279
 -0.394 -1.536 4.284
 -0.368 -1.535 4.285
 -0.343 -1.538 4.293
 -0.316 -1.533 4.28
 -0.289 -1.523 4.253
 -0.264 -1.528 4.269
 -0.239 -1.529 4.273
 -0.213 -1.527 4.267
 -0.187 -1.53 4.277
 -0.161 -1.527 4.27
 -0.136 -1.524 4.261
 -0.11 -1.522 4.257
 -0.085 -1.532 4.284
 -0.059 -1.525 4.263
 -0.034 -1.53 4.278
 -0.008 -1.528 4.272
 0.016 -1.527 4.27
 0.042 -1.523 4.259
 0.067 -1.516 4.237
 0.093 -1.52 4.247
 0.118 -1.522 4.253
 0.144 -1.529 4.271
 0.169 -1.525 4.258
 0.194 -1.522 4.249
 0.22 -1.523 4.252
 0.245 -1.521 4.245
 0.271 -1.526 4.256
 0.297 -1.526 4.253
 0.323 -1.529 4.261
 0.349 -1.529 4.258
 0.374 -1.527 4.252
 0.397 -1.521 4.231
 0.421 -1.516 4.216
 0.451 -1.531 4.255
 0.479 -1.539 4.274
 0.502 -1.532 4.252
 0.525 -1.523 4.223
 0.552 -1.528 4.236
 0.58 -1.534 4.249
 0.608 -1.541 4.264
 0.633 -1.538 4.252
 0.659 -1.54 4.255
 0.683 -1.536 4.241
 0.706 -1.531 4.223
 0.736 -1.541 4.245
 0.767 -1.551 4.269
 0.791 -1.547 4.254
 0.818 -1.549 4.255
 0.839 -1.541 4.228
 0.867 -1.544 4.232
 0.897 -1.552 4.25
 0.919 -1.547 4.229
 0.943 -1.544 4.216
 0.975 -1.554 4.239
 0.995 -1.545 4.207
 1.03 -1.558 4.239
 1.047 -1.545 4.198
 1.082 -1.559 4.229
 1.108 -1.558 4.221
 1.139 -1.567 4.237
 1.154 -1.552 4.191
 1.186 -1.56 4.206
 1.217 -1.567 4.217
 1.246 -1.569 4.217
 1.277 -1.576 4.227
 1.297 -1.569 4.202
 1.326 -1.572 4.202
 1.358 -1.579 4.214
 1.383 -1.577 4.201
 1.404 -1.572 4.179
 1.443 -1.586 4.208
 1.462 -1.578 4.18
 1.508 -1.599 4.226
 1.522 -1.587 4.184
 1.563 -1.601 4.214
 1.587 -1.599 4.198
 1.612 -1.598 4.186
 1.635 -1.594 4.167
 1.667 -1.599 4.17
 1.701 -1.606 4.179
 1.716 -1.596 4.143
 1.754 -1.607 4.16
 1.776 -1.602 4.138
 1.794 -1.595 4.108
 1.82 -1.595 4.097
 1.838 -1.587 4.068
 1.861 -1.585 4.05
 1.889 -1.586 4.043
 1.877 -1.555 3.951
 1.879 -1.535 3.889
 1.888 -1.522 3.846
 1.89 -1.504 3.787
 1.918 -1.506 3.781
 0 0 0
 0 0 0
 0 0 0
 0 0 0
 0 0 0
 0 0 0
 0 0 0
 0 0 0
 1.822 -1.282 3.122
 1.864 -1.296 3.146
 1.877 -1.291 3.121
 1.834 -1.247 3.003
 -2.373 -1.603 4.037
 -2.381 -1.628 4.113
 -2.32 -1.605 4.068
 -2.298 -1.609 4.092
 -2.275 -1.613 4.114
 -2.215 -1.59 4.068
 -2.203 -1.601 4.109
 -2.19 -1.611 4.148
 -2.136 -1.592 4.11
 -2.113 -1.595 4.131
 -2.123 -1.624 4.217
 -2.077 -1.61 4.193
 -2.043 -1.605 4.192
 -2.02 -1.609 4.214
 -1.975 -1.595 4.188
 -1.948 -1.595 4.2
 -1.938 -1.61 4.249
 -1.897 -1.599 4.23
 -1.869 -1.598 4.238
 -1.837 -1.594 4.239
 -1.825 -1.608 4.286
 -1.77 -1.583 4.23
 -1.785 -1.622 4.343
 -1.716 -1.584 4.25
 -1.699 -1.593 4.284
 -1.677 -1.598 4.307
 -1.633 -1.583 4.273
 -1.603 -1.58 4.275
 -1.574 -1.578 4.278
 -1.54 -1.571 4.268
 -1.519 -1.577 4.292
 -1.486 -1.571 4.283
 -1.461 -1.573 4.296
 -1.442 -1.582 4.328
 -1.391 -1.555 4.262
 -1.375 -1.568 4.304
 -1.343 -1.562 4.295
 -1.318 -1.564 4.306
 -1.283 -1.554 4.286
 -1.254 -1.551 4.284
 -1.226 -1.549 4.284
 -1.205 -1.557 4.312
 -1.165 -1.539 4.268
 -1.143 -1.546 4.293
 -1.119 -1.548 4.305
 -1.087 -1.54 4.29
 -1.065 -1.547 4.312
 -1.028 -1.532 4.275
 -1.007 -1.54 4.302
 -0.979 -1.537 4.301
 -0.954 -1.54 4.313
 -0.925 -1.534 4.301
 -0.897 -1.531 4.298
 -0.865 -1.521 4.273
 -0.843 -1.529 4.299
 -0.816 -1.527 4.297
 -0.788 -1.524 4.293
 -0.761 -1.523 4.293
 -0.734 -1.52 4.288
 -0.708 -1.519 4.289
 -0.68 -1.516 4.284
 -0.656 -1.52 4.299
 -0.623 -1.503 4.254
 -0.601 -1.513 4.284
 -0.575 -1.511 4.281
 -0.548 -1.508 4.276
 -0.519 -1.498 4.248
 -0.497 -1.509 4.281
 -0.468 -1.499 4.255
 -0.445 -1.508 4.282
 -0.42 -1.509 4.289
 -0.394 -1.51 4.293
 -0.367 -1.507 4.285
 -0.341 -1.504 4.279
 -0.316 -1.505 4.282
 -0.289 -1.502 4.275
 -0.264 -1.502 4.275
 -0.238 -1.502 4.277
 -0.214 -1.513 4.308
 -0.187 -1.505 4.288
 -0.161 -1.502 4.278
 -0.136 -1.509 4.3
 -0.11 -1.499 4.272
 -0.085 -1.499 4.272
 -0.059 -1.492 4.25
 -0.033 -1.497 4.264
 -0.008 -1.497 4.266
 0.017 -1.497 4.265
 0.042 -1.499 4.271
 0.067 -1.497 4.263
 0.093 -1.493 4.25
 0.119 -1.504 4.281
 0.144 -1.501 4.271
 0.169 -1.494 4.25
 0.195 -1.5 4.266
 0.219 -1.491 4.241
 0.247 -1.505 4.277
 0.271 -1.496 4.249
 0.297 -1.499 4.258
 0.324 -1.506 4.275
 0.344 -1.485 4.214
 0.374 -1.501 4.259
 0.398 -1.495 4.239
 0.424 -1.501 4.252
 0.449 -1.497 4.239
 0.475 -1.5 4.246
 0.5 -1.499 4.239
 0.528 -1.505 4.253
 0.559 -1.52 4.293
 0.583 -1.517 4.281
 0.604 -1.504 4.24
 0.63 -1.507 4.244
 0.658 -1.511 4.254
 0.684 -1.512 4.252
 0.714 -1.522 4.278
 0.74 -1.522 4.274
 0.762 -1.515 4.248
 0.787 -1.514 4.241
 0.812 -1.513 4.234
 0.841 -1.518 4.243
 0.869 -1.523 4.253
 0.9 -1.531 4.272
 0.92 -1.521 4.237
 0.951 -1.53 4.257
 0.968 -1.516 4.212
 1.002 -1.529 4.244
 1.023 -1.522 4.218
 1.057 -1.533 4.244
 1.086 -1.539 4.253
 1.114 -1.541 4.254
 1.139 -1.539 4.243
 1.165 -1.54 4.238
 1.192 -1.542 4.235
 1.227 -1.553 4.259
 1.246 -1.543 4.227
 1.276 -1.548 4.231
 1.295 -1.54 4.203
 1.328 -1.548 4.217
 1.354 -1.548 4.209
 1.385 -1.553 4.216
 1.416 -1.559 4.224
 1.449 -1.565 4.233
 1.469 -1.559 4.207
 1.508 -1.572 4.234
 1.524 -1.562 4.197
 1.559 -1.57 4.211
 1.592 -1.577 4.219
 1.617 -1.575 4.206
 1.65 -1.582 4.215
 1.668 -1.574 4.183
 1.7 -1.579 4.186
 1.729 -1.581 4.182
 1.756 -1.581 4.173
 1.787 -1.585 4.173
 1.803 -1.576 4.137
 1.834 -1.58 4.137
 1.848 -1.569 4.098
 1.864 -1.56 4.065
 1.9 -1.569 4.075
 1.885 -1.535 3.975
 1.888 -1.517 3.918
 1.904 -1.509 3.885
 1.882 -1.473 3.78
 0 0 0
 0 0 0
 0 0 0
 0 0 0
 0 0 0
 0 0 0
 0 0 0
 0 0 0
 0 0 0
 1.802 -1.247 3.095
 1.849 -1.264 3.128
 1.852 -1.252 3.086
 1.851 -1.238 3.039
 -2.425 -1.611 4.136
 -2.361 -1.586 4.087
 -2.363 -1.606 4.153
 -2.329 -1.603 4.157
 -2.303 -1.604 4.174
 -2.277 -1.606 4.191
 -2.231 -1.593 4.17
 -2.222 -1.606 4.218
 -2.177 -1.594 4.199
 -2.165 -1.606 4.243
 -2.124 -1.596 4.229
 -2.102 -1.602 4.254
 -2.074 -1.601 4.265
 -2.032 -1.591 4.248
 -2.015 -1.6 4.283
 -1.992 -1.604 4.305
 -1.939 -1.583 4.26
 -1.946 -1.612 4.35
 -1.89 -1.588 4.295
 -1.86 -1.586 4.301
 -1.83 -1.585 4.307
 -1.789 -1.573 4.284
 -1.748 -1.561 4.262
 -1.733 -1.572 4.301
 -1.707 -1.574 4.315
 -1.672 -1.567 4.305
 -1.65 -1.572 4.327
 -1.61 -1.56 4.302
 -1.584 -1.561 4.314
 -1.547 -1.551 4.296
 -1.516 -1.547 4.292
 -1.484 -1.542 4.287
 -1.462 -1.548 4.309
 -1.431 -1.544 4.305
 -1.388 -1.526 4.262
 -1.377 -1.543 4.319
 -1.35 -1.544 4.327
 -1.316 -1.535 4.31
 -1.292 -1.538 4.325
 -1.251 -1.521 4.282
 -1.23 -1.528 4.308
 -1.199 -1.522 4.299
 -1.178 -1.529 4.325
 -1.14 -1.514 4.288
 -1.111 -1.511 4.283
 -1.087 -1.515 4.3
 -1.067 -1.523 4.33
 -1.033 -1.513 4.304
 -1.002 -1.505 4.287
 -0.976 -1.506 4.295
 -0.945 -1.499 4.278
 -0.923 -1.505 4.302
 -0.894 -1.501 4.295
 -0.869 -1.503 4.305
 -0.845 -1.506 4.316
 -0.815 -1.5 4.304
 -0.792 -1.505 4.322
 -0.759 -1.492 4.288
 -0.735 -1.496 4.302
 -0.709 -1.495 4.304
 -0.681 -1.492 4.297
 -0.651 -1.483 4.275
 -0.623 -1.478 4.262
 -0.603 -1.492 4.306
 -0.573 -1.48 4.275
 -0.55 -1.489 4.302
 -0.521 -1.481 4.281
 -0.496 -1.482 4.286
 -0.472 -1.487 4.303
 -0.442 -1.472 4.262
 -0.417 -1.477 4.276
 -0.389 -1.467 4.249
 -0.369 -1.487 4.309
 -0.341 -1.479 4.289
 -0.315 -1.478 4.286
 -0.289 -1.477 4.283
 -0.263 -1.472 4.27
 -0.237 -1.47 4.266
 -0.212 -1.472 4.272
 -0.187 -1.477 4.288
 -0.161 -1.475 4.283
 -0.135 -1.474 4.281
 -0.11 -1.478 4.292
 -0.084 -1.472 4.274
 -0.058 -1.461 4.242
 -0.033 -1.467 4.258
 -0.008 -1.466 4.258
 0.017 -1.473 4.277
 0.042 -1.479 4.292
 0.068 -1.471 4.268
 0.092 -1.462 4.242
 0.119 -1.478 4.289
 0.144 -1.47 4.264
 0.17 -1.48 4.293
 0.195 -1.47 4.262
 0.221 -1.474 4.271
 0.246 -1.475 4.273
 0.272 -1.475 4.272
 0.298 -1.479 4.28
 0.322 -1.472 4.26
 0.347 -1.469 4.247
 0.374 -1.476 4.267
 0.397 -1.469 4.243
 0.424 -1.472 4.25
 0.452 -1.481 4.275
 0.475 -1.474 4.251
 0.503 -1.48 4.266
 0.525 -1.473 4.241
 0.555 -1.483 4.269
 0.578 -1.478 4.25
 0.605 -1.481 4.257
 0.632 -1.485 4.264
 0.657 -1.483 4.253
 0.681 -1.479 4.24
 0.705 -1.477 4.231
 0.734 -1.484 4.244
 0.767 -1.498 4.281
 0.786 -1.484 4.239
 0.815 -1.492 4.256
 0.841 -1.493 4.253
 0.871 -1.5 4.268
 0.887 -1.483 4.217
 0.913 -1.483 4.212
 0.947 -1.498 4.248
 0.971 -1.495 4.235
 0.998 -1.497 4.235
 1.03 -1.506 4.254
 1.054 -1.503 4.24
 1.08 -1.503 4.235
 1.111 -1.511 4.251
 1.132 -1.504 4.224
 1.163 -1.511 4.238
 1.185 -1.506 4.217
 1.223 -1.521 4.253
 1.25 -1.522 4.248
 1.278 -1.524 4.248
 1.302 -1.522 4.234
 1.328 -1.522 4.226
 1.358 -1.526 4.231
 1.385 -1.526 4.223
 1.412 -1.527 4.217
 1.442 -1.532 4.222
 1.478 -1.542 4.241
 1.493 -1.53 4.2
 1.528 -1.539 4.215
 1.557 -1.542 4.215
 1.589 -1.547 4.219
 1.617 -1.549 4.216
 1.641 -1.546 4.198
 1.68 -1.558 4.221
 1.698 -1.55 4.19
 1.732 -1.557 4.199
 1.751 -1.55 4.169
 1.786 -1.557 4.18
 1.811 -1.556 4.164
 1.846 -1.563 4.174
 1.848 -1.542 4.106
 1.863 -1.533 4.07
 1.875 -1.521 4.029
 1.879 -1.504 3.971
 1.924 -1.519 4
 1.894 -1.476 3.874
 0 0 0
 0 0 0
 0 0 0
 0 0 0
 0 0 0
 0 0 0
 0 0 0
 0 0 0
 0 0 0
 0 0 0
 1.844 -1.254 3.175
 1.897 -1.275 3.217
 1.866 -1.24 3.117
 1.849 -1.215 3.042
 -2.465 -1.608 4.213
 -2.43 -1.604 4.218
 -2.38 -1.59 4.194
 -2.353 -1.591 4.21
 -2.314 -1.583 4.203
 -2.303 -1.596 4.25
 -2.274 -1.596 4.261
 -2.238 -1.59 4.26
 -2.21 -1.59 4.272
 -2.174 -1.585 4.269
 -2.154 -1.591 4.299
 -2.121 -1.588 4.302
 -2.087 -1.583 4.302
 -2.041 -1.569 4.275
 -2.025 -1.579 4.313
 -2.002 -1.583 4.335
 -1.948 -1.563 4.29
 -1.937 -1.576 4.337
 -1.892 -1.562 4.309
 -1.854 -1.553 4.296
 -1.822 -1.55 4.296
 -1.79 -1.547 4.297
 -1.76 -1.544 4.299
 -1.745 -1.555 4.34
 -1.719 -1.557 4.353
 -1.665 -1.533 4.295
 -1.64 -1.535 4.31
 -1.6 -1.523 4.286
 -1.578 -1.528 4.307
 -1.553 -1.53 4.321
 -1.519 -1.524 4.311
 -1.497 -1.529 4.333
 -1.45 -1.509 4.283
 -1.427 -1.512 4.3
 -1.398 -1.51 4.302
 -1.377 -1.516 4.326
 -1.338 -1.503 4.295
 -1.308 -1.499 4.291
 -1.288 -1.507 4.321
 -1.252 -1.495 4.294
 -1.232 -1.504 4.325
 -1.198 -1.495 4.304
 -1.167 -1.49 4.295
 -1.143 -1.492 4.308
 -1.109 -1.482 4.283
 -1.087 -1.489 4.309
 -1.058 -1.484 4.301
 -1.027 -1.478 4.287
 -1.005 -1.485 4.313
 -0.98 -1.486 4.32
 -0.95 -1.481 4.311
 -0.921 -1.476 4.3
 -0.896 -1.478 4.31
 -0.867 -1.474 4.304
 -0.837 -1.467 4.286
 -0.809 -1.464 4.281
 -0.779 -1.455 4.26
 -0.759 -1.467 4.298
 -0.727 -1.455 4.264
 -0.703 -1.458 4.278
 -0.679 -1.462 4.294
 -0.65 -1.456 4.277
 -0.629 -1.466 4.31
 -0.6 -1.458 4.291
 -0.573 -1.456 4.287
 -0.55 -1.463 4.308
 -0.522 -1.456 4.29
 -0.497 -1.46 4.303
 -0.472 -1.462 4.313
 -0.443 -1.452 4.286
 -0.419 -1.455 4.297
 -0.392 -1.452 4.289
 -0.366 -1.449 4.282
 -0.338 -1.441 4.26
 -0.316 -1.456 4.303
 -0.287 -1.44 4.257
 -0.262 -1.445 4.274
 -0.238 -1.45 4.29
 -0.212 -1.447 4.281
 -0.186 -1.447 4.281
 -0.161 -1.451 4.293
 -0.135 -1.443 4.27
 -0.109 -1.443 4.271
 -0.084 -1.447 4.284
 -0.058 -1.443 4.272
 -0.033 -1.448 4.287
 -0.008 -1.454 4.304
 0.017 -1.449 4.288
 0.042 -1.441 4.263
 0.068 -1.445 4.276
 0.093 -1.442 4.266
 0.118 -1.432 4.236
 0.144 -1.442 4.262
 0.168 -1.435 4.243
 0.193 -1.432 4.233
 0.221 -1.45 4.283
 0.245 -1.443 4.262
 0.27 -1.441 4.253
 0.296 -1.444 4.26
 0.322 -1.445 4.263
 0.348 -1.449 4.271
 0.373 -1.445 4.259
 0.401 -1.456 4.287
 0.427 -1.455 4.284
 0.451 -1.451 4.268
 0.476 -1.449 4.26
 0.501 -1.45 4.261
 0.522 -1.437 4.219
 0.551 -1.446 4.243
 0.578 -1.45 4.251
 0.601 -1.445 4.232
 0.629 -1.451 4.246
 0.658 -1.458 4.264
 0.68 -1.451 4.24
 0.707 -1.455 4.247
 0.733 -1.456 4.246
 0.759 -1.457 4.245
 0.78 -1.449 4.218
 0.813 -1.463 4.253
 0.84 -1.464 4.251
 0.869 -1.47 4.265
 0.891 -1.463 4.241
 0.92 -1.469 4.252
 0.946 -1.469 4.249
 0.971 -1.469 4.243
 0.995 -1.466 4.228
 1.023 -1.469 4.231
 1.052 -1.474 4.239
 1.082 -1.48 4.251
 1.1 -1.47 4.216
 1.131 -1.477 4.23
 1.163 -1.484 4.243
 1.195 -1.492 4.259
 1.213 -1.482 4.223
 1.241 -1.484 4.224
 1.273 -1.491 4.237
 1.301 -1.494 4.238
 1.328 -1.495 4.232
 1.357 -1.498 4.235
 1.385 -1.5 4.232
 1.415 -1.504 4.236
 1.439 -1.502 4.22
 1.484 -1.521 4.268
 1.499 -1.509 4.225
 1.533 -1.517 4.237
 1.56 -1.518 4.231
 1.588 -1.519 4.226
 1.614 -1.519 4.216
 1.644 -1.522 4.214
 1.671 -1.522 4.207
 1.694 -1.519 4.188
 1.724 -1.522 4.187
 1.762 -1.532 4.204
 1.79 -1.534 4.197
 1.812 -1.529 4.175
 1.845 -1.535 4.179
 1.858 -1.524 4.137
 1.864 -1.507 4.08
 1.885 -1.503 4.06
 1.908 -1.501 4.042
 1.916 -1.487 3.992
 0 0 0
 0 0 0
 0 0 0
 0 0 0
 0 0 0
 0 0 0
 0 0 0
 0 0 0
 0 0 0
 0 0 0
 0 0 0
 1.784 -1.192 3.077
 1.851 -1.223 3.146
 1.876 -1.225 3.141
 1.858 -1.2 3.064
 -2.501 -1.602 4.285
 -2.472 -1.603 4.299
 -2.411 -1.582 4.257
 -2.407 -1.598 4.316
 -2.383 -1.602 4.339
 -2.316 -1.576 4.282
 -2.309 -1.591 4.337
 -2.267 -1.582 4.325
 -2.216 -1.567 4.294
 -2.193 -1.57 4.317
 -2.163 -1.569 4.326
 -2.121 -1.559 4.311
 -2.095 -1.561 4.328
 -2.059 -1.555 4.323
 -2.028 -1.553 4.328
 -1.992 -1.547 4.323
 -1.951 -1.537 4.306
 -1.918 -1.533 4.305
 -1.882 -1.526 4.296
 -1.845 -1.519 4.284
 -1.826 -1.526 4.316
 -1.804 -1.531 4.34
 -1.762 -1.519 4.313
 -1.741 -1.525 4.34
 -1.7 -1.512 4.313
 -1.679 -1.518 4.34
 -1.642 -1.51 4.325
 -1.622 -1.516 4.352
 -1.574 -1.498 4.306
 -1.547 -1.497 4.314
 -1.523 -1.5 4.329
 -1.496 -1.501 4.34
 -1.463 -1.495 4.329
 -1.429 -1.487 4.315
 -1.409 -1.495 4.346
 -1.376 -1.489 4.334
 -1.335 -1.473 4.294
 -1.308 -1.472 4.299
 -1.278 -1.469 4.296
 -1.249 -1.465 4.292
 -1.221 -1.464 4.295
 -1.2 -1.471 4.32
 -1.168 -1.464 4.305
 -1.144 -1.467 4.32
 -1.114 -1.462 4.311
 -1.082 -1.456 4.297
 -1.055 -1.454 4.296
 -1.031 -1.457 4.312
 -1 -1.45 4.297
 -0.976 -1.453 4.31
 -0.946 -1.448 4.299
 -0.92 -1.449 4.304
 -0.891 -1.444 4.296
 -0.862 -1.439 4.284
 -0.838 -1.443 4.301
 -0.81 -1.439 4.292
 -0.791 -1.451 4.333
 -0.758 -1.438 4.296
 -0.733 -1.44 4.306
 -0.705 -1.438 4.301
 -0.681 -1.44 4.312
 -0.654 -1.438 4.308
 -0.627 -1.435 4.303
 -0.6 -1.432 4.296
 -0.574 -1.433 4.301
 -0.55 -1.437 4.315
 -0.519 -1.423 4.277
 -0.495 -1.427 4.289
 -0.467 -1.42 4.272
 -0.442 -1.423 4.283
 -0.418 -1.428 4.299
 -0.39 -1.421 4.279
 -0.364 -1.419 4.276
 -0.337 -1.413 4.259
 -0.312 -1.415 4.266
 -0.289 -1.425 4.297
 -0.262 -1.419 4.281
 -0.236 -1.417 4.276
 -0.212 -1.421 4.288
 -0.187 -1.429 4.313
 -0.16 -1.414 4.268
 -0.135 -1.426 4.304
 -0.11 -1.423 4.296
 -0.084 -1.415 4.272
 -0.058 -1.419 4.282
 -0.033 -1.419 4.282
 -0.007 -1.411 4.258
 0.017 -1.418 4.28
 0.042 -1.413 4.264
 0.068 -1.423 4.294
 0.093 -1.409 4.249
 0.119 -1.417 4.275
 0.143 -1.412 4.256
 0.169 -1.415 4.264
 0.195 -1.423 4.287
 0.221 -1.422 4.284
 0.246 -1.418 4.268
 0.272 -1.421 4.278
 0.297 -1.42 4.272
 0.323 -1.425 4.286
 0.347 -1.419 4.267
 0.373 -1.418 4.262
 0.399 -1.422 4.271
 0.424 -1.42 4.261
 0.451 -1.427 4.279
 0.474 -1.42 4.256
 0.5 -1.421 4.257
 0.523 -1.415 4.236
 0.554 -1.429 4.274
 0.575 -1.417 4.235
 0.604 -1.427 4.261
 0.631 -1.429 4.264
 0.656 -1.429 4.26
 0.68 -1.425 4.245
 0.701 -1.417 4.218
 0.736 -1.436 4.271
 0.763 -1.438 4.271
 0.786 -1.433 4.253
 0.813 -1.436 4.258
 0.839 -1.436 4.254
 0.868 -1.442 4.265
 0.895 -1.444 4.269
 0.917 -1.438 4.246
 0.944 -1.44 4.247
 0.975 -1.448 4.263
 0.998 -1.445 4.25
 1.036 -1.461 4.293
 1.054 -1.45 4.254
 1.077 -1.446 4.237
 1.111 -1.457 4.263
 1.133 -1.453 4.243
 1.162 -1.457 4.248
 1.187 -1.456 4.24
 1.212 -1.454 4.227
 1.242 -1.46 4.237
 1.279 -1.471 4.264
 1.3 -1.466 4.24
 1.33 -1.47 4.246
 1.355 -1.469 4.235
 1.385 -1.473 4.239
 1.407 -1.469 4.22
 1.441 -1.477 4.235
 1.466 -1.476 4.221
 1.495 -1.479 4.222
 1.527 -1.484 4.228
 1.558 -1.489 4.234
 1.579 -1.484 4.21
 1.61 -1.489 4.214
 1.644 -1.495 4.224
 1.665 -1.49 4.2
 1.704 -1.501 4.22
 1.727 -1.498 4.202
 1.76 -1.504 4.208
 1.793 -1.509 4.213
 1.818 -1.507 4.197
 1.844 -1.507 4.185
 1.861 -1.499 4.153
 1.882 -1.495 4.129
 1.878 -1.471 4.052
 1.914 -1.479 4.062
 0 0 0
 0 0 0
 0 0 0
 0 0 0
 0 0 0
 0 0 0
 0 0 0
 0 0 0
 0 0 0
 0 0 0
 0 0 0
 0 0 0
 0 0 0
 1.894 -1.229 3.227
 1.882 -1.207 3.158
 1.876 -1.19 3.101
 -2.515 -1.583 4.32
 -2.49 -1.585 4.341
 -2.446 -1.576 4.33
 -2.423 -1.58 4.354
 -2.359 -1.557 4.305
 -2.371 -1.584 4.394
 -2.291 -1.551 4.313
 -2.268 -1.554 4.335
 -2.244 -1.558 4.358
 -2.209 -1.553 4.358
 -2.173 -1.548 4.356
 -2.15 -1.552 4.38
 -2.095 -1.533 4.337
 -2.054 -1.524 4.323
 -2.025 -1.523 4.332
 -2.003 -1.528 4.356
 -1.951 -1.51 4.315
 -1.923 -1.51 4.326
 -1.895 -1.509 4.334
 -1.871 -1.512 4.354
 -1.814 -1.489 4.296
 -1.802 -1.502 4.343
 -1.768 -1.497 4.338
 -1.743 -1.499 4.353
 -1.692 -1.478 4.302
 -1.678 -1.49 4.346
 -1.635 -1.477 4.315
 -1.606 -1.475 4.318
 -1.575 -1.472 4.318
 -1.536 -1.46 4.291
 -1.517 -1.467 4.321
 -1.484 -1.462 4.314
 -1.459 -1.464 4.326
 -1.431 -1.463 4.331
 -1.401 -1.46 4.33
 -1.376 -1.462 4.341
 -1.342 -1.454 4.325
 -1.314 -1.453 4.328
 -1.284 -1.449 4.323
 -1.253 -1.444 4.315
 -1.225 -1.443 4.317
 -1.207 -1.452 4.352
 -1.17 -1.44 4.32
 -1.14 -1.437 4.315
 -1.11 -1.431 4.304
 -1.084 -1.432 4.312
 -1.051 -1.423 4.29
 -1.031 -1.431 4.321
 -0.996 -1.419 4.287
 -0.965 -1.411 4.27
 -0.943 -1.418 4.296
 -0.924 -1.43 4.334
 -0.89 -1.417 4.3
 -0.866 -1.42 4.312
 -0.838 -1.417 4.307
 -0.813 -1.419 4.318
 -0.782 -1.409 4.292
 -0.757 -1.412 4.303
 -0.732 -1.412 4.308
 -0.7 -1.401 4.277
 -0.677 -1.406 4.295
 -0.647 -1.397 4.271
 -0.626 -1.408 4.306
 -0.597 -1.401 4.289
 -0.575 -1.409 4.315
 -0.546 -1.402 4.297
 -0.517 -1.394 4.272
 -0.494 -1.4 4.294
 -0.468 -1.397 4.288
 -0.444 -1.405 4.312
 -0.418 -1.401 4.303
 -0.392 -1.401 4.305
 -0.364 -1.392 4.277
 -0.339 -1.394 4.285
 -0.312 -1.387 4.264
 -0.287 -1.388 4.27
 -0.263 -1.397 4.299
 -0.236 -1.388 4.271
 -0.211 -1.395 4.292
 -0.184 -1.383 4.256
 -0.161 -1.399 4.308
 -0.135 -1.394 4.29
 -0.109 -1.393 4.289
 -0.084 -1.397 4.299
 -0.058 -1.384 4.26
 -0.033 -1.396 4.299
 -0.007 -1.395 4.293
 0.017 -1.396 4.298
 0.042 -1.384 4.259
 0.068 -1.385 4.261
 0.093 -1.38 4.247
 0.119 -1.396 4.295
 0.144 -1.39 4.275
 0.167 -1.375 4.227
 0.195 -1.389 4.27
 0.22 -1.388 4.263
 0.244 -1.38 4.239
 0.271 -1.393 4.276
 0.296 -1.391 4.269
 0.322 -1.391 4.267
 0.347 -1.391 4.265
 0.373 -1.395 4.276
 0.4 -1.398 4.283
 0.425 -1.398 4.281
 0.448 -1.39 4.253
 0.474 -1.392 4.256
 0.498 -1.39 4.247
 0.529 -1.404 4.288
 0.551 -1.396 4.26
 0.58 -1.404 4.282
 0.605 -1.403 4.274
 0.628 -1.396 4.25
 0.658 -1.407 4.281
 0.683 -1.405 4.27
 0.707 -1.403 4.259
 0.731 -1.4 4.247
 0.762 -1.41 4.272
 0.782 -1.4 4.237
 0.811 -1.407 4.256
 0.838 -1.409 4.258
 0.859 -1.401 4.227
 0.888 -1.406 4.24
 0.913 -1.407 4.236
 0.946 -1.418 4.263
 0.972 -1.418 4.26
 1.003 -1.425 4.274
 1.022 -1.416 4.243
 1.052 -1.422 4.255
 1.081 -1.425 4.259
 1.111 -1.431 4.27
 1.131 -1.424 4.241
 1.16 -1.427 4.246
 1.188 -1.43 4.248
 1.209 -1.425 4.225
 1.232 -1.422 4.209
 1.279 -1.446 4.273
 1.297 -1.437 4.24
 1.32 -1.434 4.223
 1.354 -1.442 4.241
 1.381 -1.443 4.236
 1.414 -1.45 4.247
 1.443 -1.453 4.247
 1.467 -1.451 4.233
 1.496 -1.453 4.232
 1.531 -1.461 4.248
 1.561 -1.465 4.25
 1.572 -1.45 4.198
 1.612 -1.463 4.224
 1.644 -1.468 4.23
 1.67 -1.467 4.219
 1.706 -1.476 4.234
 1.732 -1.475 4.222
 1.749 -1.467 4.188
 1.782 -1.473 4.194
 1.833 -1.492 4.239
 1.854 -1.488 4.216
 1.865 -1.475 4.169
 1.869 -1.458 4.109
 1.909 -1.468 4.127
 0 0 0
 0 0 0
 0 0 0
 0 0 0
 0 0 0
 0 0 0
 0 0 0
 0 0 0
 0 0 0
 0 0 0
 0 0 0
 0 0 0
 0 0 0
 0 0 0
 1.864 -1.188 3.182
 1.868 -1.177 3.141
 1.876 -1.169 3.107
 -2.538 -1.567 4.368
 -2.497 -1.561 4.364
 -2.446 -1.547 4.34
 -2.42 -1.549 4.358
 -2.363 -1.531 4.322
 -2.346 -1.539 4.358
 -2.301 -1.528 4.339
 -2.254 -1.516 4.318
 -2.245 -1.529 4.369
 -2.179 -1.504 4.308
 -2.175 -1.521 4.37
 -2.128 -1.508 4.344
 -2.09 -1.501 4.335
 -2.069 -1.507 4.363
 -2.016 -1.489 4.322
 -1.984 -1.486 4.324
 -1.96 -1.489 4.344
 -1.928 -1.486 4.346
 -1.891 -1.478 4.334
 -1.866 -1.481 4.351
 -1.833 -1.477 4.349
 -1.8 -1.472 4.346
 -1.758 -1.46 4.321
 -1.716 -1.449 4.295
 -1.695 -1.454 4.319
 -1.671 -1.457 4.337
 -1.636 -1.45 4.326
 -1.619 -1.459 4.362
 -1.575 -1.444 4.323
 -1.548 -1.445 4.335
 -1.513 -1.437 4.32
 -1.477 -1.428 4.3
 -1.46 -1.438 4.337
 -1.427 -1.432 4.327
 -1.397 -1.428 4.323
 -1.362 -1.421 4.306
 -1.341 -1.426 4.33
 -1.31 -1.422 4.324
 -1.276 -1.414 4.305
 -1.258 -1.424 4.342
 -1.222 -1.412 4.313
 -1.182 -1.397 4.271
 -1.161 -1.403 4.297
 -1.133 -1.401 4.295
 -1.108 -1.402 4.304
 -1.091 -1.415 4.349
 -1.054 -1.401 4.31
 -1.023 -1.394 4.293
 -1.002 -1.402 4.325
 -0.967 -1.39 4.29
 -0.95 -1.403 4.335
 -0.915 -1.389 4.296
 -0.892 -1.395 4.318
 -0.862 -1.388 4.3
 -0.842 -1.397 4.334
 -0.806 -1.38 4.285
 -0.786 -1.391 4.323
 -0.759 -1.39 4.322
 -0.733 -1.389 4.324
 -0.706 -1.386 4.318
 -0.671 -1.369 4.267
 -0.653 -1.384 4.317
 -0.625 -1.38 4.306
 -0.59 -1.359 4.244
 -0.571 -1.376 4.298
 -0.545 -1.373 4.293
 -0.514 -1.36 4.253
 -0.499 -1.389 4.347
 -0.467 -1.37 4.287
 -0.441 -1.368 4.284
 0 0 0
 0 0 0
 0 0 0
 0 0 0
 -0.31 -1.355 4.251
 -0.286 -1.363 4.278
 -0.262 -1.368 4.294
 -0.237 -1.371 4.303
 -0.211 -1.369 4.299
 -0.185 -1.364 4.284
 -0.16 -1.367 4.292
 -0.134 -1.359 4.269
 -0.108 -1.354 4.253
 -0.083 -1.358 4.267
 -0.058 -1.356 4.258
 -0.033 -1.373 4.314
 -0.007 -1.364 4.282
 0.017 -1.379 4.329
 0 0 0
 0 0 0
 0 0 0
 0.12 -1.382 4.338
 0 0 0
 0 0 0
 0 0 0
 0.218 -1.351 4.234
 0.243 -1.353 4.241
 0.268 -1.348 4.223
 0.296 -1.365 4.274
 0.321 -1.361 4.258
 0.342 -1.347 4.213
 0.366 -1.344 4.202
 0.401 -1.378 4.305
 0.423 -1.365 4.262
 0.45 -1.37 4.276
 0.478 -1.377 4.295
 0.501 -1.371 4.274
 0.522 -1.359 4.234
 0.552 -1.371 4.267
 0.575 -1.365 4.247
 0.609 -1.385 4.306
 0.624 -1.362 4.229
 0.653 -1.37 4.251
 0.681 -1.375 4.263
 0.698 -1.36 4.212
 0.731 -1.374 4.253
 0.755 -1.371 4.239
 0.786 -1.381 4.267
 0.813 -1.383 4.268
 0.84 -1.386 4.272
 0.866 -1.387 4.271
 0.886 -1.378 4.239
 0.909 -1.375 4.223
 0.941 -1.385 4.249
 0.965 -1.382 4.236
 0.993 -1.385 4.241
 1.02 -1.387 4.24
 1.056 -1.4 4.275
 1.072 -1.388 4.231
 1.104 -1.396 4.25
 1.13 -1.396 4.245
 1.163 -1.405 4.266
 1.188 -1.404 4.256
 1.221 -1.412 4.274
 1.237 -1.401 4.234
 1.261 -1.399 4.221
 1.3 -1.413 4.255
 1.318 -1.405 4.222
 1.345 -1.406 4.219
 1.389 -1.425 4.268
 1.41 -1.419 4.242
 1.438 -1.421 4.241
 1.461 -1.418 4.222
 1.493 -1.424 4.233
 1.518 -1.422 4.219
 1.55 -1.428 4.227
 1.577 -1.429 4.221
 1.619 -1.443 4.253
 1.631 -1.43 4.205
 1.665 -1.437 4.215
 1.694 -1.439 4.211
 1.729 -1.446 4.224
 1.752 -1.443 4.205
 1.781 -1.444 4.198
 1.805 -1.443 4.184
 1.841 -1.45 4.193
 1.852 -1.438 4.148
 1.889 -1.446 4.16
 0 0 0
 0 0 0
 0 0 0
 0 0 0
 0 0 0
 0 0 0
 0 0 0
 0 0 0
 0 0 0
 0 0 0
 0 0 0
 0 0 0
 0 0 0
 0 0 0
 0 0 0
 1.851 -1.158 3.167
 1.852 -1.146 3.121
 1.893 -1.158 3.142
 -2.537 -1.537 4.376
 -2.492 -1.528 4.364
 -2.464 -1.529 4.381
 -2.442 -1.534 4.409
 -2.379 -1.512 4.36
 -2.353 -1.514 4.379
 -2.311 -1.506 4.368
 -2.272 -1.499 4.362
 -2.217 -1.482 4.324
 -2.2 -1.49 4.36
 -2.163 -1.484 4.354
 -2.143 -1.49 4.383
 -2.076 -1.463 4.316
 -2.066 -1.476 4.366
 -2.022 -1.465 4.344
 -1.989 -1.462 4.344
 -1.96 -1.461 4.352
 -1.921 -1.453 4.339
 -1.881 -1.443 4.321
 -1.861 -1.449 4.349
 -1.84 -1.454 4.375
 -1.782 -1.431 4.312
 -1.755 -1.431 4.323
 -1.728 -1.431 4.333
 -1.702 -1.433 4.346
 -1.665 -1.424 4.329
 -1.637 -1.424 4.338
 -1.599 -1.415 4.317
 -1.572 -1.415 4.326
 -1.545 -1.415 4.334
 -1.509 -1.407 4.317
 -1.479 -1.404 4.315
 -1.45 -1.401 4.314
 -1.419 -1.397 4.31
 -1.401 -1.407 4.346
 -1.363 -1.395 4.317
 -1.333 -1.391 4.312
 -1.308 -1.393 4.324
 -1.272 -1.383 4.3
 -1.251 -1.389 4.323
 -1.226 -1.391 4.337
 -1.189 -1.379 4.303
 -1.162 -1.378 4.306
 -1.131 -1.373 4.297
 -1.115 -1.385 4.34
 -1.08 -1.375 4.313
 -1.051 -1.371 4.307
 -1.021 -1.366 4.295
 -0.994 -1.365 4.297
 -0.972 -1.37 4.317
 -0.919 -1.332 4.2
 0 0 0
 0 0 0
 0 0 0
