 0.621 -1.613 4.148
 0.648 -1.618 4.156
 0.674 -1.62 4.157
 0.7 -1.62 4.155
 0.725 -1.62 4.15
 0.75 -1.619 4.143
 0.775 -1.618 4.136
 0.801 -1.62 4.137
 0.826 -1.621 4.135
 0.854 -1.624 4.139
 0.879 -1.624 4.132
 0.904 -1.624 4.128
 0.929 -1.624 4.123
 0.955 -1.625 4.12
 0.982 -1.627 4.12
 1.008 -1.628 4.116
 1.033 -1.628 4.11
 1.058 -1.627 4.103
 1.083 -1.628 4.098
 1.108 -1.626 4.087
 1.133 -1.626 4.081
 1.16 -1.628 4.079
 1.186 -1.629 4.075
 1.212 -1.63 4.071
 1.238 -1.632 4.068
 1.266 -1.635 4.068
 1.293 -1.636 4.064
 1.32 -1.638 4.061
 1.345 -1.638 4.053
 1.371 -1.638 4.047
 1.395 -1.637 4.034
 1.42 -1.636 4.025
 1.444 -1.635 4.013
 1.47 -1.636 4.007
 1.494 -1.633 3.993
 1.521 -1.636 3.99
 1.547 -1.636 3.981
 1.573 -1.637 3.974
 1.598 -1.636 3.964
 1.625 -1.638 3.958
 1.648 -1.636 3.943
 1.671 -1.634 3.928
 1.695 -1.632 3.914
 1.717 -1.629 3.898
 1.741 -1.628 3.884
 1.764 -1.625 3.867
 1.787 -1.623 3.852
 1.805 -1.617 3.826
 1.816 -1.605 3.786
 1.821 -1.588 3.735
 1.824 -1.569 3.68
 1.826 -1.551 3.625
 1.832 -1.535 3.578
 1.834 -1.517 3.525
 1.839 -1.502 3.479
 1.832 -1.478 3.41
 1.792 -1.428 3.285
 1.776 -1.398 3.205
 1.769 -1.376 3.143
 1.776 -1.365 3.107
 1.78 -1.352 3.066
 1.782 -1.338 3.024
 1.774 -1.317 2.965
 1.766 -1.296 2.907
 1.748 -1.268 2.834
 -2.203 -1.591 3.709
 -2.211 -1.615 3.78
 -2.19 -1.619 3.8
 -2.166 -1.621 3.818
 -2.142 -1.622 3.834
 -2.115 -1.622 3.845
 -2.088 -1.621 3.854
 -2.061 -1.62 3.865
 -2.037 -1.622 3.881
 -2.012 -1.623 3.894
 -1.987 -1.624 3.909
 -1.964 -1.626 3.926
 -1.94 -1.628 3.941
 -1.91 -1.625 3.945
 -1.882 -1.623 3.951
 -1.854 -1.622 3.959
 -1.827 -1.621 3.966
 -1.8 -1.62 3.974
 -1.771 -1.618 3.978
 -1.745 -1.618 3.989
 -1.719 -1.618 3.999
 -1.693 -1.618 4.008
 -1.667 -1.618 4.016
 -1.642 -1.619 4.029
 -1.616 -1.619 4.037
 -1.588 -1.617 4.041
 -1.559 -1.615 4.043
 -1.532 -1.613 4.047
 -1.507 -1.614 4.058
 -1.479 -1.612 4.061
 -1.455 -1.614 4.073
 -1.429 -1.614 4.082
 -1.403 -1.613 4.088
 -1.373 -1.61 4.086
 -1.348 -1.61 4.093
 -1.321 -1.609 4.098
 -1.296 -1.61 4.109
 -1.272 -1.612 4.118
 -1.247 -1.614 4.13
 -1.222 -1.614 4.137
 -1.194 -1.612 4.138
 -1.167 -1.61 4.14
 -1.139 -1.607 4.139
 -1.113 -1.607 4.143
 -1.087 -1.606 4.146
 -1.061 -1.606 4.152
 -1.035 -1.605 4.154
 -1.01 -1.607 4.164
 -0.985 -1.608 4.171
 -0.959 -1.609 4.178
 -0.933 -1.608 4.182
 -0.908 -1.608 4.187
 -0.882 -1.609 4.193
 -0.855 -1.607 4.191
 -0.83 -1.607 4.195
 -0.803 -1.605 4.195
 -0.777 -1.604 4.197
 -0.75 -1.602 4.195
 -0.725 -1.602 4.198
 -0.698 -1.599 4.194
 -0.672 -1.598 4.194
 -0.647 -1.599 4.199
 -0.621 -1.599 4.201
 -0.596 -1.6 4.207
 -0.571 -1.601 4.213
 -0.545 -1.601 4.216
 -0.519 -1.599 4.213
 -0.493 -1.597 4.211
 -0.467 -1.596 4.208
 -0.441 -1.595 4.207
 -0.416 -1.595 4.212
 -0.391 -1.597 4.217
 -0.365 -1.598 4.221
 -0.34 -1.598 4.223
 -0.314 -1.597 4.223
 -0.289 -1.597 4.222
 -0.263 -1.598 4.226
 -0.238 -1.6 4.232
 -0.213 -1.6 4.233
 -0.187 -1.6 4.234
 -0.162 -1.6 4.235
 -0.136 -1.597 4.227
 -0.11 -1.595 4.222
 -0.085 -1.595 4.223
 -0.059 -1.596 4.226
 -0.034 -1.596 4.226
 -0.009 -1.597 4.228
 0.016 -1.598 4.231
 0.041 -1.598 4.229
 0.067 -1.597 4.225
 0.092 -1.596 4.222
 0.118 -1.597 4.224
 0.143 -1.596 4.22
 0.168 -1.596 4.219
 0.194 -1.597 4.22
 0.219 -1.596 4.217
 0.244 -1.594 4.211
 0.27 -1.594 4.21
 0.295 -1.595 4.21
 0.32 -1.595 4.207
 0.346 -1.596 4.209
 0.372 -1.598 4.21
 0.397 -1.598 4.208
 0.423 -1.599 4.21
 0.448 -1.599 4.206
 0.474 -1.599 4.205
 0.499 -1.601 4.206
 0.525 -1.601 4.204
 0.55 -1.6 4.197
 0.576 -1.601 4.199
 0.601 -1.601 4.195
 0.627 -1.603 4.196
 0.654 -1.605 4.198
 0.68 -1.607 4.198
 0.706 -1.608 4.198
 0.731 -1.608 4.193
 0.756 -1.607 4.186
 0.782 -1.607 4.182
 0.808 -1.609 4.183
 0.834 -1.61 4.18
 0.861 -1.613 4.184
 0.887 -1.613 4.178
 0.912 -1.612 4.172
 0.938 -1.613 4.168
 0.964 -1.613 4.164
 0.99 -1.615 4.164
 1.017 -1.618 4.164
 1.043 -1.618 4.16
 1.068 -1.617 4.152
 1.094 -1.618 4.147
 1.119 -1.617 4.138
 1.144 -1.616 4.131
 1.171 -1.617 4.126
 1.198 -1.619 4.124
 1.225 -1.621 4.122
 1.252 -1.624 4.122
 1.28 -1.627 4.122
 1.309 -1.63 4.123
 1.335 -1.631 4.119
 1.361 -1.631 4.11
 1.386 -1.63 4.099
 1.41 -1.628 4.087
 1.434 -1.627 4.075
 1.46 -1.627 4.066
 1.487 -1.628 4.061
 1.512 -1.628 4.052
 1.541 -1.631 4.051
 1.568 -1.632 4.045
 1.595 -1.633 4.038
 1.62 -1.633 4.027
 1.647 -1.634 4.021
 1.671 -1.632 4.007
 1.695 -1.63 3.992
 1.718 -1.628 3.977
 1.742 -1.627 3.962
 1.764 -1.623 3.944
 1.784 -1.618 3.921
 1.804 -1.613 3.898
 1.819 -1.605 3.867
 1.827 -1.59 3.819
 1.829 -1.569 3.759
 1.832 -1.551 3.704
 1.834 -1.532 3.648
 1.841 -1.518 3.604
 1.842 -1.5 3.549
 1.855 -1.492 3.518
 1.855 -1.473 3.463
 1.792 -1.405 3.293
 1.767 -1.369 3.196
 1.763 -1.349 3.14
 1.774 -1.342 3.111
 1.78 -1.331 3.075
 1.781 -1.316 3.03
 1.775 -1.297 2.974
 1.77 -1.278 2.92
 1.777 -1.269 2.888
 -2.293 -1.629 3.871
 -2.241 -1.611 3.84
 -2.221 -1.615 3.864
 -2.198 -1.618 3.884
 -2.174 -1.62 3.901
 -2.146 -1.619 3.91
 -2.12 -1.619 3.924
 -2.093 -1.619 3.935
 -2.068 -1.621 3.951
 -2.041 -1.62 3.961
 -2.016 -1.621 3.975
 -1.989 -1.621 3.987
 -1.964 -1.622 4
 -1.936 -1.621 4.008
 -1.907 -1.619 4.014
 -1.879 -1.618 4.022
 -1.853 -1.618 4.032
 -1.825 -1.617 4.041
 -1.797 -1.615 4.046
 -1.772 -1.617 4.06
 -1.748 -1.619 4.074
 -1.72 -1.618 4.082
 -1.694 -1.618 4.091
 -1.667 -1.618 4.1
 -1.639 -1.616 4.104
 -1.609 -1.612 4.105
 -1.581 -1.611 4.11
 -1.553 -1.609 4.113
 -1.527 -1.609 4.122
 -1.499 -1.608 4.126
 -1.474 -1.609 4.138
 -1.448 -1.609 4.145
 -1.421 -1.609 4.152
 -1.393 -1.606 4.153
 -1.366 -1.605 4.157
 -1.339 -1.605 4.163
 -1.313 -1.605 4.172
 -1.288 -1.606 4.181
 -1.263 -1.608 4.193
 -1.238 -1.609 4.201
 -1.21 -1.607 4.203
 -1.182 -1.605 4.204
 -1.154 -1.602 4.2
 -1.126 -1.6 4.201
 -1.099 -1.598 4.202
 -1.073 -1.598 4.207
 -1.046 -1.597 4.211
 -1.021 -1.599 4.22
 -0.996 -1.599 4.226
 -0.97 -1.6 4.232
 -0.943 -1.599 4.236
 -0.917 -1.599 4.238
 -0.89 -1.598 4.241
 -0.863 -1.595 4.238
 -0.837 -1.595 4.243
 -0.81 -1.594 4.242
 -0.784 -1.593 4.244
 -0.757 -1.591 4.242
 -0.731 -1.591 4.245
 -0.705 -1.589 4.244
 -0.678 -1.587 4.242
 -0.652 -1.587 4.244
 -0.626 -1.586 4.245
 -0.6 -1.586 4.248
 -0.575 -1.587 4.253
 -0.549 -1.587 4.254
 -0.523 -1.586 4.254
 -0.496 -1.584 4.253
 -0.47 -1.583 4.25
 -0.444 -1.581 4.249
 -0.419 -1.582 4.252
 -0.393 -1.582 4.254
 -0.367 -1.582 4.256
 -0.342 -1.581 4.256
 -0.316 -1.581 4.255
 -0.29 -1.58 4.254
 -0.265 -1.581 4.259
 -0.239 -1.582 4.262
 -0.214 -1.583 4.265
 -0.188 -1.583 4.267
 -0.162 -1.583 4.267
 -0.136 -1.581 4.261
 -0.111 -1.579 4.257
 -0.085 -1.58 4.259
 -0.06 -1.581 4.261
 -0.034 -1.581 4.262
 -0.008 -1.581 4.263
 0.016 -1.582 4.265
 0.042 -1.581 4.261
 0.067 -1.58 4.256
 0.093 -1.579 4.254
 0.118 -1.58 4.256
 0.144 -1.58 4.254
 0.169 -1.58 4.252
 0.195 -1.58 4.253
 0.22 -1.579 4.249
 0.246 -1.578 4.245
 0.271 -1.579 4.244
 0.297 -1.579 4.242
 0.322 -1.579 4.242
 0.348 -1.58 4.242
 0.374 -1.581 4.242
 0.399 -1.581 4.24
 0.425 -1.583 4.243
 0.451 -1.583 4.239
 0.477 -1.584 4.241
 0.503 -1.585 4.24
 0.528 -1.585 4.237
 0.553 -1.583 4.23
 0.579 -1.584 4.23
 0.605 -1.584 4.225
 0.631 -1.585 4.225
 0.657 -1.587 4.225
 0.683 -1.589 4.227
 0.71 -1.591 4.228
 0.735 -1.59 4.223
 0.761 -1.591 4.221
 0.787 -1.592 4.218
 0.813 -1.593 4.216
 0.839 -1.592 4.211
 0.866 -1.596 4.215
 0.891 -1.595 4.208
 0.918 -1.597 4.207
 0.945 -1.599 4.208
 0.972 -1.601 4.208
 0.999 -1.602 4.206
 1.026 -1.605 4.207
 1.052 -1.605 4.202
 1.076 -1.603 4.191
 1.103 -1.604 4.186
 1.128 -1.604 4.18
 1.155 -1.604 4.175
 1.181 -1.605 4.171
 1.209 -1.608 4.171
 1.236 -1.609 4.168
 1.264 -1.612 4.168
 1.291 -1.615 4.167
 1.319 -1.617 4.166
 1.347 -1.619 4.162
 1.372 -1.618 4.153
 1.398 -1.618 4.144
 1.423 -1.617 4.135
 1.45 -1.618 4.127
 1.476 -1.618 4.119
 1.504 -1.62 4.117
 1.531 -1.621 4.11
 1.559 -1.624 4.108
 1.587 -1.626 4.104
 1.614 -1.627 4.096
 1.64 -1.626 4.086
 1.668 -1.628 4.08
 1.693 -1.627 4.068
 1.716 -1.624 4.051
 1.739 -1.622 4.035
 1.763 -1.62 4.02
 1.783 -1.614 3.995
 1.799 -1.606 3.964
 1.817 -1.599 3.935
 1.83 -1.588 3.898
 1.838 -1.573 3.85
 1.84 -1.554 3.792
 1.844 -1.537 3.739
 1.846 -1.518 3.682
 1.857 -1.507 3.644
 1.854 -1.486 3.582
 1.871 -1.481 3.557
 1.896 -1.481 3.547
 1.79 -1.381 3.297
 1.762 -1.344 3.195
 1.763 -1.328 3.148
 1.775 -1.321 3.121
 1.782 -1.311 3.086
 1.782 -1.296 3.039
 1.776 -1.277 2.983
 1.787 -1.27 2.957
 1.771 -1.245 2.887
 -2.301 -1.608 3.894
 -2.29 -1.619 3.935
 -2.254 -1.613 3.932
 -2.229 -1.614 3.949
 -2.204 -1.616 3.965
 -2.174 -1.613 3.972
 -2.148 -1.614 3.986
 -2.123 -1.616 4.003
 -2.099 -1.618 4.02
 -2.07 -1.616 4.028
 -2.044 -1.617 4.041
 -2.017 -1.617 4.052
 -1.989 -1.616 4.061
 -1.96 -1.614 4.068
 -1.931 -1.613 4.075
 -1.903 -1.612 4.083
 -1.878 -1.613 4.097
 -1.851 -1.613 4.108
 -1.824 -1.613 4.117
 -1.798 -1.613 4.129
 -1.772 -1.615 4.142
 -1.744 -1.614 4.149
 -1.716 -1.613 4.156
 -1.688 -1.611 4.162
 -1.66 -1.61 4.168
 -1.631 -1.608 4.17
 -1.603 -1.607 4.176
 -1.575 -1.605 4.18
 -1.548 -1.605 4.19
 -1.52 -1.603 4.192
 -1.493 -1.603 4.199
 -1.465 -1.601 4.203
 -1.438 -1.601 4.211
 -1.41 -1.599 4.213
 -1.383 -1.599 4.219
 -1.356 -1.599 4.226
 -1.33 -1.599 4.234
 -1.303 -1.599 4.239
 -1.277 -1.599 4.246
 -1.25 -1.599 4.253
 -1.222 -1.597 4.254
 -1.194 -1.595 4.255
 -1.165 -1.592 4.252
 -1.138 -1.59 4.253
 -1.11 -1.588 4.254
 -1.082 -1.586 4.254
 -1.056 -1.586 4.258
 -1.03 -1.587 4.267
 -1.004 -1.587 4.271
 -0.977 -1.586 4.274
 -0.951 -1.586 4.278
 -0.924 -1.584 4.279
 -0.896 -1.583 4.278
 -0.869 -1.58 4.276
 -0.843 -1.58 4.28
 -0.816 -1.579 4.279
 -0.789 -1.578 4.281
 -0.762 -1.576 4.281
 -0.736 -1.576 4.283
 -0.709 -1.574 4.282
 -0.682 -1.572 4.28
 -0.656 -1.571 4.279
 -0.63 -1.57 4.279
 -0.603 -1.57 4.281
 -0.578 -1.57 4.284
 -0.551 -1.568 4.283
 -0.525 -1.568 4.283
 -0.499 -1.566 4.28
 -0.472 -1.564 4.279
 -0.446 -1.563 4.277
 -0.42 -1.563 4.279
 -0.394 -1.563 4.28
 -0.369 -1.563 4.281
 -0.343 -1.561 4.279
 -0.317 -1.56 4.276
 -0.291 -1.559 4.276
 -0.265 -1.56 4.279
 -0.24 -1.56 4.28
 -0.214 -1.561 4.283
 -0.188 -1.561 4.284
 -0.162 -1.56 4.283
 -0.137 -1.558 4.277
 -0.111 -1.558 4.278
 -0.085 -1.558 4.277
 -0.06 -1.559 4.279
 -0.034 -1.559 4.28
 -0.008 -1.56 4.282
 0.016 -1.56 4.282
 0.042 -1.559 4.28
 0.068 -1.558 4.276
 0.093 -1.559 4.277
 0.119 -1.56 4.279
 0.145 -1.559 4.276
 0.17 -1.56 4.276
 0.196 -1.561 4.278
 0.221 -1.559 4.272
 0.247 -1.558 4.267
 0.272 -1.558 4.265
 0.298 -1.558 4.264
 0.323 -1.558 4.261
 0.349 -1.559 4.262
 0.375 -1.56 4.263
 0.401 -1.561 4.263
 0.427 -1.563 4.265
 0.453 -1.562 4.262
 0.479 -1.564 4.264
 0.505 -1.565 4.263
 0.53 -1.565 4.26
 0.556 -1.564 4.254
 0.581 -1.564 4.251
 0.607 -1.563 4.247
 0.633 -1.564 4.246
 0.659 -1.565 4.245
 0.685 -1.567 4.245
 0.712 -1.569 4.248
 0.738 -1.569 4.244
 0.764 -1.57 4.243
 0.79 -1.572 4.242
 0.816 -1.572 4.239
 0.842 -1.572 4.235
 0.869 -1.575 4.237
 0.895 -1.575 4.233
 0.922 -1.577 4.233
 0.949 -1.58 4.235
 0.976 -1.582 4.234
 1.003 -1.583 4.233
 1.03 -1.585 4.233
 1.057 -1.586 4.229
 1.082 -1.586 4.222
 1.109 -1.587 4.218
 1.135 -1.587 4.213
 1.162 -1.588 4.209
 1.188 -1.589 4.204
 1.215 -1.59 4.202
 1.243 -1.593 4.201
 1.271 -1.596 4.201
 1.299 -1.597 4.198
 1.327 -1.6 4.198
 1.354 -1.601 4.194
 1.381 -1.602 4.189
 1.408 -1.603 4.181
 1.435 -1.604 4.176
 1.462 -1.604 4.17
 1.49 -1.606 4.166
 1.517 -1.608 4.162
 1.545 -1.609 4.156
 1.573 -1.612 4.153
 1.603 -1.615 4.152
 1.629 -1.614 4.142
 1.656 -1.615 4.134
 1.684 -1.617 4.129
 1.71 -1.617 4.119
 1.732 -1.613 4.099
 1.757 -1.612 4.084
 1.78 -1.609 4.067
 1.798 -1.602 4.038
 1.812 -1.591 4
 1.827 -1.582 3.966
 1.839 -1.57 3.926
 1.846 -1.555 3.877
 1.849 -1.536 3.82
 1.856 -1.521 3.77
 1.859 -1.504 3.716
 1.865 -1.489 3.668
 1.868 -1.473 3.617
 1.893 -1.473 3.607
 0 0 0
 1.788 -1.358 3.301
 1.75 -1.313 3.181
 1.763 -1.307 3.155
 1.775 -1.3 3.129
 1.781 -1.289 3.092
 1.783 -1.275 3.047
 1.777 -1.257 2.992
 1.757 -1.229 2.914
 1.766 -1.221 2.886
 -2.322 -1.596 3.94
 -2.318 -1.612 3.993
 -2.288 -1.61 4.002
 -2.262 -1.611 4.017
 -2.237 -1.612 4.034
 -2.206 -1.61 4.04
 -2.177 -1.609 4.05
 -2.15 -1.609 4.062
 -2.125 -1.611 4.079
 -2.095 -1.609 4.086
 -2.069 -1.61 4.1
 -2.043 -1.611 4.115
 -2.016 -1.611 4.126
 -1.987 -1.609 4.134
 -1.957 -1.608 4.14
 -1.929 -1.607 4.149
 -1.903 -1.607 4.162
 -1.875 -1.607 4.172
 -1.848 -1.607 4.181
 -1.823 -1.609 4.196
 -1.798 -1.611 4.211
 -1.768 -1.609 4.215
 -1.739 -1.607 4.22
 -1.709 -1.605 4.223
 -1.68 -1.603 4.228
 -1.651 -1.6 4.231
 -1.622 -1.599 4.236
 -1.595 -1.598 4.243
 -1.567 -1.598 4.25
 -1.537 -1.595 4.249
 -1.507 -1.592 4.25
 -1.48 -1.591 4.256
 -1.452 -1.59 4.262
 -1.424 -1.589 4.265
 -1.397 -1.589 4.271
 -1.37 -1.589 4.279
 -1.343 -1.588 4.284
 -1.314 -1.586 4.285
 -1.287 -1.585 4.29
 -1.259 -1.584 4.294
 -1.231 -1.582 4.295
 -1.202 -1.58 4.294
 -1.174 -1.578 4.294
 -1.146 -1.575 4.293
 -1.118 -1.573 4.294
 -1.089 -1.57 4.291
 -1.063 -1.57 4.295
 -1.036 -1.57 4.301
 -1.01 -1.57 4.306
 -0.982 -1.568 4.304
 -0.956 -1.568 4.31
 -0.928 -1.566 4.308
 -0.9 -1.563 4.304
 -0.872 -1.56 4.301
 -0.846 -1.56 4.306
 -0.819 -1.559 4.305
 -0.792 -1.557 4.305
 -0.766 -1.557 4.308
 -0.739 -1.555 4.307
 -0.712 -1.554 4.306
 -0.685 -1.552 4.303
 -0.658 -1.55 4.302
 -0.631 -1.548 4.298
 -0.605 -1.547 4.299
 -0.579 -1.547 4.3
 -0.552 -1.545 4.299
 -0.526 -1.544 4.298
 -0.499 -1.543 4.297
 -0.473 -1.542 4.298
 -0.447 -1.54 4.294
 -0.421 -1.54 4.295
 -0.395 -1.54 4.296
 -0.369 -1.539 4.296
 -0.343 -1.538 4.295
 -0.317 -1.537 4.293
 -0.291 -1.537 4.292
 -0.265 -1.537 4.294
 -0.24 -1.537 4.295
 -0.214 -1.536 4.294
 -0.188 -1.536 4.295
 -0.162 -1.535 4.291
 -0.136 -1.533 4.286
 -0.111 -1.533 4.287
 -0.085 -1.533 4.287
 -0.059 -1.533 4.287
 -0.034 -1.533 4.288
 -0.008 -1.534 4.289
 0.016 -1.532 4.284
 0.042 -1.533 4.285
 0.068 -1.532 4.281
 0.093 -1.533 4.284
 0.119 -1.534 4.285
 0.145 -1.534 4.286
 0.17 -1.534 4.285
 0.196 -1.535 4.286
 0.222 -1.534 4.28
 0.247 -1.533 4.278
 0.273 -1.533 4.274
 0.298 -1.533 4.273
 0.324 -1.532 4.269
 0.35 -1.534 4.272
 0.375 -1.534 4.272
 0.401 -1.536 4.274
 0.427 -1.538 4.276
 0.453 -1.539 4.276
 0.479 -1.539 4.274
 0.505 -1.539 4.271
 0.53 -1.539 4.268
 0.556 -1.538 4.263
 0.582 -1.538 4.26
 0.607 -1.539 4.259
 0.634 -1.54 4.259
 0.66 -1.541 4.257
 0.686 -1.542 4.256
 0.712 -1.544 4.258
 0.738 -1.544 4.255
 0.764 -1.545 4.252
 0.791 -1.546 4.252
 0.817 -1.547 4.249
 0.842 -1.547 4.244
 0.87 -1.55 4.247
 0.896 -1.552 4.247
 0.924 -1.554 4.248
 0.951 -1.557 4.251
 0.979 -1.559 4.253
 1.005 -1.56 4.25
 1.032 -1.562 4.249
 1.059 -1.563 4.245
 1.085 -1.563 4.24
 1.112 -1.564 4.236
 1.138 -1.565 4.232
 1.165 -1.566 4.229
 1.192 -1.568 4.227
 1.22 -1.57 4.226
 1.248 -1.572 4.225
 1.277 -1.576 4.229
 1.305 -1.578 4.227
 1.333 -1.581 4.226
 1.361 -1.583 4.223
 1.388 -1.584 4.218
 1.414 -1.584 4.21
 1.442 -1.585 4.206
 1.47 -1.587 4.202
 1.498 -1.589 4.199
 1.527 -1.591 4.196
 1.555 -1.593 4.192
 1.583 -1.595 4.187
 1.612 -1.598 4.186
 1.639 -1.598 4.177
 1.666 -1.598 4.168
 1.694 -1.6 4.163
 1.721 -1.601 4.154
 1.744 -1.597 4.136
 1.768 -1.596 4.121
 1.791 -1.592 4.1
 1.808 -1.584 4.069
 1.819 -1.571 4.026
 1.834 -1.561 3.99
 1.846 -1.55 3.95
 1.855 -1.536 3.903
 1.859 -1.519 3.849
 1.87 -1.508 3.808
 1.873 -1.49 3.753
 1.871 -1.469 3.688
 0 0 0
 0 0 0
 0 0 0
 0 0 0
 1.749 -1.29 3.186
 1.76 -1.283 3.158
 1.772 -1.277 3.131
 1.779 -1.267 3.095
 1.782 -1.254 3.054
 1.776 -1.235 2.997
 1.76 -1.21 2.925
 1.741 -1.184 2.851
 -2.361 -1.595 4.017
 -2.37 -1.62 4.094
 -2.038 -1.41 3.572
 -2.016 -1.412 3.588
 -1.993 -1.413 3.602
 -1.965 -1.41 3.607
 -1.938 -1.408 3.613
 -1.825 -1.343 3.455
 -1.891 -1.409 3.638
 -1.951 -1.473 3.813
 -1.926 -1.473 3.826
 -1.986 -1.539 4.008
 -2.042 -1.604 4.19
 -1.93 -1.537 4.024
 -1.901 -1.535 4.031
 -1.874 -1.534 4.039
 -1.848 -1.535 4.05
 -1.82 -1.534 4.057
 -1.87 -1.599 4.241
 -1.843 -1.599 4.252
 -1.816 -1.6 4.264
 -1.786 -1.598 4.268
 -1.756 -1.595 4.27
 -1.726 -1.593 4.274
 -1.696 -1.591 4.277
 -1.666 -1.588 4.278
 -1.637 -1.587 4.284
 -1.609 -1.586 4.291
 -1.58 -1.584 4.295
 -1.55 -1.581 4.294
 -1.519 -1.578 4.293
 -1.491 -1.577 4.298
 -1.463 -1.576 4.304
 -1.434 -1.574 4.306
 -1.407 -1.574 4.313
 -1.38 -1.574 4.32
 -1.351 -1.571 4.321
 -1.322 -1.568 4.319
 -1.294 -1.567 4.322
 -1.265 -1.564 4.321
 -1.236 -1.563 4.322
 -1.207 -1.559 4.319
 -1.178 -1.556 4.317
 -1.15 -1.554 4.316
 -1.121 -1.551 4.315
 -1.093 -1.549 4.313
 -1.066 -1.549 4.319
 -1.039 -1.548 4.321
 -1.012 -1.547 4.324
 -0.985 -1.546 4.325
 -0.958 -1.545 4.327
 -0.93 -1.542 4.324
 -0.902 -1.54 4.323
 -0.874 -1.538 4.32
 -0.847 -1.536 4.319
 -0.82 -1.534 4.317
 -0.793 -1.533 4.317
 -0.766 -1.532 4.318
 -0.739 -1.53 4.316
 -0.713 -1.53 4.321
 -0.686 -1.528 4.317
 -0.659 -1.526 4.316
 -0.632 -1.524 4.313
 -0.606 -1.524 4.314
 -0.579 -1.522 4.311
 -0.552 -1.52 4.307
 -0.526 -1.519 4.308
 -0.499 -1.517 4.305
 -0.473 -1.517 4.306
 -0.447 -1.515 4.303
 -0.421 -1.515 4.306
 -0.395 -1.514 4.304
 -0.369 -1.514 4.305
 -0.343 -1.512 4.301
 -0.317 -1.511 4.3
 -0.291 -1.511 4.3
 -0.265 -1.51 4.3
 -0.239 -1.51 4.301
 -0.214 -1.51 4.301
 -0.188 -1.51 4.302
 -0.162 -1.509 4.299
 -0.136 -1.508 4.297
 -0.111 -1.508 4.297
 -0.085 -1.508 4.295
 -0.059 -1.507 4.295
 -0.034 -1.508 4.295
 -0.008 -1.507 4.294
 0.017 -1.506 4.29
 0.042 -1.506 4.29
 0.068 -1.505 4.286
 0.093 -1.506 4.288
 0.119 -1.507 4.29
 0.145 -1.508 4.292
 0.171 -1.509 4.293
 0.196 -1.51 4.295
 0.222 -1.509 4.29
 0.248 -1.509 4.289
 0.273 -1.508 4.285
 0.299 -1.508 4.284
 0.324 -1.507 4.278
 0.35 -1.508 4.279
 0.375 -1.508 4.277
 0.401 -1.51 4.28
 0.427 -1.511 4.282
 0.454 -1.513 4.284
 0.479 -1.513 4.282
 0.505 -1.514 4.281
 0.531 -1.513 4.277
 0.556 -1.513 4.273
 0.582 -1.513 4.269
 0.608 -1.513 4.267
 0.633 -1.514 4.264
 0.659 -1.515 4.264
 0.685 -1.515 4.26
 0.711 -1.516 4.26
 0.738 -1.518 4.261
 0.764 -1.519 4.261
 0.791 -1.52 4.26
 0.817 -1.522 4.26
 0.844 -1.523 4.259
 0.87 -1.525 4.258
 0.897 -1.526 4.258
 0.924 -1.528 4.258
 0.952 -1.531 4.26
 0.979 -1.533 4.26
 1.005 -1.533 4.255
 1.032 -1.535 4.255
 1.059 -1.537 4.253
 1.086 -1.538 4.251
 1.113 -1.539 4.249
 1.14 -1.541 4.247
 1.167 -1.543 4.245
 1.194 -1.544 4.241
 1.221 -1.545 4.238
 1.249 -1.547 4.236
 1.278 -1.551 4.24
 1.306 -1.552 4.237
 1.334 -1.555 4.236
 1.362 -1.557 4.235
 1.39 -1.559 4.231
 1.417 -1.559 4.224
 1.445 -1.562 4.224
 1.474 -1.564 4.221
 1.502 -1.566 4.219
 1.532 -1.569 4.218
 1.561 -1.572 4.216
 1.588 -1.573 4.21
 1.618 -1.577 4.21
 1.645 -1.577 4.202
 1.673 -1.578 4.195
 1.701 -1.58 4.189
 1.729 -1.581 4.182
 1.752 -1.578 4.164
 1.775 -1.575 4.145
 1.796 -1.57 4.122
 1.814 -1.563 4.092
 1.826 -1.55 4.049
 1.84 -1.54 4.012
 1.854 -1.531 3.976
 1.866 -1.519 3.935
 1.873 -1.504 3.885
 1.889 -1.497 3.856
 1.898 -1.485 3.812
 0 0 0
 0 0 0
 0 0 0
 0 0 0
 0 0 0
 1.748 -1.268 3.191
 1.763 -1.264 3.17
 1.773 -1.256 3.14
 1.78 -1.246 3.103
 1.783 -1.234 3.063
 1.776 -1.215 3.005
 1.781 -1.204 2.968
 1.758 -1.176 2.886
 -2.38 -1.58 4.058
 -2.373 -1.594 4.108
 -1.6 -1.088 2.808
 -1.581 -1.088 2.817
 -1.562 -1.089 2.827
 -1.54 -1.087 2.831
 -1.518 -1.084 2.833
 -1.41 -1.02 2.672
 -1.48 -1.085 2.851
 -1.544 -1.146 3.022
 -1.522 -1.145 3.027
 -1.587 -1.209 3.207
 -1.73 -1.336 3.555
 -1.621 -1.269 3.386
 -1.679 -1.333 3.567
 -1.734 -1.396 3.746
 -1.787 -1.459 3.925
 -1.761 -1.458 3.934
 -1.889 -1.587 4.294
 -1.861 -1.587 4.303
 -1.832 -1.587 4.311
 -1.803 -1.585 4.317
 -1.771 -1.581 4.317
 -1.739 -1.577 4.315
 -1.708 -1.574 4.317
 -1.676 -1.571 4.315
 -1.647 -1.568 4.318
 -1.618 -1.568 4.324
 -1.589 -1.566 4.329
 -1.559 -1.563 4.328
 -1.529 -1.56 4.329
 -1.5 -1.559 4.333
 -1.472 -1.558 4.339
 -1.442 -1.556 4.339
 -1.414 -1.555 4.343
 -1.386 -1.553 4.346
 -1.355 -1.549 4.343
 -1.325 -1.546 4.339
 -1.297 -1.544 4.341
 -1.267 -1.541 4.339
 -1.24 -1.54 4.342
 -1.211 -1.537 4.341
 -1.182 -1.534 4.339
 -1.153 -1.532 4.337
 -1.124 -1.529 4.335
 -1.095 -1.526 4.333
 -1.068 -1.525 4.334
 -1.04 -1.523 4.333
 -1.013 -1.522 4.335
 -0.985 -1.521 4.337
 -0.958 -1.519 4.337
 -0.93 -1.516 4.333
 -0.902 -1.514 4.332
 -0.874 -1.512 4.33
 -0.847 -1.51 4.327
 -0.82 -1.508 4.326
 -0.793 -1.507 4.326
 -0.766 -1.506 4.327
 -0.739 -1.504 4.324
 -0.713 -1.504 4.328
 -0.685 -1.501 4.324
 -0.659 -1.5 4.323
 -0.632 -1.498 4.32
 -0.605 -1.497 4.32
 -0.578 -1.495 4.317
 -0.551 -1.492 4.312
 -0.525 -1.492 4.312
 -0.499 -1.491 4.312
 -0.473 -1.49 4.312
 -0.447 -1.489 4.309
 -0.421 -1.489 4.311
 -0.395 -1.487 4.308
 -0.369 -1.487 4.31
 -0.343 -1.487 4.31
 -0.317 -1.485 4.307
 -0.291 -1.485 4.307
 -0.265 -1.484 4.305
 -0.239 -1.483 4.304
 -0.213 -1.482 4.301
 -0.188 -1.482 4.302
 -0.162 -1.481 4.299
 -0.136 -1.48 4.298
 -0.11 -1.48 4.299
 -0.085 -1.48 4.297
 -0.059 -1.48 4.298
 -0.033 -1.481 4.3
 -0.008 -1.481 4.299
 0.017 -1.48 4.296
 0.042 -1.48 4.297
 0.068 -1.479 4.293
 0.094 -1.48 4.293
 0.119 -1.48 4.294
 0.145 -1.481 4.297
 0.171 -1.482 4.298
 0.197 -1.484 4.302
 0.222 -1.483 4.299
 0.248 -1.484 4.3
 0.273 -1.483 4.295
 0.299 -1.483 4.292
 0.324 -1.481 4.286
 0.35 -1.482 4.287
 0.376 -1.482 4.284
 0.402 -1.484 4.287
 0.427 -1.484 4.286
 0.454 -1.486 4.289
 0.479 -1.486 4.285
 0.505 -1.486 4.283
 0.53 -1.486 4.28
 0.556 -1.486 4.278
 0.582 -1.486 4.274
 0.608 -1.487 4.274
 0.634 -1.488 4.272
 0.66 -1.489 4.271
 0.685 -1.488 4.264
 0.711 -1.488 4.262
 0.737 -1.49 4.263
 0.764 -1.492 4.264
 0.79 -1.493 4.264
 0.817 -1.496 4.266
 0.844 -1.497 4.267
 0.871 -1.499 4.266
 0.897 -1.5 4.265
 0.924 -1.501 4.263
 0.951 -1.504 4.265
 0.978 -1.506 4.265
 1.005 -1.507 4.262
 1.031 -1.508 4.26
 1.059 -1.51 4.26
 1.086 -1.512 4.259
 1.113 -1.513 4.257
 1.14 -1.515 4.255
 1.167 -1.516 4.253
 1.195 -1.518 4.251
 1.221 -1.519 4.246
 1.249 -1.521 4.245
 1.278 -1.524 4.248
 1.306 -1.526 4.246
 1.333 -1.527 4.242
 1.362 -1.531 4.243
 1.39 -1.532 4.239
 1.418 -1.534 4.236
 1.446 -1.536 4.235
 1.475 -1.539 4.234
 1.504 -1.541 4.231
 1.533 -1.544 4.23
 1.562 -1.546 4.227
 1.591 -1.548 4.224
 1.621 -1.552 4.225
 1.649 -1.553 4.218
 1.677 -1.555 4.213
 1.705 -1.556 4.207
 1.733 -1.558 4.201
 1.757 -1.555 4.185
 1.781 -1.553 4.167
 1.802 -1.548 4.143
 1.821 -1.542 4.117
 1.834 -1.531 4.076
 1.849 -1.522 4.041
 1.864 -1.513 4.006
 1.88 -1.504 3.972
 1.89 -1.493 3.93
 1.912 -1.489 3.91
 0 0 0
 0 0 0
 0 0 0
 0 0 0
 0 0 0
 0 0 0
 1.504 -1.073 2.752
 1.62 -1.142 2.92
 1.772 -1.233 3.144
 1.779 -1.224 3.11
 1.786 -1.215 3.075
 1.779 -1.196 3.016
 1.778 -1.182 2.97
 1.745 -1.147 2.871
 -0.03 -0.021 0.039
 -0.031 -0.022 0.041
 -1.161 -0.776 2.039
 -1.147 -0.776 2.045
 -1.131 -0.774 2.047
 -1.115 -0.774 2.051
 -1.096 -0.77 2.048
 -0.991 -0.705 1.879
 -1.063 -0.766 2.048
 -1.133 -0.827 2.219
 -1.114 -0.824 2.218
 -1.183 -0.886 2.393
 -1.33 -1.01 2.737
 -1.228 -0.945 2.567
 -1.371 -1.07 2.917
 -1.511 -1.195 3.269
 -1.644 -1.319 3.617
 -1.696 -1.38 3.797
 -1.9 -1.569 4.329
 -1.87 -1.567 4.334
 -1.839 -1.564 4.336
 -1.809 -1.563 4.341
 -1.778 -1.56 4.343
 -1.745 -1.556 4.341
 -1.716 -1.554 4.346
 -1.685 -1.551 4.346
 -1.655 -1.549 4.349
 -1.626 -1.548 4.355
 -1.598 -1.547 4.361
 -1.566 -1.543 4.357
 -1.536 -1.54 4.359
 -1.506 -1.538 4.359
 -1.477 -1.536 4.362
 -1.446 -1.532 4.357
 -1.417 -1.53 4.359
 -1.387 -1.527 4.359
 -1.357 -1.524 4.357
 -1.326 -1.52 4.35
 -1.297 -1.518 4.351
 -1.268 -1.514 4.349
 -1.239 -1.512 4.349
 -1.21 -1.51 4.347
 -1.181 -1.507 4.347
 -1.152 -1.504 4.344
 -1.123 -1.502 4.341
 -1.095 -1.5 4.34
 -1.067 -1.497 4.339
 -1.039 -1.495 4.336
 -1.012 -1.495 4.341
 -0.985 -1.494 4.343
 -0.957 -1.492 4.342
 -0.93 -1.49 4.341
 -0.902 -1.488 4.34
 -0.874 -1.485 4.335
 -0.846 -1.482 4.332
 -0.819 -1.481 4.331
 -0.791 -1.479 4.328
 -0.765 -1.478 4.33
 -0.738 -1.476 4.327
 -0.712 -1.476 4.331
 -0.684 -1.473 4.326
 -0.658 -1.472 4.326
 -0.631 -1.471 4.325
 -0.605 -1.47 4.324
 -0.578 -1.468 4.321
 -0.551 -1.465 4.316
 -0.525 -1.464 4.315
 -0.498 -1.463 4.314
 -0.472 -1.463 4.315
 -0.446 -1.461 4.311
 -0.42 -1.461 4.315
 -0.394 -1.46 4.313
 -0.368 -1.46 4.314
 -0.342 -1.46 4.314
 -0.316 -1.458 4.311
 -0.29 -1.457 4.309
 -0.264 -1.456 4.307
 -0.239 -1.455 4.305
 -0.213 -1.454 4.303
 -0.187 -1.454 4.303
 -0.161 -1.453 4.3
 -0.136 -1.452 4.299
 -0.11 -1.453 4.299
 -0.084 -1.452 4.298
 -0.059 -1.452 4.299
 -0.033 -1.453 4.302
 -0.008 -1.453 4.301
 0.017 -1.452 4.297
 0.042 -1.452 4.297
 0.068 -1.451 4.292
 0.094 -1.451 4.291
 0.119 -1.452 4.293
 0.145 -1.453 4.296
 0.17 -1.454 4.297
 0.196 -1.455 4.301
 0.222 -1.455 4.3
 0.248 -1.456 4.3
 0.273 -1.455 4.296
 0.299 -1.456 4.296
 0.324 -1.455 4.293
 0.35 -1.456 4.293
 0.376 -1.456 4.292
 0.402 -1.458 4.294
 0.427 -1.458 4.291
 0.453 -1.459 4.292
 0.479 -1.458 4.287
 0.504 -1.458 4.284
 0.53 -1.458 4.281
 0.556 -1.459 4.281
 0.581 -1.459 4.276
 0.607 -1.46 4.277
 0.633 -1.461 4.276
 0.659 -1.461 4.274
 0.684 -1.46 4.267
 0.71 -1.461 4.265
 0.736 -1.462 4.265
 0.763 -1.464 4.266
 0.79 -1.466 4.268
 0.817 -1.469 4.271
 0.843 -1.47 4.271
 0.87 -1.472 4.27
 0.897 -1.474 4.271
 0.923 -1.474 4.266
 0.95 -1.476 4.268
 0.977 -1.478 4.268
 1.004 -1.479 4.266
 1.03 -1.48 4.261
 1.058 -1.482 4.263
 1.085 -1.484 4.263
 1.112 -1.486 4.262
 1.139 -1.487 4.259
 1.167 -1.489 4.258
 1.193 -1.49 4.254
 1.22 -1.49 4.248
 1.248 -1.493 4.249
 1.277 -1.496 4.251
 1.305 -1.498 4.249
 1.332 -1.5 4.247
 1.361 -1.503 4.247
 1.389 -1.504 4.244
 1.417 -1.506 4.242
 1.446 -1.509 4.241
 1.475 -1.512 4.241
 1.504 -1.514 4.238
 1.533 -1.517 4.238
 1.561 -1.519 4.235
 1.59 -1.521 4.232
 1.621 -1.525 4.232
 1.649 -1.526 4.227
 1.677 -1.528 4.221
 1.705 -1.529 4.215
 1.734 -1.531 4.21
 1.76 -1.53 4.198
 1.784 -1.529 4.184
 1.806 -1.524 4.161
 1.827 -1.52 4.138
 1.842 -1.51 4.101
 1.858 -1.503 4.069
 1.874 -1.494 4.036
 1.893 -1.489 4.009
 1.904 -1.477 3.966
 0 0 0
 0 0 0
 0 0 0
 0 0 0
 0 0 0
 0 0 0
 0 0 0
 1.259 -0.883 2.308
 1.476 -1.022 2.664
 1.771 -1.211 3.15
 1.779 -1.203 3.117
 1.788 -1.195 3.085
 1.781 -1.177 3.027
 1.791 -1.17 2.999
 1.735 -1.121 2.861
 -0.057 -0.038 0.086
 -0.06 -0.04 0.091
 -0.715 -0.47 1.254
 -0.707 -0.47 1.258
 -0.695 -0.468 1.256
 -0.684 -0.466 1.255
 -0.669 -0.462 1.248
 -0.567 -0.397 1.073
 -0.643 -0.455 1.236
 -0.718 -0.515 1.406
 -0.704 -0.512 1.4
 -0.775 -0.571 1.568
 -1.01 -0.754 2.08
 -0.994 -0.752 2.08
 -1.22 -0.935 2.599
 -1.442 -1.12 3.125
 -1.654 -1.304 3.649
 -1.705 -1.363 3.826
 -1.908 -1.548 4.356
 -1.876 -1.545 4.357
 -1.844 -1.541 4.358
 -1.813 -1.539 4.362
 -1.783 -1.537 4.365
 -1.751 -1.534 4.365
 -1.721 -1.531 4.367
 -1.69 -1.528 4.368
 -1.659 -1.525 4.368
 -1.63 -1.524 4.373
 -1.599 -1.521 4.375
 -1.568 -1.518 4.372
 -1.537 -1.514 4.371
 -1.507 -1.512 4.371
 -1.476 -1.508 4.369
 -1.445 -1.504 4.363
 -1.415 -1.501 4.363
 -1.385 -1.499 4.362
 -1.355 -1.495 4.359
 -1.325 -1.491 4.355
 -1.296 -1.489 4.355
 -1.267 -1.487 4.354
 -1.237 -1.484 4.352
 -1.209 -1.482 4.352
 -1.18 -1.479 4.349
 -1.151 -1.477 4.348
 -1.122 -1.473 4.345
 -1.094 -1.471 4.344
 -1.066 -1.469 4.343
 -1.037 -1.467 4.34
 -1.011 -1.466 4.344
 -0.983 -1.465 4.344
 -0.955 -1.463 4.342
 -0.927 -1.46 4.339
 -0.899 -1.458 4.336
 -0.871 -1.455 4.332
 -0.844 -1.454 4.332
 -0.818 -1.452 4.332
 -0.79 -1.451 4.331
 -0.764 -1.45 4.333
 -0.737 -1.449 4.331
 -0.71 -1.447 4.331
 -0.683 -1.445 4.326
 -0.657 -1.444 4.328
 -0.631 -1.444 4.329
 -0.604 -1.443 4.328
 -0.577 -1.441 4.327
 -0.551 -1.44 4.324
 -0.525 -1.439 4.323
 -0.498 -1.437 4.322
 -0.473 -1.438 4.326
 -0.446 -1.437 4.324
 -0.421 -1.438 4.328
 -0.395 -1.437 4.326
 -0.368 -1.436 4.325
 -0.342 -1.434 4.321
 -0.316 -1.432 4.318
 -0.29 -1.432 4.317
 -0.264 -1.431 4.315
 -0.238 -1.43 4.313
 -0.213 -1.429 4.31
 -0.187 -1.429 4.312
 -0.161 -1.427 4.307
 -0.135 -1.427 4.306
 -0.11 -1.426 4.304
 -0.084 -1.426 4.304
 -0.059 -1.425 4.302
 -0.033 -1.427 4.307
 -0.008 -1.427 4.306
 0.017 -1.426 4.304
 0.043 -1.426 4.301
 0.068 -1.425 4.298
 0.094 -1.424 4.294
 0.119 -1.423 4.293
 0.145 -1.424 4.295
 0.17 -1.424 4.291
 0.196 -1.425 4.295
 0.222 -1.427 4.3
 0.247 -1.428 4.301
 0.273 -1.428 4.297
 0.299 -1.429 4.3
 0.324 -1.428 4.294
 0.349 -1.427 4.29
 0.375 -1.427 4.287
 0.401 -1.428 4.289
 0.426 -1.428 4.287
 0.452 -1.43 4.289
 0.477 -1.428 4.281
 0.503 -1.428 4.279
 0.528 -1.428 4.277
 0.555 -1.431 4.28
 0.581 -1.432 4.28
 0.607 -1.434 4.282
 0.633 -1.435 4.282
 0.659 -1.435 4.281
 0.684 -1.434 4.274
 0.71 -1.435 4.271
 0.737 -1.437 4.274
 0.763 -1.438 4.274
 0.79 -1.44 4.276
 0.817 -1.443 4.278
 0.844 -1.444 4.278
 0.87 -1.445 4.274
 0.897 -1.447 4.276
 0.922 -1.446 4.27
 0.949 -1.448 4.269
 0.976 -1.449 4.268
 1.002 -1.451 4.266
 1.029 -1.452 4.264
 1.057 -1.455 4.267
 1.085 -1.458 4.269
 1.112 -1.459 4.267
 1.139 -1.461 4.267
 1.166 -1.462 4.264
 1.193 -1.463 4.26
 1.219 -1.462 4.251
 1.247 -1.465 4.252
 1.275 -1.468 4.253
 1.303 -1.47 4.252
 1.331 -1.472 4.249
 1.36 -1.475 4.252
 1.388 -1.477 4.249
 1.415 -1.478 4.244
 1.444 -1.48 4.243
 1.473 -1.483 4.242
 1.5 -1.484 4.237
 1.53 -1.487 4.236
 1.559 -1.49 4.236
 1.588 -1.492 4.234
 1.618 -1.495 4.232
 1.647 -1.498 4.231
 1.675 -1.499 4.224
 1.703 -1.5 4.218
 1.732 -1.502 4.214
 1.76 -1.503 4.207
 1.785 -1.502 4.193
 1.808 -1.499 4.174
 1.831 -1.496 4.155
 1.849 -1.489 4.125
 1.865 -1.481 4.092
 1.883 -1.475 4.063
 1.904 -1.471 4.041
 0 0 0
 0 0 0
 0 0 0
 0 0 0
 0 0 0
 0 0 0
 0 0 0
 0 0 0
 1.175 -0.81 2.158
 1.448 -0.986 2.62
 1.769 -1.189 3.153
 1.779 -1.182 3.123
 1.788 -1.174 3.091
 1.784 -1.158 3.039
 1.795 -1.152 3.011
 1.755 -1.114 2.901
 -0.112 -0.072 0.18
 -0.102 -0.066 0.165
 -0.265 -0.172 0.457
 -0.26 -0.171 0.456
 -0.25 -0.166 0.445
 -0.243 -0.164 0.44
 -0.235 -0.16 0.43
 -0.139 -0.096 0.253
 -0.217 -0.152 0.409
 -0.297 -0.21 0.575
 -0.286 -0.205 0.562
 -0.444 -0.322 0.895
 -0.766 -0.561 1.577
 -0.835 -0.62 1.748
 -1.144 -0.861 2.442
 -1.447 -1.104 3.143
 -1.66 -1.285 3.67
 -1.712 -1.344 3.848
 -1.913 -1.524 4.376
 -1.879 -1.519 4.374
 -1.847 -1.516 4.373
 -1.815 -1.512 4.374
 -1.783 -1.509 4.375
 -1.752 -1.506 4.376
 -1.722 -1.504 4.379
 -1.69 -1.501 4.378
 -1.66 -1.498 4.38
 -1.629 -1.496 4.381
 -1.599 -1.493 4.382
 -1.567 -1.49 4.379
 -1.537 -1.487 4.379
 -1.506 -1.484 4.377
 -1.476 -1.481 4.376
 -1.445 -1.477 4.371
 -1.415 -1.474 4.372
 -1.385 -1.471 4.369
 -1.354 -1.467 4.365
 -1.324 -1.464 4.362
 -1.295 -1.461 4.36
 -1.265 -1.458 4.358
 -1.236 -1.456 4.357
 -1.208 -1.454 4.356
 -1.179 -1.451 4.353
 -1.151 -1.449 4.354
 -1.121 -1.446 4.35
 -1.094 -1.444 4.35
 -1.065 -1.441 4.346
 -1.036 -1.438 4.341
 -1.008 -1.437 4.342
 -0.981 -1.435 4.341
 -0.952 -1.432 4.337
 -0.925 -1.43 4.336
 -0.898 -1.429 4.337
 -0.87 -1.426 4.332
 -0.843 -1.426 4.335
 -0.816 -1.424 4.334
 -0.79 -1.423 4.334
 -0.763 -1.422 4.335
 -0.736 -1.421 4.334
 -0.709 -1.419 4.333
 -0.683 -1.418 4.332
 -0.656 -1.418 4.334
 -0.631 -1.419 4.339
 -0.604 -1.418 4.339
 -0.578 -1.416 4.337
 -0.551 -1.414 4.333
 -0.525 -1.413 4.332
 -0.498 -1.411 4.328
 -0.472 -1.412 4.333
 -0.446 -1.412 4.333
 -0.421 -1.413 4.338
 -0.395 -1.412 4.337
 -0.369 -1.411 4.335
 -0.342 -1.408 4.328
 -0.316 -1.406 4.324
 -0.29 -1.405 4.322
 -0.264 -1.403 4.317
 -0.238 -1.401 4.311
 -0.212 -1.4 4.31
 -0.186 -1.4 4.309
 -0.161 -1.398 4.304
 -0.135 -1.398 4.303
 -0.11 -1.398 4.305
 -0.084 -1.398 4.303
 -0.058 -1.397 4.302
 -0.033 -1.4 4.308
 -0.007 -1.4 4.308
 0.017 -1.4 4.308
 0.043 -1.4 4.307
 0.068 -1.399 4.305
 0.094 -1.397 4.299
 0.119 -1.398 4.3
 0.145 -1.399 4.302
 0.17 -1.398 4.298
 0.196 -1.4 4.303
 0.222 -1.402 4.308
 0.248 -1.403 4.309
 0.273 -1.402 4.304
 0.299 -1.403 4.306
 0.324 -1.402 4.3
 0.349 -1.401 4.295
 0.375 -1.4 4.29
 0.401 -1.401 4.293
 0.426 -1.402 4.291
 0.452 -1.402 4.29
 0.477 -1.4 4.282
 0.502 -1.401 4.28
 0.528 -1.402 4.28
 0.555 -1.405 4.286
 0.581 -1.406 4.287
 0.608 -1.408 4.291
 0.634 -1.41 4.292
 0.659 -1.41 4.288
 0.684 -1.408 4.28
 0.71 -1.409 4.278
 0.737 -1.411 4.28
 0.763 -1.412 4.28
 0.79 -1.414 4.282
 0.817 -1.417 4.286
 0.844 -1.419 4.287
 0.87 -1.419 4.283
 0.897 -1.421 4.283
 0.922 -1.42 4.275
 0.949 -1.422 4.276
 0.975 -1.422 4.27
 1.001 -1.423 4.269
 1.028 -1.424 4.266
 1.055 -1.426 4.268
 1.082 -1.428 4.266
 1.11 -1.43 4.266
 1.137 -1.432 4.265
 1.164 -1.433 4.264
 1.191 -1.434 4.26
 1.217 -1.434 4.253
 1.245 -1.437 4.254
 1.274 -1.44 4.255
 1.301 -1.441 4.253
 1.329 -1.443 4.251
 1.359 -1.447 4.254
 1.386 -1.448 4.25
 1.413 -1.448 4.243
 1.441 -1.451 4.243
 1.471 -1.454 4.244
 1.498 -1.455 4.237
 1.526 -1.457 4.235
 1.557 -1.461 4.238
 1.585 -1.463 4.234
 1.614 -1.465 4.231
 1.645 -1.469 4.232
 1.673 -1.47 4.226
 1.701 -1.471 4.22
 1.73 -1.473 4.216
 1.759 -1.476 4.213
 1.785 -1.475 4.201
 1.81 -1.474 4.187
 1.835 -1.473 4.173
 1.858 -1.469 4.153
 1.876 -1.463 4.124
 1.897 -1.459 4.1
 0 0 0
 0 0 0
 0 0 0
 0 0 0
 0 0 0
 0 0 0
 0.067 -0.05 0.122
 0.067 -0.05 0.121
 0 0 0
 1.062 -0.719 1.953
 1.414 -0.945 2.563
 1.768 -1.167 3.158
 1.776 -1.158 3.125
 1.786 -1.151 3.094
 1.785 -1.138 3.047
 1.763 -1.111 2.964
 1.77 -1.103 2.932
 -0.096 -0.061 0.153
 -0.103 -0.066 0.168
 -0.093 -0.06 0.152
 -0.087 -0.057 0.144
 -0.079 -0.052 0.131
 -0.072 -0.049 0.121
 -0.065 -0.044 0.109
 -0.058 -0.041 0.099
 -0.048 -0.034 0.081
 -0.042 -0.031 0.071
 -0.119 -0.085 0.227
 -0.194 -0.139 0.384
 -0.435 -0.313 0.891
 -0.672 -0.49 1.408
 -1.064 -0.786 2.275
 -1.368 -1.025 2.977
 -1.661 -1.262 3.679
 -1.79 -1.379 4.032
 -1.912 -1.495 4.384
 -1.878 -1.491 4.381
 -1.846 -1.487 4.38
 -1.814 -1.484 4.381
 -1.783 -1.481 4.382
 -1.75 -1.477 4.38
 -1.72 -1.475 4.384
 -1.689 -1.472 4.383
 -1.658 -1.47 4.384
 -1.627 -1.466 4.382
 -1.597 -1.464 4.384
 -1.565 -1.46 4.38
 -1.535 -1.457 4.381
 -1.504 -1.454 4.378
 -1.473 -1.451 4.377
 -1.442 -1.447 4.373
 -1.412 -1.444 4.371
 -1.382 -1.441 4.369
 -1.351 -1.437 4.363
 -1.321 -1.434 4.36
 -1.292 -1.431 4.358
 -1.263 -1.429 4.358
 -1.234 -1.426 4.356
 -1.205 -1.424 4.354
 -1.176 -1.421 4.352
 -1.148 -1.42 4.354
 -1.121 -1.419 4.355
 -1.092 -1.416 4.353
 -1.065 -1.415 4.354
 -1.036 -1.412 4.351
 -1.008 -1.411 4.35
 -0.98 -1.407 4.344
 -0.952 -1.405 4.341
 -0.924 -1.404 4.342
 -0.897 -1.401 4.339
 -0.869 -1.398 4.334
 -0.843 -1.399 4.339
 -0.816 -1.397 4.338
 -0.789 -1.396 4.339
 -0.762 -1.395 4.34
 -0.736 -1.395 4.342
 -0.709 -1.392 4.336
 -0.682 -1.391 4.336
 -0.656 -1.391 4.338
 -0.63 -1.392 4.345
 -0.604 -1.39 4.342
 -0.577 -1.39 4.343
 -0.551 -1.388 4.34
 -0.524 -1.387 4.339
 -0.498 -1.386 4.337
 -0.473 -1.388 4.344
 -0.447 -1.387 4.344
 -0.421 -1.387 4.347
 -0.394 -1.384 4.338
 -0.368 -1.382 4.332
 -0.341 -1.379 4.325
 -0.315 -1.377 4.321
 -0.289 -1.376 4.319
 -0.263 -1.376 4.318
 -0.237 -1.374 4.313
 -0.212 -1.373 4.311
 -0.186 -1.372 4.308
 -0.16 -1.37 4.303
 -0.135 -1.37 4.303
 -0.109 -1.371 4.305
 -0.084 -1.369 4.301
 -0.058 -1.37 4.302
 -0.033 -1.372 4.309
 -0.007 -1.372 4.309
 0.017 -1.373 4.311
 0.043 -1.373 4.311
 0.068 -1.372 4.309
 0.094 -1.371 4.303
 0.119 -1.371 4.303
 0.145 -1.371 4.303
 0.17 -1.37 4.298
 0.196 -1.372 4.303
 0.222 -1.375 4.31
 0.247 -1.375 4.31
 0.273 -1.375 4.308
 0.299 -1.377 4.311
 0.324 -1.375 4.304
 0.349 -1.374 4.298
 0.374 -1.373 4.293
 0.4 -1.374 4.295
 0.426 -1.375 4.294
 0.452 -1.375 4.293
 0.476 -1.373 4.283
 0.502 -1.373 4.281
 0.528 -1.374 4.282
 0.555 -1.378 4.289
 0.581 -1.379 4.291
 0.608 -1.382 4.297
 0.634 -1.384 4.3
 0.659 -1.384 4.294
 0.684 -1.382 4.286
 0.711 -1.384 4.286
 0.737 -1.385 4.288
 0.763 -1.386 4.286
 0.79 -1.388 4.288
 0.817 -1.391 4.291
 0.843 -1.391 4.29
 0.869 -1.392 4.286
 0.897 -1.394 4.289
 0.922 -1.393 4.281
 0.948 -1.394 4.277
 0.973 -1.394 4.271
 1 -1.395 4.269
 1.026 -1.396 4.267
 1.054 -1.398 4.267
 1.081 -1.4 4.267
 1.109 -1.402 4.268
 1.136 -1.404 4.267
 1.163 -1.405 4.266
 1.19 -1.406 4.262
 1.216 -1.407 4.257
 1.245 -1.409 4.258
 1.273 -1.412 4.259
 1.3 -1.413 4.255
 1.328 -1.416 4.255
 1.357 -1.419 4.257
 1.385 -1.42 4.254
 1.411 -1.42 4.245
 1.439 -1.422 4.244
 1.468 -1.425 4.244
 1.495 -1.425 4.236
 1.523 -1.427 4.233
 1.554 -1.431 4.237
 1.583 -1.434 4.235
 1.611 -1.435 4.23
 1.642 -1.44 4.234
 1.671 -1.441 4.229
 1.699 -1.443 4.224
 1.729 -1.446 4.222
 1.759 -1.448 4.22
 1.786 -1.449 4.211
 1.812 -1.449 4.2
 1.84 -1.449 4.191
 1.863 -1.447 4.174
 1.883 -1.442 4.148
 0 0 0
 0 0 0
 0 0 0
 0 0 0
 0 0 0
 0 0 0
 0 0 0
 0.067 -0.049 0.122
 0.067 -0.049 0.122
 0 0 0
 0.895 -0.596 1.649
 1.373 -0.901 2.493
 1.768 -1.146 3.165
 1.778 -1.139 3.135
 1.787 -1.131 3.103
 1.788 -1.119 3.059
 1.784 -1.104 3.007
 1.789 -1.094 2.97
 -0.11 -0.068 0.178
 -0.114 -0.071 0.188
 -0.101 -0.064 0.167
 -0.095 -0.061 0.159
 -0.086 -0.056 0.145
 -0.078 -0.051 0.132
 -0.07 -0.047 0.119
 -0.063 -0.043 0.109
 -0.051 -0.035 0.086
 -0.044 -0.032 0.075
 -0.12 -0.084 0.229
 -0.195 -0.137 0.386
 -0.435 -0.308 0.894
 -0.756 -0.541 1.589
 -1.065 -0.772 2.281
 -1.369 -1.006 2.985
 -1.661 -1.238 3.687
 -1.788 -1.352 4.037
 -1.833 -1.406 4.21
 -1.876 -1.461 4.384
 -1.843 -1.457 4.383
 -1.811 -1.454 4.382
 -1.781 -1.452 4.385
 -1.749 -1.449 4.386
 -1.719 -1.446 4.388
 -1.688 -1.444 4.389
 -1.658 -1.442 4.392
 -1.625 -1.438 4.387
 -1.595 -1.435 4.388
 -1.563 -1.431 4.384
 -1.532 -1.428 4.382
 -1.501 -1.424 4.378
 -1.47 -1.421 4.375
 -1.439 -1.418 4.373
 -1.41 -1.415 4.372
 -1.381 -1.413 4.373
 -1.35 -1.409 4.368
 -1.322 -1.408 4.37
 -1.292 -1.405 4.367
 -1.263 -1.402 4.364
 -1.232 -1.398 4.358
 -1.203 -1.395 4.354
 -1.174 -1.392 4.352
 -1.146 -1.391 4.354
 -1.119 -1.391 4.358
 -1.091 -1.388 4.356
 -1.064 -1.388 4.36
 -1.036 -1.386 4.358
 -1.008 -1.384 4.357
 -0.979 -1.38 4.349
 -0.95 -1.377 4.343
 -0.923 -1.376 4.345
 -0.896 -1.374 4.342
 -0.867 -1.37 4.335
 -0.842 -1.371 4.343
 -0.815 -1.37 4.342
 -0.788 -1.369 4.341
 -0.761 -1.368 4.341
 -0.735 -1.368 4.344
 -0.707 -1.364 4.337
 -0.681 -1.364 4.338
 -0.655 -1.364 4.343
 -0.63 -1.366 4.352
 -0.604 -1.365 4.351
 -0.577 -1.364 4.351
 -0.551 -1.362 4.347
 -0.524 -1.361 4.346
 -0.498 -1.361 4.346
 -0.473 -1.363 4.356
 -0.447 -1.364 4.359
 -0.422 -1.365 4.367
 -0.394 -1.359 4.346
 -0.367 -1.355 4.336
 -0.341 -1.351 4.326
 -0.315 -1.35 4.323
 -0.289 -1.349 4.32
 -0.263 -1.348 4.319
 -0.237 -1.347 4.315
 -0.211 -1.346 4.314
 -0.186 -1.345 4.31
 -0.16 -1.344 4.306
 -0.134 -1.344 4.307
 -0.109 -1.344 4.308
 -0.083 -1.343 4.304
 -0.058 -1.343 4.305
 -0.033 -1.345 4.311
 -0.007 -1.345 4.31
 0.017 -1.345 4.311
 0.043 -1.346 4.314
 0.069 -1.346 4.313
 0.094 -1.343 4.302
 0.119 -1.343 4.302
 0.145 -1.344 4.302
 0.17 -1.341 4.294
 0.196 -1.343 4.298
 0.222 -1.347 4.308
 0.247 -1.348 4.31
 0.273 -1.347 4.307
 0.299 -1.35 4.314
 0.324 -1.348 4.307
 0.349 -1.346 4.296
 0.374 -1.345 4.291
 0.4 -1.347 4.295
 0.426 -1.347 4.295
 0.451 -1.347 4.292
 0.476 -1.345 4.283
 0.501 -1.346 4.281
 0.527 -1.346 4.28
 0.554 -1.35 4.291
 0.58 -1.352 4.293
 0.607 -1.355 4.3
 0.634 -1.357 4.302
 0.659 -1.357 4.298
 0.684 -1.356 4.292
 0.711 -1.359 4.296
 0.738 -1.361 4.301
 0.764 -1.362 4.299
 0.791 -1.363 4.297
 0.817 -1.365 4.298
 0.843 -1.365 4.295
 0.868 -1.364 4.288
 0.896 -1.367 4.291
 0.921 -1.366 4.284
 0.947 -1.367 4.28
 0.973 -1.367 4.275
 0.999 -1.367 4.272
 1.025 -1.368 4.267
 1.052 -1.369 4.267
 1.079 -1.371 4.266
 1.106 -1.373 4.267
 1.134 -1.375 4.267
 1.162 -1.378 4.27
 1.189 -1.379 4.265
 1.215 -1.379 4.261
 1.244 -1.382 4.262
 1.272 -1.384 4.262
 1.299 -1.386 4.259
 1.328 -1.388 4.26
 1.356 -1.391 4.261
 1.383 -1.392 4.256
 1.408 -1.391 4.245
 1.436 -1.393 4.243
 1.466 -1.396 4.244
 1.492 -1.396 4.236
 1.521 -1.398 4.234
 1.553 -1.403 4.241
 1.581 -1.405 4.238
 1.609 -1.406 4.232
 1.639 -1.41 4.234
 1.667 -1.412 4.228
 1.696 -1.413 4.223
 1.725 -1.416 4.221
 1.756 -1.419 4.22
 1.783 -1.42 4.212
 1.811 -1.421 4.205
 1.839 -1.422 4.198
 1.865 -1.421 4.185
 0 0 0
 0 0 0
 0 0 0
 0 0 0
 0 0 0
 0 0 0
 0 0 0
 0 0 0
 0.099 -0.07 0.185
 0.1 -0.07 0.185
 0 0 0
 0.912 -0.596 1.683
 1.528 -0.983 2.781
 1.762 -1.12 3.16
 1.773 -1.114 3.131
 1.782 -1.107 3.1
 1.787 -1.097 3.063
 1.802 -1.094 3.042
 1.765 -1.06 2.936
 -0.168 -0.101 0.279
 -0.111 -0.068 0.182
 -0.107 -0.066 0.178
 -0.098 -0.062 0.166
 -0.089 -0.057 0.152
 -0.079 -0.051 0.134
 -0.068 -0.045 0.117
 -0.062 -0.041 0.106
 -0.138 -0.092 0.257
 -0.128 -0.086 0.242
 -0.202 -0.137 0.395
 -0.361 -0.248 0.73
 -0.683 -0.473 1.413
 -1 -0.702 2.111
 -1.306 -0.929 2.806
 -1.607 -1.159 3.514
 -1.818 -1.329 4.044
 -1.864 -1.383 4.218
 -1.831 -1.378 4.214
 -1.874 -1.432 4.389
 -1.841 -1.428 4.386
 -1.808 -1.423 4.382
 -1.777 -1.421 4.385
 -1.747 -1.419 4.388
 -1.716 -1.416 4.389
 -1.685 -1.414 4.39
 -1.655 -1.412 4.393
 -1.623 -1.408 4.388
 -1.591 -1.404 4.385
 -1.56 -1.401 4.382
 -1.529 -1.398 4.381
 -1.498 -1.394 4.378
 -1.468 -1.392 4.377
 -1.438 -1.389 4.375
 -1.408 -1.387 4.376
 -1.38 -1.385 4.377
 -1.349 -1.381 4.372
 -1.32 -1.38 4.374
 -1.291 -1.377 4.37
 -1.261 -1.374 4.368
 -1.232 -1.371 4.364
 -1.203 -1.368 4.362
 -1.173 -1.365 4.358
 -1.146 -1.364 4.361
 -1.12 -1.365 4.367
 -1.09 -1.361 4.361
 -1.064 -1.361 4.365
 -1.036 -1.359 4.365
 -1.007 -1.356 4.361
 -0.977 -1.352 4.35
 -0.949 -1.348 4.344
 -0.922 -1.347 4.344
 -0.894 -1.345 4.34
 -0.866 -1.342 4.336
 -0.841 -1.344 4.346
 -0.814 -1.343 4.346
 -0.788 -1.342 4.347
 -0.761 -1.342 4.35
 -0.735 -1.342 4.352
 -0.706 -1.337 4.339
 -0.681 -1.337 4.342
 -0.655 -1.338 4.347
 -0.63 -1.339 4.356
 -0.603 -1.338 4.355
 -0.578 -1.339 4.361
 -0.551 -1.338 4.358
 -0.525 -1.337 4.358
 -0.498 -1.335 4.355
 -0.474 -1.341 4.376
 -0.449 -1.342 4.381
 -0.423 -1.343 4.386
 -0.394 -1.331 4.349
 -0.366 -1.325 4.33
 -0.339 -1.322 4.32
 -0.314 -1.321 4.319
 -0.288 -1.321 4.32
 -0.262 -1.32 4.317
 -0.237 -1.32 4.317
 -0.211 -1.319 4.315
 -0.185 -1.317 4.309
 -0.16 -1.316 4.305
 -0.134 -1.316 4.306
 -0.109 -1.316 4.307
 -0.083 -1.315 4.305
 -0.058 -1.316 4.306
 -0.032 -1.317 4.311
 -0.007 -1.318 4.312
 0.018 -1.319 4.317
 0.043 -1.324 4.333
 0.069 -1.326 4.338
 0.094 -1.32 4.317
 0.119 -1.318 4.311
 0.145 -1.317 4.306
 0.169 -1.311 4.285
 0.195 -1.315 4.295
 0.222 -1.32 4.311
 0.247 -1.321 4.314
 0.273 -1.321 4.311
 0.299 -1.324 4.318
 0.323 -1.317 4.296
 0.347 -1.314 4.282
 0.372 -1.313 4.276
 0.398 -1.315 4.281
 0.424 -1.317 4.286
 0.45 -1.318 4.287
 0.473 -1.312 4.265
 0.498 -1.313 4.263
 0.524 -1.314 4.264
 0.553 -1.321 4.286
 0.579 -1.324 4.292
 0.608 -1.33 4.309
 0.635 -1.334 4.317
 0.661 -1.335 4.317
 0.686 -1.334 4.309
 0.713 -1.336 4.314
 0.741 -1.341 4.324
 0.766 -1.339 4.316
 0.792 -1.339 4.31
 0.819 -1.341 4.311
 0.845 -1.342 4.313
 0.869 -1.338 4.295
 0.896 -1.341 4.3
 0.921 -1.34 4.289
 0.945 -1.338 4.279
 0.971 -1.338 4.274
 0.998 -1.339 4.272
 1.024 -1.34 4.268
 1.051 -1.341 4.268
 1.078 -1.343 4.268
 1.105 -1.345 4.268
 1.133 -1.347 4.269
 1.161 -1.35 4.271
 1.188 -1.351 4.267
 1.215 -1.353 4.265
 1.242 -1.354 4.265
 1.271 -1.357 4.265
 1.298 -1.358 4.263
 1.327 -1.361 4.263
 1.354 -1.363 4.261
 1.382 -1.364 4.259
 1.406 -1.362 4.245
 1.433 -1.364 4.241
 1.462 -1.366 4.241
 1.49 -1.368 4.237
 1.518 -1.369 4.233
 1.55 -1.375 4.241
 1.579 -1.377 4.238
 1.606 -1.377 4.231
 1.636 -1.381 4.232
 1.665 -1.383 4.229
 1.692 -1.383 4.222
 1.722 -1.386 4.22
 1.753 -1.39 4.221
 1.779 -1.39 4.21
 1.808 -1.391 4.205
 1.837 -1.393 4.201
 1.865 -1.394 4.193
 0 0 0
 0 0 0
 0 0 0
 0 0 0
 0 0 0
 0 0 0
 0 0 0
 0 0 0
 0 0 0
 0 0 0
 0 0 0
 0 0 0
 1.73 -1.092 3.156
 1.759 -1.097 3.161
 1.772 -1.092 3.136
 1.781 -1.086 3.106
 1.789 -1.078 3.073
 1.793 -1.068 3.034
 1.772 -1.043 2.953
 -0.106 -0.063 0.172
 -0.106 -0.064 0.175
 -0.108 -0.066 0.18
 -0.097 -0.06 0.163
 -0.087 -0.055 0.148
 -0.076 -0.049 0.13
 -0.065 -0.042 0.111
 -0.058 -0.038 0.1
 -0.135 -0.088 0.253
 -0.126 -0.083 0.238
 -0.199 -0.133 0.39
 -0.358 -0.241 0.725
 -0.68 -0.462 1.411
 -0.999 -0.687 2.112
 -1.304 -0.909 2.808
 -1.605 -1.134 3.516
 -1.815 -1.301 4.045
 -1.862 -1.354 4.221
 -1.828 -1.349 4.215
 -1.872 -1.402 4.392
 -1.839 -1.398 4.389
 -1.806 -1.395 4.388
 -1.776 -1.392 4.39
 -1.744 -1.39 4.391
 -1.713 -1.387 4.391
 -1.682 -1.384 4.391
 -1.652 -1.382 4.392
 -1.618 -1.377 4.384
 -1.588 -1.374 4.384
 -1.556 -1.371 4.381
 -1.526 -1.368 4.38
 -1.494 -1.364 4.375
 -1.466 -1.363 4.378
 -1.436 -1.36 4.378
 -1.408 -1.359 4.381
 -1.379 -1.357 4.382
 -1.35 -1.355 4.382
 -1.32 -1.353 4.381
 -1.29 -1.349 4.376
 -1.26 -1.346 4.371
 -1.232 -1.344 4.372
 -1.201 -1.34 4.364
 -1.173 -1.338 4.362
 -1.145 -1.337 4.364
 -1.119 -1.337 4.372
 -1.089 -1.334 4.364
 -1.065 -1.336 4.377
 -1.035 -1.332 4.37
 -1.007 -1.33 4.366
 -0.977 -1.325 4.354
 -0.947 -1.32 4.344
 -0.92 -1.319 4.345
 -0.893 -1.318 4.346
 -0.866 -1.316 4.342
 -0.841 -1.319 4.355
 -0.813 -1.316 4.348
 -0.788 -1.316 4.355
 0 0 0
 0 0 0
 0 0 0
 0 0 0
 0 0 0
 0 0 0
 0 0 0
 0 0 0
 0 0 0
 0 0 0
 0 0 0
 0 0 0
 0 0 0
 0 0 0
 -0.39 -1.294 4.315
 -0.363 -1.29 4.305
 -0.338 -1.292 4.311
 -0.313 -1.293 4.316
 -0.287 -1.293 4.318
 -0.262 -1.292 4.314
 -0.236 -1.292 4.317
 -0.21 -1.291 4.314
 -0.185 -1.289 4.306
 -0.159 -1.288 4.303
 -0.134 -1.288 4.303
 -0.108 -1.287 4.301
 -0.083 -1.287 4.3
 -0.057 -1.287 4.303
 -0.032 -1.287 4.302
 -0.007 -1.287 4.301
 0.018 -1.287 4.3
 0 0 0
 0 0 0
 0 0 0
 0 0 0
 0 0 0
 0 0 0
 0 0 0
 0 0 0
 0 0 0
 0 0 0
 0 0 0
 0 0 0
 0 0 0
 0 0 0
 0 0 0
 0 0 0
 0 0 0
 0 0 0
 0 0 0
 0 0 0
 0 0 0
 0 0 0
 0 0 0
 0 0 0
 0 0 0
 0 0 0
 0 0 0
 0 0 0
 0 0 0
 0 0 0
 0 0 0
 0 0 0
 0 0 0
 0 0 0
 0 0 0
 0.942 -1.308 4.271
 0.969 -1.31 4.272
 0.996 -1.311 4.27
 1.022 -1.311 4.266
 1.048 -1.313 4.265
 1.076 -1.315 4.266
 1.103 -1.316 4.265
 1.131 -1.319 4.266
 1.159 -1.321 4.269
 1.185 -1.322 4.266
 1.214 -1.325 4.268
 1.241 -1.327 4.267
 1.269 -1.329 4.266
 1.296 -1.33 4.263
 1.324 -1.332 4.263
 1.351 -1.333 4.259
 1.379 -1.335 4.256
 1.404 -1.334 4.245
 1.431 -1.335 4.241
 1.46 -1.338 4.242
 1.488 -1.34 4.239
 1.516 -1.341 4.234
 1.548 -1.346 4.241
 1.576 -1.348 4.239
 1.603 -1.348 4.231
 1.633 -1.351 4.231
 1.662 -1.353 4.229
 1.689 -1.354 4.221
 1.718 -1.356 4.218
 1.748 -1.359 4.218
 1.775 -1.359 4.207
 1.804 -1.361 4.202
 1.833 -1.363 4.198
 1.861 -1.365 4.192
 0 0 0
 0 0 0
 0 0 0
 0 0 0
 0 0 0
 0 0 0
 0 0 0
 0 0 0
 0 0 0
 0 0 0
 0 0 0
 0 0 0
 1.722 -1.066 3.148
 1.755 -1.073 3.16
 1.768 -1.069 3.136
 1.779 -1.063 3.107
 1.786 -1.055 3.074
 1.77 -1.034 3
 1.77 -1.023 2.957
 -0.149 -0.086 0.246
 -0.131 -0.077 0.218
 -0.107 -0.064 0.179
 -0.095 -0.058 0.16
 -0.085 -0.052 0.144
 -0.075 -0.047 0.127
 -0.063 -0.04 0.107
 -0.056 -0.036 0.095
 -0.134 -0.086 0.25
 -0.211 -0.136 0.409
 -0.283 -0.185 0.562
 -0.442 -0.291 0.899
 -0.763 -0.508 1.588
 -1.08 -0.728 2.289
 -1.302 -0.89 2.808
 -1.602 -1.11 3.516
 -1.811 -1.273 4.044
 -1.855 -1.322 4.212
 -1.823 -1.318 4.211
 -1.871 -1.374 4.398
 -1.838 -1.37 4.395
 -1.806 -1.367 4.394
 -1.776 -1.365 4.398
 -1.742 -1.36 4.393
 -1.71 -1.357 4.39
 -1.68 -1.355 4.392
 -1.649 -1.352 4.392
 -1.615 -1.347 4.384
 -1.585 -1.345 4.384
 -1.554 -1.341 4.382
 -1.522 -1.338 4.378
 -1.491 -1.334 4.373
 -1.462 -1.333 4.376
 -1.432 -1.33 4.373
 -1.404 -1.328 4.376
 -1.375 -1.327 4.379
 -1.346 -1.325 4.378
 -1.316 -1.322 4.375
 -1.286 -1.319 4.371
 -1.256 -1.315 4.364
 -1.228 -1.314 4.365
 -1.197 -1.309 4.356
 -1.168 -1.306 4.352
 0 0 0
 0 0 0
 0 0 0
 0 0 0
 0 0 0
 0 0 0
 0 0 0
 0 0 0
 0 0 0
 0 0 0
 0 0 0
 0 0 0
 0 0 0
 0 0 0
 0 0 0
 0 0 0
 0 0 0
 0 0 0
 0 0 0
 0 0 0
 0 0 0
 0 0 0
 0 0 0
 0 0 0
 0 0 0
 0 0 0
 0 0 0
 0 0 0
 -0.388 -1.262 4.302
 -0.363 -1.263 4.304
 -0.337 -1.264 4.31
 -0.312 -1.265 4.314
 -0.287 -1.265 4.316
 -0.261 -1.265 4.315
 -0.236 -1.265 4.318
 -0.21 -1.264 4.314
 -0.184 -1.262 4.307
 -0.159 -1.261 4.304
 -0.133 -1.261 4.304
 -0.108 -1.26 4.302
 -0.083 -1.26 4.302
 -0.057 -1.261 4.306
 -0.032 -1.261 4.306
 -0.007 -1.261 4.306
 0.018 -1.26 4.301
 0 0 0
 0 0 0
 0 0 0
 0 0 0
 0 0 0
 0 0 0
 0 0 0
 0 0 0
 0 0 0
 0 0 0
 0 0 0
 0 0 0
 0 0 0
 0 0 0
 0 0 0
 0 0 0
 0 0 0
 0 0 0
 0 0 0
 0 0 0
 0 0 0
 0 0 0
 0 0 0
 0 0 0
 0 0 0
 0 0 0
 0 0 0
 0 0 0
 0 0 0
 0 0 0
 0 0 0
 0 0 0
 0 0 0
 0 0 0
 0 0 0
 0.938 -1.276 4.256
 0.967 -1.281 4.268
 0.994 -1.282 4.268
 1.02 -1.283 4.264
 1.047 -1.284 4.264
 1.075 -1.287 4.268
 1.101 -1.288 4.264
 1.129 -1.291 4.267
 1.157 -1.294 4.27
 1.184 -1.295 4.267
 1.212 -1.297 4.269
 1.24 -1.299 4.269
 1.267 -1.301 4.267
 1.295 -1.302 4.264
 1.322 -1.304 4.263
 1.349 -1.304 4.257
 1.377 -1.306 4.255
 1.402 -1.306 4.246
 1.429 -1.307 4.241
 1.457 -1.309 4.24
 1.486 -1.311 4.24
 1.513 -1.312 4.235
 1.544 -1.316 4.239
 1.574 -1.319 4.239
 1.601 -1.32 4.232
 1.63 -1.322 4.23
 1.658 -1.324 4.227
 1.686 -1.325 4.221
