 0 0 0
 1.73 -1.298 3.144
 1.752 -1.298 3.135
 1.765 -1.292 3.11
 1.774 -1.284 3.079
 1.783 -1.275 3.047
 1.779 -1.259 2.996
 1.78 -1.245 2.953
 1.775 -1.227 2.9
 -2.356 -1.619 3.999
 -2.321 -1.614 3.998
 -2.293 -1.613 4.01
 -2.266 -1.614 4.025
 -2.147 -1.548 3.872
 -2.118 -1.546 3.879
 -2.092 -1.546 3.891
 -2.065 -1.545 3.901
 -2.038 -1.545 3.912
 -2.096 -1.609 4.088
 -2.069 -1.609 4.099
 -2.039 -1.607 4.106
 -2.009 -1.606 4.113
 -1.983 -1.606 4.127
 -1.956 -1.606 4.137
 -1.927 -1.605 4.144
 -1.9 -1.605 4.156
 -1.875 -1.607 4.17
 -1.846 -1.605 4.176
 -1.817 -1.604 4.184
 -1.792 -1.606 4.197
 -1.766 -1.607 4.21
 -1.737 -1.605 4.214
 -1.708 -1.603 4.22
 -1.682 -1.604 4.232
 -1.653 -1.603 4.236
 -1.623 -1.6 4.239
 -1.596 -1.599 4.245
 -1.567 -1.598 4.249
 -1.537 -1.595 4.249
 -1.508 -1.593 4.253
 -1.48 -1.591 4.255
 -1.452 -1.59 4.261
 -1.424 -1.589 4.266
 -1.395 -1.587 4.267
 -1.368 -1.586 4.271
 -1.34 -1.584 4.274
 -1.312 -1.583 4.277
 -1.285 -1.583 4.283
 -1.259 -1.584 4.292
 -1.232 -1.583 4.296
 -1.205 -1.583 4.301
 -1.176 -1.58 4.302
 -1.148 -1.579 4.303
 -1.119 -1.574 4.297
 -1.091 -1.573 4.299
 -1.064 -1.572 4.3
 -1.037 -1.571 4.302
 -1.008 -1.568 4.299
 -0.983 -1.569 4.307
 -0.955 -1.567 4.307
 -0.927 -1.565 4.306
 -0.9 -1.563 4.305
 -0.873 -1.562 4.306
 -0.846 -1.559 4.303
 -0.819 -1.559 4.305
 -0.792 -1.557 4.304
 -0.765 -1.557 4.307
 -0.739 -1.557 4.31
 -0.713 -1.557 4.314
 -0.686 -1.555 4.311
 -0.66 -1.554 4.314
 -0.633 -1.552 4.309
 -0.606 -1.551 4.309
 -0.579 -1.548 4.304
 -0.553 -1.547 4.304
 -0.526 -1.545 4.301
 -0.5 -1.544 4.3
 -0.473 -1.543 4.298
 -0.448 -1.543 4.302
 -0.422 -1.543 4.303
 -0.396 -1.543 4.304
 -0.37 -1.544 4.309
 -0.344 -1.543 4.307
 -0.318 -1.54 4.3
 -0.292 -1.539 4.298
 -0.266 -1.539 4.299
 -0.24 -1.537 4.295
 -0.214 -1.535 4.292
 -0.188 -1.536 4.293
 -0.162 -1.535 4.291
 -0.137 -1.534 4.289
 -0.111 -1.534 4.289
 -0.085 -1.534 4.291
 -0.06 -1.535 4.292
 -0.034 -1.534 4.29
 -0.008 -1.534 4.29
 0.017 -1.534 4.289
 0.042 -1.533 4.286
 0.068 -1.534 4.287
 0.093 -1.533 4.285
 0.119 -1.534 4.286
 0.145 -1.534 4.286
 0.17 -1.534 4.283
 0.196 -1.533 4.28
 0.222 -1.534 4.282
 0.247 -1.533 4.277
 0.273 -1.534 4.277
 0.299 -1.535 4.28
 0.324 -1.536 4.28
 0.35 -1.535 4.274
 0.376 -1.535 4.273
 0.401 -1.535 4.272
 0.427 -1.535 4.269
 0.453 -1.536 4.268
 0.479 -1.537 4.27
 0.504 -1.538 4.268
 0.53 -1.539 4.268
 0.557 -1.54 4.269
 0.582 -1.541 4.267
 0.609 -1.542 4.268
 0.635 -1.543 4.267
 0.661 -1.544 4.266
 0.686 -1.543 4.26
 0.713 -1.546 4.264
 0.739 -1.547 4.262
 0.766 -1.549 4.264
 0.793 -1.551 4.266
 0.819 -1.552 4.264
 0.845 -1.552 4.257
 0.871 -1.552 4.252
 0.897 -1.552 4.248
 0.923 -1.553 4.245
 0.95 -1.555 4.247
 0.977 -1.556 4.245
 1.004 -1.559 4.245
 1.031 -1.56 4.242
 1.057 -1.56 4.237
 1.084 -1.562 4.238
 1.112 -1.564 4.237
 1.139 -1.566 4.234
 1.166 -1.568 4.233
 1.194 -1.57 4.232
 1.221 -1.572 4.23
 1.248 -1.573 4.226
 1.277 -1.576 4.229
 1.306 -1.579 4.23
 1.333 -1.58 4.225
 1.36 -1.581 4.22
 1.389 -1.584 4.22
 1.415 -1.584 4.21
 1.442 -1.585 4.207
 1.471 -1.588 4.206
 1.499 -1.59 4.201
 1.526 -1.59 4.194
 1.554 -1.592 4.19
 1.581 -1.593 4.182
 1.607 -1.593 4.173
 1.634 -1.593 4.164
 1.661 -1.593 4.155
 1.688 -1.595 4.149
 1.718 -1.597 4.146
 1.744 -1.597 4.136
 1.77 -1.597 4.124
 1.791 -1.592 4.102
 1.81 -1.585 4.073
 1.823 -1.574 4.033
 1.834 -1.562 3.991
 1.842 -1.547 3.942
 1.849 -1.531 3.891
 1.854 -1.515 3.837
 1.858 -1.498 3.785
 1.862 -1.482 3.732
 1.865 -1.464 3.676
 0 0 0
 0 0 0
 0 0 0
 0 0 0
 1.727 -1.274 3.146
 1.75 -1.276 3.14
 1.762 -1.269 3.113
 1.77 -1.26 3.08
 1.78 -1.252 3.05
 1.778 -1.236 3
 1.774 -1.22 2.95
 1.763 -1.199 2.887
 -2.393 -1.617 4.071
 -2.336 -1.597 4.034
 -1.951 -1.35 3.419
 -1.926 -1.349 3.427
 -1.809 -1.283 3.269
 -1.875 -1.345 3.44
 -1.851 -1.345 3.449
 -1.914 -1.409 3.625
 -1.977 -1.474 3.804
 -2.121 -1.601 4.148
 -2.094 -1.601 4.159
 -2.062 -1.598 4.162
 -1.95 -1.532 4
 -1.924 -1.532 4.013
 -1.898 -1.533 4.024
 -1.871 -1.532 4.032
 -1.847 -1.534 4.049
 -1.9 -1.601 4.236
 -1.871 -1.6 4.244
 -1.842 -1.599 4.25
 -1.815 -1.599 4.261
 -1.787 -1.598 4.269
 -1.756 -1.596 4.271
 -1.725 -1.592 4.273
 -1.698 -1.592 4.282
 -1.669 -1.591 4.287
 -1.64 -1.589 4.291
 -1.611 -1.588 4.296
 -1.583 -1.587 4.303
 -1.552 -1.583 4.3
 -1.522 -1.58 4.3
 -1.491 -1.577 4.298
 -1.462 -1.574 4.299
 -1.433 -1.572 4.3
 -1.404 -1.57 4.303
 -1.376 -1.569 4.306
 -1.348 -1.568 4.31
 -1.321 -1.567 4.315
 -1.293 -1.566 4.318
 -1.266 -1.566 4.326
 -1.238 -1.564 4.328
 -1.21 -1.563 4.33
 -1.181 -1.561 4.329
 -1.153 -1.559 4.33
 -1.123 -1.554 4.322
 -1.096 -1.553 4.325
 -1.068 -1.551 4.325
 -1.039 -1.548 4.322
 -1.011 -1.546 4.32
 -0.985 -1.546 4.326
 -0.957 -1.544 4.325
 -0.929 -1.542 4.322
 -0.902 -1.541 4.324
 -0.875 -1.539 4.323
 -0.847 -1.536 4.318
 -0.82 -1.535 4.319
 -0.793 -1.533 4.319
 -0.766 -1.531 4.317
 -0.739 -1.531 4.32
 -0.713 -1.531 4.324
 -0.686 -1.529 4.32
 -0.659 -1.528 4.32
 -0.633 -1.526 4.318
 -0.606 -1.525 4.317
 -0.579 -1.522 4.312
 -0.553 -1.521 4.311
 -0.526 -1.519 4.309
 -0.499 -1.517 4.306
 -0.473 -1.516 4.303
 -0.447 -1.517 4.308
 -0.422 -1.517 4.312
 -0.396 -1.517 4.313
 -0.37 -1.518 4.317
 -0.344 -1.517 4.316
 -0.318 -1.514 4.309
 -0.291 -1.513 4.305
 -0.266 -1.512 4.306
 -0.24 -1.512 4.304
 -0.214 -1.511 4.303
 -0.188 -1.511 4.303
 -0.162 -1.51 4.301
 -0.136 -1.509 4.299
 -0.111 -1.509 4.298
 -0.085 -1.509 4.298
 -0.059 -1.509 4.3
 -0.034 -1.509 4.299
 -0.008 -1.509 4.299
 0.017 -1.508 4.296
 0.042 -1.508 4.294
 0.068 -1.507 4.293
 0.093 -1.506 4.288
 0.119 -1.507 4.289
 0.145 -1.506 4.287
 0.17 -1.506 4.286
 0.196 -1.505 4.282
 0.222 -1.507 4.285
 0.247 -1.506 4.282
 0.273 -1.508 4.285
 0.299 -1.509 4.287
 0.325 -1.51 4.287
 0.35 -1.509 4.282
 0.376 -1.509 4.28
 0.401 -1.509 4.277
 0.426 -1.507 4.27
 0.452 -1.508 4.27
 0.478 -1.51 4.273
 0.504 -1.51 4.271
 0.53 -1.511 4.271
 0.556 -1.513 4.273
 0.582 -1.513 4.27
 0.608 -1.515 4.271
 0.634 -1.516 4.27
 0.661 -1.517 4.271
 0.686 -1.518 4.268
 0.713 -1.52 4.27
 0.739 -1.521 4.269
 0.766 -1.522 4.269
 0.792 -1.524 4.269
 0.819 -1.525 4.269
 0.845 -1.526 4.265
 0.871 -1.526 4.261
 0.898 -1.527 4.26
 0.924 -1.528 4.258
 0.951 -1.53 4.257
 0.977 -1.531 4.254
 1.005 -1.533 4.254
 1.031 -1.534 4.251
 1.058 -1.535 4.249
 1.085 -1.537 4.25
 1.113 -1.54 4.25
 1.14 -1.541 4.248
 1.167 -1.543 4.246
 1.194 -1.544 4.242
 1.222 -1.546 4.24
 1.249 -1.547 4.237
 1.278 -1.551 4.24
 1.308 -1.555 4.244
 1.336 -1.557 4.242
 1.363 -1.559 4.239
 1.392 -1.561 4.238
 1.418 -1.561 4.23
 1.446 -1.563 4.226
 1.475 -1.565 4.224
 1.503 -1.568 4.222
 1.532 -1.57 4.219
 1.56 -1.571 4.214
 1.587 -1.572 4.206
 1.614 -1.572 4.198
 1.641 -1.573 4.19
 1.668 -1.573 4.182
 1.697 -1.576 4.178
 1.726 -1.578 4.174
 1.753 -1.578 4.165
 1.778 -1.577 4.151
 1.799 -1.572 4.127
 1.817 -1.565 4.097
 1.83 -1.554 4.058
 1.843 -1.543 4.019
 1.853 -1.53 3.973
 1.861 -1.516 3.926
 1.867 -1.5 3.874
 1.873 -1.484 3.822
 1.872 -1.464 3.759
 0 0 0
 0 0 0
 0 0 0
 0 0 0
 0 0 0
 1.73 -1.255 3.158
 1.752 -1.256 3.151
 1.766 -1.251 3.127
 1.773 -1.241 3.092
 1.783 -1.233 3.062
 1.779 -1.217 3.01
 1.782 -1.205 2.969
 1.759 -1.176 2.887
 -2.415 -1.603 4.118
 -2.389 -1.605 4.136
 -1.511 -1.028 2.651
 -1.489 -1.025 2.652
 -1.376 -0.959 2.489
 -1.446 -1.02 2.657
 -1.427 -1.019 2.663
 -1.495 -1.082 2.835
 -1.565 -1.146 3.014
 -1.715 -1.273 3.358
 -1.693 -1.273 3.368
 -1.751 -1.334 3.54
 -1.726 -1.333 3.548
 -1.785 -1.397 3.729
 -1.841 -1.461 3.912
 -1.893 -1.524 4.09
 -1.867 -1.525 4.103
 -1.919 -1.589 4.288
 -1.889 -1.588 4.295
 -1.858 -1.585 4.296
 -1.829 -1.584 4.304
 -1.8 -1.583 4.311
 -1.77 -1.581 4.315
 -1.738 -1.577 4.314
 -1.711 -1.577 4.323
 -1.681 -1.575 4.327
 -1.651 -1.573 4.33
 -1.62 -1.57 4.33
 -1.592 -1.569 4.336
 -1.561 -1.565 4.334
 -1.53 -1.562 4.332
 -1.499 -1.558 4.331
 -1.471 -1.557 4.335
 -1.441 -1.555 4.336
 -1.412 -1.552 4.336
 -1.383 -1.55 4.337
 -1.353 -1.547 4.336
 -1.325 -1.545 4.338
 -1.296 -1.543 4.338
 -1.268 -1.541 4.341
 -1.239 -1.54 4.342
 -1.211 -1.538 4.344
 -1.182 -1.535 4.342
 -1.154 -1.533 4.341
 -1.124 -1.528 4.333
 -1.097 -1.528 4.338
 -1.068 -1.526 4.336
 -1.04 -1.523 4.335
 -1.012 -1.521 4.332
 -0.985 -1.52 4.336
 -0.957 -1.517 4.332
 -0.929 -1.515 4.331
 -0.902 -1.514 4.331
 -0.874 -1.512 4.33
 -0.847 -1.51 4.328
 -0.82 -1.509 4.328
 -0.793 -1.507 4.326
 -0.766 -1.505 4.326
 -0.739 -1.505 4.327
 -0.713 -1.504 4.329
 -0.685 -1.502 4.325
 -0.659 -1.5 4.323
 -0.632 -1.498 4.319
 -0.605 -1.497 4.32
 -0.578 -1.494 4.313
 -0.551 -1.492 4.312
 -0.525 -1.491 4.31
 -0.499 -1.49 4.311
 -0.472 -1.489 4.307
 -0.447 -1.489 4.312
 -0.421 -1.491 4.318
 -0.395 -1.49 4.317
 -0.37 -1.49 4.319
 -0.344 -1.49 4.319
 -0.317 -1.488 4.314
 -0.291 -1.485 4.309
 -0.265 -1.485 4.309
 -0.239 -1.484 4.307
 -0.213 -1.483 4.305
 -0.188 -1.483 4.306
 -0.162 -1.483 4.305
 -0.136 -1.482 4.303
 -0.11 -1.482 4.302
 -0.085 -1.481 4.301
 -0.059 -1.482 4.302
 -0.033 -1.481 4.3
 -0.008 -1.481 4.299
 0.017 -1.48 4.296
 0.042 -1.48 4.295
 0.068 -1.479 4.293
 0.094 -1.479 4.293
 0.119 -1.48 4.294
 0.145 -1.479 4.291
 0.17 -1.48 4.292
 0.196 -1.48 4.29
 0.222 -1.481 4.291
 0.247 -1.48 4.288
 0.273 -1.482 4.291
 0.299 -1.482 4.291
 0.324 -1.483 4.29
 0.35 -1.481 4.284
 0.375 -1.481 4.282
 0.401 -1.482 4.28
 0.426 -1.48 4.274
 0.452 -1.481 4.273
 0.478 -1.483 4.276
 0.504 -1.483 4.274
 0.529 -1.484 4.273
 0.556 -1.486 4.276
 0.582 -1.486 4.274
 0.607 -1.487 4.272
 0.633 -1.487 4.27
 0.659 -1.488 4.269
 0.685 -1.489 4.268
 0.712 -1.491 4.269
 0.739 -1.493 4.272
 0.766 -1.495 4.274
 0.792 -1.497 4.275
 0.819 -1.498 4.274
 0.845 -1.499 4.272
 0.871 -1.5 4.269
 0.898 -1.501 4.268
 0.924 -1.502 4.264
 0.951 -1.503 4.263
 0.977 -1.504 4.26
 1.004 -1.506 4.261
 1.031 -1.507 4.257
 1.058 -1.508 4.256
 1.085 -1.51 4.255
 1.113 -1.513 4.257
 1.14 -1.514 4.253
 1.167 -1.516 4.251
 1.194 -1.517 4.249
 1.222 -1.519 4.247
 1.248 -1.52 4.242
 1.277 -1.523 4.245
 1.307 -1.527 4.249
 1.335 -1.529 4.247
 1.363 -1.531 4.245
 1.392 -1.535 4.246
 1.419 -1.536 4.241
 1.447 -1.537 4.237
 1.476 -1.54 4.236
 1.505 -1.542 4.234
 1.534 -1.545 4.232
 1.561 -1.546 4.226
 1.589 -1.547 4.22
 1.615 -1.547 4.211
 1.643 -1.548 4.205
 1.672 -1.55 4.201
 1.701 -1.553 4.198
 1.73 -1.555 4.193
 1.758 -1.556 4.186
 1.783 -1.554 4.171
 1.802 -1.548 4.144
 1.82 -1.541 4.115
 1.834 -1.531 4.076
 1.848 -1.521 4.039
 1.858 -1.508 3.993
 1.87 -1.497 3.952
 1.879 -1.483 3.906
 1.887 -1.47 3.859
 0 0 0
 0 0 0
 0 0 0
 0 0 0
 0 0 0
 0 0 0
 1.726 -1.231 3.16
 1.75 -1.233 3.153
 1.765 -1.229 3.132
 1.773 -1.22 3.098
 1.782 -1.212 3.067
 1.779 -1.196 3.017
 1.757 -1.168 2.935
 1.744 -1.146 2.869
 -0.035 -0.024 0.047
 -0.09 -0.061 0.144
 -1.071 -0.716 1.879
 -1.054 -0.713 1.878
 -0.946 -0.648 1.711
 -1.023 -0.709 1.88
 -1.006 -0.706 1.877
 -1.076 -0.765 2.041
 -1.147 -0.826 2.212
 -1.302 -0.95 2.552
 -1.284 -0.949 2.558
 -1.432 -1.072 2.9
 -1.411 -1.071 2.904
 -1.555 -1.196 3.254
 -1.614 -1.259 3.435
 -1.748 -1.383 3.785
 -1.724 -1.383 3.796
 -1.855 -1.51 4.154
 -1.826 -1.508 4.16
 -1.871 -1.568 4.336
 -1.84 -1.566 4.34
 -1.811 -1.564 4.346
 -1.78 -1.562 4.348
 -1.747 -1.557 4.345
 -1.717 -1.556 4.35
 -1.688 -1.554 4.354
 -1.655 -1.55 4.351
 -1.624 -1.546 4.349
 -1.595 -1.545 4.354
 -1.564 -1.541 4.352
 -1.533 -1.538 4.351
 -1.503 -1.535 4.351
 -1.474 -1.533 4.354
 -1.444 -1.53 4.353
 -1.415 -1.529 4.355
 -1.385 -1.526 4.354
 -1.356 -1.523 4.352
 -1.326 -1.519 4.35
 -1.297 -1.517 4.349
 -1.267 -1.514 4.348
 -1.239 -1.512 4.348
 -1.21 -1.51 4.348
 -1.181 -1.507 4.346
 -1.153 -1.505 4.346
 -1.124 -1.502 4.343
 -1.096 -1.501 4.345
 -1.069 -1.499 4.345
 -1.041 -1.498 4.346
 -1.012 -1.495 4.343
 -0.985 -1.494 4.343
 -0.957 -1.491 4.341
 -0.929 -1.489 4.34
 -0.902 -1.488 4.339
 -0.874 -1.485 4.336
 -0.847 -1.484 4.336
 -0.819 -1.482 4.333
 -0.792 -1.48 4.333
 -0.765 -1.478 4.331
 -0.739 -1.478 4.333
 -0.712 -1.476 4.332
 -0.685 -1.474 4.329
 -0.658 -1.472 4.326
 -0.631 -1.47 4.322
 -0.604 -1.469 4.322
 -0.578 -1.467 4.32
 -0.551 -1.465 4.316
 -0.524 -1.464 4.313
 -0.499 -1.464 4.316
 -0.472 -1.461 4.31
 -0.446 -1.461 4.311
 -0.421 -1.462 4.318
 -0.395 -1.462 4.318
 -0.369 -1.461 4.318
 -0.343 -1.461 4.317
 -0.317 -1.459 4.315
 -0.29 -1.457 4.309
 -0.264 -1.456 4.307
 -0.239 -1.456 4.309
 -0.213 -1.457 4.31
 -0.187 -1.457 4.31
 -0.162 -1.457 4.312
 -0.136 -1.456 4.31
 -0.11 -1.456 4.309
 -0.085 -1.455 4.306
 -0.059 -1.455 4.306
 -0.033 -1.454 4.303
 -0.008 -1.454 4.305
 0.017 -1.453 4.301
 0.043 -1.453 4.301
 0.068 -1.453 4.298
 0.094 -1.452 4.296
 0.119 -1.452 4.295
 0.145 -1.452 4.293
 0.17 -1.453 4.294
 0.196 -1.453 4.293
 0.222 -1.454 4.295
 0.247 -1.454 4.295
 0.273 -1.455 4.294
 0.298 -1.454 4.291
 0.324 -1.454 4.29
 0.349 -1.453 4.282
 0.375 -1.452 4.279
 0.4 -1.452 4.276
 0.426 -1.452 4.274
 0.451 -1.453 4.274
 0.478 -1.456 4.279
 0.504 -1.456 4.279
 0.53 -1.458 4.281
 0.556 -1.46 4.284
 0.582 -1.462 4.285
 0.608 -1.461 4.28
 0.634 -1.462 4.278
 0.659 -1.462 4.276
 0.685 -1.463 4.275
 0.711 -1.463 4.272
 0.738 -1.466 4.275
 0.765 -1.468 4.277
 0.791 -1.469 4.277
 0.818 -1.47 4.275
 0.844 -1.472 4.276
 0.87 -1.472 4.272
 0.897 -1.474 4.273
 0.923 -1.474 4.268
 0.95 -1.475 4.266
 0.976 -1.476 4.261
 1.003 -1.477 4.261
 1.029 -1.478 4.256
 1.057 -1.481 4.259
 1.084 -1.483 4.259
 1.112 -1.486 4.262
 1.139 -1.487 4.259
 1.167 -1.489 4.257
 1.194 -1.49 4.254
 1.221 -1.492 4.253
 1.248 -1.493 4.248
 1.277 -1.496 4.251
 1.306 -1.5 4.253
 1.334 -1.501 4.251
 1.362 -1.503 4.249
 1.391 -1.506 4.249
 1.417 -1.507 4.243
 1.446 -1.509 4.241
 1.475 -1.511 4.24
 1.503 -1.513 4.236
 1.531 -1.516 4.234
 1.56 -1.517 4.23
 1.588 -1.519 4.225
 1.614 -1.519 4.216
 1.643 -1.521 4.213
 1.672 -1.523 4.209
 1.702 -1.526 4.208
 1.731 -1.528 4.203
 1.76 -1.53 4.198
 1.784 -1.528 4.182
 1.804 -1.522 4.156
 1.823 -1.516 4.128
 1.838 -1.507 4.092
 1.852 -1.497 4.054
 1.865 -1.487 4.015
 1.88 -1.479 3.982
 1.89 -1.466 3.938
 0 0 0
 0 0 0
 0 0 0
 0 0 0
 0 0 0
 0 0 0
 0 0 0
 1.735 -1.216 3.183
 1.755 -1.215 3.169
 1.768 -1.209 3.144
 1.776 -1.201 3.11
 1.783 -1.192 3.076
 1.78 -1.176 3.026
 1.774 -1.159 2.97
 1.763 -1.139 2.907
 -0.045 -0.03 0.065
 -0.072 -0.048 0.112
 -0.623 -0.41 1.091
 -0.611 -0.407 1.086
 -0.509 -0.343 0.916
 -0.59 -0.403 1.082
 -0.576 -0.398 1.073
 -0.651 -0.455 1.233
 -0.726 -0.514 1.399
 -0.885 -0.635 1.735
 -0.873 -0.634 1.738
 -1.026 -0.755 2.079
 -1.009 -0.752 2.077
 -1.157 -0.875 2.424
 -1.302 -0.997 2.774
 -1.52 -1.181 3.296
 -1.579 -1.244 3.482
 -1.788 -1.429 4.012
 -1.837 -1.49 4.194
 -1.881 -1.549 4.369
 -1.849 -1.545 4.369
 -1.816 -1.541 4.369
 -1.785 -1.539 4.371
 -1.751 -1.533 4.364
 -1.719 -1.53 4.364
 -1.689 -1.528 4.366
 -1.657 -1.524 4.364
 -1.625 -1.52 4.361
 -1.596 -1.518 4.366
 -1.565 -1.515 4.364
 -1.534 -1.511 4.362
 -1.504 -1.508 4.361
 -1.475 -1.507 4.365
 -1.444 -1.503 4.362
 -1.415 -1.501 4.363
 -1.385 -1.498 4.36
 -1.355 -1.495 4.358
 -1.324 -1.491 4.354
 -1.296 -1.489 4.355
 -1.267 -1.487 4.355
 -1.238 -1.485 4.355
 -1.21 -1.483 4.354
 -1.18 -1.48 4.351
 -1.152 -1.478 4.352
 -1.123 -1.474 4.348
 -1.095 -1.473 4.348
 -1.068 -1.472 4.35
 -1.04 -1.47 4.351
 -1.012 -1.468 4.348
 -0.984 -1.467 4.349
 -0.957 -1.465 4.348
 -0.928 -1.461 4.342
 -0.901 -1.459 4.341
 -0.873 -1.457 4.339
 -0.845 -1.455 4.336
 -0.818 -1.452 4.332
 -0.791 -1.452 4.336
 -0.764 -1.451 4.334
 -0.737 -1.449 4.334
 -0.71 -1.448 4.332
 -0.683 -1.446 4.329
 -0.656 -1.443 4.324
 -0.629 -1.441 4.321
 -0.603 -1.44 4.321
 -0.576 -1.439 4.319
 -0.55 -1.437 4.318
 -0.523 -1.435 4.314
 -0.498 -1.436 4.317
 -0.471 -1.432 4.308
 -0.445 -1.433 4.311
 -0.42 -1.435 4.319
 -0.394 -1.435 4.321
 -0.368 -1.433 4.318
 -0.342 -1.434 4.322
 -0.316 -1.433 4.32
 -0.29 -1.431 4.314
 -0.264 -1.43 4.314
 -0.239 -1.431 4.317
 -0.213 -1.431 4.318
 -0.187 -1.43 4.316
 -0.162 -1.431 4.317
 -0.136 -1.429 4.311
 -0.11 -1.428 4.309
 -0.084 -1.426 4.303
 -0.059 -1.426 4.303
 -0.033 -1.425 4.299
 -0.007 -1.425 4.301
 0.017 -1.424 4.297
 0.043 -1.425 4.299
 0.068 -1.425 4.3
 0.094 -1.425 4.299
 0.119 -1.425 4.298
 0.145 -1.426 4.299
 0.17 -1.427 4.3
 0.196 -1.425 4.294
 0.222 -1.426 4.297
 0.247 -1.427 4.299
 0.273 -1.428 4.299
 0.298 -1.428 4.296
 0.324 -1.43 4.301
 0.35 -1.428 4.293
 0.375 -1.428 4.291
 0.4 -1.427 4.286
 0.426 -1.426 4.28
 0.451 -1.426 4.277
 0.477 -1.427 4.279
 0.503 -1.429 4.28
 0.529 -1.43 4.28
 0.555 -1.432 4.283
 0.581 -1.433 4.284
 0.607 -1.432 4.279
 0.633 -1.434 4.28
 0.659 -1.435 4.28
 0.685 -1.437 4.281
 0.711 -1.437 4.279
 0.738 -1.44 4.283
 0.764 -1.44 4.278
 0.79 -1.441 4.278
 0.816 -1.442 4.275
 0.843 -1.443 4.275
 0.87 -1.445 4.275
 0.897 -1.447 4.276
 0.922 -1.446 4.27
 0.949 -1.448 4.27
 0.975 -1.448 4.265
 1.002 -1.45 4.264
 1.028 -1.45 4.259
 1.056 -1.453 4.262
 1.083 -1.455 4.261
 1.112 -1.459 4.266
 1.138 -1.459 4.263
 1.166 -1.462 4.262
 1.193 -1.463 4.26
 1.221 -1.465 4.259
 1.248 -1.466 4.255
 1.276 -1.469 4.257
 1.305 -1.472 4.257
 1.333 -1.474 4.256
 1.361 -1.476 4.254
 1.389 -1.478 4.253
 1.416 -1.479 4.247
 1.445 -1.482 4.247
 1.474 -1.484 4.246
 1.502 -1.486 4.242
 1.531 -1.489 4.241
 1.56 -1.491 4.238
 1.588 -1.492 4.233
 1.615 -1.492 4.225
 1.644 -1.495 4.222
 1.673 -1.497 4.219
 1.702 -1.5 4.217
 1.731 -1.501 4.212
 1.76 -1.504 4.208
 1.786 -1.503 4.196
 1.806 -1.498 4.17
 1.826 -1.492 4.145
 1.843 -1.484 4.111
 1.858 -1.476 4.076
 1.871 -1.465 4.036
 1.889 -1.46 4.01
 0 0 0
 0 0 0
 0 0 0
 0 0 0
 0 0 0
 0 0 0
 0 0 0
 0 0 0
 1.398 -0.963 2.567
 1.587 -1.08 2.872
 1.769 -1.189 3.153
 1.776 -1.179 3.117
 1.782 -1.17 3.082
 1.783 -1.157 3.036
 1.767 -1.134 2.964
 1.78 -1.13 2.943
 -0.143 -0.091 0.233
 -0.066 -0.044 0.103
 -0.172 -0.112 0.292
 -0.163 -0.108 0.281
 -0.158 -0.105 0.275
 -0.241 -0.162 0.435
 -0.23 -0.157 0.421
 -0.309 -0.213 0.58
 -0.386 -0.269 0.739
 -0.461 -0.325 0.899
 -0.453 -0.324 0.898
 -0.611 -0.442 1.236
 -0.598 -0.439 1.229
 -0.834 -0.62 1.747
 -1.064 -0.801 2.269
 -1.365 -1.042 2.965
 -1.504 -1.164 3.323
 -1.791 -1.406 4.028
 -1.841 -1.466 4.21
 -1.883 -1.523 4.384
 -1.85 -1.518 4.382
 -1.817 -1.514 4.379
 -1.786 -1.512 4.382
 -1.752 -1.506 4.376
 -1.721 -1.504 4.378
 -1.691 -1.502 4.38
 -1.659 -1.498 4.377
 -1.626 -1.493 4.371
 -1.595 -1.49 4.371
 -1.565 -1.487 4.371
 -1.534 -1.484 4.371
 -1.504 -1.481 4.37
 -1.474 -1.479 4.372
 -1.444 -1.476 4.369
 -1.414 -1.474 4.37
 -1.384 -1.47 4.365
 -1.353 -1.466 4.362
 -1.323 -1.463 4.359
 -1.295 -1.461 4.36
 -1.266 -1.459 4.359
 -1.237 -1.456 4.358
 -1.208 -1.454 4.358
 -1.179 -1.451 4.355
 -1.151 -1.45 4.356
 -1.122 -1.447 4.352
 -1.094 -1.445 4.352
 -1.066 -1.444 4.354
 -1.04 -1.443 4.357
 -1.012 -1.442 4.358
 -0.984 -1.44 4.358
 -0.956 -1.438 4.355
 -0.928 -1.436 4.352
 -0.9 -1.433 4.348
 -0.872 -1.43 4.343
 -0.845 -1.428 4.341
 -0.818 -1.427 4.342
 -0.791 -1.427 4.344
 -0.764 -1.425 4.343
 -0.738 -1.424 4.343
 -0.711 -1.422 4.341
 -0.683 -1.419 4.336
 -0.656 -1.416 4.329
 -0.629 -1.414 4.326
 -0.602 -1.413 4.325
 -0.576 -1.412 4.323
 -0.549 -1.41 4.321
 -0.523 -1.408 4.316
 -0.497 -1.409 4.322
 -0.47 -1.406 4.313
 -0.445 -1.406 4.315
 -0.419 -1.408 4.323
 -0.394 -1.408 4.324
 -0.367 -1.405 4.317
 -0.341 -1.405 4.32
 -0.316 -1.405 4.321
 -0.289 -1.403 4.314
 -0.264 -1.402 4.314
 -0.238 -1.404 4.319
 -0.213 -1.404 4.32
 -0.187 -1.402 4.316
 -0.161 -1.403 4.319
 -0.135 -1.402 4.315
 -0.11 -1.4 4.31
 -0.084 -1.398 4.305
 -0.058 -1.398 4.305
 -0.033 -1.397 4.3
 -0.007 -1.397 4.3
 0.017 -1.397 4.3
 0.043 -1.398 4.301
 0.068 -1.399 4.304
 0.094 -1.399 4.304
 0.119 -1.399 4.303
 0.145 -1.4 4.304
 0.171 -1.401 4.306
 0.196 -1.399 4.299
 0.222 -1.4 4.303
 0.247 -1.402 4.306
 0.273 -1.403 4.307
 0.299 -1.402 4.302
 0.325 -1.404 4.308
 0.35 -1.402 4.298
 0.375 -1.402 4.295
 0.4 -1.4 4.289
 0.426 -1.4 4.285
 0.451 -1.399 4.281
 0.477 -1.401 4.284
 0.503 -1.402 4.284
 0.529 -1.403 4.283
 0.555 -1.404 4.285
 0.581 -1.406 4.287
 0.606 -1.405 4.282
 0.633 -1.407 4.285
 0.659 -1.409 4.286
 0.686 -1.411 4.289
 0.711 -1.411 4.283
 0.738 -1.413 4.287
 0.763 -1.412 4.28
 0.79 -1.414 4.281
 0.816 -1.414 4.278
 0.843 -1.417 4.28
 0.869 -1.418 4.281
 0.897 -1.421 4.284
 0.923 -1.422 4.281
 0.949 -1.422 4.278
 0.975 -1.422 4.271
 1.001 -1.423 4.268
 1.027 -1.423 4.264
 1.055 -1.425 4.265
 1.082 -1.427 4.264
 1.111 -1.431 4.271
 1.138 -1.433 4.269
 1.165 -1.434 4.267
 1.193 -1.436 4.266
 1.22 -1.438 4.264
 1.247 -1.438 4.258
 1.275 -1.441 4.259
 1.303 -1.443 4.258
 1.33 -1.444 4.254
 1.359 -1.447 4.254
 1.387 -1.449 4.253
 1.415 -1.451 4.25
 1.444 -1.454 4.251
 1.472 -1.456 4.248
 1.501 -1.458 4.246
 1.53 -1.46 4.245
 1.558 -1.462 4.241
 1.586 -1.464 4.237
 1.614 -1.465 4.231
 1.643 -1.467 4.227
 1.671 -1.469 4.223
 1.701 -1.472 4.221
 1.729 -1.473 4.215
 1.758 -1.475 4.211
 1.785 -1.475 4.201
 1.808 -1.473 4.183
 1.83 -1.469 4.162
 1.85 -1.463 4.136
 1.869 -1.458 4.109
 1.884 -1.449 4.074
 0 0 0
 0 0 0
 0 0 0
 0 0 0
 0 0 0
 0 0 0
 0 0 0
 0 0 0
 0 0 0
 1.403 -0.949 2.582
 1.591 -1.063 2.885
 1.772 -1.17 3.166
 1.777 -1.159 3.127
 1.784 -1.15 3.092
 1.785 -1.138 3.047
 1.768 -1.114 2.973
 1.769 -1.102 2.931
 -0.106 -0.067 0.171
 -0.08 -0.051 0.127
 -0.095 -0.062 0.157
 -0.085 -0.056 0.14
 -0.08 -0.053 0.134
 -0.07 -0.047 0.118
 -0.06 -0.041 0.1
 -0.051 -0.036 0.085
 -0.043 -0.03 0.07
 -0.035 -0.026 0.057
 -0.117 -0.083 0.223
 -0.364 -0.259 0.733
 -0.435 -0.314 0.893
 -0.672 -0.49 1.409
 -0.903 -0.668 1.929
 -1.207 -0.904 2.625
 -1.346 -1.022 2.978
 -1.635 -1.26 3.683
 -1.763 -1.378 4.04
 -1.883 -1.494 4.39
 -1.849 -1.49 4.388
 -1.816 -1.486 4.386
 -1.786 -1.484 4.39
 -1.751 -1.478 4.383
 -1.721 -1.476 4.385
 -1.69 -1.473 4.385
 -1.657 -1.468 4.38
 -1.623 -1.463 4.373
 -1.592 -1.46 4.372
 -1.561 -1.456 4.37
 -1.531 -1.454 4.37
 -1.501 -1.452 4.371
 -1.472 -1.45 4.374
 -1.441 -1.446 4.37
 -1.412 -1.445 4.372
 -1.382 -1.442 4.369
 -1.353 -1.439 4.368
 -1.322 -1.435 4.364
 -1.295 -1.435 4.37
 -1.265 -1.432 4.367
 -1.237 -1.43 4.366
 -1.208 -1.428 4.367
 -1.179 -1.425 4.364
 -1.15 -1.423 4.362
 -1.122 -1.421 4.362
 -1.094 -1.418 4.359
 -1.066 -1.417 4.361
 -1.04 -1.418 4.367
 -1.012 -1.416 4.366
 -0.984 -1.414 4.364
 -0.956 -1.411 4.361
 -0.928 -1.408 4.357
 -0.899 -1.405 4.351
 -0.871 -1.403 4.348
 -0.844 -1.401 4.347
 -0.818 -1.401 4.349
 -0.792 -1.401 4.353
 -0.765 -1.4 4.353
 -0.738 -1.398 4.352
 -0.71 -1.396 4.347
 -0.683 -1.393 4.34
 -0.655 -1.388 4.33
 -0.628 -1.386 4.326
 -0.601 -1.385 4.326
 -0.575 -1.385 4.327
 -0.549 -1.384 4.326
 -0.522 -1.381 4.321
 -0.497 -1.383 4.329
 -0.47 -1.38 4.32
 -0.444 -1.379 4.318
 -0.419 -1.381 4.326
 -0.393 -1.379 4.323
 -0.366 -1.376 4.315
 -0.341 -1.377 4.319
 -0.315 -1.377 4.321
 -0.289 -1.376 4.317
 -0.263 -1.376 4.317
 -0.238 -1.376 4.32
 -0.212 -1.376 4.32
 -0.186 -1.374 4.314
 -0.161 -1.374 4.314
 -0.135 -1.373 4.312
 -0.109 -1.371 4.307
 -0.084 -1.37 4.304
 -0.058 -1.37 4.303
 -0.033 -1.369 4.301
 -0.007 -1.369 4.301
 0.017 -1.37 4.303
 0.043 -1.37 4.303
 0.068 -1.372 4.306
 0.094 -1.373 4.308
 0.119 -1.373 4.309
 0.145 -1.375 4.313
 0.171 -1.376 4.316
 0.196 -1.374 4.31
 0.222 -1.376 4.314
 0.248 -1.378 4.317
 0.273 -1.378 4.316
 0.299 -1.376 4.309
 0.325 -1.379 4.316
 0.35 -1.376 4.303
 0.375 -1.376 4.301
 0.4 -1.374 4.294
 0.426 -1.375 4.293
 0.451 -1.374 4.288
 0.477 -1.376 4.291
 0.503 -1.377 4.293
 0.529 -1.378 4.292
 0.555 -1.379 4.295
 0.582 -1.381 4.297
 0.607 -1.38 4.29
 0.633 -1.381 4.291
 0.659 -1.383 4.291
 0.685 -1.384 4.293
 0.711 -1.384 4.287
 0.738 -1.387 4.293
 0.763 -1.387 4.288
 0.79 -1.388 4.289
 0.816 -1.388 4.284
 0.843 -1.39 4.286
 0.87 -1.392 4.288
 0.897 -1.394 4.289
 0.923 -1.395 4.287
 0.949 -1.396 4.285
 0.974 -1.395 4.276
 1 -1.395 4.27
 1.026 -1.396 4.267
 1.053 -1.397 4.265
 1.08 -1.399 4.264
 1.109 -1.403 4.27
 1.136 -1.404 4.269
 1.164 -1.406 4.268
 1.191 -1.408 4.267
 1.219 -1.41 4.267
 1.246 -1.411 4.263
 1.274 -1.413 4.261
 1.301 -1.414 4.258
 1.328 -1.415 4.254
 1.356 -1.418 4.254
 1.384 -1.42 4.252
 1.413 -1.422 4.251
 1.442 -1.425 4.253
 1.47 -1.427 4.25
 1.499 -1.429 4.248
 1.528 -1.432 4.247
 1.556 -1.433 4.243
 1.585 -1.435 4.24
 1.613 -1.437 4.236
 1.641 -1.439 4.231
 1.669 -1.44 4.225
 1.699 -1.443 4.225
 1.728 -1.445 4.22
 1.757 -1.447 4.215
 1.785 -1.448 4.208
 1.81 -1.447 4.194
 1.833 -1.444 4.176
 1.856 -1.441 4.157
 1.876 -1.437 4.133
 0 0 0
 0 0 0
 0 0 0
 0 0 0
 0 0 0
 0 0 0
 0 0 0
 0 0 0
 0 0 0
 0 0 0
 1.405 -0.933 2.593
 1.594 -1.045 2.896
 1.773 -1.149 3.174
 1.78 -1.14 3.139
 1.787 -1.131 3.104
 1.79 -1.12 3.061
 1.783 -1.103 3.004
 1.773 -1.084 2.943
 -0.139 -0.086 0.228
 -0.088 -0.055 0.141
 -0.104 -0.066 0.173
 -0.091 -0.059 0.152
 -0.086 -0.056 0.146
 -0.076 -0.051 0.13
 -0.067 -0.045 0.114
 -0.058 -0.039 0.098
 -0.047 -0.033 0.079
 -0.039 -0.028 0.064
 -0.204 -0.141 0.4
 -0.364 -0.254 0.734
 -0.434 -0.307 0.893
 -0.671 -0.48 1.408
 -0.901 -0.653 1.927
 -1.125 -0.827 2.45
 -1.343 -1.002 2.979
 -1.633 -1.235 3.685
 -1.76 -1.35 4.042
 -1.881 -1.465 4.396
 -1.848 -1.461 4.395
 -1.817 -1.458 4.396
 -1.785 -1.455 4.397
 -1.752 -1.451 4.392
 -1.72 -1.447 4.391
 -1.689 -1.444 4.391
 -1.655 -1.44 4.385
 -1.623 -1.435 4.38
 -1.591 -1.432 4.378
 -1.56 -1.428 4.375
 -1.53 -1.426 4.376
 -1.5 -1.424 4.377
 -1.47 -1.421 4.375
 -1.438 -1.416 4.369
 -1.41 -1.415 4.373
 -1.38 -1.412 4.37
 -1.35 -1.409 4.367
 -1.32 -1.406 4.365
 -1.295 -1.408 4.376
 -1.265 -1.404 4.372
 -1.236 -1.402 4.371
 -1.208 -1.4 4.372
 -1.179 -1.398 4.371
 -1.15 -1.395 4.367
 -1.122 -1.394 4.368
 -1.093 -1.391 4.363
 -1.066 -1.39 4.366
 -1.039 -1.39 4.371
 -1.011 -1.388 4.371
 -0.983 -1.386 4.368
 -0.956 -1.384 4.367
 -0.927 -1.382 4.364
 -0.9 -1.38 4.36
 -0.872 -1.378 4.359
 -0.845 -1.376 4.358
 -0.819 -1.376 4.361
 -0.792 -1.376 4.365
 -0.765 -1.375 4.363
 -0.738 -1.373 4.362
 -0.71 -1.37 4.355
 -0.682 -1.366 4.347
 -0.654 -1.361 4.334
 -0.627 -1.36 4.331
 -0.601 -1.358 4.329
 -0.575 -1.359 4.333
 -0.549 -1.359 4.335
 -0.522 -1.356 4.33
 -0.497 -1.358 4.338
 -0.47 -1.353 4.324
 -0.443 -1.352 4.321
 -0.418 -1.353 4.327
 -0.392 -1.353 4.327
 -0.366 -1.349 4.317
 -0.34 -1.351 4.323
 -0.315 -1.351 4.325
 -0.289 -1.349 4.32
 -0.263 -1.349 4.32
 -0.238 -1.35 4.324
 -0.212 -1.349 4.322
 -0.186 -1.347 4.317
 -0.16 -1.347 4.318
 -0.135 -1.346 4.315
 -0.109 -1.344 4.307
 -0.083 -1.343 4.304
 -0.058 -1.342 4.303
 -0.032 -1.342 4.301
 -0.007 -1.342 4.301
 0.017 -1.344 4.307
 0.043 -1.345 4.311
 0.069 -1.347 4.317
 0.094 -1.348 4.318
 0.12 -1.347 4.315
 0.145 -1.349 4.319
 0.171 -1.35 4.322
 0.196 -1.348 4.313
 0.222 -1.35 4.319
 0.248 -1.352 4.323
 0.274 -1.352 4.323
 0.299 -1.351 4.317
 0.325 -1.355 4.327
 0.35 -1.351 4.314
 0.376 -1.352 4.314
 0.401 -1.349 4.303
 0.426 -1.35 4.302
 0.451 -1.349 4.297
 0.477 -1.35 4.299
 0.503 -1.351 4.297
 0.529 -1.351 4.295
 0.555 -1.352 4.297
 0.581 -1.354 4.3
 0.607 -1.354 4.296
 0.634 -1.358 4.304
 0.66 -1.359 4.306
 0.687 -1.361 4.307
 0.712 -1.36 4.302
 0.739 -1.363 4.305
 0.763 -1.36 4.292
 0.79 -1.361 4.292
 0.815 -1.361 4.285
 0.842 -1.363 4.287
 0.869 -1.365 4.29
 0.896 -1.367 4.292
 0.923 -1.369 4.292
 0.948 -1.368 4.285
 0.973 -1.367 4.275
 0.999 -1.367 4.27
 1.025 -1.368 4.268
 1.052 -1.369 4.266
 1.079 -1.372 4.268
 1.108 -1.375 4.272
 1.135 -1.377 4.271
 1.163 -1.378 4.27
 1.19 -1.38 4.268
 1.218 -1.382 4.268
 1.245 -1.384 4.267
 1.272 -1.385 4.265
 1.3 -1.386 4.261
 1.327 -1.388 4.258
 1.355 -1.39 4.258
 1.383 -1.392 4.254
 1.411 -1.393 4.252
 1.439 -1.396 4.251
 1.467 -1.397 4.248
 1.495 -1.399 4.245
 1.524 -1.401 4.243
 1.553 -1.404 4.242
 1.582 -1.406 4.241
 1.612 -1.409 4.24
 1.639 -1.41 4.234
 1.668 -1.412 4.229
 1.697 -1.414 4.227
 1.725 -1.416 4.221
 1.753 -1.417 4.214
 1.782 -1.418 4.209
 1.809 -1.419 4.199
 1.834 -1.418 4.186
 1.859 -1.417 4.171
 0 0 0
 0 0 0
 0 0 0
 0 0 0
 0 0 0
 0 0 0
 0 0 0
 0 0 0
 0 0 0
 0 0 0
 0 0 0
 1.327 -0.865 2.453
 1.574 -1.013 2.866
 1.772 -1.127 3.178
 1.78 -1.119 3.145
 1.789 -1.111 3.112
 1.79 -1.099 3.069
 1.77 -1.075 2.989
 1.795 -1.078 2.986
 -0.177 -0.106 0.294
 -0.121 -0.074 0.2
 -0.106 -0.066 0.177
 -0.091 -0.058 0.153
 -0.084 -0.054 0.141
 -0.072 -0.047 0.122
 -0.066 -0.043 0.112
 -0.059 -0.039 0.1
 -0.05 -0.034 0.085
 -0.042 -0.029 0.07
 -0.206 -0.14 0.403
 -0.28 -0.192 0.562
 -0.351 -0.244 0.72
 -0.588 -0.413 1.236
 -0.901 -0.641 1.931
 -1.124 -0.81 2.453
 -1.421 -1.039 3.157
 -1.708 -1.267 3.863
 -1.833 -1.38 4.218
 -1.877 -1.434 4.396
 -1.845 -1.431 4.397
 -1.813 -1.428 4.397
 -1.783 -1.426 4.399
 -1.75 -1.422 4.396
 -1.718 -1.418 4.395
 -1.687 -1.415 4.395
 -1.655 -1.412 4.392
 -1.622 -1.408 4.388
 -1.591 -1.404 4.386
 -1.559 -1.4 4.381
 -1.529 -1.398 4.382
 -1.499 -1.395 4.38
 -1.467 -1.391 4.375
 -1.435 -1.387 4.368
 -1.407 -1.386 4.372
 -1.377 -1.382 4.369
 -1.347 -1.38 4.367
 -1.319 -1.378 4.367
 -1.294 -1.38 4.383
 -1.264 -1.377 4.379
 -1.236 -1.376 4.38
 -1.208 -1.375 4.383
 -1.18 -1.373 4.383
 -1.15 -1.369 4.376
 -1.122 -1.367 4.375
 -1.092 -1.364 4.369
 -1.065 -1.362 4.37
 -1.037 -1.361 4.372
 -1.01 -1.361 4.374
 -0.983 -1.36 4.375
 -0.955 -1.357 4.373
 -0.927 -1.354 4.367
 -0.899 -1.352 4.364
 -0.872 -1.351 4.364
 -0.844 -1.348 4.36
 -0.818 -1.349 4.364
 -0.792 -1.35 4.371
 -0.766 -1.349 4.373
 -0.739 -1.348 4.373
 -0.711 -1.345 4.367
 -0.683 -1.342 4.358
 -0.653 -1.334 4.335
 -0.627 -1.333 4.337
 -0.6 -1.33 4.329
 -0.573 -1.329 4.328
 -0.548 -1.329 4.331
 -0.521 -1.326 4.322
 -0.495 -1.328 4.329
 -0.467 -1.322 4.311
 -0.442 -1.323 4.319
 -0.418 -1.326 4.33
 -0.391 -1.324 4.325
 -0.365 -1.322 4.319
 -0.34 -1.324 4.326
 -0.314 -1.324 4.328
 -0.288 -1.323 4.325
 -0.263 -1.323 4.327
 -0.237 -1.323 4.327
 -0.211 -1.321 4.322
 -0.185 -1.319 4.316
 -0.16 -1.319 4.315
 -0.134 -1.318 4.312
 -0.109 -1.315 4.304
 -0.083 -1.313 4.297
 -0.058 -1.312 4.294
 -0.032 -1.31 4.288
 -0.007 -1.308 4.281
 0.017 -1.31 4.285
 0.043 -1.316 4.304
 0.069 -1.321 4.32
 0.094 -1.323 4.326
 0.12 -1.323 4.326
 0.146 -1.325 4.332
 0.171 -1.327 4.335
 0.196 -1.321 4.316
 0.222 -1.322 4.318
 0.248 -1.326 4.331
 0.274 -1.329 4.339
 0.3 -1.33 4.339
 0.327 -1.336 4.357
 0.352 -1.333 4.345
 0.379 -1.335 4.351
 0.403 -1.331 4.335
 0.427 -1.327 4.317
 0.452 -1.324 4.308
 0.477 -1.323 4.301
 0.502 -1.321 4.292
 0.526 -1.317 4.276
 0.552 -1.32 4.283
 0.578 -1.321 4.282
 0.604 -1.322 4.282
 0.632 -1.328 4.298
 0.661 -1.334 4.314
 0.688 -1.337 4.32
 0.714 -1.339 4.321
 0.741 -1.34 4.323
 0.763 -1.334 4.3
 0.79 -1.336 4.299
 0.814 -1.334 4.289
 0.84 -1.334 4.286
 0.869 -1.338 4.295
 0.896 -1.342 4.3
 0.924 -1.345 4.305
 0.949 -1.343 4.294
 0.974 -1.341 4.285
 0.999 -1.341 4.277
 1.025 -1.342 4.274
 1.051 -1.342 4.269
 1.078 -1.344 4.269
 1.106 -1.346 4.272
 1.134 -1.348 4.272
 1.161 -1.351 4.272
 1.189 -1.352 4.272
 1.217 -1.355 4.272
 1.244 -1.356 4.268
 1.271 -1.357 4.265
 1.298 -1.358 4.261
 1.325 -1.359 4.258
 1.353 -1.361 4.257
 1.381 -1.363 4.256
 1.409 -1.366 4.255
 1.438 -1.367 4.253
 1.465 -1.369 4.249
 1.493 -1.371 4.246
 1.522 -1.373 4.245
 1.551 -1.375 4.243
 1.581 -1.379 4.244
 1.611 -1.381 4.244
 1.638 -1.383 4.238
 1.667 -1.384 4.234
 1.696 -1.387 4.232
 1.724 -1.388 4.225
 1.752 -1.389 4.22
 1.782 -1.392 4.218
 1.811 -1.394 4.212
 1.838 -1.394 4.202
 1.866 -1.395 4.195
 0 0 0
 0 0 0
 0 0 0
 0 0 0
 0 0 0
 0 0 0
 0 0 0
 0 0 0
 0 0 0
 0 0 0
 0 0 0
 0 0 0
 1.547 -0.977 2.822
 1.77 -1.104 3.182
 1.779 -1.097 3.149
 1.787 -1.089 3.116
 1.791 -1.079 3.077
 1.793 -1.068 3.033
 1.811 -1.067 3.019
 -0.171 -0.101 0.285
 -0.113 -0.068 0.186
 -0.108 -0.066 0.181
 -0.093 -0.058 0.156
 -0.083 -0.052 0.141
 -0.072 -0.046 0.122
 -0.066 -0.043 0.113
 -0.058 -0.038 0.1
 -0.048 -0.033 0.082
 -0.126 -0.084 0.239
 -0.289 -0.192 0.573
 -0.362 -0.243 0.732
 -0.515 -0.35 1.065
 -0.833 -0.573 1.759
 -1.061 -0.74 2.283
 -1.282 -0.906 2.805
 -1.576 -1.13 3.51
 -1.784 -1.297 4.043
 -1.831 -1.351 4.221
 -1.875 -1.404 4.399
 -1.843 -1.401 4.399
 -1.812 -1.399 4.401
 -1.781 -1.396 4.403
 -1.748 -1.393 4.401
 -1.717 -1.39 4.4
 -1.686 -1.387 4.4
 -1.653 -1.383 4.397
 -1.621 -1.379 4.392
 -1.589 -1.376 4.389
 -1.557 -1.371 4.383
 -1.527 -1.369 4.382
 -1.496 -1.365 4.379
 -1.464 -1.361 4.373
 -1.433 -1.358 4.369
 -1.405 -1.357 4.374
 -1.376 -1.354 4.373
 -1.347 -1.353 4.374
 -1.319 -1.352 4.378
 -1.296 -1.355 4.395
 -1.264 -1.351 4.386
 -1.237 -1.35 4.391
 -1.21 -1.35 4.395
 -1.182 -1.348 4.396
 -1.151 -1.343 4.386
 -1.124 -1.343 4.39
 -1.092 -1.337 4.375
 -1.063 -1.334 4.37
 -1.037 -1.335 4.377
 -1.011 -1.336 4.386
 -0.983 -1.334 4.384
 -0.955 -1.332 4.382
 -0.931 -1.334 4.393
 -0.902 -1.331 4.388
 -0.873 -1.327 4.38
 -0.847 -1.327 4.383
 -0.823 -1.331 4.398
 -0.796 -1.33 4.401
 -0.77 -1.331 4.408
 0 0 0
 0 0 0
 0 0 0
 0 0 0
 0 0 0
 0 0 0
 0 0 0
 0 0 0
 0 0 0
 0 0 0
 0 0 0
 0 0 0
 0 0 0
 -0.39 -1.295 4.319
 -0.364 -1.293 4.315
 -0.339 -1.294 4.32
 -0.313 -1.295 4.322
 -0.288 -1.294 4.32
 -0.262 -1.293 4.318
 -0.236 -1.294 4.321
 -0.211 -1.292 4.316
 -0.185 -1.29 4.312
 -0.159 -1.291 4.314
 -0.134 -1.291 4.313
 -0.108 -1.289 4.307
 -0.083 -1.286 4.297
 -0.057 -1.285 4.295
 -0.032 -1.283 4.288
 -0.007 -1.279 4.275
 0.017 -1.274 4.256
 0 0 0
 0 0 0
 0 0 0
 0 0 0
 0 0 0
 0 0 0
 0 0 0
 0 0 0
 0 0 0
 0 0 0
 0 0 0
 0 0 0
 0 0 0
 0 0 0
 0 0 0
 0 0 0
 0 0 0
 0 0 0
 0 0 0
 0 0 0
 0 0 0
 0 0 0
 0 0 0
 0 0 0
 0 0 0
 0 0 0
 0 0 0
 0 0 0
 0 0 0
 0 0 0
 0 0 0
 0 0 0
 0 0 0
 0 0 0
 0 0 0
 0.947 -1.314 4.292
 0.971 -1.313 4.281
 0.997 -1.313 4.277
 1.024 -1.314 4.275
 1.049 -1.314 4.268
 1.077 -1.316 4.27
 1.104 -1.318 4.27
 1.131 -1.319 4.269
 1.159 -1.321 4.269
 1.186 -1.323 4.27
 1.214 -1.325 4.269
 1.241 -1.327 4.266
 1.268 -1.328 4.264
 1.295 -1.329 4.26
 1.322 -1.33 4.257
 1.35 -1.332 4.256
 1.379 -1.335 4.257
 1.408 -1.338 4.258
 1.436 -1.339 4.254
 1.463 -1.34 4.25
 1.491 -1.342 4.247
 1.52 -1.344 4.245
 1.548 -1.346 4.243
 1.579 -1.35 4.245
 1.607 -1.352 4.243
 1.635 -1.353 4.237
 1.663 -1.354 4.23
 1.692 -1.356 4.228
 1.719 -1.357 4.22
 1.748 -1.359 4.215
 1.775 -1.36 4.208
 1.804 -1.361 4.202
 1.829 -1.36 4.189
 1.855 -1.36 4.178
 0 0 0
 0 0 0
 0 0 0
 0 0 0
 0 0 0
 0 0 0
 0 0 0
 0 0 0
 0 0 0
 0 0 0
 0 0 0
 0 0 0
 1.753 -1.085 3.204
 1.766 -1.08 3.18
 1.775 -1.073 3.149
 1.784 -1.066 3.116
 1.789 -1.057 3.078
 1.803 -1.053 3.057
 1.76 -1.017 2.94
 -0.125 -0.073 0.205
 -0.137 -0.081 0.229
 -0.105 -0.063 0.175
 -0.091 -0.055 0.153
 -0.079 -0.049 0.133
 -0.066 -0.041 0.111
 -0.063 -0.04 0.107
 -0.054 -0.035 0.091
 -0.044 -0.029 0.074
 -0.21 -0.136 0.407
 -0.372 -0.242 0.742
 -0.527 -0.347 1.075
 -0.764 -0.509 1.589
 -1.078 -0.727 2.286
 -1.223 -0.836 2.637
 -1.441 -0.999 3.162
 -1.654 -1.162 3.693
 -1.777 -1.267 4.035
 -1.823 -1.319 4.211
 -1.873 -1.375 4.403
 -1.841 -1.372 4.402
 -1.81 -1.37 4.404
 -1.777 -1.366 4.402
 -1.745 -1.362 4.399
 -1.713 -1.359 4.398
 -1.682 -1.356 4.398
 -1.65 -1.353 4.394
 -1.618 -1.349 4.392
 -1.587 -1.347 4.391
 -1.554 -1.342 4.383
 -1.523 -1.339 4.381
 -1.492 -1.335 4.377
 -1.461 -1.331 4.371
 -1.43 -1.328 4.368
 -1.403 -1.328 4.373
 -1.374 -1.326 4.376
 -1.346 -1.325 4.379
 -1.321 -1.326 4.389
 -1.302 -1.335 4.423
 -1.269 -1.329 4.41
 -1.242 -1.329 4.417
 -1.215 -1.329 4.424
 0 0 0
 0 0 0
 0 0 0
 0 0 0
 0 0 0
 0 0 0
 0 0 0
 0 0 0
 0 0 0
 0 0 0
 0 0 0
 0 0 0
 0 0 0
 0 0 0
 0 0 0
 0 0 0
 0 0 0
 0 0 0
 0 0 0
 0 0 0
 0 0 0
 0 0 0
 0 0 0
 0 0 0
 0 0 0
 0 0 0
 0 0 0
 0 0 0
 0 0 0
 -0.39 -1.27 4.327
 -0.364 -1.268 4.321
 -0.339 -1.268 4.324
 -0.313 -1.267 4.323
 -0.287 -1.267 4.322
 -0.261 -1.266 4.32
 -0.236 -1.266 4.32
 -0.21 -1.264 4.314
 -0.184 -1.263 4.313
 -0.159 -1.263 4.313
 -0.134 -1.263 4.311
 -0.108 -1.261 4.307
 -0.082 -1.259 4.297
 -0.057 -1.258 4.295
 -0.032 -1.256 4.287
 -0.006 -1.252 4.275
 0.018 -1.247 4.257
 0 0 0
 0 0 0
 0 0 0
 0 0 0
 0 0 0
 0 0 0
 0 0 0
 0 0 0
 0 0 0
 0 0 0
 0 0 0
 0 0 0
 0 0 0
 0 0 0
 0 0 0
 0 0 0
 0 0 0
 0 0 0
 0 0 0
 0 0 0
 0 0 0
 0 0 0
 0 0 0
 0 0 0
 0 0 0
 0 0 0
 0 0 0
 0 0 0
 0 0 0
 0 0 0
 0 0 0
 0 0 0
 0 0 0
 0 0 0
 0 0 0
 0.943 -1.282 4.278
 0.969 -1.283 4.274
 0.995 -1.284 4.272
 1.022 -1.285 4.271
 1.048 -1.286 4.268
 1.075 -1.288 4.27
 1.102 -1.289 4.268
 1.129 -1.29 4.266
 1.156 -1.292 4.266
 1.184 -1.294 4.267
 1.211 -1.296 4.266
 1.239 -1.298 4.265
 1.267 -1.3 4.265
 1.294 -1.301 4.261
 1.321 -1.303 4.259
 1.349 -1.305 4.258
 1.378 -1.307 4.259
 1.406 -1.309 4.257
 1.433 -1.31 4.253
 1.461 -1.312 4.25
 1.489 -1.314 4.247
 1.518 -1.316 4.247
 1.547 -1.318 4.246
 1.577 -1.322 4.248
 1.605 -1.323 4.244
 1.633 -1.324 4.238
 1.661 -1.326 4.232
 1.689 -1.327 4.228
 1.717 -1.328 4.221
 1.746 -1.33 4.217
 1.774 -1.332 4.211
 1.801 -1.332 4.203
 1.828 -1.333 4.194
 1.856 -1.334 4.188
 0 0 0
 0 0 0
 0 0 0
 0 0 0
 0 0 0
 0 0 0
 0 0 0
 0 0 0
 0 0 0
 0 0 0
 0 0 0
 0 0 0
 1.748 -1.061 3.202
 1.763 -1.057 3.18
 1.776 -1.052 3.155
 1.784 -1.045 3.123
 1.79 -1.037 3.087
 1.77 -1.013 3.006
 1.769 -1.002 2.961
 -0.14 -0.08 0.232
 -0.103 -0.06 0.17
 -0.098 -0.057 0.163
 -0.085 -0.051 0.143
 -0.074 -0.045 0.123
 -0.061 -0.038 0.102
 -0.057 -0.036 0.095
 -0.049 -0.031 0.082
 -0.039 -0.025 0.063
 -0.29 -0.183 0.569
 -0.452 -0.287 0.906
 -0.522 -0.337 1.067
 -0.844 -0.55 1.76
 -1.24 -0.819 2.636
 -1.382 -0.925 2.988
 -1.598 -1.085 3.514
 -1.885 -1.298 4.217
 -1.936 -1.352 4.405
 -1.902 -1.348 4.402
 -1.87 -1.345 4.403
 -1.837 -1.342 4.402
 -1.807 -1.339 4.404
 -1.774 -1.336 4.403
 -1.743 -1.334 4.403
 -1.71 -1.33 4.399
 -1.679 -1.327 4.399
 -1.647 -1.324 4.396
 -1.617 -1.321 4.395
 -1.585 -1.317 4.392
 -1.553 -1.313 4.386
 -1.522 -1.31 4.383
 -1.49 -1.306 4.377
 -1.458 -1.302 4.369
 -1.428 -1.299 4.368
 -1.4 -1.298 4.372
 -1.372 -1.297 4.374
 -1.343 -1.295 4.375
 -1.317 -1.296 4.386
 0 0 0
 0 0 0
 0 0 0
 0 0 0
 0 0 0
 0 0 0
 0 0 0
 0 0 0
 0 0 0
 0 0 0
 0 0 0
 0 0 0
 0 0 0
 0 0 0
 0 0 0
 0 0 0
 0 0 0
 0 0 0
 0 0 0
 0 0 0
 0 0 0
 0 0 0
 0 0 0
 0 0 0
 0 0 0
 0 0 0
 0 0 0
 0 0 0
 0 0 0
 0 0 0
 0 0 0
 0 0 0
 0 0 0
 -0.39 -1.244 4.335
 -0.363 -1.241 4.324
 -0.338 -1.241 4.326
 -0.312 -1.241 4.325
 -0.287 -1.24 4.325
 -0.261 -1.239 4.32
 -0.235 -1.239 4.322
 -0.21 -1.238 4.317
 -0.184 -1.237 4.317
 -0.159 -1.237 4.317
 -0.133 -1.237 4.316
 -0.108 -1.235 4.308
 -0.082 -1.231 4.295
 -0.057 -1.229 4.289
 -0.032 -1.226 4.278
 -0.006 -1.222 4.263
 0.018 -1.215 4.24
 0 0 0
 0 0 0
 0 0 0
 0 0 0
 0 0 0
 0 0 0
 0 0 0
 0 0 0
 0 0 0
 0 0 0
 0 0 0
 0 0 0
 0 0 0
 0 0 0
 0 0 0
 0 0 0
 0 0 0
 0 0 0
 0 0 0
 0 0 0
 0 0 0
 0 0 0
 0 0 0
 0 0 0
 0 0 0
 0 0 0
 0 0 0
 0 0 0
 0 0 0
 0 0 0
 0 0 0
 0 0 0
 0 0 0
 0 0 0
 0 0 0
 0.941 -1.254 4.278
 0.967 -1.255 4.274
 0.994 -1.256 4.274
 1.02 -1.258 4.273
 1.046 -1.258 4.269
 1.074 -1.261 4.271
 1.101 -1.262 4.269
 1.127 -1.262 4.265
 1.154 -1.264 4.264
 1.182 -1.266 4.265
 1.209 -1.267 4.262
 1.236 -1.269 4.261
 1.264 -1.271 4.262
 1.291 -1.273 4.26
 1.319 -1.274 4.258
 1.347 -1.276 4.258
 1.376 -1.279 4.259
 1.403 -1.28 4.256
 1.431 -1.282 4.252
 1.458 -1.283 4.249
 1.486 -1.285 4.246
 1.516 -1.288 4.247
 1.545 -1.29 4.246
 1.575 -1.293 4.249
 1.603 -1.295 4.245
 1.631 -1.296 4.239
 1.659 -1.298 4.236
 1.687 -1.299 4.23
 1.713 -1.299 4.22
 1.742 -1.3 4.215
 1.77 -1.302 4.209
 1.795 -1.301 4.196
 1.821 -1.301 4.185
 1.851 -1.303 4.182
 0 0 0
 0 0 0
 0 0 0
 0 0 0
 0 0 0
 0 0 0
 0 0 0
 0 0 0
 0 0 0
 0 0 0
 0 0 0
 0 0 0
 1.725 -1.026 3.165
 1.749 -1.028 3.162
 1.767 -1.026 3.146
 1.777 -1.02 3.117
 1.784 -1.013 3.082
 1.778 -0.998 3.025
 1.776 -0.986 2.978
 -0.11 -0.062 0.18
 -0.116 -0.066 0.194
 -0.095 -0.055 0.158
 -0.084 -0.049 0.141
 -0.072 -0.043 0.12
 -0.062 -0.037 0.103
 -0.145 -0.087 0.264
 -0.134 -0.081 0.247
 -0.123 -0.076 0.231
 -0.461 -0.283 0.912
 -0.618 -0.385 1.247
 -0.689 -0.434 1.413
 -1.009 -0.644 2.112
 -1.404 -0.908 2.991
 -1.463 -0.959 3.168
 -1.678 -1.115 3.696
 -1.881 -1.268 4.215
 -1.934 -1.323 4.409
 -1.9 -1.319 4.406
 -1.867 -1.315 4.403
 -1.833 -1.311 4.4
 -1.802 -1.308 4.401
 -1.77 -1.305 4.399
 -1.738 -1.303 4.399
 -1.706 -1.299 4.396
 -1.674 -1.295 4.392
 -1.643 -1.293 4.392
 -1.612 -1.29 4.391
 -1.581 -1.287 4.389
 -1.549 -1.283 4.384
 -1.519 -1.281 4.382
 -1.486 -1.276 4.374
 -1.455 -1.273 4.369
 -1.425 -1.27 4.368
 -1.398 -1.269 4.373
 -1.37 -1.268 4.375
 -1.342 -1.267 4.379
 -1.316 -1.269 4.39
 0 0 0
 0 0 0
 0 0 0
 0 0 0
 0 0 0
 0 0 0
 0 0 0
 0 0 0
 0 0 0
 0 0 0
 0 0 0
 0 0 0
 0 0 0
 0 0 0
 0 0 0
 0 0 0
 0 0 0
 0 0 0
 0 0 0
 0 0 0
 0 0 0
 0 0 0
 0 0 0
 0 0 0
 -0.191 -0.374 1.315
 -0.183 -0.374 1.315
 -0.175 -0.374 1.316
 -0.164 -0.367 1.29
 -0.158 -0.37 1.303
 0 0 0
 0 0 0
 0 0 0
 0 0 0
 -0.388 -1.212 4.316
 -0.363 -1.213 4.319
 -0.337 -1.213 4.321
 -0.312 -1.213 4.322
 -0.286 -1.212 4.322
 -0.26 -1.212 4.32
 -0.235 -1.211 4.319
 -0.209 -1.21 4.317
 -0.184 -1.21 4.315
 -0.158 -1.209 4.314
 -0.133 -1.209 4.313
 -0.108 -1.208 4.31
 -0.082 -1.205 4.297
 -0.057 -1.203 4.293
 -0.031 -1.202 4.286
 -0.006 -1.199 4.277
 0.018 -1.193 4.254
 0 0 0
 0 0 0
 0 0 0
 0 0 0
 0 0 0
 0 0 0
 0 0 0
 0 0 0
 0 0 0
 0 0 0
 0 0 0
 0 0 0
 0 0 0
 0 0 0
 0 0 0
 0 0 0
 0 0 0
 0 0 0
 0 0 0
 0 0 0
 0 0 0
 0 0 0
 0 0 0
 0 0 0
 0 0 0
 0 0 0
 0 0 0
 0 0 0
 0 0 0
 0 0 0
 0 0 0
 0 0 0
 0 0 0
 0 0 0
 0 0 0
 0.937 -1.223 4.265
 0.965 -1.226 4.269
 0.991 -1.227 4.268
 1.018 -1.229 4.269
 1.044 -1.229 4.264
 1.072 -1.232 4.269
 1.099 -1.234 4.268
 1.126 -1.235 4.267
 1.152 -1.236 4.263
 1.181 -1.239 4.267
 1.208 -1.24 4.264
 1.234 -1.241 4.262
 1.263 -1.244 4.264
 1.29 -1.245 4.261
 1.317 -1.246 4.258
 1.345 -1.248 4.257
 1.373 -1.25 4.258
 1.401 -1.252 4.254
 1.429 -1.254 4.254
 1.456 -1.255 4.25
 1.484 -1.257 4.247
 1.513 -1.259 4.247
 1.543 -1.262 4.247
 1.572 -1.264 4.247
 1.6 -1.266 4.244
 1.628 -1.267 4.239
 1.656 -1.269 4.235
 1.684 -1.27 4.229
 1.711 -1.27 4.22
 1.739 -1.272 4.216
 1.768 -1.273 4.211
 1.793 -1.273 4.199
 1.819 -1.272 4.186
 1.85 -1.276 4.186
 0 0 0
 0 0 0
 0 0 0
 0 0 0
 0 0 0
 0 0 0
 0 0 0
 0 0 0
 0 0 0
 0 0 0
 0 0 0
 0 0 0
 1.725 -1.005 3.17
 1.748 -1.006 3.164
 1.765 -1.004 3.147
 1.775 -0.998 3.119
 1.783 -0.991 3.085
 1.793 -0.985 3.057
 1.782 -0.969 2.993
 -0.115 -0.063 0.188
 -0.113 -0.063 0.189
 -0.094 -0.053 0.156
 -0.082 -0.047 0.136
 -0.071 -0.041 0.119
 -0.06 -0.035 0.1
 -0.139 -0.081 0.253
 -0.129 -0.077 0.237
 -0.207 -0.124 0.396
 -0.629 -0.378 1.251
 -0.871 -0.53 1.765
 -1.024 -0.631 2.113
 -1.424 -0.889 2.991
 -1.73 -1.095 3.696
 -1.702 -1.092 3.695
 -1.834 -1.193 4.05
 -1.963 -1.295 4.409
 -1.932 -1.293 4.411
 -1.9 -1.291 4.412
 -1.866 -1.286 4.408
 -1.83 -1.281 4.4
 -1.797 -1.278 4.397
 -1.765 -1.274 4.395
 -1.733 -1.271 4.394
 -1.701 -1.268 4.39
 -1.669 -1.264 4.386
 -1.638 -1.262 4.386
 -1.607 -1.259 4.384
 -1.576 -1.256 4.382
 -1.545 -1.252 4.378
 -1.514 -1.25 4.376
 -1.483 -1.246 4.372
 -1.452 -1.243 4.368
 -1.424 -1.242 4.37
 -1.396 -1.241 4.375
 -1.369 -1.241 4.379
 -1.34 -1.239 4.381
 -1.318 -1.243 4.402
 0 0 0
 0 0 0
 0 0 0
 0 0 0
 0 0 0
 0 0 0
 0 0 0
 0 0 0
 0 0 0
 0 0 0
 0 0 0
 0 0 0
 0 0 0
 0 0 0
 0 0 0
 0 0 0
 0 0 0
 0 0 0
 0 0 0
 0 0 0
 0 0 0
 0 0 0
 0 0 0
 -0.198 -0.366 1.316
 -0.19 -0.366 1.315
 -0.183 -0.367 1.318
 -0.175 -0.367 1.319
 -0.166 -0.364 1.309
 -0.16 -0.367 1.322
 -0.152 -0.369 1.329
 0 0 0
 0 0 0
 0 0 0
 -0.388 -1.186 4.322
 -0.362 -1.186 4.322
 -0.336 -1.185 4.319
 -0.311 -1.185 4.321
 -0.285 -1.185 4.32
 -0.26 -1.184 4.317
 -0.234 -1.183 4.316
 -0.209 -1.183 4.316
 -0.183 -1.182 4.314
 -0.158 -1.182 4.314
 -0.133 -1.182 4.312
 -0.107 -1.181 4.31
 -0.082 -1.178 4.298
 -0.056 -1.177 4.295
 -0.031 -1.176 4.29
 -0.006 -1.174 4.283
 0.018 -1.168 4.26
 0 0 0
 0 0 0
 0 0 0
 0 0 0
 0 0 0
 0 0 0
 0 0 0
 0 0 0
 0 0 0
 0 0 0
 0 0 0
 0 0 0
 0 0 0
 0 0 0
 0 0 0
 0 0 0
 0 0 0
 0 0 0
 0 0 0
 0 0 0
 0 0 0
 0 0 0
 0 0 0
 0 0 0
 0 0 0
 0 0 0
 0 0 0
 0 0 0
 0 0 0
 0 0 0
 0 0 0
 0 0 0
 0 0 0
 0 0 0
 0 0 0
 0.938 -1.198 4.273
 0.964 -1.199 4.271
 0.99 -1.2 4.268
 1.017 -1.201 4.268
 1.043 -1.202 4.264
 1.07 -1.204 4.266
 1.097 -1.205 4.265
 1.124 -1.206 4.264
 1.15 -1.207 4.259
 1.178 -1.21 4.263
 1.205 -1.211 4.261
 1.232 -1.213 4.261
 1.261 -1.216 4.263
 1.289 -1.217 4.262
 1.315 -1.218 4.259
 1.344 -1.221 4.259
 1.372 -1.223 4.259
 1.399 -1.224 4.254
 1.427 -1.226 4.254
 1.455 -1.227 4.251
 1.482 -1.228 4.246
 1.511 -1.231 4.247
 1.54 -1.234 4.248
 1.569 -1.235 4.245
 1.598 -1.238 4.244
 1.625 -1.239 4.238
 1.653 -1.24 4.232
 1.681 -1.241 4.227
 1.708 -1.242 4.22
 1.735 -1.242 4.212
 1.763 -1.243 4.206
 1.789 -1.243 4.195
 1.814 -1.242 4.182
 1.841 -1.243 4.175
 0 0 0
 0 0 0
 0 0 0
 0 0 0
 0 0 0
 0 0 0
 0 0 0
 0 0 0
 0 0 0
 0 0 0
 0 0 0
 0 0 0
 1.722 -0.982 3.171
 1.747 -0.984 3.168
 1.762 -0.981 3.148
 1.774 -0.977 3.122
 1.783 -0.97 3.09
 1.793 -0.965 3.062
 1.764 -0.939 2.968
 -0.1 -0.054 0.163
 -0.088 -0.048 0.144
 -0.09 -0.05 0.15
 -0.079 -0.045 0.132
 -0.067 -0.038 0.111
 -0.055 -0.032 0.09
 -0.132 -0.076 0.241
 -0.122 -0.071 0.224
 -0.201 -0.118 0.385
 -0.625 -0.367 1.245
 -0.953 -0.567 1.936
 -1.19 -0.717 2.461
 -1.588 -0.97 3.342
 -1.891 -1.171 4.048
 -1.86 -1.168 4.048
 -1.912 -1.217 4.229
 -1.961 -1.266 4.412
 -1.93 -1.264 4.415
 -1.896 -1.26 4.412
 -1.861 -1.256 4.405
 -1.823 -1.249 4.39
 -1.791 -1.246 4.39
 -1.759 -1.243 4.388
 -1.73 -1.241 4.391
 -1.698 -1.238 4.388
 -1.665 -1.235 4.385
 -1.635 -1.233 4.386
 -1.604 -1.23 4.384
 -1.573 -1.227 4.381
 -1.542 -1.223 4.377
 -1.511 -1.22 4.374
 -1.48 -1.217 4.37
 -1.45 -1.214 4.367
 -1.422 -1.213 4.37
 -1.394 -1.213 4.375
 -1.367 -1.213 4.381
 -1.339 -1.211 4.383
 0 0 0
 0 0 0
 0 0 0
 0 0 0
 0 0 0
 0 0 0
 0 0 0
 0 0 0
 0 0 0
 0 0 0
 0 0 0
 0 0 0
 0 0 0
 0 0 0
 0 0 0
 0 0 0
 0 0 0
 0 0 0
 0 0 0
 0 0 0
 0 0 0
 0 0 0
 0 0 0
 -0.206 -0.358 1.316
 -0.196 -0.354 1.301
 -0.187 -0.353 1.297
 -0.179 -0.352 1.294
 -0.172 -0.352 1.297
 -0.165 -0.353 1.3
 -0.158 -0.355 1.308
 -0.151 -0.358 1.321
 0 0 0
 0 0 0
 0 0 0
 -0.385 -1.154 4.303
 -0.361 -1.158 4.317
 -0.335 -1.156 4.313
 -0.31 -1.157 4.318
 -0.285 -1.157 4.317
 -0.259 -1.157 4.319
 -0.234 -1.156 4.314
 -0.209 -1.157 4.317
 -0.183 -1.156 4.314
 -0.158 -1.155 4.312
 -0.132 -1.155 4.311
 -0.107 -1.154 4.307
 -0.082 -1.152 4.3
 -0.056 -1.151 4.297
 -0.031 -1.15 4.295
 -0.006 -1.149 4.289
 0.018 -1.149 4.288
 0 0 0
 0 0 0
 0 0 0
 0 0 0
 0 0 0
 0 0 0
 0 0 0
 0 0 0
 0 0 0
 0 0 0
 0 0 0
 0 0 0
 0 0 0
 0 0 0
 0 0 0
 0 0 0
 0 0 0
 0 0 0
 0 0 0
 0 0 0
 0 0 0
 0 0 0
 0 0 0
 0 0 0
 0 0 0
 0 0 0
 0 0 0
 0 0 0
 0 0 0
 0 0 0
 0 0 0
 0 0 0
 0 0 0
 0 0 0
 0 0 0
 0.934 -1.167 4.26
 0.961 -1.17 4.265
 0.988 -1.171 4.263
 1.015 -1.173 4.264
 1.041 -1.173 4.261
 1.068 -1.176 4.265
 1.095 -1.178 4.265
 1.122 -1.179 4.264
 1.148 -1.179 4.259
 1.176 -1.182 4.261
 1.203 -1.183 4.259
 1.231 -1.185 4.26
 1.259 -1.188 4.263
 1.287 -1.19 4.263
 1.314 -1.191 4.261
 1.343 -1.193 4.261
 1.37 -1.195 4.258
 1.396 -1.195 4.252
 1.424 -1.197 4.252
 1.452 -1.199 4.249
 1.479 -1.2 4.244
 1.508 -1.202 4.244
 1.537 -1.204 4.244
 1.565 -1.206 4.241
 1.595 -1.209 4.241
 1.622 -1.21 4.236
 1.651 -1.211 4.233
 1.679 -1.213 4.23
 1.707 -1.214 4.223
 1.733 -1.214 4.215
 1.76 -1.215 4.206
 1.785 -1.214 4.194
 1.809 -1.213 4.178
 1.834 -1.212 4.165
 0 0 0
 0 0 0
 0 0 0
 0 0 0
 0 0 0
 0 0 0
 0 0 0
 0 0 0
 0 0 0
 0 0 0
 0 0 0
 0 0 0
 0 0 0
 1.74 -0.96 3.161
 1.762 -0.96 3.153
 1.773 -0.955 3.125
 1.781 -0.949 3.093
 1.796 -0.946 3.074
 1.767 -0.92 2.978
 -0.132 -0.069 0.219
 -0.111 -0.059 0.185
 -0.089 -0.049 0.149
 -0.078 -0.043 0.13
 -0.065 -0.037 0.109
 -0.055 -0.031 0.091
 -0.22 -0.123 0.411
 -0.297 -0.168 0.568
 -0.462 -0.263 0.905
 -0.883 -0.508 1.769
 -1.293 -0.752 2.637
 -1.442 -0.85 2.991
 -1.753 -1.047 3.697
 -1.972 -1.193 4.228
 -1.939 -1.19 4.225
 -1.907 -1.187 4.226
 -1.955 -1.234 4.405
 -1.922 -1.231 4.403
 -1.888 -1.227 4.399
 -1.854 -1.223 4.396
 -1.819 -1.218 4.386
 -1.79 -1.217 4.392
 -1.758 -1.215 4.392
 -1.727 -1.212 4.393
 -1.695 -1.209 4.39
 -1.663 -1.205 4.385
 -1.632 -1.203 4.385
 -1.601 -1.2 4.382
 -1.569 -1.197 4.377
 -1.538 -1.194 4.373
 -1.508 -1.191 4.373
 -1.478 -1.188 4.369
 -1.448 -1.186 4.368
 -1.42 -1.185 4.372
 -1.393 -1.185 4.377
 -1.365 -1.184 4.382
 -1.338 -1.184 4.386
 0 0 0
 0 0 0
 0 0 0
 0 0 0
 0 0 0
 0 0 0
 0 0 0
 0 0 0
 0 0 0
 0 0 0
 0 0 0
 0 0 0
 0 0 0
 0 0 0
 0 0 0
 0 0 0
 0 0 0
 0 0 0
 0 0 0
 0 0 0
 0 0 0
 0 0 0
 0 0 0
 -0.206 -0.351 1.318
 -0.196 -0.346 1.303
 -0.187 -0.345 1.299
 -0.179 -0.344 1.296
 -0.172 -0.345 1.299
 -0.165 -0.346 1.302
 -0.158 -0.347 1.31
 -0.151 -0.351 1.323
 0 0 0
 0 0 0
 0 0 0
 -0.385 -1.128 4.305
 -0.361 -1.131 4.317
 -0.334 -1.129 4.31
 -0.309 -1.13 4.315
 -0.284 -1.13 4.315
 -0.259 -1.129 4.315
