 -2.024 -1.631 3.582
 -1.998 -1.63 3.592
 -1.984 -1.639 3.623
 -1.925 -1.61 3.571
 -1.941 -1.644 3.658
 -1.915 -1.643 3.667
 -1.88 -1.635 3.659
 -1.869 -1.647 3.696
 -1.846 -1.649 3.711
 -1.826 -1.653 3.731
 -1.766 -1.621 3.67
 -1.752 -1.631 3.7
 -1.767 -1.668 3.796
 -1.701 -1.629 3.717
 -1.681 -1.634 3.738
 -1.67 -1.647 3.777
 -1.623 -1.626 3.736
 -1.611 -1.638 3.774
 -1.58 -1.632 3.77
 -1.553 -1.629 3.771
 -1.535 -1.637 3.797
 -1.513 -1.639 3.811
 -1.469 -1.618 3.77
 -1.462 -1.638 3.825
 -1.436 -1.636 3.829
 -1.402 -1.626 3.812
 -1.392 -1.643 3.86
 -1.357 -1.63 3.837
 -1.333 -1.631 3.847
 -1.321 -1.647 3.892
 -1.283 -1.63 3.857
 -1.275 -1.652 3.916
 -1.233 -1.629 3.868
 -1.209 -1.63 3.878
 -1.181 -1.625 3.872
 -1.173 -1.648 3.934
 -1.141 -1.638 3.915
 -1.1 -1.614 3.864
 -1.1 -1.651 3.96
 -1.051 -1.614 3.874
 -1.041 -1.636 3.934
 -1.01 -1.626 3.914
 -0.986 -1.626 3.92
 -0.957 -1.619 3.907
 -0.931 -1.617 3.907
 -0.907 -1.617 3.913
 -0.882 -1.615 3.913
 -0.867 -1.633 3.96
 -0.836 -1.622 3.937
 -0.816 -1.63 3.962
 -0.794 -1.635 3.979
 -0.763 -1.622 3.949
 -0.74 -1.623 3.957
 -0.723 -1.642 4.007
 -0.689 -1.62 3.955
 -0.665 -1.621 3.96
 -0.643 -1.626 3.977
 -0.622 -1.635 4.001
 -0.592 -1.621 3.97
 -0.572 -1.633 4.003
 -0.548 -1.634 4.008
 -0.517 -1.614 3.96
 -0.498 -1.63 4.003
 -0.472 -1.625 3.992
 -0.448 -1.629 4.004
 -0.422 -1.623 3.991
 -0.398 -1.621 3.989
 -0.378 -1.64 4.037
 -0.348 -1.617 3.983
 -0.325 -1.624 4
 -0.3 -1.619 3.989
 -0.275 -1.616 3.983
 -0.25 -1.613 3.977
 -0.23 -1.643 4.052
 -0.203 -1.624 4.005
 -0.181 -1.637 4.04
 -0.155 -1.629 4.019
 -0.13 -1.618 3.993
 -0.105 -1.615 3.985
 -0.081 -1.616 3.989
 -0.058 -1.632 4.027
 -0.033 -1.618 3.992
 -0.009 -1.609 3.972
 0.015 -1.633 4.03
 0.039 -1.636 4.036
 0.063 -1.63 4.022
 0.088 -1.644 4.055
 0.112 -1.626 4.01
 0.136 -1.625 4.006
 0.16 -1.627 4.009
 0.186 -1.636 4.031
 0.207 -1.61 3.965
 0.231 -1.613 3.971
 0.259 -1.633 4.02
 0.282 -1.627 4.003
 0.304 -1.613 3.966
 0.329 -1.616 3.973
 0.354 -1.621 3.983
 0.377 -1.618 3.973
 0.4 -1.612 3.955
 0.426 -1.619 3.971
 0.45 -1.621 3.972
 0.477 -1.63 3.993
 0.499 -1.622 3.971
 0.522 -1.618 3.956
 0.548 -1.623 3.966
 0.569 -1.615 3.943
 0.606 -1.648 4.022
 0.625 -1.635 3.986
 0.653 -1.643 4.001
 0.671 -1.629 3.962
 0.691 -1.618 3.932
 0.725 -1.641 3.983
 0.752 -1.646 3.993
 0.772 -1.638 3.968
 0.786 -1.615 3.907
 0.825 -1.646 3.979
 0.845 -1.637 3.952
 0.863 -1.625 3.918
 0.897 -1.643 3.957
 0.911 -1.625 3.908
 0.935 -1.623 3.898
 0.971 -1.644 3.943
 0.992 -1.637 3.922
 1.01 -1.627 3.891
 1.026 -1.616 3.858
 1.066 -1.639 3.907
 1.086 -1.633 3.886
 1.118 -1.645 3.909
 1.145 -1.647 3.909
 1.161 -1.635 3.873
 1.186 -1.637 3.87
 1.208 -1.634 3.857
 1.24 -1.645 3.874
 1.27 -1.652 3.884
 1.288 -1.642 3.854
 1.318 -1.651 3.866
 1.342 -1.65 3.856
 1.373 -1.657 3.865
 1.393 -1.651 3.844
 1.41 -1.643 3.816
 1.424 -1.631 3.781
 1.46 -1.645 3.803
 1.469 -1.628 3.756
 1.494 -1.628 3.748
 1.541 -1.653 3.795
 1.543 -1.629 3.732
 1.581 -1.643 3.755
 1.601 -1.64 3.737
 1.635 -1.649 3.748
 1.652 -1.642 3.722
 1.664 -1.63 3.685
 1.691 -1.633 3.682
 1.717 -1.634 3.675
 1.739 -1.632 3.659
 1.761 -1.63 3.644
 1.786 -1.631 3.636
 1.831 -1.65 3.667
 1.819 -1.618 3.585
 1.849 -1.623 3.585
 1.878 -1.627 3.583
 1.876 -1.605 3.523
 1.855 -1.567 3.429
 1.868 -1.558 3.398
 1.853 -1.528 3.319
 1.847 -1.504 3.256
 1.9 -1.529 3.298
 1.852 -1.472 3.165
 1.874 -1.473 3.155
 1.865 -1.449 3.092
 1.838 -1.412 3.002
 1.85 -1.406 2.976
 -2.164 -1.638 3.613
 -2.118 -1.622 3.591
 -2.116 -1.64 3.643
 -2.084 -1.635 3.643
 -2.057 -1.633 3.651
 -2.017 -1.621 3.637
 -1.969 -1.602 3.605
 -1.99 -1.64 3.703
 -1.935 -1.615 3.657
 -1.925 -1.627 3.696
 -1.895 -1.624 3.699
 -1.884 -1.635 3.736
 -1.86 -1.637 3.75
 -1.857 -1.656 3.806
 -1.83 -1.655 3.814
 -1.789 -1.64 3.79
 -1.754 -1.631 3.779
 -1.721 -1.624 3.771
 -1.695 -1.622 3.777
 -1.695 -1.647 3.844
 -1.652 -1.629 3.812
 -1.641 -1.644 3.855
 -1.602 -1.63 3.831
 -1.579 -1.631 3.844
 -1.545 -1.622 3.831
 -1.534 -1.637 3.874
 -1.497 -1.624 3.852
 -1.488 -1.642 3.902
 -1.46 -1.638 3.902
 -1.427 -1.629 3.888
 -1.402 -1.63 3.898
 -1.393 -1.649 3.951
 -1.358 -1.636 3.928
 -1.315 -1.615 3.882
 -1.303 -1.63 3.928
 -1.284 -1.638 3.954
 -1.247 -1.623 3.924
 -1.224 -1.625 3.936
 -1.202 -1.629 3.952
 -1.176 -1.629 3.956
 -1.153 -1.63 3.966
 -1.129 -1.631 3.975
 -1.104 -1.632 3.982
 -1.076 -1.628 3.978
 -1.046 -1.62 3.964
 -1.019 -1.617 3.961
 -0.991 -1.61 3.95
 -0.974 -1.623 3.987
 -0.954 -1.632 4.013
 -0.922 -1.62 3.989
 -0.901 -1.626 4.007
 -0.871 -1.616 3.987
 -0.852 -1.628 4.021
 -0.822 -1.617 4
 -0.798 -1.62 4.01
 -0.779 -1.63 4.039
 -0.748 -1.618 4.012
 -0.726 -1.623 4.028
 -0.698 -1.615 4.013
 -0.68 -1.633 4.061
 -0.658 -1.639 4.078
 -0.621 -1.608 4.004
 -0.603 -1.626 4.053
 -0.575 -1.617 4.032
 -0.553 -1.625 4.055
 -0.535 -1.647 4.112
 -0.505 -1.63 4.072
 -0.478 -1.622 4.054
 -0.453 -1.62 4.052
 -0.429 -1.625 4.065
 -0.404 -1.623 4.062
 -0.379 -1.623 4.064
 -0.357 -1.633 4.092
 -0.332 -1.633 4.094
 -0.305 -1.623 4.069
 -0.28 -1.619 4.061
 -0.253 -1.605 4.027
 -0.233 -1.635 4.101
 -0.207 -1.632 4.096
 -0.18 -1.608 4.037
 -0.157 -1.628 4.088
 -0.132 -1.624 4.077
 -0.107 -1.621 4.071
 -0.083 -1.63 4.092
 -0.058 -1.631 4.096
 -0.033 -1.608 4.038
 -0.009 -1.63 4.093
 0.015 -1.616 4.057
 0.039 -1.617 4.059
 0.064 -1.614 4.05
 0.088 -1.614 4.051
 0.114 -1.633 4.098
 0.138 -1.626 4.079
 0.162 -1.612 4.042
 0.187 -1.623 4.069
 0.212 -1.62 4.06
 0.236 -1.616 4.049
 0.261 -1.619 4.053
 0.286 -1.622 4.06
 0.31 -1.622 4.059
 0.336 -1.627 4.07
 0.362 -1.634 4.085
 0.383 -1.617 4.039
 0.414 -1.642 4.101
 0.432 -1.617 4.034
 0.457 -1.618 4.035
 0.478 -1.606 4.002
 0.509 -1.63 4.059
 0.53 -1.618 4.026
 0.555 -1.618 4.023
 0.584 -1.632 4.055
 0.606 -1.625 4.035
 0.637 -1.64 4.068
 0.653 -1.619 4.011
 0.683 -1.633 4.042
 0.701 -1.616 3.996
 0.742 -1.652 4.083
 0.757 -1.633 4.03
 0.786 -1.641 4.045
 0.803 -1.625 4.001
 0.829 -1.629 4.006
 0.853 -1.626 3.995
 0.87 -1.612 3.956
 0.899 -1.62 3.971
 0.921 -1.617 3.958
 0.954 -1.632 3.988
 0.981 -1.636 3.993
 1.01 -1.642 4.001
 1.021 -1.62 3.943
 1.064 -1.649 4.008
 1.091 -1.652 4.008
 1.105 -1.636 3.964
 1.134 -1.642 3.971
 1.157 -1.64 3.96
 1.181 -1.639 3.949
 1.214 -1.65 3.969
 1.225 -1.632 3.919
 1.266 -1.654 3.965
 1.279 -1.638 3.919
 1.293 -1.624 3.879
 1.319 -1.626 3.875
 1.368 -1.656 3.94
 1.388 -1.65 3.917
 1.401 -1.637 3.878
 1.429 -1.64 3.876
 1.449 -1.635 3.856
 1.472 -1.633 3.844
 1.507 -1.644 3.861
 1.535 -1.647 3.859
 1.562 -1.65 3.857
 1.581 -1.644 3.834
 1.605 -1.644 3.823
 1.62 -1.634 3.79
 1.65 -1.639 3.792
 1.669 -1.633 3.769
 1.705 -1.645 3.786
 1.733 -1.648 3.783
 1.734 -1.625 3.719
 1.767 -1.633 3.728
 1.785 -1.627 3.704
 1.798 -1.617 3.669
 1.838 -1.631 3.69
 1.865 -1.633 3.684
 1.873 -1.619 3.64
 1.87 -1.596 3.577
 1.904 -1.605 3.585
 1.876 -1.561 3.477
 1.844 -1.516 3.364
 1.854 -1.505 3.329
 1.869 -1.5 3.305
 1.859 -1.474 3.236
 1.828 -1.432 3.132
 1.838 -1.423 3.102
 1.845 -1.412 3.068
 1.852 -1.401 3.032
 1.824 -1.365 2.942
 -2.201 -1.64 3.685
 -2.177 -1.641 3.701
 -2.14 -1.633 3.694
 -2.117 -1.635 3.71
 -2.09 -1.634 3.721
 -2.058 -1.629 3.721
 -2.039 -1.633 3.743
 -2.004 -1.626 3.737
 -1.99 -1.635 3.771
 -1.958 -1.63 3.77
 -1.941 -1.637 3.799
 -1.881 -1.608 3.741
 -1.866 -1.616 3.771
 -1.856 -1.63 3.814
 -1.834 -1.633 3.831
 -1.819 -1.642 3.863
 -1.785 -1.635 3.856
 -1.749 -1.625 3.842
 -1.71 -1.612 3.822
 -1.709 -1.635 3.886
 -1.691 -1.642 3.912
 -1.646 -1.623 3.876
 -1.644 -1.647 3.942
 -1.595 -1.623 3.894
 -1.569 -1.622 3.9
 -1.561 -1.64 3.952
 -1.531 -1.636 3.951
 -1.503 -1.633 3.953
 -1.47 -1.625 3.941
 -1.443 -1.623 3.942
 -1.422 -1.627 3.961
 -1.406 -1.639 3.997
 -1.367 -1.622 3.964
 -1.336 -1.616 3.955
 -1.325 -1.633 4.005
 -1.284 -1.614 3.964
 -1.255 -1.609 3.959
 -1.241 -1.623 4
 -1.226 -1.637 4.042
 -1.194 -1.628 4.025
 -1.178 -1.64 4.062
 -1.147 -1.633 4.051
 -1.121 -1.631 4.052
 -1.079 -1.608 3.998
 -1.065 -1.624 4.045
 -1.038 -1.622 4.045
 -1.014 -1.624 4.054
 -0.981 -1.611 4.027
 -0.967 -1.629 4.077
 -0.942 -1.63 4.084
 -0.91 -1.617 4.056
 -0.891 -1.628 4.089
 -0.851 -1.602 4.027
 -0.817 -1.584 3.986
 -0.813 -1.624 4.092
 -0.781 -1.611 4.063
 -0.764 -1.627 4.106
 -0.734 -1.617 4.085
 -0.708 -1.616 4.085
 -0.687 -1.624 4.11
 -0.656 -1.609 4.076
 -0.639 -1.629 4.128
 -0.608 -1.616 4.099
 -0.586 -1.623 4.118
 -0.56 -1.622 4.119
 -0.532 -1.612 4.096
 -0.512 -1.628 4.138
 -0.482 -1.611 4.098
 -0.46 -1.621 4.126
 -0.434 -1.617 4.119
 -0.413 -1.633 4.161
 -0.386 -1.627 4.147
 -0.358 -1.616 4.12
 -0.33 -1.602 4.085
 -0.31 -1.625 4.145
 -0.285 -1.627 4.151
 -0.26 -1.625 4.149
 -0.233 -1.617 4.128
 -0.209 -1.618 4.131
 -0.182 -1.607 4.103
 -0.158 -1.613 4.122
 -0.133 -1.61 4.114
 -0.108 -1.616 4.128
 -0.083 -1.615 4.127
 -0.059 -1.62 4.14
 -0.034 -1.617 4.131
 -0.009 -1.623 4.148
 0.015 -1.63 4.165
 0.041 -1.634 4.175
 0.065 -1.615 4.126
 0.09 -1.624 4.148
 0.116 -1.632 4.166
 0.14 -1.62 4.136
 0.164 -1.613 4.115
 0.188 -1.602 4.087
 0.214 -1.615 4.118
 0.238 -1.605 4.093
 0.264 -1.617 4.12
 0.29 -1.618 4.121
 0.315 -1.618 4.119
 0.338 -1.61 4.098
 0.368 -1.633 4.154
 0.391 -1.625 4.131
 0.416 -1.624 4.127
 0.441 -1.624 4.123
 0.461 -1.609 4.084
 0.487 -1.611 4.085
 0.514 -1.62 4.104
 0.533 -1.602 4.057
 0.565 -1.621 4.102
 0.588 -1.618 4.09
 0.618 -1.632 4.122
 0.636 -1.613 4.072
 0.664 -1.622 4.089
 0.693 -1.63 4.107
 0.717 -1.627 4.096
 0.744 -1.632 4.104
 0.771 -1.636 4.108
 0.789 -1.621 4.067
 0.819 -1.631 4.087
 0.837 -1.618 4.05
 0.864 -1.623 4.058
 0.895 -1.633 4.077
 0.925 -1.643 4.097
 0.931 -1.61 4.009
 0.965 -1.625 4.042
 0.985 -1.617 4.016
 1.017 -1.628 4.039
 1.036 -1.619 4.011
 1.072 -1.636 4.045
 1.094 -1.632 4.029
 1.117 -1.629 4.016
 1.152 -1.643 4.045
 1.17 -1.632 4.011
 1.204 -1.645 4.035
 1.217 -1.629 3.99
 1.236 -1.621 3.962
 1.281 -1.647 4.019
 1.304 -1.645 4.006
 1.322 -1.636 3.976
 1.345 -1.633 3.963
 1.373 -1.637 3.964
 1.397 -1.635 3.95
 1.424 -1.638 3.95
 1.457 -1.646 3.961
 1.478 -1.642 3.941
 1.497 -1.635 3.917
 1.521 -1.634 3.906
 1.549 -1.638 3.905
 1.566 -1.629 3.876
 1.591 -1.629 3.866
 1.622 -1.635 3.872
 1.652 -1.64 3.873
 1.671 -1.635 3.851
 1.699 -1.638 3.847
 1.719 -1.632 3.825
 1.75 -1.639 3.829
 1.759 -1.624 3.784
 1.787 -1.627 3.78
 1.81 -1.625 3.766
 1.847 -1.635 3.778
 1.857 -1.623 3.738
 1.883 -1.624 3.729
 1.86 -1.583 3.624
 1.88 -1.58 3.605
 1.894 -1.571 3.574
 1.867 -1.53 3.468
 1.882 -1.523 3.441
 1.861 -1.488 3.351
 1.891 -1.494 3.352
 1.834 -1.432 3.201
 1.846 -1.424 3.173
 1.859 -1.417 3.146
 1.857 -1.4 3.095
 1.835 -1.368 3.013
 1.797 -1.324 2.906
 -2.25 -1.65 3.778
 -2.173 -1.613 3.705
 -2.168 -1.629 3.753
 -2.128 -1.618 3.74
 -2.125 -1.635 3.794
 -2.056 -1.601 3.726
 -2.052 -1.619 3.778
 -2.041 -1.63 3.818
 -2 -1.618 3.799
 -1.99 -1.631 3.842
 -1.958 -1.626 3.842
 -1.948 -1.639 3.884
 -1.918 -1.636 3.887
 -1.884 -1.629 3.881
 -1.852 -1.623 3.878
 -1.832 -1.628 3.9
 -1.818 -1.639 3.937
 -1.787 -1.635 3.937
 -1.735 -1.611 3.888
 -1.735 -1.634 3.955
 -1.675 -1.602 3.885
 -1.66 -1.612 3.919
 -1.656 -1.633 3.98
 -1.611 -1.614 3.942
 -1.604 -1.633 3.999
 -1.578 -1.633 4.006
 -1.534 -1.613 3.967
 -1.532 -1.639 4.038
 -1.483 -1.614 3.984
 -1.465 -1.623 4.014
 -1.436 -1.618 4.011
 -1.412 -1.621 4.025
 -1.386 -1.62 4.031
 -1.35 -1.607 4.005
 -1.34 -1.627 4.061
 -1.308 -1.618 4.048
 -1.28 -1.615 4.047
 -1.252 -1.613 4.047
 -1.227 -1.612 4.052
 -1.204 -1.615 4.067
 -1.195 -1.639 4.133
 -1.158 -1.623 4.097
 -1.129 -1.618 4.092
 -1.096 -1.608 4.071
 -1.073 -1.61 4.083
 -1.038 -1.596 4.052
 -1.023 -1.613 4.1
 -0.998 -1.613 4.106
 -0.967 -1.605 4.089
 -0.944 -1.607 4.1
 -0.928 -1.624 4.147
 -0.893 -1.606 4.107
 -0.86 -1.593 4.076
 -0.844 -1.611 4.127
 -0.818 -1.609 4.127
 -0.791 -1.606 4.122
 -0.771 -1.617 4.156
 -0.74 -1.606 4.129
 -0.718 -1.612 4.148
 -0.694 -1.615 4.159
 -0.666 -1.61 4.15
 -0.643 -1.615 4.167
 -0.617 -1.613 4.165
 -0.595 -1.623 4.193
 -0.565 -1.612 4.166
 -0.543 -1.621 4.192
 -0.52 -1.628 4.213
 -0.49 -1.612 4.175
 -0.465 -1.616 4.186
 -0.438 -1.61 4.174
 -0.413 -1.611 4.176
 -0.387 -1.606 4.166
 -0.365 -1.623 4.211
 -0.337 -1.609 4.176
 -0.31 -1.6 4.154
 -0.289 -1.625 4.222
 -0.262 -1.615 4.197
 -0.235 -1.606 4.173
 -0.211 -1.611 4.187
 -0.186 -1.611 4.188
 -0.16 -1.61 4.186
 -0.135 -1.609 4.183
 -0.109 -1.606 4.175
 -0.085 -1.619 4.21
 -0.059 -1.62 4.212
 -0.034 -1.607 4.179
 -0.009 -1.617 4.206
 0.016 -1.607 4.177
 0.041 -1.608 4.181
 0.066 -1.604 4.169
 0.092 -1.624 4.222
 0.118 -1.626 4.225
 0.143 -1.623 4.216
 0.167 -1.612 4.187
 0.191 -1.605 4.167
 0.219 -1.626 4.22
 0.245 -1.623 4.212
 0.269 -1.617 4.194
 0.294 -1.617 4.194
 0.314 -1.59 4.12
 0.342 -1.605 4.158
 0.37 -1.616 4.184
 0.393 -1.609 4.163
 0.42 -1.613 4.171
 0.448 -1.626 4.202
 0.472 -1.619 4.181
 0.495 -1.614 4.165
 0.522 -1.618 4.174
 0.544 -1.609 4.148
 0.57 -1.61 4.146
 0.596 -1.612 4.149
 0.619 -1.607 4.132
 0.65 -1.622 4.167
 0.664 -1.595 4.094
 0.696 -1.61 4.129
 0.725 -1.621 4.153
 0.748 -1.616 4.135
 0.775 -1.619 4.138
 0.796 -1.611 4.114
 0.83 -1.628 4.154
 0.849 -1.616 4.118
 0.88 -1.626 4.137
 0.904 -1.625 4.13
 0.927 -1.62 4.112
 0.957 -1.629 4.13
 0.976 -1.618 4.096
 0.999 -1.614 4.082
 1.027 -1.619 4.088
 1.058 -1.627 4.102
 1.079 -1.621 4.081
 1.119 -1.643 4.13
 1.136 -1.631 4.094
 1.162 -1.631 4.086
 1.18 -1.621 4.054
 1.208 -1.624 4.057
 1.239 -1.633 4.07
 1.266 -1.634 4.067
 1.285 -1.626 4.039
 1.316 -1.634 4.051
 1.343 -1.636 4.048
 1.38 -1.649 4.072
 1.388 -1.628 4.013
 1.419 -1.636 4.024
 1.449 -1.64 4.027
 1.478 -1.644 4.028
 1.502 -1.642 4.015
 1.53 -1.645 4.012
 1.555 -1.644 4.002
 1.564 -1.628 3.953
 1.598 -1.637 3.965
 1.617 -1.63 3.938
 1.637 -1.625 3.916
 1.681 -1.643 3.952
 1.695 -1.633 3.915
 1.72 -1.632 3.904
 1.738 -1.625 3.877
 1.759 -1.621 3.857
 1.778 -1.616 3.834
 1.836 -1.645 3.893
 1.864 -1.648 3.887
 1.855 -1.617 3.804
 1.88 -1.618 3.794
 1.881 -1.597 3.735
 1.894 -1.587 3.7
 1.882 -1.557 3.618
 1.898 -1.55 3.59
 1.912 -1.542 3.561
 1.893 -1.508 3.47
 1.939 -1.526 3.5
 0 0 0
 0 0 0
 1.842 -1.399 3.174
 1.844 -1.384 3.128
 1.849 -1.372 3.091
 1.84 -1.35 3.028
 1.836 -1.332 2.977
 -2.265 -1.636 3.814
 -2.225 -1.626 3.804
 -2.209 -1.633 3.833
 -2.163 -1.618 3.811
 -2.15 -1.628 3.848
 -2.126 -1.63 3.865
 -2.107 -1.636 3.89
 -2.066 -1.624 3.875
 -2.045 -1.629 3.897
 -2.011 -1.622 3.892
 -1.986 -1.623 3.907
 -1.968 -1.63 3.935
 -1.937 -1.626 3.935
 -1.902 -1.619 3.929
 -1.874 -1.616 3.934
 -1.866 -1.633 3.985
 -1.83 -1.624 3.974
 -1.816 -1.635 4.01
 -1.791 -1.636 4.024
 -1.748 -1.621 3.995
 -1.724 -1.622 4.009
 -1.688 -1.613 3.996
 -1.677 -1.628 4.042
 -1.641 -1.618 4.025
 -1.627 -1.63 4.064
 -1.59 -1.619 4.046
 -1.554 -1.609 4.03
 -1.539 -1.621 4.067
 -1.5 -1.607 4.041
 -1.472 -1.605 4.043
 -1.453 -1.612 4.068
 -1.44 -1.626 4.113
 -1.389 -1.598 4.048
 -1.376 -1.613 4.093
 -1.353 -1.616 4.11
 -1.33 -1.62 4.127
 -1.319 -1.638 4.18
 -1.273 -1.613 4.123
 -1.26 -1.63 4.171
 -1.231 -1.627 4.17
 -1.197 -1.615 4.147
 -1.165 -1.608 4.133
 -1.146 -1.617 4.164
 -1.114 -1.609 4.147
 -1.103 -1.629 4.207
 -1.061 -1.606 4.152
 -1.036 -1.607 4.16
 -1.004 -1.598 4.141
 -0.983 -1.606 4.166
 -0.965 -1.618 4.204
 -0.938 -1.615 4.201
 -0.913 -1.618 4.213
 -0.883 -1.61 4.197
 -0.853 -1.602 4.18
 -0.838 -1.622 4.236
 -0.801 -1.602 4.187
 -0.782 -1.615 4.226
 -0.749 -1.6 4.189
 -0.724 -1.599 4.191
 -0.697 -1.598 4.191
 -0.678 -1.613 4.235
 -0.643 -1.59 4.175
 -0.623 -1.604 4.216
 -0.595 -1.598 4.202
 -0.578 -1.623 4.271
 -0.547 -1.608 4.235
 -0.521 -1.605 4.228
 -0.492 -1.596 4.208
 -0.468 -1.6 4.219
 -0.447 -1.618 4.269
 -0.416 -1.595 4.211
 -0.392 -1.602 4.231
 -0.364 -1.594 4.211
 -0.34 -1.601 4.232
 -0.315 -1.6 4.229
 -0.292 -1.615 4.272
 -0.263 -1.598 4.226
 -0.239 -1.605 4.247
 -0.214 -1.611 4.263
 -0.187 -1.599 4.233
 -0.162 -1.606 4.25
 -0.136 -1.604 4.245
 -0.11 -1.596 4.226
 -0.085 -1.601 4.239
 -0.059 -1.596 4.224
 -0.034 -1.591 4.212
 -0.009 -1.599 4.233
 0.016 -1.597 4.227
 0.042 -1.607 4.255
 0.067 -1.595 4.221
 0.092 -1.597 4.226
 0.118 -1.601 4.234
 0.144 -1.606 4.247
 0.169 -1.605 4.243
 0.196 -1.612 4.26
 0.22 -1.606 4.245
 0.243 -1.588 4.195
 0.272 -1.608 4.245
 0.297 -1.604 4.234
 0.32 -1.595 4.209
 0.346 -1.597 4.211
 0.374 -1.606 4.233
 0.397 -1.598 4.208
 0.425 -1.609 4.236
 0.448 -1.598 4.205
 0.473 -1.598 4.202
 0.498 -1.595 4.19
 0.525 -1.601 4.204
 0.551 -1.604 4.209
 0.576 -1.603 4.202
 0.604 -1.609 4.215
 0.625 -1.596 4.178
 0.654 -1.605 4.198
 0.674 -1.594 4.165
 0.709 -1.614 4.215
 0.736 -1.617 4.218
 0.758 -1.611 4.198
 0.789 -1.623 4.223
 0.813 -1.62 4.211
 0.836 -1.614 4.192
 0.852 -1.595 4.137
 0.887 -1.612 4.178
 0.908 -1.605 4.154
 0.94 -1.616 4.177
 0.966 -1.617 4.174
 0.989 -1.613 4.158
 1.017 -1.618 4.164
 1.047 -1.624 4.176
 1.066 -1.614 4.143
 1.093 -1.616 4.142
 1.133 -1.636 4.188
 1.144 -1.615 4.128
 1.181 -1.632 4.164
 1.198 -1.619 4.125
 1.231 -1.629 4.143
 1.248 -1.619 4.109
 1.286 -1.634 4.14
 1.298 -1.617 4.091
 1.328 -1.622 4.096
 1.358 -1.627 4.1
 1.38 -1.624 4.083
 1.411 -1.63 4.091
 1.439 -1.632 4.089
 1.454 -1.62 4.049
 1.487 -1.628 4.062
 1.516 -1.632 4.062
 1.556 -1.647 4.091
 1.555 -1.619 4.012
 1.579 -1.617 3.998
 1.615 -1.628 4.015
 1.642 -1.629 4.009
 1.665 -1.627 3.993
 1.692 -1.628 3.985
 1.713 -1.624 3.966
 1.734 -1.619 3.944
 1.776 -1.634 3.971
 1.798 -1.631 3.952
 1.829 -1.636 3.952
 1.821 -1.606 3.87
 1.866 -1.623 3.9
 1.866 -1.601 3.836
 1.899 -1.608 3.841
 1.883 -1.573 3.746
 1.878 -1.549 3.677
 1.902 -1.549 3.665
 1.889 -1.519 3.582
 1.876 -1.49 3.502
 0 0 0
 0 0 0
 0 0 0
 0 0 0
 1.811 -1.354 3.127
 1.866 -1.379 3.174
 1.851 -1.352 3.101
 1.846 -1.334 3.047
 1.84 -1.314 2.992
 -2.253 -1.601 3.804
 -2.256 -1.622 3.866
 -2.219 -1.614 3.862
 -2.211 -1.628 3.907
 -2.18 -1.625 3.913
 -2.145 -1.618 3.909
 -2.119 -1.619 3.923
 -2.086 -1.614 3.923
 -2.053 -1.609 3.922
 -2.048 -1.625 3.974
 -2.024 -1.628 3.992
 -1.999 -1.629 4.007
 -1.983 -1.638 4.04
 -1.918 -1.606 3.971
 -1.912 -1.623 4.025
 -1.873 -1.613 4.009
 -1.839 -1.606 4.003
 -1.82 -1.613 4.029
 -1.791 -1.61 4.032
 -1.782 -1.626 4.082
 -1.75 -1.621 4.081
 -1.707 -1.605 4.05
 -1.685 -1.609 4.069
 -1.65 -1.601 4.057
 -1.625 -1.603 4.07
 -1.597 -1.6 4.074
 -1.58 -1.609 4.105
 -1.558 -1.614 4.126
 -1.545 -1.628 4.171
 -1.502 -1.611 4.135
 -1.477 -1.612 4.146
 -1.46 -1.622 4.18
 -1.411 -1.597 4.121
 -1.395 -1.609 4.159
 -1.375 -1.617 4.187
 -1.339 -1.604 4.162
 -1.313 -1.605 4.171
 -1.29 -1.609 4.188
 -1.269 -1.615 4.211
 -1.238 -1.61 4.203
 -1.199 -1.593 4.165
 -1.175 -1.596 4.178
 -1.15 -1.597 4.188
 -1.123 -1.595 4.188
 -1.108 -1.611 4.237
 -1.073 -1.598 4.208
 -1.052 -1.606 4.233
 -1.03 -1.612 4.254
 -0.999 -1.604 4.24
 -0.976 -1.61 4.26
 -0.941 -1.596 4.227
 -0.921 -1.606 4.257
 -0.884 -1.587 4.212
 -0.864 -1.597 4.243
 -0.837 -1.595 4.242
 -0.815 -1.603 4.266
 -0.787 -1.6 4.262
 -0.756 -1.588 4.235
 -0.734 -1.596 4.259
 -0.709 -1.6 4.274
 -0.684 -1.601 4.278
 -0.655 -1.596 4.267
 -0.629 -1.593 4.264
 -0.603 -1.595 4.271
 -0.578 -1.597 4.28
 -0.545 -1.576 4.226
 -0.521 -1.582 4.245
 -0.496 -1.583 4.249
 -0.471 -1.584 4.255
 -0.448 -1.594 4.283
 -0.422 -1.593 4.283
 -0.391 -1.574 4.234
 -0.368 -1.585 4.264
 -0.34 -1.575 4.238
 -0.315 -1.579 4.249
 -0.29 -1.582 4.259
 -0.265 -1.586 4.27
 -0.239 -1.584 4.267
 -0.214 -1.584 4.269
 -0.186 -1.569 4.228
 -0.161 -1.57 4.232
 -0.136 -1.58 4.258
 -0.11 -1.569 4.23
 -0.085 -1.577 4.25
 -0.059 -1.571 4.235
 -0.034 -1.578 4.254
 -0.008 -1.573 4.241
 0.016 -1.573 4.239
 0.042 -1.579 4.254
 0.067 -1.577 4.249
 0.093 -1.578 4.251
 0.117 -1.567 4.22
 0.143 -1.573 4.237
 0.17 -1.581 4.257
 0.195 -1.579 4.251
 0.221 -1.582 4.255
 0.247 -1.584 4.261
 0.271 -1.576 4.236
 0.295 -1.569 4.216
 0.32 -1.567 4.209
 0.347 -1.576 4.232
 0.375 -1.586 4.256
 0.397 -1.57 4.211
 0.424 -1.576 4.224
 0.446 -1.567 4.197
 0.477 -1.585 4.242
 0.503 -1.584 4.239
 0.53 -1.589 4.247
 0.555 -1.588 4.243
 0.581 -1.588 4.24
 0.603 -1.58 4.215
 0.634 -1.594 4.249
 0.662 -1.599 4.258
 0.686 -1.595 4.243
 0.707 -1.585 4.214
 0.736 -1.592 4.228
 0.766 -1.601 4.247
 0.789 -1.595 4.228
 0.815 -1.596 4.226
 0.834 -1.583 4.186
 0.862 -1.587 4.193
 0.892 -1.596 4.211
 0.923 -1.606 4.232
 0.94 -1.59 4.185
 0.975 -1.606 4.222
 1.007 -1.616 4.242
 1.024 -1.602 4.198
 1.048 -1.599 4.186
 1.071 -1.595 4.169
 1.097 -1.595 4.164
 1.133 -1.61 4.197
 1.156 -1.607 4.182
 1.185 -1.61 4.184
 1.206 -1.605 4.162
 1.234 -1.607 4.163
 1.265 -1.614 4.172
 1.296 -1.62 4.181
 1.327 -1.626 4.189
 1.355 -1.628 4.187
 1.369 -1.615 4.144
 1.404 -1.625 4.162
 1.425 -1.62 4.14
 1.452 -1.621 4.135
 1.486 -1.629 4.148
 1.504 -1.62 4.116
 1.52 -1.61 4.082
 1.553 -1.618 4.092
 1.582 -1.62 4.09
 1.599 -1.612 4.058
 1.641 -1.627 4.088
 1.669 -1.629 4.083
 1.682 -1.616 4.042
 1.719 -1.628 4.059
 1.733 -1.616 4.02
 1.755 -1.613 4.001
 1.78 -1.611 3.988
 1.816 -1.621 4
 1.849 -1.627 4.005
 1.855 -1.61 3.951
 1.866 -1.597 3.909
 1.895 -1.6 3.906
 1.868 -1.556 3.787
 1.876 -1.543 3.742
 1.874 -1.521 3.677
 1.907 -1.528 3.683
 1.878 -1.486 3.571
 0 0 0
 0 0 0
 0 0 0
 0 0 0
 0 0 0
 0 0 0
 1.843 -1.34 3.143
 1.855 -1.333 3.116
 1.848 -1.313 3.058
 1.852 -1.301 3.018
 -2.323 -1.623 3.932
 -2.288 -1.617 3.931
 -2.257 -1.615 3.937
 -2.218 -1.606 3.929
 -2.186 -1.603 3.933
 -2.185 -1.622 3.992
 -2.16 -1.623 4.008
 -2.132 -1.623 4.019
 -2.101 -1.619 4.023
 -2.074 -1.619 4.035
 -2.044 -1.617 4.04
 -2.018 -1.618 4.055
 -2.014 -1.637 4.113
 -1.951 -1.607 4.049
 -1.931 -1.612 4.074
 -1.899 -1.608 4.073
 -1.883 -1.618 4.109
 -1.843 -1.606 4.089
 -1.813 -1.603 4.093
 -1.808 -1.623 4.152
 -1.783 -1.624 4.167
 -1.734 -1.605 4.125
 -1.705 -1.602 4.129
 -1.682 -1.606 4.147
 -1.66 -1.61 4.166
 -1.628 -1.605 4.163
 -1.611 -1.615 4.196
 -1.581 -1.611 4.196
 -1.539 -1.596 4.164
 -1.523 -1.606 4.2
 -1.489 -1.599 4.189
 -1.472 -1.609 4.224
 -1.428 -1.59 4.18
 -1.413 -1.603 4.222
 -1.385 -1.602 4.227
 -1.361 -1.605 4.241
 -1.324 -1.592 4.216
 -1.304 -1.6 4.243
 -1.266 -1.586 4.212
 -1.248 -1.596 4.244
 -1.221 -1.595 4.249
 -1.2 -1.602 4.275
 -1.173 -1.602 4.28
 -1.136 -1.588 4.247
 -1.108 -1.585 4.245
 -1.088 -1.594 4.275
 -1.05 -1.577 4.235
 -1.031 -1.587 4.268
 -1.001 -1.582 4.259
 -0.977 -1.586 4.273
 -0.947 -1.58 4.261
 -0.926 -1.589 4.291
 -0.892 -1.575 4.257
 -0.861 -1.566 4.239
 -0.841 -1.577 4.27
 -0.811 -1.569 4.254
 -0.793 -1.586 4.303
 -0.761 -1.573 4.272
 -0.733 -1.57 4.267
 -0.711 -1.579 4.294
 -0.675 -1.555 4.233
 -0.653 -1.564 4.26
 -0.631 -1.573 4.287
 -0.602 -1.566 4.271
 -0.575 -1.564 4.268
 -0.547 -1.557 4.252
 -0.523 -1.56 4.264
 -0.499 -1.566 4.28
 -0.471 -1.56 4.268
 -0.446 -1.562 4.275
 -0.417 -1.552 4.248
 -0.395 -1.564 4.283
 -0.369 -1.562 4.279
 -0.342 -1.558 4.269
 -0.314 -1.548 4.243
 -0.292 -1.568 4.3
 -0.265 -1.557 4.272
 -0.24 -1.56 4.28
 -0.213 -1.552 4.258
 -0.187 -1.548 4.248
 -0.162 -1.558 4.276
 -0.136 -1.548 4.248
 -0.111 -1.558 4.277
 -0.085 -1.552 4.26
 -0.059 -1.552 4.26
 -0.034 -1.556 4.272
 -0.008 -1.552 4.26
 0.016 -1.566 4.299
 0.042 -1.558 4.276
 0.067 -1.549 4.251
 0.093 -1.554 4.264
 0.118 -1.549 4.247
 0.144 -1.553 4.258
 0.169 -1.55 4.25
 0.194 -1.549 4.245
 0.218 -1.538 4.215
 0.247 -1.556 4.262
 0.272 -1.555 4.258
 0.297 -1.554 4.253
 0.322 -1.552 4.245
 0.349 -1.558 4.26
 0.375 -1.558 4.258
 0.402 -1.565 4.274
 0.427 -1.563 4.267
 0.449 -1.55 4.228
 0.476 -1.555 4.239
 0.503 -1.56 4.25
 0.529 -1.561 4.25
 0.553 -1.557 4.237
 0.579 -1.557 4.233
 0.608 -1.565 4.253
 0.629 -1.554 4.219
 0.659 -1.567 4.248
 0.686 -1.569 4.25
 0.709 -1.563 4.233
 0.736 -1.565 4.234
 0.765 -1.572 4.248
 0.788 -1.568 4.231
 0.813 -1.566 4.222
 0.84 -1.569 4.225
 0.866 -1.57 4.223
 0.895 -1.576 4.234
 0.921 -1.576 4.23
 0.941 -1.566 4.197
 0.974 -1.577 4.223
 0.997 -1.574 4.208
 1.018 -1.567 4.183
 1.056 -1.585 4.227
 1.08 -1.583 4.214
 1.109 -1.587 4.218
 1.132 -1.583 4.202
 1.161 -1.587 4.207
 1.197 -1.601 4.236
 1.217 -1.593 4.208
 1.251 -1.602 4.227
 1.27 -1.593 4.195
 1.301 -1.6 4.207
 1.333 -1.607 4.217
 1.351 -1.597 4.182
 1.374 -1.594 4.167
 1.411 -1.607 4.192
 1.44 -1.609 4.19
 1.461 -1.604 4.168
 1.491 -1.608 4.171
 1.511 -1.601 4.144
 1.546 -1.611 4.161
 1.575 -1.613 4.158
 1.6 -1.612 4.145
 1.631 -1.617 4.149
 1.652 -1.611 4.125
 1.682 -1.615 4.125
 1.704 -1.611 4.104
 1.733 -1.614 4.101
 1.756 -1.611 4.083
 1.795 -1.623 4.102
 1.809 -1.612 4.064
 1.838 -1.614 4.058
 1.85 -1.602 4.017
 1.884 -1.608 4.022
 1.873 -1.578 3.934
 1.888 -1.568 3.899
 1.902 -1.559 3.866
 1.873 -1.515 3.745
 1.92 -1.533 3.778
 1.892 -1.491 3.662
 0 0 0
 0 0 0
 0 0 0
 0 0 0
 0 0 0
 0 0 0
 0 0 0
 1.839 -1.315 3.143
 1.851 -1.309 3.117
 1.854 -1.296 3.076
 1.828 -1.264 2.987
 -2.371 -1.63 4.024
 -2.32 -1.613 3.997
 -2.294 -1.614 4.012
 -2.252 -1.604 3.999
 -2.248 -1.621 4.055
 -2.207 -1.611 4.043
 -2.181 -1.612 4.057
 -2.16 -1.616 4.081
 -2.123 -1.609 4.075
 -2.108 -1.618 4.111
 -2.071 -1.611 4.104
 -2.06 -1.624 4.149
 -2.023 -1.616 4.14
 -1.988 -1.61 4.136
 -1.968 -1.616 4.163
 -1.93 -1.608 4.151
 -1.913 -1.616 4.183
 -1.864 -1.598 4.146
 -1.862 -1.619 4.213
 -1.829 -1.615 4.211
 -1.786 -1.6 4.183
 -1.77 -1.61 4.219
 -1.725 -1.594 4.186
 -1.705 -1.6 4.212
 -1.672 -1.595 4.207
 -1.655 -1.605 4.242
 -1.616 -1.593 4.22
 -1.59 -1.593 4.229
 -1.566 -1.597 4.247
 -1.53 -1.587 4.229
 -1.511 -1.595 4.259
 -1.486 -1.598 4.273
 -1.441 -1.578 4.229
 -1.416 -1.58 4.241
 -1.402 -1.595 4.288
 -1.366 -1.584 4.266
 -1.351 -1.598 4.31
 -1.315 -1.587 4.287
 -1.281 -1.578 4.27
 -1.245 -1.566 4.245
 -1.227 -1.577 4.281
 -1.196 -1.572 4.272
 -1.18 -1.586 4.316
 -1.142 -1.569 4.277
 -1.107 -1.558 4.251
 -1.091 -1.573 4.298
 -1.051 -1.553 4.25
 -1.025 -1.552 4.252
 -1.005 -1.563 4.286
 -0.977 -1.561 4.284
 -0.948 -1.555 4.275
 -0.924 -1.559 4.288
 -0.896 -1.556 4.285
 -0.866 -1.549 4.27
 -0.842 -1.554 4.287
 -0.813 -1.547 4.274
 -0.789 -1.552 4.29
 -0.763 -1.552 4.293
 -0.737 -1.552 4.298
 -0.707 -1.543 4.276
 -0.683 -1.549 4.294
 -0.653 -1.539 4.272
 -0.627 -1.539 4.273
 -0.602 -1.54 4.278
 -0.574 -1.534 4.265
 -0.548 -1.534 4.266
 -0.524 -1.538 4.282
 -0.497 -1.537 4.28
 -0.47 -1.531 4.265
 -0.444 -1.531 4.267
 -0.419 -1.533 4.275
 -0.393 -1.532 4.273
 -0.367 -1.53 4.27
 -0.342 -1.532 4.276
 -0.315 -1.527 4.265
 -0.29 -1.529 4.27
 -0.265 -1.536 4.291
 -0.239 -1.53 4.275
 -0.212 -1.522 4.253
 -0.187 -1.528 4.271
 -0.162 -1.53 4.279
 -0.136 -1.525 4.263
 -0.111 -1.532 4.284
 -0.085 -1.529 4.276
 -0.059 -1.528 4.273
 -0.034 -1.529 4.276
 -0.008 -1.531 4.281
 0.016 -1.525 4.263
 0.042 -1.524 4.26
 0.067 -1.521 4.251
 0.093 -1.522 4.252
 0.119 -1.528 4.27
 0.144 -1.527 4.267
 0.17 -1.528 4.267
 0.196 -1.533 4.28
 0.22 -1.526 4.258
 0.247 -1.53 4.27
 0.271 -1.523 4.246
 0.297 -1.528 4.259
 0.324 -1.534 4.274
 0.348 -1.527 4.253
 0.373 -1.527 4.25
 0.4 -1.53 4.257
 0.424 -1.526 4.244
 0.453 -1.538 4.275
 0.476 -1.527 4.242
 0.503 -1.535 4.26
 0.527 -1.53 4.242
 0.555 -1.535 4.254
 0.576 -1.523 4.217
 0.608 -1.541 4.265
 0.634 -1.542 4.263
 0.655 -1.531 4.231
 0.688 -1.546 4.268
 0.71 -1.539 4.243
 0.736 -1.54 4.242
 0.763 -1.542 4.245
 0.784 -1.534 4.219
 0.815 -1.545 4.243
 0.844 -1.549 4.251
 0.87 -1.551 4.25
 0.891 -1.541 4.22
 0.922 -1.551 4.241
 0.943 -1.544 4.216
 0.974 -1.551 4.231
 1.004 -1.558 4.245
 1.032 -1.561 4.246
 1.051 -1.551 4.214
 1.078 -1.553 4.212
 1.106 -1.556 4.214
 1.134 -1.559 4.216
 1.162 -1.561 4.216
 1.192 -1.567 4.224
 1.216 -1.564 4.211
 1.241 -1.563 4.201
 1.273 -1.571 4.214
 1.299 -1.571 4.206
 1.33 -1.577 4.215
 1.365 -1.588 4.237
 1.387 -1.582 4.215
 1.409 -1.577 4.193
 1.443 -1.586 4.208
 1.469 -1.586 4.201
 1.496 -1.586 4.192
 1.524 -1.588 4.188
 1.558 -1.596 4.2
 1.592 -1.604 4.211
 1.613 -1.598 4.186
 1.637 -1.596 4.172
 1.667 -1.599 4.17
 1.693 -1.599 4.161
 1.736 -1.614 4.191
 1.749 -1.601 4.146
 1.777 -1.603 4.141
 1.79 -1.591 4.098
 1.821 -1.595 4.099
 1.854 -1.601 4.102
 1.864 -1.587 4.056
 1.894 -1.59 4.053
 1.879 -1.556 3.954
 1.894 -1.548 3.921
 1.891 -1.524 3.851
 1.893 -1.506 3.793
 1.913 -1.502 3.772
 0 0 0
 0 0 0
 0 0 0
 0 0 0
 0 0 0
 0 0 0
 0 0 0
 0 0 0
 1.847 -1.299 3.164
 1.872 -1.302 3.16
 1.846 -1.269 3.069
 1.843 -1.253 3.019
 -2.384 -1.611 4.055
 -2.361 -1.614 4.077
 0 0 0
 -2.291 -1.604 4.079
 -2.278 -1.614 4.118
 -2.254 -1.617 4.139
 -2.191 -1.592 4.086
 -2.184 -1.607 4.138
 -2.166 -1.614 4.168
 -2.141 -1.616 4.187
 -2.1 -1.606 4.172
 -2.064 -1.599 4.166
 -2.038 -1.601 4.181
 -2.015 -1.605 4.202
 -1.99 -1.607 4.219
 -1.955 -1.601 4.215
 -1.934 -1.606 4.239
 -1.897 -1.598 4.229
 -1.884 -1.611 4.274
 -1.848 -1.604 4.264
 -1.793 -1.58 4.211
 -1.799 -1.609 4.299
 -1.757 -1.597 4.274
 -1.727 -1.594 4.277
 -1.702 -1.596 4.292
 -1.665 -1.588 4.278
 -1.642 -1.591 4.296
 -1.603 -1.58 4.275
 -1.567 -1.571 4.26
 -1.538 -1.569 4.262
 -1.522 -1.581 4.301
 -1.492 -1.578 4.301
 -1.462 -1.575 4.301
 -1.427 -1.566 4.284
 -1.407 -1.574 4.313
 -1.371 -1.563 4.291
 -1.341 -1.56 4.289
 -1.321 -1.567 4.316
 -1.287 -1.559 4.3
 -1.252 -1.548 4.276
 -1.223 -1.545 4.274
 -1.206 -1.558 4.317
 -1.175 -1.553 4.307
 -1.14 -1.541 4.282
 -1.11 -1.536 4.272
 -1.089 -1.544 4.299
 -1.053 -1.53 4.267
 -1.03 -1.535 4.285
 -1.008 -1.541 4.306
 -0.977 -1.533 4.289
 -0.947 -1.527 4.277
 -0.922 -1.53 4.29
 -0.893 -1.526 4.282
 -0.869 -1.528 4.293
 -0.835 -1.514 4.257
 -0.81 -1.515 4.265
 -0.788 -1.523 4.29
 -0.756 -1.511 4.261
 -0.736 -1.523 4.298
 -0.704 -1.511 4.268
 -0.679 -1.513 4.275
 -0.651 -1.507 4.262
 -0.631 -1.523 4.309
 -0.599 -1.507 4.268
 -0.576 -1.514 4.288
 -0.548 -1.508 4.274
 -0.523 -1.511 4.285
 -0.497 -1.511 4.287
 -0.472 -1.513 4.295
 -0.445 -1.508 4.282
 -0.42 -1.511 4.295
 -0.392 -1.502 4.27
 -0.364 -1.494 4.249
 -0.342 -1.51 4.296
 -0.317 -1.513 4.306
 -0.289 -1.5 4.268
 -0.265 -1.51 4.298
 -0.239 -1.505 4.285
 -0.213 -1.506 4.29
 -0.186 -1.498 4.265
 -0.161 -1.498 4.266
 -0.135 -1.497 4.266
 -0.11 -1.495 4.259
 -0.085 -1.503 4.283
 -0.059 -1.501 4.277
 -0.033 -1.501 4.275
 -0.008 -1.489 4.243
 0.016 -1.494 4.257
 0.042 -1.501 4.276
 0.067 -1.496 4.262
 0.093 -1.501 4.275
 0.118 -1.495 4.255
 0.143 -1.491 4.244
 0.169 -1.493 4.247
 0.194 -1.494 4.249
 0.22 -1.494 4.248
 0.245 -1.496 4.253
 0.272 -1.504 4.275
 0.297 -1.502 4.267
 0.322 -1.498 4.254
 0.345 -1.489 4.224
 0.373 -1.5 4.254
 0.401 -1.507 4.272
 0.425 -1.504 4.261
 0.452 -1.507 4.267
 0.475 -1.498 4.239
 0.501 -1.501 4.246
 0.527 -1.503 4.246
 0.553 -1.504 4.247
 0.58 -1.507 4.253
 0.606 -1.509 4.255
 0.628 -1.5 4.227
 0.657 -1.51 4.25
 0.684 -1.512 4.252
 0.708 -1.509 4.24
 0.732 -1.506 4.229
 0.761 -1.513 4.243
 0.786 -1.511 4.233
 0.812 -1.511 4.23
 0.844 -1.524 4.26
 0.864 -1.513 4.226
 0.899 -1.53 4.267
 0.92 -1.521 4.238
 0.951 -1.53 4.257
 0.97 -1.519 4.221
 1.006 -1.535 4.259
 1.028 -1.529 4.239
 1.058 -1.536 4.251
 1.088 -1.542 4.261
 1.114 -1.541 4.253
 1.134 -1.533 4.225
 1.161 -1.534 4.22
 1.197 -1.547 4.25
 1.223 -1.547 4.243
 1.25 -1.549 4.241
 1.275 -1.547 4.228
 1.298 -1.543 4.211
 1.332 -1.552 4.229
 1.356 -1.551 4.217
 1.39 -1.559 4.233
 1.416 -1.559 4.224
 1.444 -1.56 4.219
 1.468 -1.558 4.205
 1.497 -1.561 4.204
 1.527 -1.565 4.206
 1.553 -1.565 4.196
 1.579 -1.564 4.186
 1.618 -1.577 4.21
 1.645 -1.577 4.202
 1.669 -1.574 4.185
 1.708 -1.586 4.205
 1.732 -1.583 4.188
 1.75 -1.576 4.159
 1.778 -1.577 4.151
 1.82 -1.591 4.178
 1.837 -1.582 4.144
 1.858 -1.578 4.121
 1.869 -1.565 4.076
 1.861 -1.536 3.991
 1.881 -1.531 3.967
 1.889 -1.518 3.92
 1.902 -1.507 3.882
 1.864 -1.458 3.742
 0 0 0
 0 0 0
 0 0 0
 0 0 0
 0 0 0
 0 0 0
 0 0 0
 0 0 0
 0 0 0
 1.841 -1.273 3.162
 1.876 -1.283 3.175
 1.869 -1.264 3.115
 1.859 -1.243 3.053
 -2.431 -1.614 4.146
 -2.366 -1.59 4.097
 -2.381 -1.619 4.186
 -2.333 -1.605 4.163
 -2.303 -1.604 4.174
 -2.263 -1.596 4.166
 -2.254 -1.609 4.213
 -2.222 -1.607 4.22
 -2.171 -1.59 4.188
 -2.151 -1.596 4.216
 -2.128 -1.599 4.237
 -2.095 -1.596 4.238
 -2.065 -1.594 4.247
 -2.034 -1.592 4.251
 -1.997 -1.585 4.244
 -1.968 -1.584 4.252
 -1.933 -1.578 4.247
 -1.915 -1.586 4.279
 -1.895 -1.593 4.308
 -1.85 -1.578 4.278
 -1.828 -1.582 4.3
 -1.794 -1.578 4.297
 -1.76 -1.571 4.29
 -1.743 -1.582 4.327
 -1.696 -1.564 4.287
 -1.67 -1.565 4.299
 -1.638 -1.56 4.295
 -1.615 -1.564 4.315
 -1.576 -1.553 4.293
 -1.548 -1.553 4.299
 -1.511 -1.542 4.277
 -1.492 -1.551 4.311
 -1.459 -1.545 4.301
 -1.436 -1.548 4.318
 -1.4 -1.539 4.299
 -1.375 -1.541 4.313
 -1.337 -1.528 4.283
 -1.312 -1.531 4.297
 -1.283 -1.527 4.293
 -1.254 -1.524 4.293
 -1.227 -1.524 4.297
 -1.192 -1.514 4.274
 -1.178 -1.529 4.324
 -1.135 -1.507 4.268
 -1.119 -1.522 4.315
 -1.088 -1.515 4.302
 -1.058 -1.51 4.292
 -1.027 -1.504 4.279
 -1.005 -1.511 4.304
 -0.975 -1.504 4.289
 -0.943 -1.496 4.271
 -0.922 -1.504 4.3
 -0.896 -1.504 4.302
 -0.868 -1.501 4.299
 -0.842 -1.501 4.301
 -0.815 -1.499 4.301
 -0.785 -1.492 4.284
 -0.761 -1.496 4.299
 -0.732 -1.491 4.287
 -0.705 -1.489 4.285
 -0.676 -1.482 4.268
 -0.65 -1.481 4.269
 -0.623 -1.478 4.261
 -0.599 -1.48 4.272
 -0.575 -1.486 4.292
 -0.548 -1.482 4.282
 -0.52 -1.478 4.272
 -0.496 -1.481 4.282
 -0.471 -1.485 4.298
 -0.447 -1.489 4.309
 -0.418 -1.479 4.282
 -0.391 -1.473 4.267
 -0.368 -1.483 4.298
 -0.341 -1.479 4.288
 -0.316 -1.484 4.304
 -0.289 -1.476 4.281
 -0.262 -1.468 4.258
 -0.238 -1.474 4.277
 -0.213 -1.48 4.296
 -0.187 -1.477 4.287
 -0.161 -1.475 4.281
 -0.136 -1.483 4.305
 -0.11 -1.471 4.272
 -0.084 -1.468 4.263
 -0.059 -1.467 4.26
 -0.033 -1.47 4.269
 -0.008 -1.475 4.283
 0.017 -1.473 4.277
 0.042 -1.471 4.271
 0.067 -1.464 4.248
 0.092 -1.46 4.235
 0.118 -1.467 4.256
 0.144 -1.47 4.264
 0.168 -1.463 4.243
 0.196 -1.479 4.286
 0.221 -1.476 4.278
 0.247 -1.48 4.288
 0.273 -1.48 4.286
 0.297 -1.476 4.271
 0.32 -1.462 4.23
 0.347 -1.468 4.246
 0.371 -1.465 4.233
 0.397 -1.467 4.237
 0.42 -1.46 4.216
 0.451 -1.479 4.268
 0.475 -1.474 4.25
 0.504 -1.484 4.276
 0.528 -1.48 4.262
 0.556 -1.485 4.274
 0.579 -1.48 4.255
 0.608 -1.487 4.273
 0.632 -1.484 4.26
 0.656 -1.481 4.249
 0.683 -1.484 4.254
 0.709 -1.486 4.254
 0.737 -1.489 4.26
 0.762 -1.488 4.252
 0.784 -1.482 4.231
 0.816 -1.493 4.259
 0.84 -1.491 4.248
 0.871 -1.5 4.27
 0.894 -1.496 4.252
 0.921 -1.498 4.252
 0.94 -1.487 4.216
 0.976 -1.502 4.256
 0.997 -1.495 4.229
 1.02 -1.491 4.213
 1.06 -1.511 4.264
 1.078 -1.5 4.226
 1.113 -1.513 4.257
 1.135 -1.507 4.234
 1.159 -1.505 4.222
 1.194 -1.518 4.25
 1.221 -1.518 4.244
 1.239 -1.509 4.211
 1.269 -1.513 4.217
 1.3 -1.519 4.225
 1.329 -1.522 4.227
 1.357 -1.524 4.225
 1.377 -1.518 4.2
 1.413 -1.528 4.22
 1.442 -1.532 4.222
 1.464 -1.528 4.202
 1.507 -1.545 4.241
 1.529 -1.54 4.22
 1.557 -1.542 4.216
 1.587 -1.545 4.214
 1.618 -1.55 4.218
 1.639 -1.544 4.193
 1.666 -1.545 4.186
 1.704 -1.555 4.203
 1.73 -1.554 4.192
 1.76 -1.558 4.192
 1.78 -1.552 4.164
 1.809 -1.554 4.16
 1.839 -1.557 4.157
 1.858 -1.55 4.128
 1.872 -1.54 4.091
 1.87 -1.518 4.019
 1.899 -1.52 4.014
 1.894 -1.496 3.938
 1.919 -1.495 3.926
 0 0 0
 0 0 0
 0 0 0
 0 0 0
 0 0 0
 0 0 0
 0 0 0
 0 0 0
 0 0 0
 0 0 0
 1.856 -1.262 3.195
 1.864 -1.253 3.16
 1.84 -1.223 3.074
 1.851 -1.216 3.045
 -2.478 -1.617 4.236
 -2.435 -1.607 4.225
 -2.391 -1.597 4.213
 -2.376 -1.607 4.251
 -2.328 -1.593 4.229
 -2.302 -1.595 4.247
 -2.268 -1.591 4.25
 -2.239 -1.591 4.262
 -2.209 -1.59 4.271
 -2.179 -1.588 4.28
 -2.175 -1.607 4.342
 -2.127 -1.592 4.314
 -2.084 -1.581 4.295
 -2.058 -1.583 4.312
 -2.02 -1.575 4.302
 -1.988 -1.572 4.305
 -1.967 -1.578 4.331
 -1.921 -1.564 4.303
 -1.899 -1.568 4.327
 -1.851 -1.552 4.291
 -1.821 -1.549 4.293
 -1.792 -1.548 4.3
 -1.76 -1.544 4.299
 -1.735 -1.547 4.316
 -1.703 -1.542 4.312
 -1.66 -1.529 4.283
 -1.65 -1.545 4.337
 -1.613 -1.535 4.319
 -1.575 -1.525 4.3
 -1.55 -1.527 4.312
 -1.527 -1.532 4.334
 -1.489 -1.52 4.309
 -1.465 -1.523 4.325
 -1.427 -1.512 4.301
 -1.399 -1.511 4.306
 -1.367 -1.505 4.296
 -1.337 -1.502 4.293
 -1.319 -1.512 4.327
 -1.29 -1.509 4.326
 -1.262 -1.507 4.328
 -1.226 -1.496 4.302
 -1.198 -1.495 4.305
 -1.168 -1.49 4.296
 -1.137 -1.485 4.288
 -1.115 -1.491 4.309
 -1.086 -1.486 4.302
 -1.05 -1.473 4.269
 -1.025 -1.475 4.28
 -1.005 -1.485 4.312
 -0.98 -1.486 4.322
 -0.953 -1.485 4.322
 -0.926 -1.484 4.325
 -0.886 -1.461 4.261
 -0.863 -1.466 4.28
 -0.836 -1.465 4.28
 -0.81 -1.465 4.284
 -0.785 -1.467 4.293
 -0.759 -1.466 4.296
 -0.736 -1.473 4.319
 -0.711 -1.474 4.325
 -0.68 -1.464 4.298
 -0.65 -1.455 4.274
 -0.629 -1.466 4.311
 -0.6 -1.459 4.291
 -0.577 -1.466 4.314
 -0.547 -1.454 4.284
 -0.523 -1.461 4.306
 -0.496 -1.455 4.29
 -0.47 -1.454 4.29
 -0.442 -1.449 4.276
 -0.418 -1.454 4.293
 -0.393 -1.455 4.296
 -0.367 -1.457 4.304
 -0.341 -1.456 4.302
 -0.315 -1.454 4.298
 -0.289 -1.451 4.292
 -0.263 -1.447 4.279
 -0.236 -1.438 4.255
 -0.212 -1.449 4.287
 -0.186 -1.449 4.288
 -0.16 -1.439 4.258
 -0.135 -1.446 4.281
 -0.109 -1.444 4.275
 -0.084 -1.448 4.286
 -0.059 -1.454 4.305
 -0.033 -1.45 4.291
 -0.008 -1.447 4.284
 0.017 -1.432 4.238
 0.042 -1.441 4.263
 0.068 -1.444 4.272
 0.093 -1.439 4.257
 0.119 -1.448 4.282
 0.144 -1.442 4.264
 0.17 -1.446 4.273
 0.195 -1.443 4.265
 0.219 -1.439 4.251
 0.245 -1.44 4.251
 0.271 -1.444 4.263
 0.297 -1.446 4.267
 0.322 -1.447 4.267
 0.348 -1.448 4.268
 0.373 -1.445 4.259
 0.4 -1.452 4.277
 0.424 -1.448 4.261
 0.451 -1.451 4.267
 0.476 -1.45 4.264
 0.504 -1.459 4.286
 0.525 -1.446 4.244
 0.552 -1.45 4.253
 0.578 -1.452 4.256
 0.603 -1.451 4.25
 0.63 -1.454 4.255
 0.659 -1.461 4.274
 0.678 -1.447 4.229
 0.711 -1.463 4.271
 0.736 -1.462 4.263
 0.761 -1.46 4.255
 0.791 -1.468 4.274
 0.815 -1.466 4.262
 0.841 -1.465 4.256
 0.864 -1.461 4.239
 0.893 -1.467 4.252
 0.921 -1.471 4.26
 0.948 -1.474 4.26
 0.971 -1.469 4.241
 0.994 -1.464 4.222
 1.027 -1.475 4.248
 1.052 -1.475 4.242
 1.083 -1.481 4.253
 1.112 -1.485 4.259
 1.136 -1.483 4.246
 1.159 -1.48 4.231
 1.186 -1.481 4.229
 1.218 -1.488 4.242
 1.247 -1.492 4.246
 1.273 -1.492 4.238
 1.302 -1.495 4.24
 1.328 -1.495 4.232
 1.354 -1.495 4.225
 1.381 -1.496 4.221
 1.417 -1.506 4.24
 1.442 -1.505 4.229
 1.472 -1.509 4.231
 1.494 -1.504 4.21
 1.523 -1.508 4.211
 1.555 -1.513 4.217
 1.585 -1.516 4.218
 1.611 -1.516 4.207
 1.642 -1.52 4.21
 1.665 -1.517 4.192
 1.701 -1.526 4.205
 1.728 -1.526 4.196
 1.749 -1.521 4.172
 1.786 -1.53 4.187
 1.815 -1.532 4.183
 1.841 -1.531 4.169
 1.851 -1.518 4.121
 1.866 -1.509 4.086
 1.883 -1.502 4.056
 1.89 -1.486 4.002
 1.924 -1.493 4.009
 0 0 0
 0 0 0
 0 0 0
 0 0 0
 0 0 0
 0 0 0
 0 0 0
 0 0 0
 0 0 0
 0 0 0
 0 0 0
 1.75 -1.17 3.019
 1.866 -1.232 3.171
 1.866 -1.218 3.124
 1.865 -1.204 3.076
 0 0 0
 -2.473 -1.603 4.302
 -2.432 -1.596 4.295
 -2.444 -1.623 4.383
 -2.367 -1.591 4.31
 -2.314 -1.575 4.278
 -2.303 -1.587 4.326
 -2.273 -1.586 4.336
 -2.244 -1.586 4.348
 -2.198 -1.574 4.328
 -2.166 -1.572 4.333
 -2.118 -1.557 4.304
 -2.098 -1.564 4.335
 -2.045 -1.545 4.293
 -2.024 -1.55 4.32
 -1.989 -1.545 4.316
 -1.951 -1.538 4.306
 -1.942 -1.552 4.359
 -1.89 -1.533 4.315
 -1.86 -1.531 4.319
 -1.821 -1.522 4.304
 -1.799 -1.527 4.327
 -1.767 -1.523 4.325
 -1.74 -1.524 4.337
 -1.703 -1.515 4.322
 -1.673 -1.513 4.324
 -1.64 -1.508 4.32
 -1.61 -1.506 4.321
 -1.576 -1.499 4.311
 -1.548 -1.498 4.316
 -1.518 -1.495 4.315
 -1.491 -1.495 4.323
 -1.464 -1.496 4.333
 -1.416 -1.474 4.277
 -1.396 -1.482 4.305
 -1.362 -1.474 4.29
 -1.349 -1.488 4.34
 -1.319 -1.485 4.336
 -1.282 -1.474 4.309
 -1.258 -1.477 4.326
 -1.229 -1.474 4.323
 -1.191 -1.46 4.289
 -1.172 -1.469 4.32
 -1.143 -1.466 4.318
 -1.114 -1.463 4.314
 -1.085 -1.46 4.309
 -1.058 -1.458 4.309
 -1.027 -1.452 4.297
 -1.005 -1.458 4.318
 -0.972 -1.449 4.296
 -0.946 -1.449 4.301
 -0.92 -1.448 4.304
 -0.896 -1.452 4.318
 -0.865 -1.445 4.302
 -0.837 -1.441 4.293
 -0.811 -1.441 4.297
 -0.783 -1.437 4.29
 -0.761 -1.445 4.317
 -0.733 -1.441 4.308
 -0.705 -1.436 4.297
 -0.68 -1.438 4.306
 -0.653 -1.436 4.303
 -0.624 -1.428 4.282
 -0.599 -1.43 4.291
 -0.572 -1.428 4.286
 -0.544 -1.421 4.267
 -0.521 -1.429 4.294
 -0.493 -1.422 4.274
 -0.47 -1.43 4.3
 -0.444 -1.43 4.304
 -0.416 -1.422 4.28
 -0.392 -1.427 4.298
 -0.365 -1.421 4.28
 -0.34 -1.425 4.296
 -0.316 -1.432 4.316
 -0.29 -1.429 4.308
 -0.263 -1.421 4.286
 -0.237 -1.418 4.278
 -0.211 -1.417 4.276
 -0.186 -1.419 4.283
 -0.161 -1.429 4.312
 -0.134 -1.407 4.245
 -0.109 -1.415 4.269
 -0.084 -1.416 4.274
 -0.059 -1.422 4.292
 -0.033 -1.417 4.276
 -0.007 -1.418 4.279
 0.017 -1.419 4.283
 0.043 -1.427 4.305
 0.067 -1.41 4.254
 0.093 -1.415 4.267
 0.119 -1.424 4.295
 0.144 -1.414 4.262
 0.17 -1.419 4.277
 0.194 -1.41 4.248
 0.22 -1.415 4.262
 0.248 -1.431 4.308
 0.272 -1.421 4.276
 0.295 -1.414 4.253
 0.323 -1.424 4.281
 0.346 -1.416 4.255
 0.373 -1.418 4.261
 0.4 -1.427 4.285
 0.425 -1.424 4.275
 0.449 -1.42 4.261
 0.473 -1.417 4.247
 0.503 -1.429 4.28
 0.523 -1.414 4.234
 0.55 -1.418 4.242
 0.58 -1.429 4.273
 0.604 -1.426 4.259
 0.628 -1.423 4.248
 0.659 -1.435 4.28
 0.682 -1.43 4.262
 0.709 -1.432 4.264
 0.733 -1.43 4.252
 0.763 -1.438 4.272
 0.786 -1.434 4.256
 0.814 -1.437 4.261
 0.836 -1.432 4.242
 0.865 -1.437 4.253
 0.89 -1.436 4.243
 0.917 -1.438 4.245
 0.942 -1.437 4.238
 0.971 -1.443 4.249
 0.993 -1.437 4.227
 1.025 -1.447 4.249
 1.051 -1.447 4.243
 1.077 -1.447 4.238
 1.101 -1.445 4.226
 1.137 -1.458 4.257
 1.155 -1.448 4.223
 1.185 -1.453 4.232
 1.218 -1.462 4.251
 1.25 -1.469 4.264
 1.27 -1.461 4.234
 1.293 -1.459 4.22
 1.324 -1.464 4.226
 1.354 -1.468 4.231
 1.379 -1.467 4.222
 1.414 -1.477 4.241
 1.445 -1.482 4.246
 1.467 -1.477 4.227
 1.497 -1.481 4.227
 1.529 -1.487 4.236
 1.568 -1.499 4.262
 1.586 -1.49 4.228
 1.619 -1.496 4.235
 1.649 -1.5 4.237
 1.663 -1.488 4.194
 1.702 -1.499 4.215
 1.724 -1.495 4.194
 1.759 -1.503 4.205
 1.786 -1.503 4.195
 1.809 -1.5 4.176
 1.842 -1.505 4.181
 1.86 -1.498 4.15
 1.877 -1.491 4.118
 1.882 -1.474 4.06
 1.9 -1.468 4.031
 0 0 0
 0 0 0
 0 0 0
 0 0 0
 0 0 0
 0 0 0
 0 0 0
 0 0 0
 0 0 0
 0 0 0
 0 0 0
 0 0 0
 1.805 -1.185 3.122
 1.861 -1.207 3.169
 1.897 -1.217 3.183
 1.864 -1.183 3.082
 -2.516 -1.583 4.321
 -2.475 -1.575 4.314
 -2.446 -1.576 4.33
 -2.421 -1.579 4.352
 -2.386 -1.575 4.354
 -2.326 -1.554 4.311
 -2.284 -1.545 4.298
 -2.275 -1.559 4.35
 -2.24 -1.555 4.35
 -2.199 -1.546 4.339
 -2.167 -1.544 4.345
 -2.117 -1.528 4.312
 -2.09 -1.529 4.327
 -2.051 -1.521 4.315
 -2.017 -1.517 4.315
 -1.985 -1.514 4.317
 -1.962 -1.518 4.339
 -1.924 -1.51 4.327
 -1.901 -1.514 4.349
 -1.864 -1.507 4.339
 -1.821 -1.494 4.312
 -1.787 -1.489 4.306
 -1.763 -1.492 4.326
 -1.731 -1.488 4.323
 -1.702 -1.487 4.329
 -1.668 -1.481 4.32
 -1.643 -1.483 4.335
 -1.611 -1.479 4.331
 -1.573 -1.469 4.311
 -1.552 -1.475 4.337
 -1.518 -1.469 4.326
 -1.492 -1.469 4.334
 -1.454 -1.459 4.311
 -1.428 -1.46 4.32
 -1.403 -1.462 4.334
 -1.37 -1.455 4.321
 -1.34 -1.452 4.318
 -1.31 -1.448 4.313
 -1.279 -1.444 4.308
 -1.256 -1.448 4.326
 -1.226 -1.444 4.321
 -1.191 -1.434 4.297
 -1.177 -1.449 4.347
 -1.14 -1.436 4.314
 -1.109 -1.43 4.3
 -1.084 -1.431 4.311
 -1.055 -1.428 4.305
 -1.03 -1.43 4.317
 -1.002 -1.427 4.313
 -0.971 -1.421 4.299
 -0.941 -1.414 4.283
 -0.923 -1.427 4.326
 -0.892 -1.42 4.309
 -0.866 -1.421 4.315
 -0.836 -1.414 4.299
 -0.808 -1.41 4.289
 -0.783 -1.412 4.3
 -0.761 -1.419 4.324
 -0.727 -1.404 4.282
 -0.7 -1.401 4.277
 -0.676 -1.405 4.29
 -0.65 -1.404 4.292
 -0.626 -1.408 4.306
 -0.596 -1.399 4.282
 -0.574 -1.406 4.307
 -0.547 -1.403 4.298
 -0.523 -1.408 4.315
 -0.492 -1.395 4.277
 -0.469 -1.401 4.298
 -0.444 -1.403 4.308
 -0.416 -1.397 4.289
 -0.388 -1.389 4.268
 -0.363 -1.39 4.271
 -0.339 -1.397 4.294
 -0.315 -1.403 4.313
 -0.288 -1.396 4.292
 -0.262 -1.392 4.282
 -0.236 -1.392 4.282
 -0.212 -1.401 4.311
 -0.185 -1.392 4.285
 -0.16 -1.391 4.282
 -0.134 -1.39 4.279
 -0.11 -1.4 4.311
 -0.083 -1.386 4.267
 -0.058 -1.394 4.29
 -0.032 -1.381 4.252
 -0.007 -1.388 4.272
 0.017 -1.393 4.287
 0.042 -1.38 4.246
 0.068 -1.387 4.267
 0.092 -1.378 4.238
 0.118 -1.382 4.25
 0.144 -1.39 4.273
 0.168 -1.378 4.237
 0.194 -1.386 4.26
 0.221 -1.396 4.289
 0.245 -1.389 4.266
 0.273 -1.402 4.303
 0.294 -1.383 4.243
 0.321 -1.388 4.257
 0.344 -1.38 4.231
 0.374 -1.396 4.279
 0.397 -1.389 4.253
 0.421 -1.385 4.239
 0.446 -1.384 4.233
 0.474 -1.392 4.257
 0.502 -1.4 4.277
 0.526 -1.396 4.263
 0.552 -1.398 4.265
 0.578 -1.398 4.264
 0.609 -1.411 4.298
 0.629 -1.399 4.26
 0.653 -1.397 4.248
 0.679 -1.397 4.247
 0.707 -1.403 4.259
 0.733 -1.403 4.255
 0.762 -1.411 4.276
 0.78 -1.397 4.23
 0.808 -1.4 4.236
 0.835 -1.404 4.241
 0.864 -1.41 4.255
 0.896 -1.42 4.281
 0.916 -1.411 4.248
 0.944 -1.414 4.254
 0.972 -1.418 4.26
 0.998 -1.418 4.255
 1.025 -1.42 4.253
 1.048 -1.416 4.238
 1.077 -1.421 4.246
 1.113 -1.433 4.277
 1.137 -1.432 4.266
 1.163 -1.432 4.259
 1.183 -1.425 4.232
 1.216 -1.432 4.248
 1.235 -1.425 4.22
 1.267 -1.432 4.232
 1.299 -1.438 4.244
 1.325 -1.438 4.237
 1.35 -1.438 4.228
 1.379 -1.441 4.229
 1.409 -1.444 4.231
 1.444 -1.454 4.251
 1.472 -1.455 4.247
 1.498 -1.455 4.237
 1.526 -1.457 4.234
 1.556 -1.46 4.235
 1.585 -1.462 4.233
 1.624 -1.474 4.257
 1.645 -1.469 4.233
 1.674 -1.471 4.229
 1.699 -1.47 4.216
 1.721 -1.466 4.194
 1.757 -1.474 4.207
 1.781 -1.472 4.191
 1.82 -1.482 4.21
 1.849 -1.484 4.205
 1.869 -1.478 4.178
 1.88 -1.466 4.132
 1.901 -1.462 4.109
 0 0 0
 0 0 0
 0 0 0
 0 0 0
 0 0 0
 0 0 0
 0 0 0
 0 0 0
 0 0 0
 0 0 0
 0 0 0
 0 0 0
 0 0 0
 0 0 0
 1.859 -1.185 3.173
 1.888 -1.19 3.175
 1.866 -1.163 3.092
 -2.541 -1.569 4.374
 -2.479 -1.549 4.332
 -2.456 -1.554 4.358
 -2.423 -1.551 4.365
 -2.391 -1.549 4.373
 -2.333 -1.531 4.334
 -2.303 -1.53 4.345
 -2.273 -1.529 4.356
 -2.233 -1.521 4.346
 -2.187 -1.509 4.324
 -2.173 -1.52 4.366
 -2.115 -1.499 4.317
 -2.091 -1.502 4.338
 -2.047 -1.491 4.317
 -2.01 -1.484 4.309
 -1.999 -1.497 4.357
 -1.958 -1.487 4.34
 -1.918 -1.478 4.322
 -1.894 -1.48 4.341
 -1.863 -1.479 4.345
 -1.811 -1.459 4.298
 -1.794 -1.468 4.333
 -1.763 -1.465 4.335
 -1.732 -1.462 4.335
 -1.709 -1.466 4.355
 -1.662 -1.449 4.313
 -1.638 -1.452 4.332
 -1.604 -1.446 4.321
 -1.576 -1.446 4.329
 -1.556 -1.451 4.354
 -1.505 -1.43 4.296
 -1.485 -1.436 4.325
 -1.451 -1.429 4.311
 -1.428 -1.433 4.329
 -1.389 -1.421 4.301
 -1.37 -1.428 4.33
 -1.332 -1.417 4.301
 -1.31 -1.422 4.325
 -1.273 -1.411 4.296
 -1.249 -1.413 4.309
 -1.218 -1.408 4.3
 -1.191 -1.407 4.303
 -1.167 -1.41 4.317
 -1.139 -1.408 4.318
 -1.108 -1.403 4.305
 -1.086 -1.408 4.327
 -1.052 -1.399 4.303
 -1.024 -1.395 4.299
 -1 -1.399 4.314
 -0.975 -1.401 4.325
 -0.947 -1.397 4.318
 -0.917 -1.393 4.308
 -0.894 -1.397 4.324
 -0.86 -1.384 4.291
 -0.838 -1.391 4.316
 -0.808 -1.383 4.295
 -0.784 -1.388 4.312
 -0.747 -1.367 4.252
 -0.729 -1.381 4.299
 -0.694 -1.364 4.247
 -0.674 -1.375 4.286
 -0.649 -1.376 4.29
 -0.624 -1.378 4.301
 -0.601 -1.384 4.322
 -0.571 -1.374 4.294
 -0.541 -1.364 4.263
 -0.52 -1.377 4.306
 -0.498 -1.386 4.336
 -0.468 -1.373 4.298
 -0.437 -1.358 4.254
 0 0 0
 -0.381 -1.337 4.189
 0 0 0
 0 0 0
 -0.315 -1.378 4.324
 -0.285 -1.358 4.262
 -0.262 -1.37 4.3
 -0.237 -1.37 4.3
 -0.212 -1.372 4.308
 -0.186 -1.37 4.301
 -0.16 -1.364 4.284
 -0.133 -1.358 4.264
 -0.109 -1.362 4.277
 -0.083 -1.361 4.275
 -0.058 -1.359 4.268
 -0.032 -1.357 4.261
 -0.007 -1.362 4.278
 0.017 -1.382 4.339
 0 0 0
 0 0 0
 0 0 0
 0 0 0
 0.141 -1.335 4.188
 0 0 0
 0 0 0
 0.217 -1.346 4.218
 0.243 -1.351 4.234
 0.273 -1.377 4.314
 0.295 -1.361 4.262
 0.322 -1.365 4.273
 0.351 -1.381 4.321
 0.373 -1.368 4.278
 0.398 -1.366 4.268
 0.421 -1.358 4.24
 0.452 -1.376 4.295
 0.472 -1.36 4.243
 0.5 -1.367 4.262
 0.525 -1.368 4.261
 0.551 -1.369 4.262
 0.578 -1.373 4.273
 0.601 -1.367 4.248
 0.622 -1.357 4.216
 0.66 -1.385 4.298
 0.677 -1.368 4.243
 0.703 -1.369 4.242
 0.731 -1.374 4.251
 0.757 -1.376 4.254
 0.778 -1.366 4.221
 0.802 -1.366 4.214
 0.834 -1.376 4.242
 0.863 -1.382 4.255
 0.886 -1.378 4.238
 0.921 -1.393 4.278
 0.933 -1.373 4.212
 0.966 -1.384 4.241
 0.998 -1.392 4.26
 1.027 -1.396 4.269
 1.047 -1.389 4.242
 1.081 -1.399 4.267
 1.103 -1.395 4.246
 1.137 -1.405 4.271
 1.158 -1.399 4.248
 1.188 -1.404 4.255
 1.217 -1.407 4.259
 1.241 -1.406 4.247
 1.267 -1.405 4.238
 1.298 -1.411 4.25
 1.321 -1.408 4.231
 1.352 -1.413 4.24
 1.379 -1.415 4.237
 1.413 -1.422 4.251
 1.419 -1.403 4.185
 1.466 -1.423 4.238
 1.502 -1.432 4.256
 1.513 -1.417 4.204
 1.555 -1.432 4.239
 1.576 -1.428 4.218
 1.609 -1.434 4.226
 1.641 -1.439 4.232
 1.67 -1.441 4.228
 1.699 -1.443 4.224
 1.719 -1.438 4.199
 1.75 -1.441 4.199
 1.784 -1.448 4.207
 1.814 -1.45 4.204
